# .PCD v0.7 - Point Cloud Data file format
VERSION 0.7
FIELDS x y z
SIZE 4 4 4
TYPE F F F
COUNT 1 1 1
WIDTH 1204
HEIGHT 1
VIEWPOINT 0 0 0 1 0 0 0
POINTS 1204
DATA ascii
-60.66769802 -23.26319236 3.882405508e-11
-47.22594802 -114.7207793 3.882405508e-11
3.697746411e-05 -212.8583401 215.7881059
-183.19861 -109.1262682 3.882405508e-11
1.482955977 -225.2819597 110.6503286
3.697746411e-05 88.18092144 113.0526405
-23.85596402 -186.1624968 3.882405508e-11
-126.950643 -189.4419387 3.882405508e-11
-1.466214023 225.2819441 -1.93404353
3.697746411e-05 -109.3971319 243.823811
3.697746411e-05 -31.69667106 27.50376102
3.697746411e-05 53.70560954 188.6741041
-223.064278 -225.2819597 137.138107
3.697746411e-05 26.29495804 52.48460058
-64.59691402 149.8266973 3.882405508e-11
3.697746411e-05 174.7415974 154.3038961
-201.190713 26.81408594 3.882405508e-11
-118.492448 68.58920854 3.882405508e-11
-252.432688 -50.89463966 3.882405508e-11
3.697746411e-05 84.29806014 231.2473546
3.697746411e-05 -41.72037586 123.1692448
3.697746411e-05 80.50983924 12.09437668
-212.580844 -225.2819597 47.4849326
3.697746411e-05 -17.10534356 221.8428412
-207.695164 106.8326489 3.882405508e-11
-210.291088 -198.4674652 3.882405508e-11
-147.746548 107.0041438 3.882405508e-11
3.697746411e-05 178.1858977 1.66891044
-252.256817 -225.2819597 22.15876929
3.697746411e-05 187.8008185 83.8546807
3.697746411e-05 19.99631774 99.7576549
-212.092674 -225.2819597 218.0771836
-218.921724 -136.1864057 3.882405508e-11
3.697746411e-05 -95.62178476 19.90257214
3.697746411e-05 118.1409375 72.7558499
3.697746411e-05 -122.8673974 99.5866592
-83.43991502 221.9628385 3.882405508e-11
-121.879629 151.6806973 3.882405508e-11
-68.69327402 -67.81672046 3.882405508e-11
-47.72359102 17.54574814 3.882405508e-11
-76.89642502 -225.2819597 225.5882604
-103.686311 -17.25362476 3.882405508e-11
-158.409184 -225.2819597 149.5464411
3.697746411e-05 -1.421804462 136.1739187
3.697746411e-05 -184.0383272 151.8727863
-28.72304302 -225.2819597 188.8009463
3.697746411e-05 174.2010453 244.1882677
3.697746411e-05 14.20697154 178.6897246
-156.889481 184.0736018 3.882405508e-11
-202.001115 -19.69394266 3.882405508e-11
-150.324757 -43.89627436 3.882405508e-11
3.697746411e-05 -169.544994 64.500633
3.697746411e-05 114.1692209 32.72308485
-141.036511 -225.2819597 88.7765237
-128.059528 -225.2819597 33.25801316
3.697746411e-05 212.0867724 209.9643985
3.697746411e-05 76.74991194 153.9343726
3.697746411e-05 -65.16256746 166.6170159
-149.913445 -88.94806166 3.882405508e-11
-145.100102 36.47864484 3.882405508e-11
3.697746411e-05 -128.2857423 138.7574246
3.697746411e-05 -199.8879451 252.1686652
-171.784974 -225.2819597 210.7468555
3.697746411e-05 -178.8343695 197.3577842
-30.63484402 -225.2819597 38.06451316
-89.53814902 -108.9119833 3.882405508e-11
-72.27320402 -225.2819597 43.49704308
3.697746411e-05 -53.58112766 209.859006
-22.54278802 -17.93320526 3.882405508e-11
3.697746411e-05 -136.7500383 209.1367479
-42.91248502 -153.5217062 3.882405508e-11
-85.99278002 -225.2819597 100.7993814
0.1661919775 -225.2819597 73.1953301
3.697746411e-05 -57.35068056 88.3301759
3.697746411e-05 123.1414687 214.2747405
-81.34096202 183.0047891 3.882405508e-11
-218.081958 -79.49836376 3.882405508e-11
-99.05674002 -225.2819597 152.4258048
-96.53708002 -214.5932818 3.882405508e-11
-80.98232602 81.81367674 3.882405508e-11
-142.132441 -225.2819597 231.4560204
-51.18667102 110.3192909 3.882405508e-11
-138.706577 224.4063997 3.882405508e-11
-10.65497002 -124.6032849 3.882405508e-11
3.697746411e-05 -67.17876516 41.8371637
-10.86438802 46.77324234 3.882405508e-11
-19.77665702 -221.8950875 3.882405508e-11
3.697746411e-05 131.8431232 147.3496645
3.697746411e-05 178.3140728 119.7108901
-37.98860902 -225.2819597 155.334977
3.697746411e-05 53.43924084 90.5126094
-250.956065 -225.2819597 56.77403879
3.697746411e-05 195.234065 31.42772085
3.697746411e-05 153.0359557 81.8160282
-219.22278 141.1573188 3.882405508e-11
-80.19829602 -248.2232109 3.882405508e-11
-109.728647 -225.2819597 215.5369379
-202.10144 -165.4830336 3.882405508e-11
-252.049923 91.45652674 3.882405508e-11
-189.440919 192.9159029 3.882405508e-11
3.697746411e-05 -106.8029281 164.6553178
-125.965844 -154.4523692 3.882405508e-11
3.697746411e-05 -125.4338562 66.4278931
-205.099269 -225.2819597 83.3277732
3.697746411e-05 211.0206473 143.3205481
-33.54245602 160.9621899 3.882405508e-11
-43.62688802 -225.2819597 218.9421072
3.697746411e-05 141.1550531 181.5711189
3.697746411e-05 -172.4335694 17.911194
-184.45553 -249.3581399 3.882405508e-11
-63.20292002 -189.879172 3.882405508e-11
-219.698939 207.8229558 3.882405508e-11
-148.268602 -245.7256082 3.882405508e-11
-245.149979 31.17032994 3.882405508e-11
3.697746411e-05 192.81429 181.677293
-182.092322 -225.2819597 30.47361068
-189.773977 -225.2819597 142.8472929
-122.922011 13.32659974 3.882405508e-11
3.697746411e-05 5.229704138 249.8133048
-72.07553002 49.84053814 3.882405508e-11
-250.624401 -225.2819597 212.5340823
-29.52757602 -225.2819597 117.7931152
1.676895977 -47.53776506 3.882405508e-11
-244.014539 -204.315884 3.882405508e-11
3.697746411e-05 147.3771397 13.77983799
-52.26352302 225.2819441 -1.22427001
3.697746411e-05 -86.74461226 104.2426004
-249.946698 -132.3938384 3.882405508e-11
-201.230379 66.61809914 3.882405508e-11
-160.834035 -189.6741224 3.882405508e-11
3.697746411e-05 220.5634405 80.750339
-252.101802 194.8620729 3.882405508e-11
-177.964488 114.1671743 3.882405508e-11
3.697746411e-05 -200.4214868 93.0202516
-159.021782 -127.3874117 3.882405508e-11
-129.389776 -225.2819597 157.033937
-249.418821 163.7964981 3.882405508e-11
3.697746411e-05 54.07035744 41.4128592
-171.730081 -225.2819597 82.9987656
-29.67472602 -249.9717529 3.882405508e-11
-138.235931 -217.7060027 3.882405508e-11
3.697746411e-05 -158.0088961 137.5613524
3.697746411e-05 27.09337454 205.4308534
-99.86286702 -139.7291685 3.882405508e-11
3.697746411e-05 -199.400341 126.8058963
-220.299919 -225.2819597 251.2909905
3.697746411e-05 -200.7820645 10.70737384
3.697746411e-05 103.1975312 141.5088898
3.697746411e-05 82.35489994 194.1369406
-224.12367 -225.2819597 173.5948384
-26.89949402 -93.98555276 3.882405508e-11
-68.92974502 -133.954661 3.882405508e-11
3.697746411e-05 -28.62485816 248.4197774
3.697746411e-05 -82.07541476 230.9596788
-247.621304 -243.2482883 3.882405508e-11
-162.803389 -225.2819597 179.7639771
-223.617242 -50.16696976 3.882405508e-11
-171.564969 -23.59361966 3.882405508e-11
-93.25954002 149.0361275 3.882405508e-11
-86.96679702 -40.53081056 3.882405508e-11
3.697746411e-05 -205.0765374 185.8453556
-251.136685 -225.2819597 142.4867938
-11.37117902 -225.2819597 242.9475279
-173.581666 36.73437224 3.882405508e-11
-28.48393902 90.11093244 3.882405508e-11
3.697746411e-05 -42.61994876 56.22199551
3.697746411e-05 -13.69892166 49.49528269
3.697746411e-05 114.9554048 102.6591708
-72.64075102 -225.2819597 72.2697638
-146.608497 137.9763674 3.882405508e-11
-97.19324602 -225.2819597 26.07573451
-149.249217 -225.2819597 119.7388671
3.697746411e-05 151.4102044 227.6873497
3.697746411e-05 -1.669696962 23.37348173
-204.940124 -225.2819597 12.6845262
-1.541839023 -150.99156 3.882405508e-11
3.697746411e-05 56.98444714 250.6940733
-72.65401802 3.350497338 3.882405508e-11
3.697746411e-05 -111.4880731 42.51207436
3.697746411e-05 105.8471771 1.55960786
-83.71916902 -225.2819597 252.1847819
-58.32233402 -225.2819597 101.6299729
3.697746411e-05 33.84163484 21.45333603
-8.125987023 -225.2819597 136.9038445
-130.733969 -20.02451996 3.882405508e-11
3.697746411e-05 92.38575094 84.2385435
-112.405838 41.06440564 3.882405508e-11
-129.305992 -225.2819597 60.3573734
-110.665644 221.2614508 3.882405508e-11
3.697746411e-05 -187.4410403 228.0875524
3.697746411e-05 56.26509034 118.9420702
-241.326456 -225.2819597 115.6051719
3.697746411e-05 -36.98170256 149.6409594
3.697746411e-05 -74.24937176 2.57025994
-109.373794 -225.2819597 179.6150739
3.697746411e-05 198.2464699 59.10488435
-122.084921 99.10580834 3.882405508e-11
-102.79271 -177.8329172 3.882405508e-11
-223.197816 -105.777611 3.882405508e-11
3.697746411e-05 -150.0445644 82.4678424
3.697746411e-05 -122.4979301 186.8002529
3.697746411e-05 -11.76039936 103.7041749
3.697746411e-05 0.08827533752 201.8600664
-117.984292 -90.72315666 3.882405508e-11
-16.20608402 203.7082639 3.882405508e-11
-88.03912502 -225.2819597 128.8715594
-9.143593023 -225.2819597 23.46679055
-111.463477 -225.2819597 95.7376629
-154.219691 -225.2819597 29.77860949
-243.837432 -75.31013936 3.882405508e-11
-174.36869 -80.60974106 3.882405508e-11
-227.325692 -24.60070316 3.882405508e-11
-175.955734 11.15124064 3.882405508e-11
-39.22966602 -43.03279816 3.882405508e-11
3.697746411e-05 52.70828094 162.7480092
-187.073091 -225.2819597 62.513373
-216.539463 6.360432738 3.882405508e-11
-205.361893 -225.2819597 110.2291208
-65.08999402 -225.2819597 157.8068951
-186.215748 -189.6634693 3.882405508e-11
3.697746411e-05 -138.5281629 251.3699216
-40.13526902 -206.9517078 3.882405508e-11
-144.79167 82.02891444 3.882405508e-11
3.697746411e-05 103.7825427 249.2896747
3.697746411e-05 18.17249844 153.0511317
-222.851997 83.72552814 3.882405508e-11
3.697746411e-05 63.69959664 211.6506332
-229.962159 -225.2819597 10.87852926
3.697746411e-05 98.19006854 53.86195851
3.697746411e-05 16.09060214 75.1745839
-66.95234202 203.4370001 3.882405508e-11
-194.213589 -135.2391447 3.882405508e-11
-23.14523302 20.09829354 3.882405508e-11
3.697746411e-05 -65.05625916 137.0387394
-120.310669 127.1308665 3.882405508e-11
1.955558977 -17.60696926 3.882405508e-11
3.697746411e-05 199.5607562 106.9094882
-188.972886 168.4383191 3.882405508e-11
-226.387152 -159.472804 3.882405508e-11
-183.496747 86.61430884 3.882405508e-11
3.697746411e-05 78.81346554 39.02960858
-208.684881 -225.2819597 193.291729
3.697746411e-05 -141.7132144 115.0767084
-25.73187402 -225.2819597 91.638088
-227.817221 -225.2819597 66.343983
-144.558555 -171.782683 3.882405508e-11
-52.65839402 -85.82310536 3.882405508e-11
3.697746411e-05 154.9856923 133.3319134
-219.309843 42.66217334 3.882405508e-11
-90.09420602 -225.2819597 199.2769818
-142.497438 164.8895575 3.882405508e-11
3.697746411e-05 -110.3342925 209.0939005
-57.72957702 -225.2819597 199.6457352
-20.72590102 -225.2819597 61.705193
-53.48313902 174.0278848 3.882405508e-11
-78.74539502 126.1565286 3.882405508e-11
3.697746411e-05 -63.04887276 112.7071743
3.697746411e-05 171.3298231 24.40431736
3.697746411e-05 -149.1565565 52.49400673
-57.91544302 86.72420204 3.882405508e-11
-189.810518 -225.2819597 225.7643122
3.697746411e-05 167.5168248 180.4269907
-39.49861102 39.42336594 3.882405508e-11
-194.458728 130.7228131 3.882405508e-11
3.697746411e-05 57.94018634 18.03299713
-107.491975 174.2707781 3.882405508e-11
-113.834319 -41.70168276 3.882405508e-11
3.697746411e-05 -166.80628 217.3857764
3.697746411e-05 43.33344734 69.6025259
3.697746411e-05 21.54998994 126.4371756
3.697746411e-05 -201.4129763 66.0320407
-41.92398902 -5.341976162 3.882405508e-11
3.697746411e-05 97.87169634 211.1637577
3.697746411e-05 -26.93742166 197.7055684
-148.572733 -225.2819597 209.4704041
-88.36479302 -79.52494486 3.882405508e-11
-227.391614 -183.2628378 3.882405508e-11
-200.772287 220.6584424 3.882405508e-11
3.697746411e-05 174.464909 64.8657893
-148.461809 -148.4803716 3.882405508e-11
3.697746411e-05 128.4636681 50.47724872
-20.86842902 -225.2819597 218.6759077
3.697746411e-05 -3.295233662 160.5263065
3.697746411e-05 -154.9901741 195.6103224
-2.264075023 -225.2819597 44.79875001
-151.814527 -66.19685526 3.882405508e-11
3.697746411e-05 -110.1954403 125.7020074
-0.04263602254 -225.2819597 195.2969497
3.697746411e-05 -177.0686318 39.71434177
-54.98631802 -225.2819597 29.46060156
3.697746411e-05 211.1960115 16.0001836
3.697746411e-05 -59.31034906 187.9691276
-169.566827 202.4807667 3.882405508e-11
-107.897103 -225.2819597 45.29707564
2.119778977 -223.3134392 3.882405508e-11
3.697746411e-05 195.9734377 160.0536733
-227.189117 116.6712628 3.882405508e-11
-250.763255 -22.37723916 3.882405508e-11
-49.66877502 133.9118276 3.882405508e-11
-75.51508702 -208.8249144 3.882405508e-11
3.697746411e-05 186.3546194 226.0937876
3.697746411e-05 -43.39340266 229.1225455
-120.449062 -225.2819597 10.05066498
3.697746411e-05 -85.15765036 175.7925098
3.697746411e-05 -125.0646811 227.467825
-237.148735 -225.2819597 37.74587367
3.697746411e-05 144.7322313 202.9778234
3.697746411e-05 170.1521754 99.6821966
3.697746411e-05 -170.7168138 168.8605145
3.697746411e-05 152.2719015 154.7338035
-23.02500102 225.2819441 -2.40385965
3.697746411e-05 -82.32195076 252.4920504
3.697746411e-05 -205.4929024 153.3175304
-69.85505502 24.64242364 3.882405508e-11
3.697746411e-05 -179.7940334 87.1904431
3.697746411e-05 14.35302374 226.3594875
-21.42278002 -143.0561212 3.882405508e-11
-170.867956 -225.2819597 131.0154745
-47.75041002 -63.85510116 3.882405508e-11
3.697746411e-05 -90.34611896 45.19393165
3.697746411e-05 -57.95835556 22.63375064
-148.622077 61.08126794 3.882405508e-11
-148.449013 205.51732 3.882405508e-11
3.697746411e-05 97.24100214 161.9071932
-73.14542702 -95.40264166 3.882405508e-11
-195.46443 -82.89568556 3.882405508e-11
-159.141513 -225.2819597 100.0730986
3.697746411e-05 -119.2099085 17.50929952
-203.340254 -115.7153092 3.882405508e-11
3.697746411e-05 -109.2692013 83.3776287
3.697746411e-05 -23.13972086 133.2593917
-93.16788302 50.61880414 3.882405508e-11
3.697746411e-05 -36.34644816 93.6471825
-132.178099 -73.60837476 3.882405508e-11
-171.682819 -44.79869156 3.882405508e-11
-22.94875802 183.9869817 3.882405508e-11
-164.050041 94.04300694 3.882405508e-11
3.697746411e-05 72.32964864 132.1598085
-83.95359602 -188.7275899 3.882405508e-11
-166.952279 165.5723093 3.882405508e-11
-200.816034 -41.27423926 3.882405508e-11
-156.127035 -225.2819597 250.9603794
3.697746411e-05 196.0293332 249.6079513
3.697746411e-05 8.996152638 41.03512283
-59.89430502 -244.6762755 3.882405508e-11
-190.525379 -217.8993722 3.882405508e-11
-22.63162202 70.39899094 3.882405508e-11
3.697746411e-05 -61.26930216 64.8472661
-97.85625402 93.34908144 3.882405508e-11
-143.493463 -225.2819597 173.1208398
2.027059977 -181.9667659 3.882405508e-11
-7.251017023 -104.5178402 3.882405508e-11
3.697746411e-05 134.5377986 29.57231172
3.697746411e-05 209.0147378 232.0387486
-151.25007 -23.58158946 3.882405508e-11
-53.95305802 -225.2819597 52.17024113
-196.295787 6.626883738 3.882405508e-11
-20.60525902 -225.2819597 170.285647
-188.149431 51.27907824 3.882405508e-11
-89.59999402 201.3887638 3.882405508e-11
3.697746411e-05 32.37620224 169.9754257
3.697746411e-05 -132.9492883 160.8206713
3.697746411e-05 -77.05341206 83.3085955
3.697746411e-05 121.2792532 164.7140034
0.5074129775 132.7577248 3.882405508e-11
3.697746411e-05 -180.0810115 121.3323313
-201.820076 -225.2819597 243.4740487
-80.59525902 -21.06441066 3.882405508e-11
-96.79760102 4.316808938 3.882405508e-11
-97.43230902 -225.2819597 236.7031593
-71.36743002 107.5855759 3.882405508e-11
-77.36103102 -225.2819597 11.0998295
-239.900608 144.1864131 3.882405508e-11
-190.145956 -225.2819597 200.5430388
-248.874937 -153.8320918 3.882405508e-11
-235.143952 -225.2819597 190.0901847
3.697746411e-05 -148.2022236 227.6839171
3.697746411e-05 211.0243242 190.2653494
3.697746411e-05 192.307966 137.2980611
-234.135528 -225.2819597 153.3683019
-10.99232402 155.9568683 3.882405508e-11
-39.71758302 -134.2452403 3.882405508e-11
-123.514412 -225.2819597 80.1419004
-15.95107502 -39.14545486 3.882405508e-11
-25.87145202 -162.9207827 3.882405508e-11
-129.056771 -225.2819597 213.3586052
-232.957228 191.5965473 3.882405508e-11
-130.851892 -225.2819597 105.2969977
-141.724978 -106.5430414 3.882405508e-11
-130.44184 -54.30077246 3.882405508e-11
-28.75990002 -225.2819597 138.2968093
-94.77180202 -58.68343666 3.882405508e-11
3.697746411e-05 2.149808038 88.6189048
3.697746411e-05 -181.1791859 246.3823898
3.697746411e-05 120.2309437 233.3767184
-66.56469702 68.35201834 3.882405508e-11
-226.908028 22.65373284 3.882405508e-11
-86.97597902 -225.2819597 167.4333791
-213.702609 -225.2819597 157.4047233
-237.392249 -225.2819597 228.942643
3.697746411e-05 129.7705523 90.450249
3.697746411e-05 74.15951204 90.2413091
3.697746411e-05 2.811484738 59.26219896
-167.017547 -241.3960672 3.882405508e-11
-30.09500502 142.1452102 3.882405508e-11
3.697746411e-05 146.0056061 64.0499918
-146.793231 17.47308394 3.882405508e-11
-101.675591 -158.7915786 3.882405508e-11
-54.32913202 -225.2819597 234.6927309
-194.251289 149.9278357 3.882405508e-11
3.697746411e-05 -4.526581562 181.8203057
3.697746411e-05 127.164657 194.4099333
-229.751958 -225.2819597 211.2099417
-9.537404023 -2.012047662 3.882405508e-11
3.697746411e-05 75.69331984 176.4590526
-121.962153 -208.2004209 3.882405508e-11
3.697746411e-05 193.4853599 207.0232489
-116.706145 -225.2819597 140.9928815
-186.531397 -152.3946314 3.882405508e-11
3.697746411e-05 46.23165924 218.563693
-209.201295 -62.94662186 3.882405508e-11
-157.418948 225.2819441 -1.33296069
-116.648336 -225.2819597 233.3147167
1.999624977 -225.2819597 229.8033459
-226.185532 -210.5508988 3.882405508e-11
3.697746411e-05 -91.04207846 154.6465613
-1.980547023 -225.2819597 91.7060253
-108.049714 -110.9706643 3.882405508e-11
3.697746411e-05 65.81163064 233.1642859
-183.080517 -9.018171762 3.882405508e-11
0.2948229775 225.2819441 31.98855616
3.697746411e-05 -193.4764598 167.8509524
-203.393902 180.6838246 3.882405508e-11
-18.45898902 106.0538112 3.882405508e-11
-78.65735302 161.8245948 3.882405508e-11
3.697746411e-05 95.32840064 30.91154082
3.697746411e-05 196.4227539 4.73246186
3.697746411e-05 -47.03811506 37.63887282
-58.50289702 -41.45582426 3.882405508e-11
-38.03362502 -225.2819597 5.08563443
-25.19421102 -112.2145289 3.882405508e-11
3.697746411e-05 -103.7203384 185.526522
-224.922299 225.2819441 -1.36412993
-203.941921 88.99969294 3.882405508e-11
3.697746411e-05 -77.97794626 27.19971527
3.697746411e-05 -44.63120266 177.2482104
3.697746411e-05 -72.71879586 215.4099084
-248.458193 -225.2819597 2.3473681
-75.02657402 -225.2819597 142.6356949
-162.44716 129.165055 3.882405508e-11
3.697746411e-05 -11.48812166 242.6017943
-139.392464 188.6478304 3.882405508e-11
3.697746411e-05 4.439945038 111.7376588
-162.793206 -101.6394776 3.882405508e-11
3.697746411e-05 23.14758644 252.1695303
-102.491192 131.5030318 3.882405508e-11
2.010264977 67.29574974 3.882405508e-11
-100.528961 -225.2819597 111.4237194
3.697746411e-05 -156.6837481 156.885065
3.697746411e-05 178.3051167 41.00252752
-127.441941 31.20481824 3.882405508e-11
-42.00055002 -225.2819597 172.850784
-118.762326 -6.649177262 3.882405508e-11
3.697746411e-05 -194.5824656 205.9192586
-13.88870902 -240.1578302 3.882405508e-11
-29.50168602 -225.2819597 234.3398217
3.697746411e-05 205.5414803 125.274408
3.697746411e-05 37.87239194 100.047785
-148.491307 -202.6017323 3.882405508e-11
3.697746411e-05 -96.88162906 220.9795261
-200.257729 -225.2819597 128.4363059
-140.319136 -131.4455349 3.882405508e-11
-106.366917 -229.5442776 3.882405508e-11
-215.341552 -225.2819597 27.13262789
-133.871522 -234.9378234 3.882405508e-11
-210.410051 157.3347046 3.882405508e-11
-45.82972502 -186.2275585 3.882405508e-11
-169.331231 -141.8361047 3.882405508e-11
-0.9774460225 32.06613114 3.882405508e-11
-193.031025 -225.2819597 44.39399749
-173.550797 -201.976764 3.882405508e-11
-143.686155 -225.2819597 71.3334262
-35.94316902 121.6864017 3.882405508e-11
-238.499319 103.157357 3.882405508e-11
-228.26897 157.385589 3.882405508e-11
-153.854878 -225.2819597 8.05230125
3.697746411e-05 -38.89277906 76.2876654
-57.15075902 -225.2819597 251.9981895
-190.245196 -225.2819597 92.5592149
-176.948194 -225.2819597 154.7219353
3.697746411e-05 106.8747741 124.464929
-73.64834902 -225.2819597 113.1062959
-136.570733 120.9154445 3.882405508e-11
-238.944212 -39.97622756 3.882405508e-11
3.697746411e-05 173.3795085 137.0262397
-64.04539502 -150.5611688 3.882405508e-11
-136.642306 -225.2819597 131.5970003
-250.451211 -225.2819597 100.6098213
3.697746411e-05 118.081245 13.70851359
-249.758993 47.77381154 3.882405508e-11
-16.10919902 -201.5037667 3.882405508e-11
3.697746411e-05 -54.06220546 151.1689026
-136.487231 -225.2819597 18.3604515
3.697746411e-05 -188.6583986 23.11399474
3.697746411e-05 148.9465633 98.664594
-80.05819602 -225.2819597 27.91668442
-129.991781 -225.2819597 243.856322
3.697746411e-05 -129.5453604 82.9115653
3.697746411e-05 167.0367543 221.0241773
-205.387909 -98.85969906 3.882405508e-11
3.697746411e-05 208.0356511 173.5796078
3.697746411e-05 -156.5431292 37.26520924
-175.573335 180.1373513 3.882405508e-11
3.697746411e-05 -26.74253406 63.0716021
-101.633997 69.33297154 3.882405508e-11
-64.80485702 -117.5940154 3.882405508e-11
-231.794297 -125.2798934 3.882405508e-11
-34.24495102 -225.2819597 21.52232647
3.697746411e-05 -138.1322429 10.79875048
3.697746411e-05 -193.7461976 108.498456
3.697746411e-05 -20.16606716 150.6612443
3.697746411e-05 -18.16710806 16.71927301
-89.13199202 -229.9411355 3.882405508e-11
-76.00979202 -225.2819597 208.463714
3.697746411e-05 205.1202727 87.4016873
-108.326482 22.59188324 3.882405508e-11
-220.999391 -225.2819597 88.7388495
-173.090634 -225.2819597 227.478351
3.697746411e-05 -107.0455784 109.2185997
3.697746411e-05 75.59036124 246.7632766
-221.463336 -225.2819597 234.0535629
-232.632691 -91.98288586 3.882405508e-11
-204.714234 -236.1177255 3.882405508e-11
3.697746411e-05 -142.8695368 146.8257556
3.697746411e-05 14.96687054 22.6449823
-54.48013102 53.24256414 3.882405508e-11
-144.344424 -225.2819597 53.00550682
-12.06112202 -85.38662936 3.882405508e-11
3.697746411e-05 -117.2304136 151.1616735
-88.80659302 -225.2819597 84.4389006
-162.819391 -225.2819597 196.7952905
3.697746411e-05 -30.49156076 109.1281662
1.388903977 225.2819441 234.5979032
-210.180479 125.6906179 3.882405508e-11
3.697746411e-05 70.27076344 110.2346294
-171.681041 -64.33959916 3.882405508e-11
-12.53504902 86.00834904 3.882405508e-11
3.697746411e-05 -32.76531126 213.0852499
-61.81305302 -225.2819597 85.5608024
-42.28663102 -225.2819597 128.1600268
-25.43661002 2.099529338 3.882405508e-11
3.697746411e-05 -209.1709598 238.622174
-185.048964 -35.26046096 3.882405508e-11
-164.367738 22.72040694 3.882405508e-11
3.697746411e-05 -189.8349738 52.90461484
-92.51172902 -124.9977984 3.882405508e-11
3.697746411e-05 -143.5023317 98.8608759
-212.175277 -151.4898954 3.882405508e-11
-101.89169 190.6906234 3.882405508e-11
-19.51673402 -225.2819597 154.0343727
-243.014451 -187.6951242 3.882405508e-11
-55.88376802 -225.2819597 183.5145795
-235.651427 213.1866941 3.882405508e-11
-30.44308802 56.18690224 3.882405508e-11
-238.79419 -110.2134565 3.882405508e-11
-204.831558 -225.2819597 67.1341384
-114.680731 84.70249494 3.882405508e-11
-93.98743102 -225.2819597 219.3119519
3.697746411e-05 152.6028784 32.65635508
-177.122083 -225.2819597 47.27377769
-10.01013602 -165.966839 3.882405508e-11
3.697746411e-05 182.2287752 168.6105716
-135.312375 -37.98534476 3.882405508e-11
-157.926292 46.26594714 3.882405508e-11
-159.851761 150.3920595 3.882405508e-11
-237.954746 78.19614184 3.882405508e-11
-104.121194 -225.2819597 130.9846319
-36.38744302 104.0831572 3.882405508e-11
3.697746411e-05 -46.28998506 106.3419701
3.697746411e-05 -44.50063956 194.0575164
-231.670874 -237.2393904 3.882405508e-11
3.697746411e-05 -107.1975075 67.5248239
3.697746411e-05 90.72178604 68.3404514
3.697746411e-05 -59.31834426 230.1398783
3.697746411e-05 88.13730874 134.2633862
3.697746411e-05 -214.4802726 56.90105072
-207.098153 -225.2819597 173.2808838
3.697746411e-05 135.8689866 131.9583739
-122.633998 179.1190013 3.882405508e-11
3.697746411e-05 49.62821774 234.471755
-55.27212202 -225.2819597 145.383303
3.697746411e-05 -138.3183247 186.2921753
-118.640731 -225.2819597 196.9317676
1.354989977 225.2819441 149.9928587
-70.38583302 -225.2819597 243.3629194
-157.129869 -225.2819597 226.4843819
3.697746411e-05 92.72640994 177.803379
-35.54630002 -26.84615856 3.882405508e-11
-187.394014 -233.3383689 3.882405508e-11
-178.097663 130.9535213 3.882405508e-11
-134.223178 67.83297284 3.882405508e-11
3.697746411e-05 -210.6823771 22.95335234
-225.969528 -225.2819597 119.0795402
-114.969143 -167.2254487 3.882405508e-11
3.697746411e-05 -183.9141866 180.356231
-180.417842 -225.2819597 14.82717305
-122.958302 210.0156996 3.882405508e-11
3.697746411e-05 -154.4461377 21.68122824
3.697746411e-05 -29.60498926 43.06741267
-4.544980023 -225.2819597 176.3677567
-98.55090302 -194.4639982 3.882405508e-11
3.697746411e-05 103.1356971 225.9165402
-30.24387202 -225.2819597 206.1313101
-201.101371 42.50345284 3.882405508e-11
3.697746411e-05 160.3132855 118.6343003
3.697746411e-05 110.6924384 87.6210783
-124.879695 -136.6734792 3.882405508e-11
-92.94214002 -225.2819597 183.9115331
-242.002575 178.8705939 3.882405508e-11
-211.355405 -182.8992313 3.882405508e-11
-68.75498302 -175.3330651 3.882405508e-11
-206.854054 -216.4655767 3.882405508e-11
-134.01321 -3.536816062 3.882405508e-11
-62.16211902 121.3552463 3.882405508e-11
-42.50623502 -225.2819597 196.415398
-59.01480502 -225.2819597 216.8168925
-57.41609802 0.3802597375 3.882405508e-11
3.697746411e-05 -133.6414668 52.87390409
-222.221015 101.3753011 3.882405508e-11
3.697746411e-05 -76.88158386 126.6535046
-145.499031 -187.2162462 3.882405508e-11
3.697746411e-05 118.1123044 137.437775
-50.01704702 154.9471366 3.882405508e-11
-235.793037 -62.15616626 3.882405508e-11
3.697746411e-05 -75.76530666 152.5811934
-42.15375902 210.6913094 3.882405508e-11
3.697746411e-05 137.0468687 220.8785912
-188.238456 211.8583852 3.882405508e-11
0.3770559775 225.2819441 202.2057519
-44.01948802 -244.669001 3.882405508e-11
3.697746411e-05 -0.8071020625 224.5045132
-183.66147 -92.71980906 3.882405508e-11
-242.129037 -225.2819597 166.3676627
3.697746411e-05 -94.09597516 84.3892105
3.697746411e-05 59.99260694 61.7023901
3.697746411e-05 44.62127874 10.75227727
-115.039722 112.5502229 3.882405508e-11
3.697746411e-05 -214.1736645 130.5229115
-176.129351 -178.3411058 3.882405508e-11
1.481816977 -225.2819597 250.9588155
3.697746411e-05 -181.8183447 214.0393045
3.697746411e-05 -187.5340647 74.1962189
3.697746411e-05 -40.37400326 15.13984236
-129.633295 -174.0731597 3.882405508e-11
3.697746411e-05 218.2498565 63.5644788
-112.17876 -225.2819597 27.70248766
-158.990394 -225.2819597 69.7836622
-24.26645102 -225.2819597 76.3499713
-215.260129 189.9629621 3.882405508e-11
3.697746411e-05 38.87008384 85.0255326
0.04902997746 225.2819441 95.0447957
3.697746411e-05 35.64225804 36.39506971
3.697746411e-05 78.52486584 209.0797287
-87.02903102 65.74755504 3.882405508e-11
-243.333472 -225.2819597 74.7570312
-113.017599 -225.2819597 157.9656292
-24.48035502 39.46661704 3.882405508e-11
-243.102472 11.99979204 3.882405508e-11
-15.44257702 -225.2819597 112.6463765
3.697746411e-05 96.97617844 98.5112279
-80.82953902 -225.2819597 55.76014708
-41.04127902 81.33895314 3.882405508e-11
3.697746411e-05 -16.52720756 117.8717601
3.697746411e-05 -164.8620594 87.4349585
-66.63624402 185.6104625 3.882405508e-11
3.697746411e-05 142.9649925 166.7572741
-166.453675 -9.576421162 3.882405508e-11
-93.41182102 -225.2819597 41.78014788
-184.330115 70.23785744 3.882405508e-11
-73.48284602 -34.22610646 3.882405508e-11
1.570436977 -92.55894596 3.882405508e-11
-164.663346 -225.2819597 19.21760671
3.697746411e-05 0.01187403752 73.8430844
-175.994567 -122.1047557 3.882405508e-11
-46.81282402 -225.2819597 110.9808658
3.697746411e-05 184.295014 104.1361355
3.697746411e-05 -94.11024926 121.2937687
3.697746411e-05 -208.2673876 168.4669113
3.697746411e-05 179.6241848 193.2309773
3.697746411e-05 162.4019495 165.5108341
3.697746411e-05 41.49885224 118.2216516
-208.664032 -225.2819597 143.5480427
3.697746411e-05 -122.6801377 171.3829007
3.697746411e-05 114.0732699 53.5693266
3.697746411e-05 28.39421324 184.120885
-234.648531 41.41514894 3.882405508e-11
-100.838398 -249.2717671 3.882405508e-11
3.697746411e-05 167.1529909 77.8432729
3.697746411e-05 61.91250604 78.5848756
-192.170076 -225.2819597 157.2805432
-237.618498 -225.2819597 135.977703
-97.93387702 213.3707007 3.882405508e-11
-45.66475802 -167.8357002 3.882405508e-11
3.697746411e-05 -176.4137039 135.4318904
0.7732139775 225.2819441 12.44620628
-248.690369 -225.2819597 195.3132171
-122.50086 -225.2819597 169.8098933
0.5756679775 225.2819441 216.7189907
-215.080778 -38.43378936 3.882405508e-11
3.697746411e-05 -106.9893141 140.9290429
3.697746411e-05 124.7260334 178.7519894
3.697746411e-05 -94.31166506 238.6465366
-117.568906 -25.95944546 3.882405508e-11
-14.70601002 -55.54270616 3.882405508e-11
-218.900911 -230.5297582 3.882405508e-11
-151.308086 -225.2819597 136.9996922
3.697746411e-05 161.3714173 250.7428696
-68.69058102 -228.2650619 3.882405508e-11
-82.39241502 -147.7846829 3.882405508e-11
3.697746411e-05 48.85790984 204.4320653
-105.500827 -77.11205466 3.882405508e-11
3.697746411e-05 103.5515428 75.2055111
-250.389301 211.2376595 3.882405508e-11
-87.06744002 -174.7538089 3.882405508e-11
3.697746411e-05 -154.1332132 210.7344295
3.697746411e-05 146.1894744 46.53592121
-226.996175 -225.2819597 52.06798045
3.697746411e-05 210.2090496 0.94404503
3.697746411e-05 -131.2338714 124.7859003
-122.400154 51.24510404 3.882405508e-11
-85.53899202 109.2009461 3.882405508e-11
-172.849103 -225.2819597 66.4853461
-158.787182 -172.3633719 3.882405508e-11
-204.214477 -5.633143662 3.882405508e-11
3.697746411e-05 215.4021062 161.4305822
3.697746411e-05 130.1319646 64.5838773
-6.452488023 -225.2819597 218.3999947
-239.230956 -143.417636 3.882405508e-11
3.697746411e-05 112.6632458 152.077029
-78.57886102 -122.4242926 3.882405508e-11
-159.940386 -54.28333596 3.882405508e-11
3.697746411e-05 94.66119494 12.04911484
3.697746411e-05 -211.7913581 106.6668695
3.697746411e-05 -124.4215126 252.3444828
3.697746411e-05 65.93887044 144.8243324
-89.57853902 -7.792732262 3.882405508e-11
-202.583247 -225.2819597 207.1249785
-134.334218 -201.4182688 3.882405508e-11
3.697746411e-05 -31.50976066 0.84709414
3.697746411e-05 -217.9855906 145.764994
3.697746411e-05 -152.272525 124.7216444
-9.226499023 -225.2819597 8.652082
-91.63654402 -225.2819597 13.02403253
-182.592242 -225.2819597 186.9888587
3.697746411e-05 118.5731625 116.2060936
3.697746411e-05 -28.24481416 234.4108174
3.697746411e-05 -69.85537956 197.1584024
-194.067271 -176.9105124 3.882405508e-11
-111.134107 5.840776938 3.882405508e-11
-38.67321102 -74.44604256 3.882405508e-11
-40.02421502 -225.2819597 52.22717172
-13.31837102 -71.19809846 3.882405508e-11
-235.699667 127.6486093 3.882405508e-11
3.697746411e-05 -13.34032346 67.5659053
-131.800588 -91.93305716 3.882405508e-11
-234.998575 -225.2819597 102.3203207
-162.891649 80.28219464 3.882405508e-11
3.697746411e-05 106.9402668 200.7784618
-56.92319002 -225.2819597 168.9129776
-108.8782 156.2472397 3.882405508e-11
3.697746411e-05 -163.9977349 48.85397687
-185.560628 -225.2819597 129.7296205
-137.979845 93.98216084 3.882405508e-11
-89.81372602 37.27725654 3.882405508e-11
-3.278838023 119.5345702 3.882405508e-11
-159.029693 -77.90360556 3.882405508e-11
3.697746411e-05 182.7257354 16.71936275
3.697746411e-05 96.00892004 192.4529381
-174.414565 51.67745464 3.882405508e-11
-187.275833 35.63990354 3.882405508e-11
-36.43376202 181.669751 3.882405508e-11
-189.294494 18.37053614 3.882405508e-11
-103.173122 -225.2819597 195.3208952
-187.784631 -71.32578386 3.882405508e-11
-46.29469402 -225.2819597 39.98976439
-88.88621302 -225.2819597 67.9989697
0.05559297746 -116.1376461 3.882405508e-11
-142.739215 -225.2819597 154.2340933
-27.87885402 210.7403662 3.882405508e-11
-19.84999602 166.3122043 3.882405508e-11
3.697746411e-05 -44.52871206 160.9755699
3.697746411e-05 140.6073537 235.9594557
-46.71397102 -225.2819597 94.5414149
3.697746411e-05 -122.7554026 200.3966482
-218.810488 -121.2413449 3.882405508e-11
-207.211285 200.9131811 3.882405508e-11
3.697746411e-05 -205.0821367 79.1156123
3.697746411e-05 -104.0418792 31.15696559
3.697746411e-05 219.3809885 132.6385286
-134.796895 45.74982004 3.882405508e-11
-187.083486 -204.7952602 3.882405508e-11
-14.70222402 -225.2819597 39.4433254
-59.11718602 -54.98340306 3.882405508e-11
3.697746411e-05 134.5184219 77.7777162
-105.977574 54.98139704 3.882405508e-11
3.697746411e-05 61.03750594 177.3012873
3.697746411e-05 9.334013138 191.3095339
-194.876143 102.5599733 3.882405508e-11
3.697746411e-05 -17.67451286 30.20073559
-248.206909 113.7867674 3.882405508e-11
-38.96368102 -87.98214946 3.882405508e-11
-105.102174 -225.2819597 15.166356
-74.31256602 -225.2819597 94.0937718
1.241206977 88.88534114 3.882405508e-11
2.418268977 156.3007203 3.882405508e-11
3.697746411e-05 3.968558638 148.4316705
-53.42036202 -142.4232248 3.882405508e-11
-62.63366202 164.2625147 3.882405508e-11
-33.32370802 -225.2819597 102.6549486
3.697746411e-05 -169.3116754 187.9612522
-57.61094202 30.02505784 3.882405508e-11
3.697746411e-05 -141.5478937 63.651075
3.697746411e-05 188.6936786 49.75893897
3.697746411e-05 40.44855344 48.85965578
3.697746411e-05 206.4619738 69.8502858
-71.24904902 216.564985 3.882405508e-11
-113.249335 141.5496478 3.882405508e-11
-88.53870002 135.1524418 3.882405508e-11
-88.87486602 170.3138198 3.882405508e-11
3.697746411e-05 28.66736124 114.8493927
3.697746411e-05 82.92431244 51.62363162
-55.67940102 -200.7825303 3.882405508e-11
-46.86627402 94.01462664 3.882405508e-11
3.697746411e-05 155.5507045 210.5920579
3.697746411e-05 187.4585635 67.3467502
-204.88832 -225.2819597 36.72369865
-41.17414602 -102.9620619 3.882405508e-11
-231.216774 6.216901738 3.882405508e-11
-59.43405902 -225.2819597 72.2421
3.697746411e-05 105.9032926 18.97069345
3.697746411e-05 -18.87505636 185.4637386
3.697746411e-05 154.9479575 184.457672
3.697746411e-05 37.42290784 153.4372604
-218.446743 -225.2819597 75.5775678
-231.117336 -195.8764702 3.882405508e-11
-33.32480002 -225.2819597 66.8660377
-80.06636202 16.41538164 3.882405508e-11
-78.61945502 -225.2819597 155.2414364
-27.95030002 -125.017339 3.882405508e-11
-209.906686 76.42267044 3.882405508e-11
-82.03740702 -55.67521516 3.882405508e-11
-168.183482 215.4789231 3.882405508e-11
3.697746411e-05 -66.14365976 98.0014911
-162.133247 -225.2819597 40.17738376
-86.77471202 -225.2819597 113.8294986
3.697746411e-05 -132.1131819 39.45319222
-174.629893 -225.2819597 95.7234181
-109.194999 206.7767994 3.882405508e-11
-239.341146 -225.2819597 20.3023151
-10.72709502 -179.2114709 3.882405508e-11
-149.88396 -225.2819597 195.0958101
3.697746411e-05 -191.3141186 36.81601034
-35.31464402 27.07891504 3.882405508e-11
-153.663826 -111.7699658 3.882405508e-11
3.697746411e-05 -114.6839211 55.14470359
-114.628778 -219.3799525 3.882405508e-11
3.697746411e-05 27.09854324 223.6657964
-213.799986 23.55591604 3.882405508e-11
-215.299945 -166.2997956 3.882405508e-11
-20.03759202 -225.2819597 126.7053581
3.697746411e-05 -167.6069643 125.8512455
-12.41589802 -26.62784476 3.882405508e-11
3.697746411e-05 -162.3730596 7.48340721
3.697746411e-05 -28.79087636 161.9808249
3.697746411e-05 212.4724849 34.04299504
-87.65644002 -225.2819597 145.5880151
-221.746223 -66.20751646 3.882405508e-11
3.697746411e-05 4.644656238 236.8855805
-237.58319 -165.9191277 3.882405508e-11
3.697746411e-05 91.45323344 150.3585033
-135.191825 -225.2819597 117.4428815
-161.71818 -209.8950294 3.882405508e-11
-175.023306 100.8039201 3.882405508e-11
-157.729592 10.65627344 3.882405508e-11
-220.269447 -225.2819597 198.891846
3.697746411e-05 -97.75951816 97.5929033
-42.72413702 -225.2819597 142.598537
3.697746411e-05 -47.35478436 140.2410323
-113.726476 -150.663411 3.882405508e-11
3.697746411e-05 168.1060655 12.00442495
-162.895346 -225.2819597 237.9217455
3.697746411e-05 -78.54241336 50.15736957
-128.021431 -246.560906 3.882405508e-11
-162.039154 -225.2819597 120.2000281
-209.077461 56.51304194 3.882405508e-11
3.697746411e-05 -74.16191556 182.3307399
-58.71075002 99.98839394 3.882405508e-11
3.697746411e-05 208.1910376 51.09755134
-215.57837 -225.2819597 126.4794687
-221.863533 71.01798314 3.882405508e-11
3.697746411e-05 192.5479382 124.5648965
-25.76809602 -81.31019196 3.882405508e-11
3.697746411e-05 -192.2263223 240.0755795
-141.689254 -159.2465603 3.882405508e-11
-144.449453 -55.16501956 3.882405508e-11
-110.030724 -189.0326972 3.882405508e-11
3.697746411e-05 129.1613233 103.129423
-241.465819 201.9053322 3.882405508e-11
-84.22312302 -225.2819597 239.5189181
3.697746411e-05 -14.29935216 198.6595775
3.697746411e-05 16.57114714 241.1673145
3.697746411e-05 -224.0872554 32.14562854
-80.96186402 146.0326582 3.882405508e-11
-101.690619 -225.2819597 164.8064234
-12.02163002 -225.2819597 99.4070359
3.697746411e-05 160.9718681 144.4784502
3.697746411e-05 58.23338074 106.4019472
3.697746411e-05 -149.3985723 240.3820899
-78.83276302 94.24888234 3.882405508e-11
3.697746411e-05 164.8191291 233.4328409
-48.61398502 -19.63167906 3.882405508e-11
3.697746411e-05 -128.9448149 25.56159379
-121.125355 -225.2819597 50.8003036
3.697746411e-05 -179.0868502 108.8018331
3.697746411e-05 -160.6375794 177.5825126
3.697746411e-05 88.03514604 218.9583984
-204.277246 138.5037131 3.882405508e-11
-200.045867 -225.2819597 54.76857717
3.697746411e-05 -191.3959338 193.8093807
2.216117977 54.77819774 3.882405508e-11
-3.566448023 -212.1750985 3.882405508e-11
-217.192674 -225.2819597 184.16011
-51.67710802 -212.5784178 3.882405508e-11
-69.79130202 -225.2819597 193.502078
3.697746411e-05 -164.083925 229.5261041
3.697746411e-05 -105.8253705 229.6152941
3.697746411e-05 106.8318444 43.47402251
-10.74200202 -225.2819597 188.9906951
-10.59305502 -225.2819597 54.00652142
3.697746411e-05 -162.2576002 75.3034802
3.697746411e-05 19.43444744 140.711077
-11.21303602 23.48393724 3.882405508e-11
-135.359072 209.8152227 3.882405508e-11
3.697746411e-05 -23.97812976 92.743362
-206.879518 -140.2774874 3.882405508e-11
-154.453311 161.6217336 3.882405508e-11
-23.71182502 153.4248134 3.882405508e-11
-154.493313 117.3677208 3.882405508e-11
3.697746411e-05 24.50814554 31.01580232
-252.023269 151.7295554 3.882405508e-11
3.697746411e-05 132.7210319 205.794366
-127.359984 111.9705649 3.882405508e-11
3.697746411e-05 -40.78576776 250.4479435
3.697746411e-05 -99.35738276 250.9642194
-36.18921502 -175.7043037 3.882405508e-11
-99.46800502 -47.29762976 3.882405508e-11
-13.58349702 215.7336894 3.882405508e-11
3.697746411e-05 211.2766473 114.3857492
3.697746411e-05 -89.70431466 30.9229512
-183.080287 -140.5862591 3.882405508e-11
-143.607411 -225.2819597 243.6654308
3.697746411e-05 50.87817284 145.9860824
-147.530601 -225.2819597 107.6156986
-186.461195 -225.2819597 212.2130369
3.697746411e-05 19.37181724 63.3949456
-57.98464902 -128.504644 3.882405508e-11
-202.329442 -225.2819597 24.62475398
3.697746411e-05 -84.43042316 15.04687934
-160.361408 -225.2819597 87.4064737
-54.17585802 -177.3427023 3.882405508e-11
3.697746411e-05 16.18576184 214.3105009
-71.59258902 -79.63874376 3.882405508e-11
-85.63939902 -91.38722116 3.882405508e-11
-210.948948 -225.2819597 95.5981815
3.697746411e-05 133.047827 12.15050921
3.697746411e-05 194.8793583 93.962144
-167.809712 -225.2819597 108.6032011
-10.95111402 -136.8870635 3.882405508e-11
-27.78825402 198.5893254 3.882405508e-11
3.697746411e-05 -212.6163036 94.563319
3.697746411e-05 140.9700734 251.7362383
-125.663396 -225.2819597 94.3474937
3.697746411e-05 -71.35636086 71.5469058
-225.174994 -225.2819597 35.97139492
3.697746411e-05 34.63281164 195.9628584
-179.392936 161.0520111 3.882405508e-11
-60.63907302 41.72472394 3.882405508e-11
-18.02249302 142.6787609 3.882405508e-11
-80.37940202 -221.6192393 3.882405508e-11
3.697746411e-05 85.18490774 101.0567461
3.697746411e-05 -117.4279033 115.325918
-90.53552802 -27.86553176 3.882405508e-11
-56.30942602 74.65967694 3.882405508e-11
-6.189806023 168.0012353 3.882405508e-11
3.697746411e-05 158.9509978 105.3348776
-54.07722102 209.2197714 3.882405508e-11
-3.670946023 -60.25840886 3.882405508e-11
3.697746411e-05 -217.0714265 186.5474721
-34.55206802 -56.77156286 3.882405508e-11
3.697746411e-05 -206.969483 197.6786151
3.697746411e-05 -85.20162406 218.3120286
3.697746411e-05 -71.23269496 14.14476392
-230.845302 92.61797314 3.882405508e-11
3.697746411e-05 21.16293154 87.8631989
-225.031293 -225.2819597 161.2100314
-97.11077202 161.6593822 3.882405508e-11
3.697746411e-05 -134.3738122 173.7063227
-140.507545 176.778388 3.882405508e-11
-178.666625 -213.2354629 3.882405508e-11
-111.188688 -122.4604232 3.882405508e-11
3.697746411e-05 -103.9635717 199.0318344
-105.290484 -89.01751516 3.882405508e-11
-129.841574 -225.2819597 145.1795127
-160.934418 -230.3515867 3.882405508e-11
3.697746411e-05 -167.3621709 28.63094812
-23.82667302 -210.4885516 3.882405508e-11
-84.97098102 3.704761538 3.882405508e-11
3.697746411e-05 109.6093701 64.5563351
-194.069693 -102.283134 3.882405508e-11
3.697746411e-05 9.176343338 122.56848
-18.44329802 -225.2819597 205.9082754
-160.201661 -149.6763826 3.882405508e-11
3.697746411e-05 22.14310374 194.7384686
3.697746411e-05 16.65001624 164.7083613
-239.792765 -225.2819597 217.3087389
-196.482739 -244.4921723 3.882405508e-11
3.697746411e-05 107.8847075 236.6492873
3.697746411e-05 -172.5167184 154.1037899
3.697746411e-05 -100.9518884 50.21329446
-20.66707802 -225.2819597 21.26385375
3.697746411e-05 183.3129695 214.7711604
3.697746411e-05 -142.8327235 199.1159517
-134.309762 -143.6339357 3.882405508e-11
-194.958523 -225.2819597 73.4489661
-48.01174102 184.9909077 3.882405508e-11
-98.99733302 -225.2819597 99.8122332
3.697746411e-05 65.63071024 39.70631516
-190.53024 119.7239589 3.882405508e-11
-76.01016502 -111.0324423 3.882405508e-11
-110.51028 95.60644634 3.882405508e-11
-138.710121 -225.2819597 42.78423552
-112.743067 -225.2819597 61.3680132
3.697746411e-05 -204.6015695 224.0224945
3.697746411e-05 -51.35797056 48.46635116
1.691027977 225.2819441 190.6229682
3.697746411e-05 -178.200314 53.5238888
3.697746411e-05 -80.45399816 38.6676811
3.697746411e-05 -174.2497092 237.0355075
-45.15739302 -233.0901879 3.882405508e-11
-28.00523402 -225.2819597 246.5746058
3.697746411e-05 -112.07911 176.1606209
-160.194215 34.86232294 3.882405508e-11
3.697746411e-05 200.4139585 195.0036563
2.243362977 -196.8717952 3.882405508e-11
-151.186023 91.71439394 3.882405508e-11
-189.334961 225.2819441 -2.45811441
-43.09930102 167.5390414 3.882405508e-11
-160.164167 -31.00193996 3.882405508e-11
-48.70822202 -225.2819597 65.5272448
-160.950697 -225.2819597 160.8321472
-56.33634702 -107.6015307 3.882405508e-11
3.697746411e-05 -138.4948296 75.5918978
3.697746411e-05 76.67277974 27.68082043
3.697746411e-05 -137.1383023 224.4502465
-30.60618102 -225.2819597 177.4306078
3.697746411e-05 -33.42498926 138.6925254
-187.035357 140.9625091 3.882405508e-11
-57.98728002 12.34656314 3.882405508e-11
-115.759192 -179.0593176 3.882405508e-11
-126.100056 86.02188714 3.882405508e-11
-198.10613 -209.0146272 3.882405508e-11
-172.303962 -190.5540668 3.882405508e-11
3.697746411e-05 60.60919264 200.5890048
3.697746411e-05 70.88659944 193.5378741
-252.485851 -2.715152062 3.882405508e-11
3.697746411e-05 169.8814386 54.36105687
-7.832180023 -225.2819597 125.4481569
-246.020891 -225.2819597 128.1856567
3.697746411e-05 116.0616749 188.5507556
-43.28028602 -225.2819597 184.229071
3.697746411e-05 -12.85970106 166.8209831
-230.06124 202.8283765 3.882405508e-11
3.697746411e-05 209.628323 101.4771181
-217.975059 -219.1119624 3.882405508e-11
-43.86304702 6.813825138 3.882405508e-11
-200.313549 169.7118847 3.882405508e-11
-210.137026 -225.2819597 235.3060141
-199.12229 -52.54280346 3.882405508e-11
-93.43827602 124.6069355 3.882405508e-11
-66.34603802 -225.2819597 30.12834149
-244.899688 -119.8152044 3.882405508e-11
3.697746411e-05 160.0100223 23.25943632
3.697746411e-05 -183.6763587 11.05454337
-231.843395 -9.571074562 3.882405508e-11
-9.938572023 10.69356974 3.882405508e-11
-3.605001023 146.6636654 3.882405508e-11
3.697746411e-05 -71.00623996 251.5203709
-150.436701 -213.7907953 3.882405508e-11
-222.055959 130.1879816 3.882405508e-11
-187.796323 -125.9253867 3.882405508e-11
-62.49597202 -225.2819597 114.9890728
-125.373358 -225.2819597 180.7446578
-213.939116 -91.46913766 3.882405508e-11
-252.27423 -62.18324236 3.882405508e-11
-10.35362902 182.3615923 3.882405508e-11
3.697746411e-05 -81.05259826 62.0608487
-91.40302402 -243.0863037 3.882405508e-11
-197.140176 -192.4783536 3.882405508e-11
-175.875344 -225.2819597 177.9382036
3.697746411e-05 162.7289099 192.6056557
-152.278988 -225.2819597 79.5601859
-196.785319 -225.2819597 191.4453866
-171.967827 -95.11912156 3.882405508e-11
-102.07468 -6.118801862 3.882405508e-11
-17.64354202 -153.6479617 3.882405508e-11
3.697746411e-05 48.79462964 79.4306515
3.697746411e-05 5.096717338 167.9864741
-242.44011 -86.51742756 3.882405508e-11
0.4850599775 -225.2819597 61.9741168
-231.006822 -80.87637816 3.882405508e-11
3.697746411e-05 -180.7381979 163.8117183
3.697746411e-05 68.94945624 121.4608536
-9.608841023 -225.2819597 159.2867138
1.907639977 -225.2819597 131.9135339
-196.805682 -147.9208889 3.882405508e-11
-172.946193 -225.2819597 144.2559391
3.697746411e-05 -222.2523878 17.7462662
-33.31838202 -147.7546027 3.882405508e-11
3.697746411e-05 152.1939159 173.6101394
3.697746411e-05 74.02074024 219.3146756
-1.087487023 -234.0228343 3.882405508e-11
-146.144772 -226.0748414 3.882405508e-11
3.697746411e-05 99.08298884 115.490453
-111.529097 -225.2819597 117.1758724
-71.38380002 35.70065704 3.882405508e-11
-228.074541 -143.73329 3.882405508e-11
3.697746411e-05 114.4439451 223.8334113
3.697746411e-05 -54.60980876 120.0083335
-33.10290902 -198.2892141 3.882405508e-11
-89.25071702 -136.2848343 3.882405508e-11
-182.666749 -46.72082806 3.882405508e-11
3.697746411e-05 -64.52704076 206.9377072
-206.352871 11.38758794 3.882405508e-11
-119.174766 -101.7851557 3.882405508e-11
-62.63733402 -210.6910285 3.882405508e-11
3.697746411e-05 26.98272554 77.4184489
3.697746411e-05 -50.14922726 64.8855813
-10.81947402 -225.2819597 71.4936337
2.147622977 42.79166964 3.882405508e-11
3.697746411e-05 199.6771157 239.1098925
-191.240414 -163.1584879 3.882405508e-11
-76.15828402 -225.2819597 123.9252401
3.697746411e-05 -57.87219606 174.9939526
-222.781825 -225.2819597 221.0664056
3.697746411e-05 -81.06351876 142.8282565
-198.43343 79.37576914 3.882405508e-11
3.697746411e-05 83.82609154 77.1915158
-24.83221002 -238.4280406 3.882405508e-11
3.697746411e-05 -89.42088296 186.0300781
-245.168734 -225.2819597 154.2446225
-11.50947102 97.45877984 3.882405508e-11
-161.83166 -225.2819597 216.4820342
-173.689825 -225.2819597 198.7622044
3.697746411e-05 137.974464 192.1666079
-198.424932 -225.2819597 2.20172154
-96.12942702 -225.2819597 57.93470251
3.697746411e-05 -157.2318001 110.7192914
-163.839508 -116.0119915 3.882405508e-11
-248.444625 -225.2819597 85.616906
3.697746411e-05 14.60801734 50.52083567
-174.859446 -1.681241862 3.882405508e-11
-124.539626 -35.68182516 3.882405508e-11
3.697746411e-05 -129.905196 108.0538039
-74.48416902 -45.18629366 3.882405508e-11
-147.705201 148.9268323 3.882405508e-11
-251.057919 -195.2062431 3.882405508e-11
-153.371278 194.4969649 3.882405508e-11
-163.952947 57.07113134 3.882405508e-11
3.697746411e-05 -142.6080212 42.69719123
-93.93082402 180.0572774 3.882405508e-11
-173.029134 -232.2137347 3.882405508e-11
-194.54025 -11.64481506 3.882405508e-11
-234.683036 -226.6863855 3.882405508e-11
-110.242296 -225.2819597 84.8426991
3.697746411e-05 195.0995999 75.6742798
-111.726605 184.367222 3.882405508e-11
3.697746411e-05 -117.7412818 219.3416231
3.697746411e-05 -211.3584768 249.3335102
-110.613413 -225.2819597 204.3515903
-240.231161 -225.2819597 251.0741203
1.591242977 -225.2819597 206.1002911
-139.28812 -117.1835842 3.882405508e-11
3.697746411e-05 -140.8412682 136.1051514
3.697746411e-05 82.28949604 125.070186
3.697746411e-05 -196.7344568 137.3660269
-10.59648802 75.29152074 3.882405508e-11
-138.849502 -225.2819597 28.98807795
-68.20178802 -225.2819597 232.1373507
-248.10195 -225.2819597 230.8627503
3.697746411e-05 186.5543863 154.607687
-132.559776 -225.2819597 203.0579124
3.697746411e-05 1.716594138 213.9240596
3.697746411e-05 180.5628863 30.14950879
-52.82289002 -32.18694346 3.882405508e-11
