# .PCD v0.7 - Point Cloud Data file format
VERSION 0.7
FIELDS x y z
SIZE 4 4 4
TYPE F F F
COUNT 1 1 1
WIDTH 1240
HEIGHT 1
VIEWPOINT 0 0 0 1 0 0 0
POINTS 1240
DATA ascii
5.156304223e-05 -12.4667924 -54.4482886
5.156304223e-05 -179.9447096 133.2569698
-231.6022426 4.888534022e-11 -157.8329626
5.156304223e-05 -61.9190163 77.8412868
5.156304223e-05 -56.6007343 -132.9444493
-234.7407468 -98.5077359 -250
-93.95038634 -250.979527 -250
5.156304223e-05 -10.7630998 131.9809212
5.156304223e-05 -133.5428356 154.8512057
-153.5464669 4.888534022e-11 226.7129475
-190.4268259 -116.8321138 -250
5.156304223e-05 -22.2316654 -98.3609212
5.156304223e-05 -61.5069981 -23.6897838
-20.18290864 4.888534022e-11 51.5659238
-20.04057244 4.888534022e-11 96.3748645
-99.54686754 4.888534022e-11 -153.9969914
-122.9527623 -160.3146511 -250
-123.0663803 4.888534022e-11 -75.1061455
5.156304223e-05 -72.52484 -67.6690422
-118.5206082 4.888534022e-11 234.3814387
5.156304223e-05 -246.6022154 7.245819
5.156304223e-05 -147.9235885 -110.2931806
-147.9912998 4.888534022e-11 -233.6019386
-141.4834713 -177.0269798 -250
5.156304223e-05 -123.9216922 -114.4202765
5.156304223e-05 -185.6773134 -224.6091315
5.156304223e-05 -179.0275574 -68.8711243
-250.0088432 4.888534022e-11 195.6096431
5.156304223e-05 -228.882329 222.4034647
-143.218162 4.888534022e-11 165.503754
-38.07992914 4.888534022e-11 -125.5777901
5.156304223e-05 -220.6198564 -22.1006006
-210.4705887 4.888534022e-11 -226.1250339
5.156304223e-05 -29.6468899 -197.2273729
-228.1192141 -128.1658633 -250
-68.76964494 4.888534022e-11 187.9454688
5.156304223e-05 -84.5763363 179.7217413
-224.7149971 4.888534022e-11 36.2394227
-231.2254842 -22.6338877 -250
5.156304223e-05 -100.8195176 221.9677703
-115.3170275 4.888534022e-11 203.6779345
-80.63087574 4.888534022e-11 -64.4279729
-21.64747624 4.888534022e-11 -8.0488459
-103.6565759 4.888534022e-11 -204.8560892
5.156304223e-05 -19.1524173 64.6929315
5.156304223e-05 -165.9194741 229.9284415
-129.7107143 -99.232324 -250
-69.56826684 4.888534022e-11 -8.0963668
5.156304223e-05 -46.4339327 107.1944548
-228.1233771 4.888534022e-11 249.0780799
5.156304223e-05 -232.8323969 -176.8454835
-225.7691283 -59.6084535 -250
-167.5352631 4.888534022e-11 -112.3673889
5.156304223e-05 -206.9255906 -217.6692202
5.156304223e-05 -133.1982221 31.1526687
-66.80065314 -174.6980424 -250
-184.6344595 2.3693914 -250
-142.2582196 -120.4602376 -250
5.156304223e-05 -108.7238211 63.2692884
-172.6211772 -184.935387 -250
-80.66323944 4.888534022e-11 10.4458847
5.156304223e-05 -244.7576439 145.8140376
5.156304223e-05 -15.6181256 -118.5474154
2.374288663 4.888534022e-11 -96.169137
5.156304223e-05 -6.0000036 -26.4626417
-252.149326 4.888534022e-11 -200.5567001
-20.06716134 -110.0128301 -250
5.156304223e-05 -190.3505156 -117.0431797
-189.3209712 4.888534022e-11 50.2085325
5.156304223e-05 -17.6816584 229.0664982
-168.2250432 -145.5869693 -250
-156.3612607 4.888534022e-11 203.9139642
-184.1661479 -244.5565132 -250
5.156304223e-05 -172.0452457 -150.6139155
-91.68223994 -30.4199314 -250
-200.037797 4.888534022e-11 249.788844
-111.2263742 4.888534022e-11 -242.7190511
-142.9495762 4.888534022e-11 93.2927719
-171.2004598 -104.1698269 -250
-121.0479874 4.888534022e-11 153.4830785
-21.92665134 -153.9017582 -250
-74.45463524 4.888534022e-11 159.1588312
5.156304223e-05 -23.9971247 2.0403145
-23.99912864 -234.9750089 -250
5.156304223e-05 -202.2003786 133.7095343
5.156304223e-05 -104.1385793 -51.0314133
-140.6371144 4.888534022e-11 122.7555649
-45.38112294 -3.1052214 -250
-98.42215284 4.888534022e-11 -104.5336639
-57.21101374 4.888534022e-11 -214.3121603
-221.5845666 -194.9924632 -250
5.156304223e-05 -96.6046393 156.1215928
-249.6638041 4.888534022e-11 -29.5103313
-229.8840224 -251.5559518 -250
-130.1062108 4.888534022e-11 -131.6041564
5.156304223e-05 -248.2892548 -217.9377721
-47.95290474 4.888534022e-11 232.9711605
5.156304223e-05 -26.1980858 109.9324093
5.156304223e-05 -143.6630731 -52.2721999
-138.8667501 -73.3482582 -250
-208.8547108 4.888534022e-11 208.1195778
5.156304223e-05 -32.9097389 -150.3880547
5.156304223e-05 -106.4053652 -153.8445447
5.156304223e-05 -177.9770891 -26.5624569
5.156304223e-05 -144.6506252 98.3552302
5.156304223e-05 -221.0459251 -62.36357
-60.73652704 4.888534022e-11 -126.1560775
5.156304223e-05 -51.0504087 14.1357679
5.156304223e-05 -86.511877 45.8436545
-45.53246924 4.888534022e-11 65.9584977
-193.075218 4.888534022e-11 -145.3080735
5.156304223e-05 -250.295123 218.0957973
-13.77662184 -69.3174535 -250
-181.3454182 4.888534022e-11 -23.8869502
-184.3598542 4.888534022e-11 14.5825876
5.156304223e-05 -249.6631286 31.171882
-78.25036254 4.888534022e-11 -184.451281
5.156304223e-05 -60.8297122 -178.2880452
-124.2140066 -34.6968231 -250
-79.93372374 -93.8993618 -250
5.156304223e-05 -146.1096335 227.5575269
-180.1866761 4.888534022e-11 -163.3244786
-211.4062555 4.888534022e-11 142.7074198
5.156304223e-05 -115.8524466 -20.716542
-86.49476194 -191.4984269 -250
5.156304223e-05 -207.4035438 219.1390619
5.156304223e-05 -114.3605906 -87.1511304
5.156304223e-05 -83.2533934 231.1877776
-33.26073794 4.888534022e-11 -51.8818953
-213.8237964 4.888534022e-11 75.3306818
5.156304223e-05 -55.8354111 -111.9773201
5.156304223e-05 -210.0367172 33.2754442
-13.81444964 4.888534022e-11 -67.7004925
-210.7832108 4.888534022e-11 -117.9333534
-196.1215977 4.888534022e-11 -190.4408485
-88.03515054 -132.5225112 -250
-40.55757164 -141.0394817 -250
5.156304223e-05 -87.7739572 -228.8390121
-22.75380164 4.888534022e-11 116.3262402
-103.0550781 4.888534022e-11 27.7143785
-46.76168864 4.888534022e-11 -173.7340119
5.156304223e-05 -97.6745017 -172.0727682
5.156304223e-05 -218.6812445 202.6457151
-139.8171301 4.888534022e-11 -102.7802304
5.156304223e-05 -146.4923567 74.0532614
0.293091963 4.888534022e-11 236.7810697
-105.9338045 4.888534022e-11 -66.2486619
-14.49182134 4.888534022e-11 -86.8084347
5.156304223e-05 -214.4511927 -80.298611
5.156304223e-05 -49.0781475 -216.3219731
-107.5021666 4.888534022e-11 -224.0062595
0.09635616304 -46.7590843 250
-90.06565864 -232.3422655 -250
-131.1734657 4.888534022e-11 -174.3420089
5.156304223e-05 -249.8896279 184.7058912
5.156304223e-05 -20.9866686 148.0040776
5.156304223e-05 -106.5485784 14.1011751
5.156304223e-05 -4.2378009 93.7687565
-87.01287154 4.888534022e-11 236.4803654
-41.81003804 4.888534022e-11 17.6172421
-38.70489584 -105.5930043 -250
5.156304223e-05 -206.6052092 66.6242706
-101.3531171 -101.0508587 -250
-144.5885761 4.888534022e-11 -189.704715
-23.36334944 4.888534022e-11 -157.8814759
-215.2581098 4.888534022e-11 -205.7687959
-153.6984161 4.888534022e-11 -149.0096124
-195.4052659 4.888534022e-11 -92.8928113
-187.5859154 -135.3987766 -250
-123.6079845 -61.9024282 -250
-211.478087 4.888534022e-11 -57.5963644
-180.7781813 4.888534022e-11 119.8609765
1.761585463 -32.5668077 -250
-127.1082724 -252.1812883 -250
-201.7889317 4.888534022e-11 123.173518
-17.52818304 4.888534022e-11 -226.6000081
-131.7176349 4.888534022e-11 -4.2140955
5.156304223e-05 -78.2586638 14.0097163
-58.34765414 -51.7122817 -250
5.156304223e-05 -69.7732428 53.9404651
-193.1681517 4.888534022e-11 232.551743
-14.22888894 -195.9912961 -250
2.439413463 4.888534022e-11 190.7445003
5.156304223e-05 -179.166531 -186.7491351
-155.2957177 4.888534022e-11 -46.407243
-100.0885012 4.888534022e-11 -26.3895345
-74.09961684 4.888534022e-11 129.5535543
-240.4468851 4.888534022e-11 155.3400391
5.156304223e-05 -0.173879 -129.9432869
-155.754395 -37.5888118 -250
-46.63905364 4.888534022e-11 -87.1763228
-198.3138193 4.888534022e-11 1.2054228
-70.71384014 -121.7098085 -250
5.156304223e-05 -232.5589703 -112.0465535
5.156304223e-05 -206.6370346 -154.4595488
-17.56735474 4.888534022e-11 210.0378805
-192.0012934 -36.956944 -250
-163.0041598 4.888534022e-11 -20.5490526
5.156304223e-05 -134.2313265 -236.7429742
5.156304223e-05 -233.4589486 243.8289378
5.156304223e-05 -56.6830411 155.6632702
-105.3501201 -165.980225 -250
-182.0313149 4.888534022e-11 197.6458974
-78.76502194 4.888534022e-11 -93.5868077
-140.7028348 4.888534022e-11 -209.1348216
-58.09357514 4.888534022e-11 101.0181252
-229.9409529 4.888534022e-11 -5.6798468
-128.887445 4.888534022e-11 23.4266087
-206.5131624 -129.0252022 -250
-55.34849534 4.888534022e-11 127.8280158
5.156304223e-05 -217.8249069 160.2352159
-221.9310822 -145.0596988 -250
-82.42165604 -149.6199051 -250
-183.3219629 -15.5547926 -250
-15.36055364 -20.5466781 -250
-232.4921512 4.888534022e-11 -92.4425431
-62.13745514 4.888534022e-11 -151.3619922
-38.87839424 4.888534022e-11 152.0084885
5.156304223e-05 -197.7602374 239.4159546
-98.17786474 4.888534022e-11 121.74566
-157.6050197 4.888534022e-11 28.8451566
-110.7263365 4.888534022e-11 -88.9603301
-29.94535644 4.888534022e-11 36.2576409
-178.94388 4.888534022e-11 -72.8857306
-238.894543 -71.8242707 -250
-104.2018347 -191.2876488 -250
5.156304223e-05 -150.9956995 -92.7532512
-234.0565976 4.888534022e-11 -58.4820987
-141.2062618 -194.6779526 -250
5.156304223e-05 -82.782967 -52.7022713
5.156304223e-05 -115.9066833 157.3895582
5.156304223e-05 -153.8138688 192.784682
5.156304223e-05 -80.085999 121.7597739
5.156304223e-05 -53.6843923 -59.0067031
-118.4602621 4.888534022e-11 58.9208247
5.156304223e-05 -180.6756925 203.8292722
-204.1283113 -97.0499594 -250
-31.87530344 4.888534022e-11 -109.2358903
5.156304223e-05 -136.1187675 -173.2749021
5.156304223e-05 -16.0757311 -232.7984182
-197.1255652 -209.257707 -250
-222.0760346 4.888534022e-11 -24.5174456
5.156304223e-05 -66.725969 177.0494297
-217.7941962 4.888534022e-11 -168.4229831
5.156304223e-05 -39.0150333 45.1502952
5.156304223e-05 -132.9881617 172.2023913
-170.077727 4.888534022e-11 168.0543458
5.156304223e-05 -133.0109719 -11.7253157
-136.6630013 4.888534022e-11 230.0511939
-224.3311825 4.888534022e-11 178.6623406
-162.8968047 -21.3833776 -250
5.156304223e-05 -179.4026767 -206.4217707
-234.9200994 4.888534022e-11 80.9345447
-153.0586383 4.888534022e-11 72.8151663
5.156304223e-05 -25.6047671 211.1091994
5.156304223e-05 -239.0751495 47.118137
1.573950563 4.888534022e-11 -42.8921896
5.156304223e-05 -135.2748018 136.8043899
5.156304223e-05 -121.8998366 108.8093665
5.156304223e-05 -126.7711815 -149.3241141
5.156304223e-05 -10.4843029 -179.4041371
-97.81356674 4.888534022e-11 5.4723306
-106.4735601 -67.5613904 -250
-3.352184137 4.888534022e-11 -240.5738746
5.156304223e-05 -205.5814798 90.4636954
-141.1446209 -158.7939599 -250
-57.22754264 -211.3284373 -250
5.156304223e-05 -45.3609807 -32.326676
5.156304223e-05 -33.6998361 239.1458933
-229.1043758 4.888534022e-11 -122.7592603
-2.645020937 4.888534022e-11 56.5983953
-198.923143 -78.1803232 -250
-26.85482544 4.888534022e-11 -26.250547
-86.51599994 4.888534022e-11 -201.8271706
-205.3835308 4.888534022e-11 35.847822
-159.3074039 4.888534022e-11 1.154745
-229.3307766 4.888534022e-11 108.6479389
-76.96054584 4.888534022e-11 -235.1572354
-177.4893387 4.888534022e-11 -201.8499741
-177.7548542 -200.8870486 -250
5.156304223e-05 -150.1222049 152.4654082
-28.88448964 4.888534022e-11 179.6175486
-164.1006831 -234.8326437 -250
5.156304223e-05 -178.0911758 11.7213203
5.156304223e-05 -242.199139 77.1831646
5.156304223e-05 -78.107148 -25.1287603
-234.4002414 4.888534022e-11 -227.227607
-203.4007939 2.1683868 -250
5.156304223e-05 -44.0986088 -237.5693219
-151.6715395 4.888534022e-11 243.2378095
5.156304223e-05 -234.4116324 -9.1044755
-230.6687042 4.888534022e-11 141.8985319
5.156304223e-05 -94.0848349 -87.1223679
-210.7691194 4.888534022e-11 -81.9689212
-170.5643755 4.888534022e-11 75.6970317
-45.81995054 4.888534022e-11 -67.0342051
-63.68747524 4.888534022e-11 203.6892976
5.156304223e-05 -201.240078 184.5016049
5.156304223e-05 -195.0358251 -182.2535916
-7.197295237 4.888534022e-11 9.05129
-47.18250354 4.888534022e-11 216.5255073
5.156304223e-05 -15.1646077 -215.0256969
5.156304223e-05 -204.8741228 -124.6605278
-85.32811784 4.888534022e-11 -162.1532793
5.156304223e-05 -28.6262662 -22.1994877
5.156304223e-05 -148.1374342 -228.0853594
-251.9115743 4.888534022e-11 -45.7091123
5.156304223e-05 -92.1550037 -116.6619231
5.156304223e-05 -228.8635597 100.5967939
5.156304223e-05 -81.8044375 247.4606045
-100.6514225 4.888534022e-11 150.7491716
-40.41293954 4.888534022e-11 85.7033012
-43.18100274 -72.085432 -250
-128.2914887 -224.8752032 -250
5.156304223e-05 -41.3191056 78.9650372
5.156304223e-05 -72.9173322 -142.0209159
-168.0544723 4.888534022e-11 234.1280719
-198.6444928 -225.7916513 -250
-74.05692904 4.888534022e-11 78.6171228
-160.8539812 4.888534022e-11 -189.1011947
-6.539559437 4.888534022e-11 -147.8214489
5.156304223e-05 -68.5160013 -241.0423547
-90.08410494 -60.0228856 -250
5.156304223e-05 -33.1389512 -81.5884944
-230.0765771 -208.7112936 -250
-115.9414074 4.888534022e-11 -180.2325973
-10.25470044 4.888534022e-11 170.4345692
-251.3789657 4.888534022e-11 -158.8728338
-70.91740864 4.888534022e-11 236.409635
5.156304223e-05 -141.1605093 -78.4877897
-167.1516143 -49.184181 -250
5.156304223e-05 -210.2436605 -50.4845739
5.156304223e-05 -34.0874496 -134.2683577
5.156304223e-05 -234.0017316 182.4335381
-202.2920626 4.888534022e-11 89.9552853
-174.985682 4.888534022e-11 104.3438828
-20.31527264 -252.3482586 -250
-183.0575982 4.888534022e-11 -106.0401475
-213.0696506 4.888534022e-11 -153.1609046
5.156304223e-05 -232.0240309 -128.012138
5.156304223e-05 -247.2223153 -160.5502566
-11.99729154 4.888534022e-11 37.8786869
-31.73708024 4.888534022e-11 5.0959917
5.156304223e-05 -214.2065168 15.0594072
-59.32673584 4.888534022e-11 166.5478871
-112.3030043 -222.468925 -250
5.156304223e-05 -184.19969 95.9721881
5.156304223e-05 -46.0405966 207.7984164
-170.9237543 4.888534022e-11 -129.3062578
5.156304223e-05 -41.3892558 150.8923048
5.156304223e-05 -158.1933947 -6.2015338
5.156304223e-05 -52.0991057 125.687804
-188.2030294 4.888534022e-11 -229.8390593
-128.8364154 4.888534022e-11 -31.2953546
-108.8031986 4.888534022e-11 186.7736087
5.156304223e-05 -140.4512321 -33.7490939
5.156304223e-05 -13.32841 15.0594264
-120.0709547 4.888534022e-11 -59.3151217
5.156304223e-05 -64.528144 -81.9954196
-34.89854664 -37.7512426 -250
5.156304223e-05 -16.3355675 -11.7543104
5.156304223e-05 -31.9210954 179.7710386
5.156304223e-05 -194.778703 36.804845
5.156304223e-05 -186.8157578 -240.7367866
5.156304223e-05 -69.9280494 203.6972665
-69.59639754 4.888534022e-11 -23.6979537
-156.2530999 4.888534022e-11 -101.611012
-37.39290114 4.888534022e-11 128.5709304
-234.7173222 -163.4793739 -250
5.156304223e-05 -104.2377763 -186.4564292
-116.4168269 4.888534022e-11 -143.9921477
5.156304223e-05 -104.5137269 129.4424512
-248.0307803 4.888534022e-11 7.6780003
-184.2565504 4.888534022e-11 -58.1892806
5.156304223e-05 -96.0325842 193.3728369
-199.576233 4.888534022e-11 152.741372
-182.3582446 -52.2081546 -250
5.156304223e-05 -163.2211538 246.7377971
5.156304223e-05 -156.6764799 27.9208795
-47.41532664 -184.1567425 -250
-75.90142244 -207.7606382 -250
-223.0883658 4.888534022e-11 221.7969938
-245.4588823 -28.673108 -250
5.156304223e-05 -45.3846469 -178.5836052
5.156304223e-05 -135.9998019 49.5758556
5.156304223e-05 -222.6759424 -96.3613623
-102.8751746 -116.3975802 -250
-118.6654205 -144.0916848 -250
5.156304223e-05 -88.4510782 -194.4575104
2.043996363 -80.9751416 -250
5.156304223e-05 -161.7250866 -31.0055821
5.156304223e-05 -108.9508923 -213.8407501
-130.072107 -15.6384103 -250
5.156304223e-05 -139.8165475 8.6570898
5.156304223e-05 -101.7476569 76.9328935
5.156304223e-05 -11.876276 204.2985083
5.156304223e-05 -80.4522833 -165.6290714
-137.6236349 4.888534022e-11 -144.891524
-28.96689524 4.888534022e-11 -91.6398564
-63.20409234 4.888534022e-11 -98.4460543
-251.453226 4.888534022e-11 27.0345864
5.156304223e-05 -107.4773119 -119.632747
-81.70253254 4.888534022e-11 98.2936698
-128.7517996 4.888534022e-11 -89.2076982
-60.09433874 -154.2352046 -250
-114.8067401 4.888534022e-11 115.7149469
-188.1009482 4.888534022e-11 180.6420705
-241.1278054 4.888534022e-11 236.826486
-67.31355194 -85.5876828 -250
-60.84308544 -2.7382389 -250
-249.0277622 -214.259633 -250
1.486943463 4.888534022e-11 -69.194419
-209.8556938 -180.4330575 -250
-83.52447014 4.888534022e-11 47.0157038
-244.3623452 -57.7920816 -250
5.156304223e-05 -177.1275665 167.955525
-31.33696344 -119.9849144 -250
5.156304223e-05 -151.711347 119.484112
5.156304223e-05 -240.5213179 -50.5690534
5.156304223e-05 -175.2699238 -132.5501314
-10.23898834 4.888534022e-11 129.7223675
5.156304223e-05 -208.0847671 -35.6338249
5.156304223e-05 -135.578238 86.4208156
5.156304223e-05 -24.7238808 35.217471
-211.5592037 -165.5884103 -250
-251.7403529 -130.8129884 -250
-111.3707058 4.888534022e-11 165.7116745
5.156304223e-05 -219.0561508 -233.2192744
5.156304223e-05 -178.8533385 -83.7827857
-92.35560414 4.888534022e-11 -132.9684584
-72.05492214 4.888534022e-11 -52.2362781
5.156304223e-05 -56.5981344 233.1948444
-121.7973067 4.888534022e-11 -119.1705944
-91.90846594 -15.550689 -250
-125.0442234 4.888534022e-11 192.4507481
5.156304223e-05 -134.0462385 240.9184763
5.156304223e-05 -102.8960232 -12.8627149
-121.5490446 4.888534022e-11 218.5959879
-29.11097994 -174.1853187 -250
-132.0914914 4.888534022e-11 -233.847553
-37.44788844 4.888534022e-11 -186.8107117
5.156304223e-05 -120.1105275 20.0004859
5.156304223e-05 -36.0952324 -103.4876366
-42.43978654 4.888534022e-11 -213.9725349
5.156304223e-05 -173.2050578 48.9657341
-164.8098351 4.888534022e-11 43.2527588
-142.0781837 4.888534022e-11 107.9775593
-5.450949337 4.888534022e-11 -209.7095893
5.156304223e-05 -233.8791606 -207.8471952
-32.44803044 2.4171533 250
-8.160230237 -134.6417498 -250
-12.05158394 4.888534022e-11 228.8108231
-143.3441227 4.888534022e-11 -68.9341037
5.156304223e-05 -25.5505416 51.0202713
5.156304223e-05 -207.9380618 106.9038042
-12.71126024 4.888534022e-11 -22.2288108
5.156304223e-05 -208.7200027 52.1046179
-40.72672854 4.888534022e-11 -39.2516138
-91.55659574 4.888534022e-11 -233.6727811
5.156304223e-05 -180.1180356 234.2334686
5.156304223e-05 -162.4663567 -115.7882702
1.389581463 4.888534022e-11 -111.8730042
5.156304223e-05 -183.9261983 65.2628146
-60.84588504 4.888534022e-11 3.6338424
-150.6986666 -105.2254257 -250
-206.9992794 4.888534022e-11 -132.0503762
-141.465941 4.888534022e-11 -38.9323926
-115.1687764 -105.7265323 -250
-243.5822758 4.888534022e-11 -129.4649687
5.156304223e-05 -48.9284361 34.4960223
-31.96729194 4.888534022e-11 202.8755852
5.156304223e-05 -17.0540986 -155.4435079
-95.57777684 4.888534022e-11 -45.6495276
-251.2478312 -97.974744 -250
-91.48297544 4.888534022e-11 181.0248146
-19.89675084 4.888534022e-11 -189.4264774
-169.3929149 -212.7594756 -250
-201.3374578 4.888534022e-11 -106.9491607
-163.214164 4.888534022e-11 -83.9216686
-218.307155 -12.275437 -250
-107.5307416 -131.2139854 -250
-146.8936148 -1.9028574 -250
-48.35435504 -17.2162089 -250
-78.05038924 -240.3026421 -250
5.156304223e-05 -13.8998741 -193.5888311
-190.0424076 4.888534022e-11 -174.1327026
-187.7086827 4.888534022e-11 89.7885335
-120.84675 4.888534022e-11 -206.2432322
5.156304223e-05 -189.8702217 143.6431628
-76.84550154 -1.1631408 -250
-104.9538855 4.888534022e-11 -190.5858049
5.156304223e-05 -54.730457 95.5281903
-239.2166422 4.888534022e-11 98.3207279
-239.004985 4.888534022e-11 -194.9628499
-206.8782674 4.888534022e-11 109.8437802
-108.1070659 4.888534022e-11 -115.2922394
5.156304223e-05 -158.2651738 -239.3709028
-8.839052137 4.888534022e-11 -175.6228495
5.156304223e-05 -57.5708456 -231.9615504
-57.78514054 4.888534022e-11 58.772549
-45.07569314 -87.1247865 -250
-184.5018186 -66.2292506 -250
-84.11624644 4.888534022e-11 217.5171251
5.156304223e-05 -192.7126265 -157.3674346
-138.375977 -214.9477665 -250
5.156304223e-05 -190.9832161 -101.1139326
-163.6782847 -88.8723471 -250
-240.3137742 4.888534022e-11 184.3646527
5.156304223e-05 -14.8209496 -37.4341766
-105.196824 -87.5160977 -250
-132.473528 4.888534022e-11 83.9081126
5.156304223e-05 -46.8869047 181.8970442
-218.640403 -238.2106274 -250
5.156304223e-05 -153.5951038 61.95266
-112.6860936 4.888534022e-11 -6.226312
5.156304223e-05 -78.6493604 32.7493419
-170.6200439 4.888534022e-11 205.7745263
5.156304223e-05 -241.7443676 -76.3043294
-137.2258437 4.888534022e-11 55.4148646
5.156304223e-05 -68.6502418 -155.3354113
5.156304223e-05 -165.8486826 -62.6904084
5.156304223e-05 -23.0703565 -68.6913604
5.156304223e-05 -66.2974994 123.9892841
-157.8155703 -59.570261 -250
-158.9270318 4.888534022e-11 -224.581191
5.156304223e-05 -68.4702877 -106.1167401
-200.9431109 4.888534022e-11 219.5793426
-230.6902689 4.888534022e-11 -173.6624382
-156.0991487 4.888534022e-11 179.5346684
-245.6802421 -185.9676947 -250
5.156304223e-05 -22.7220435 124.9022598
5.156304223e-05 -251.1248323 -236.3678136
5.156304223e-05 -232.9268308 4.8801832
-195.1509783 4.888534022e-11 -29.3368603
5.156304223e-05 -199.8816943 5.4661516
5.156304223e-05 -163.780899 181.5484834
-208.076183 -200.7899962 -250
-14.07499794 4.888534022e-11 149.0918584
-128.0435968 -133.9639648 -250
-16.63675294 4.888534022e-11 82.9992461
-240.4083173 4.888534022e-11 -240.5401747
-238.4774732 4.888534022e-11 -77.3572017
5.156304223e-05 -123.7494535 76.0486535
5.156304223e-05 -235.6329449 -242.8650991
5.156304223e-05 -100.2806589 43.4670011
5.156304223e-05 -103.8049079 167.8206466
-11.90770314 4.888534022e-11 68.8057537
5.156304223e-05 -145.9914361 -213.4993897
-75.90559804 -164.4385611 -250
5.156304223e-05 -173.2143287 -239.0657676
-20.57998434 -94.5510804 -250
-159.9440506 4.888534022e-11 103.9683669
-15.64459244 4.888534022e-11 -54.1280455
-175.5789713 4.888534022e-11 141.1855417
5.156304223e-05 -204.5638875 -140.9413665
5.156304223e-05 -35.7106981 -52.5294602
-233.0900365 4.888534022e-11 166.8621956
-171.1260284 4.888534022e-11 11.1651091
5.156304223e-05 -120.7215004 -137.0737425
-11.33255304 -121.1274042 -250
5.156304223e-05 -148.203809 -65.137162
5.156304223e-05 -121.8846541 -230.9467408
5.156304223e-05 -17.8010139 80.3916766
-86.22765634 4.888534022e-11 150.8514852
-34.92253484 4.888534022e-11 99.6866806
5.156304223e-05 -178.0815864 -40.1754245
-221.5849662 4.888534022e-11 -109.6612853
-234.6601585 -84.7524918 -250
5.156304223e-05 -118.9619776 190.6282453
-185.9684566 4.888534022e-11 150.92673
-184.7955021 -104.4583191 -250
-39.30864674 4.888534022e-11 53.8839929
-204.7555263 4.888534022e-11 -179.9572247
-47.93407904 4.888534022e-11 30.5293111
-76.39049954 4.888534022e-11 176.7179759
5.156304223e-05 -218.9688398 -211.3899104
5.156304223e-05 -214.1688196 -185.0437088
-102.0430277 4.888534022e-11 208.367222
-156.1473133 -196.5464871 -250
-164.549107 4.888534022e-11 218.8522378
-65.61093894 4.888534022e-11 -201.8964518
-85.82707744 4.888534022e-11 69.0998687
5.156304223e-05 -93.3959492 11.0630595
5.156304223e-05 -152.4284583 -41.5852039
-247.0248394 4.888534022e-11 208.7518252
-232.7771034 4.888534022e-11 208.0354532
5.156304223e-05 -208.9114703 -198.7945004
-50.80672424 4.888534022e-11 186.9764554
5.156304223e-05 -90.869517 104.1427718
5.156304223e-05 -60.8622174 -209.3781251
-2.385193337 -211.1003049 -250
-94.22064504 -43.5821037 -250
-211.292459 4.888534022e-11 -32.4735674
5.156304223e-05 -38.9218783 8.4644178
-191.987105 4.888534022e-11 206.5928006
-87.25442854 4.888534022e-11 249.8602077
-195.0765527 -252.2960752 -250
-29.48898764 -9.0372151 -250
5.156304223e-05 -175.6492148 -118.0494345
5.156304223e-05 -179.5902381 108.5192855
-167.027809 4.888534022e-11 -157.4710406
-235.1822959 4.888534022e-11 -22.0490279
-222.6303403 4.888534022e-11 -218.32594
5.156304223e-05 -236.0392762 -194.7275668
5.156304223e-05 -51.7963312 48.8119774
-152.6966486 4.888534022e-11 135.6163278
5.156304223e-05 -49.1665286 -74.8934331
5.156304223e-05 -205.015888 165.207995
5.156304223e-05 -148.7734085 -177.2808754
5.156304223e-05 -209.19548 -95.7015128
5.156304223e-05 -102.9654595 -243.8265938
5.156304223e-05 -223.8506108 -167.0943135
5.156304223e-05 -169.1201001 125.616758
-36.55948974 4.888534022e-11 -17.0975511
5.156304223e-05 -74.190185 187.9778734
-154.670282 -153.6588128 -250
-107.4169001 4.888534022e-11 -164.6300398
-238.8453689 -240.4980082 -250
-214.381245 -68.5920186 -250
-103.7296037 4.888534022e-11 137.1914064
5.156304223e-05 -114.9152694 -73.9638923
-65.53105944 4.888534022e-11 -111.4135657
5.156304223e-05 -143.7217966 -122.7734475
5.156304223e-05 -222.931889 189.6492696
-61.54398574 4.888534022e-11 -65.7212495
-26.38060424 -61.9258477 -250
5.156304223e-05 -144.2616304 206.5292799
-94.38162004 4.888534022e-11 39.6405226
-196.3429897 4.888534022e-11 63.7909924
-191.2787845 4.888534022e-11 37.2377046
-108.3400914 -37.459212 -250
-24.11881874 4.888534022e-11 -124.5625856
-49.03698374 -201.1276042 -250
-137.93768 4.888534022e-11 -163.1491787
5.156304223e-05 -125.3923166 212.566238
-132.7282107 4.888534022e-11 -18.5669888
-251.5658137 -232.2248228 -250
5.156304223e-05 -107.0621945 28.4167355
-172.3912755 -157.9420977 -250
5.156304223e-05 -125.225342 -51.9504386
-37.46489804 -238.9967135 -250
5.156304223e-05 -207.6138872 152.1547251
5.156304223e-05 -233.7557593 123.6913624
5.156304223e-05 -218.3768351 -148.6243932
5.156304223e-05 -149.8621815 -201.1028921
-6.535827337 -161.7965395 -250
5.156304223e-05 -103.081719 95.6187522
5.156304223e-05 -231.9208726 -31.0249261
5.156304223e-05 -230.7580098 159.7747233
-177.6506364 -77.4177423 -250
-103.9108015 4.888534022e-11 69.3189998
-112.9151859 4.888534022e-11 246.3695824
-115.9190744 4.888534022e-11 26.5833617
5.156304223e-05 -212.9891811 126.6451125
-20.29214644 -184.6146269 -250
-74.88180484 4.888534022e-11 -126.0061754
-77.29888654 4.888534022e-11 -152.075826
-100.2236778 -177.8000416 -250
5.156304223e-05 -75.6117263 -195.2106903
-72.48645694 4.888534022e-11 146.4531744
-48.41049324 4.888534022e-11 -133.2319412
-158.0255824 4.888534022e-11 160.9345752
5.156304223e-05 -15.2173469 185.7249877
-115.4013444 4.888534022e-11 -35.1763032
-90.35597824 4.888534022e-11 111.5524124
-54.36778354 4.888534022e-11 -15.3071194
5.156304223e-05 -78.0099583 -213.6207474
-218.3371437 -93.3955594 -250
-137.1630683 4.888534022e-11 176.8213088
-188.6927602 4.888534022e-11 -7.2857339
-224.3500094 4.888534022e-11 23.4143211
5.156304223e-05 -88.3231011 -104.4175548
-237.1850244 -176.3552926 -250
5.156304223e-05 -31.6997352 -163.1556848
-2.678020637 4.888534022e-11 -55.7902802
5.156304223e-05 -252.2802273 -102.5003788
5.156304223e-05 -144.5994905 20.5478912
5.156304223e-05 -37.0234259 -209.9154879
-52.28530694 -245.4738438 -250
-189.5773312 4.888534022e-11 -81.5345433
-29.46649994 4.888534022e-11 -143.1411689
5.156304223e-05 -250.204421 104.7214128
5.156304223e-05 -18.9885061 97.5498739
-177.0398454 4.888534022e-11 54.6113913
5.156304223e-05 -86.0501581 -138.6993064
5.156304223e-05 -192.7264133 -74.9878065
-130.033711 -113.7794773 -250
-172.3545313 -171.2613495 -250
-44.37374694 4.888534022e-11 246.2947723
-60.89500504 4.888534022e-11 116.4007305
5.156304223e-05 -153.0141725 239.1783024
-149.2949588 4.888534022e-11 -57.5833592
-135.8060627 4.888534022e-11 154.4958995
-38.63922594 -224.6932946 -250
5.156304223e-05 -238.7657359 232.3401006
-133.9004029 4.888534022e-11 133.4532484
-158.2056208 4.888534022e-11 -34.1060473
-213.9360177 4.888534022e-11 -243.3959003
5.156304223e-05 -31.1234139 158.2329438
-129.2326836 -171.2491575 -250
5.156304223e-05 -86.9607873 -14.826335
5.156304223e-05 -97.7467183 57.0834091
5.156304223e-05 -0.4559108 139.8199556
5.156304223e-05 -172.8552623 75.3469097
5.156304223e-05 -88.9086177 217.9628961
-186.6124295 4.888534022e-11 249.1426793
-151.8318454 4.888534022e-11 -8.9348327
-105.559652 4.888534022e-11 91.5588171
5.156304223e-05 -243.0862886 19.8665228
5.156304223e-05 -72.3469945 -13.1950019
-55.55684444 4.888534022e-11 -34.4186734
5.156304223e-05 -171.7227081 95.9197254
-145.342258 4.888534022e-11 26.5622887
-149.2146272 4.888534022e-11 215.0450646
5.156304223e-05 -125.9863614 -181.1925165
-76.44037484 -106.2948801 -250
-171.4462826 4.888534022e-11 -54.6180519
-128.8056252 4.888534022e-11 167.2069307
5.156304223e-05 -13.8411235 -167.4099293
-4.583591337 4.888534022e-11 206.2924359
5.156304223e-05 -184.3477328 43.6155902
-191.8418171 -24.5090603 -250
5.156304223e-05 -25.3763351 -110.9653315
5.156304223e-05 -105.0080017 -202.0454129
5.156304223e-05 -105.5001763 -36.5411653
-156.3818098 4.888534022e-11 -132.5309533
-249.7153058 4.888534022e-11 -212.6459033
-77.69083574 4.888534022e-11 -171.8291925
5.156304223e-05 -246.9730615 -201.9945933
-17.65236914 -221.2959939 -250
-90.64256594 4.888534022e-11 -187.2676355
-122.2922756 4.888534022e-11 -45.5241227
-16.20215714 -81.3734221 -250
-234.6364749 4.888534022e-11 45.7871551
-59.54036274 -129.1578164 -250
-236.8786224 4.888534022e-11 119.7547538
-44.49667064 4.888534022e-11 -201.8759866
5.156304223e-05 -10.6154593 -105.8814327
-151.3261053 4.888534022e-11 53.5130001
5.156304223e-05 -77.1581556 -79.0103981
5.156304223e-05 -42.1585993 91.1620652
5.156304223e-05 -169.5437838 142.8105563
-48.16784834 -151.57339 -250
-31.59829014 -202.9466033 -250
5.156304223e-05 -189.7717382 180.3280939
-158.6792659 4.888534022e-11 -239.6649535
-203.99833 4.888534022e-11 -201.1036516
5.156304223e-05 -209.3494469 193.5995852
5.156304223e-05 -103.5114612 182.1509878
5.156304223e-05 -75.6670048 148.2281489
5.156304223e-05 -115.2960003 -105.8179105
5.156304223e-05 -8.5077318 31.5555819
-69.91235724 4.888534022e-11 27.3682739
5.156304223e-05 -250.6648051 43.4052383
-125.0551347 -49.8226426 -250
-122.5006007 -196.8394088 -250
-75.93537824 4.888534022e-11 -75.6307556
5.156304223e-05 -80.0933913 2.0038009
5.156304223e-05 -40.0961319 117.5511437
-38.50071544 4.888534022e-11 -164.837633
5.156304223e-05 -249.7738028 156.8676057
-238.1242252 4.888534022e-11 32.1430591
-68.07673664 4.888534022e-11 94.124443
-143.2296318 4.888534022e-11 -177.67913
5.156304223e-05 -79.1533503 92.7069499
5.156304223e-05 -1.5823753 -83.1436786
-189.035736 -233.48389 -250
-239.6287625 -131.8262419 -250
-75.91109404 4.888534022e-11 -213.6273291
5.156304223e-05 -117.9975886 239.0035805
-19.20361114 4.888534022e-11 8.1770217
-140.1514394 -41.0275075 -250
-107.536276 4.888534022e-11 38.8768833
5.156304223e-05 -30.7145133 73.308772
-120.1261012 4.888534022e-11 -232.7705599
5.156304223e-05 -91.1655327 -62.1873734
5.156304223e-05 -186.1905955 -59.240606
-189.8041535 -179.8492384 -250
5.156304223e-05 -57.0215038 -97.8983325
5.156304223e-05 -50.3749334 137.8822051
5.156304223e-05 -143.8313685 37.959469
5.156304223e-05 -125.0601208 42.8893733
5.156304223e-05 -201.9182715 79.08455
5.156304223e-05 -9.7615758 162.0362531
-25.51790384 4.888534022e-11 -60.9566971
-96.85816284 4.888534022e-11 17.5240493
-211.5570315 4.888534022e-11 244.599888
-67.25173484 4.888534022e-11 68.499818
-115.848501 -93.832209 -250
-11.52720234 -242.8195411 -250
-52.13718464 4.888534022e-11 -157.8236309
5.156304223e-05 -249.7010706 205.4578186
-88.81213034 -218.3528673 -250
-249.5214147 4.888534022e-11 -186.7677169
-101.8128009 -239.205965 -250
5.156304223e-05 -59.3420277 -35.383616
5.156304223e-05 -130.9803532 -162.5529979
-98.40484674 4.888534022e-11 -215.9345541
-23.42871954 -48.1341591 -250
5.156304223e-05 -230.3385393 -143.5267525
-246.1459729 4.888534022e-11 66.0162147
-227.2796138 -43.7279722 -250
-235.0408189 -192.7717387 -250
-114.1264259 4.888534022e-11 102.9286348
5.156304223e-05 -46.5495737 -125.789831
5.156304223e-05 -45.1625575 -18.4020967
5.156304223e-05 -92.9214835 123.4451727
5.156304223e-05 -172.8322331 -169.3241193
-220.9891014 4.888534022e-11 52.458248
-239.3038657 4.888534022e-11 133.811645
-48.88155984 4.888534022e-11 158.3189124
5.156304223e-05 -129.804501 98.24133
-194.7375768 4.888534022e-11 22.1342371
5.156304223e-05 -136.7507798 -202.5944072
5.156304223e-05 -142.010188 59.7910201
5.156304223e-05 -79.143933 78.8258485
-63.20937664 4.888534022e-11 40.851829
5.156304223e-05 -203.6889554 -24.7208402
-177.3254799 -119.1276361 -250
-132.6790104 -241.8397456 -250
5.156304223e-05 -120.3928821 -211.2500928
-232.4071256 4.888534022e-11 -104.1678144
5.156304223e-05 -51.4001189 -143.4531768
-56.60885064 4.888534022e-11 -180.084546
-83.74211114 4.888534022e-11 -47.8505738
-80.14527724 -25.1248901 -250
-251.1530205 -42.466183 -250
-83.49645954 4.888534022e-11 121.0282655
-108.0676204 4.888534022e-11 -17.0474751
5.156304223e-05 -43.9365213 -190.1779923
-99.59573224 4.888534022e-11 -92.4997055
-162.0506721 -111.4250906 -250
-159.8491029 -185.4866893 -250
5.156304223e-05 -108.1356365 148.6980631
-128.0816013 4.888534022e-11 48.1883172
5.156304223e-05 -162.5818502 37.9645893
-136.9750652 4.888534022e-11 -122.2084149
-4.314921637 -45.0595321 -250
-211.6942679 4.888534022e-11 193.5619955
-168.3437429 4.888534022e-11 130.8873915
-189.9235647 4.888534022e-11 -42.252703
-29.22648014 4.888534022e-11 -242.7022266
5.156304223e-05 -77.5285075 -42.1763163
5.156304223e-05 -167.6111203 -185.6300311
-73.58212684 4.888534022e-11 247.7021929
-32.17248844 -159.3443093 -250
-242.691815 -13.8579817 -250
-241.7646888 4.888534022e-11 -165.3451311
5.156304223e-05 -146.1966843 -164.6026889
-224.3576104 -110.4236252 -250
-52.06679074 4.888534022e-11 -224.6911568
5.156304223e-05 -66.8966764 -57.5482542
-217.334733 -133.135133 -250
-77.77793574 -77.6416858 -250
5.156304223e-05 -159.1139678 -156.557429
5.156304223e-05 -62.348493 -189.9468519
-63.75413904 4.888534022e-11 -223.8308688
-122.950777 4.888534022e-11 -243.9630419
-240.2425513 4.888534022e-11 -143.5144338
5.156304223e-05 -180.0110864 121.7233031
-191.5894632 -7.5197951 -250
-157.6160773 -225.3048694 -250
-155.3792001 -124.5601131 -250
5.156304223e-05 -3.3391008 123.1794096
-137.2554026 4.888534022e-11 201.5194022
5.156304223e-05 -7.351947 65.0286144
-151.502748 -18.1815017 -250
-62.37083834 -228.322045 -250
-190.2608327 4.888534022e-11 -134.1786322
5.156304223e-05 -162.0302037 -95.9123387
5.156304223e-05 -243.4964144 -171.404618
5.156304223e-05 -142.0596332 186.7912824
5.156304223e-05 -175.3514104 -55.5382215
-47.29143264 -61.4058778 -250
5.156304223e-05 -216.0952183 228.7660014
5.156304223e-05 -125.5732053 -26.8084636
-213.5020432 4.888534022e-11 27.8007152
5.156304223e-05 -81.1336471 110.4040107
-35.65218014 -93.5363626 -250
5.156304223e-05 -180.2290809 154.8527333
5.156304223e-05 -156.5081463 222.9039828
5.156304223e-05 -236.3632531 138.1166187
-0.549495737 4.888534022e-11 40.6767296
-226.1451999 4.888534022e-11 152.3394363
-29.19361194 4.888534022e-11 -222.6804323
-203.0584465 -39.5591374 -250
-39.86208814 4.888534022e-11 190.0031366
5.156304223e-05 -148.3655654 -0.5130133
5.156304223e-05 -234.2866791 -60.0597741
-42.22863784 4.888534022e-11 -115.0189763
5.156304223e-05 -222.989224 248.8418584
-153.2021614 -247.479148 -250
-148.8068602 4.888534022e-11 -111.5882198
5.156304223e-05 -195.4109745 64.9586677
-214.907302 -153.9337159 -250
-134.9044917 -61.2981642 -250
-154.9231226 4.888534022e-11 -76.2446396
-128.0276825 4.888534022e-11 240.4779658
-133.8272412 4.888534022e-11 -78.5157306
5.156304223e-05 -94.1025576 173.5853269
-200.6571327 4.888534022e-11 163.9722535
5.156304223e-05 -127.0576728 -193.9890612
-203.2466435 -66.8534396 -250
5.156304223e-05 -168.3044914 -73.679241
-103.0976411 -2.7394641 -250
-86.80953404 4.888534022e-11 -20.5889922
5.156304223e-05 -145.1849799 142.105523
5.156304223e-05 -61.4075194 7.8429045
-148.8225541 4.888534022e-11 -160.3922013
5.156304223e-05 -216.9610188 75.7367525
-214.1459481 -50.6068281 -250
5.156304223e-05 -181.4304255 -158.4512561
5.156304223e-05 -41.7694091 -224.8362748
-174.5481332 4.888534022e-11 -245.7060791
-130.2304805 -146.3095418 -250
5.156304223e-05 -42.8206085 -162.0127864
-9.766268237 4.888534022e-11 26.9280546
-249.439197 4.888534022e-11 129.1061213
5.156304223e-05 -175.0237507 216.9888341
-60.08496574 -185.8431494 -250
-143.7329033 4.888534022e-11 0.3563873
5.156304223e-05 -113.542972 80.5549042
-18.24570134 4.888534022e-11 -147.9755232
5.156304223e-05 -87.5056931 149.6831392
-187.2581263 -156.4481148 -250
5.156304223e-05 -216.9238806 -124.537746
-165.0668933 4.888534022e-11 -9.6043269
-22.04089564 4.888534022e-11 239.7262605
-90.83787914 -97.4530771 -250
5.156304223e-05 -193.5865625 212.9065306
-20.99740004 4.888534022e-11 -212.8874351
-137.8399804 4.888534022e-11 34.7508299
-217.2678779 4.888534022e-11 -48.1220346
5.156304223e-05 -242.1783186 -122.4645309
-251.4138609 4.888534022e-11 184.3632899
5.156304223e-05 -222.7661766 -11.2108478
-52.69933114 -110.5270637 -250
-146.5763014 4.888534022e-11 -137.7111036
-12.90800484 4.888534022e-11 -161.5655668
5.156304223e-05 -130.2085403 -76.7780367
2.406677663 -0.9159289 -250
-200.3647682 4.888534022e-11 -230.6775103
5.156304223e-05 -106.9594945 237.4861959
-233.1828935 4.888534022e-11 -133.2789996
-196.902015 4.888534022e-11 -57.2238577
5.156304223e-05 -70.2369683 21.6425518
5.156304223e-05 -74.8140669 137.19148
-32.15495734 4.888534022e-11 63.7477168
-209.6409047 4.888534022e-11 98.2145971
-169.452942 4.888534022e-11 -31.9937655
-228.1437726 4.888534022e-11 -147.3379141
-60.85877044 -165.2489479 -250
5.156304223e-05 -129.6985785 -123.8273044
5.156304223e-05 -171.515391 197.6756861
5.156304223e-05 -22.1096644 -49.0900694
-211.4205202 4.888534022e-11 -70.9627714
5.156304223e-05 -210.9672888 -69.845776
-211.2544537 4.888534022e-11 128.8082277
5.156304223e-05 -87.930298 -127.8475453
-73.12742974 -35.7220242 -250
-57.58810984 4.888534022e-11 220.0923119
5.156304223e-05 -110.7296524 111.0501312
-9.931591237 4.888534022e-11 218.0269606
1.044056363 -172.9490357 -250
5.156304223e-05 -141.3265666 -100.7469826
-16.34834234 4.888534022e-11 106.7204656
-108.9450441 4.888534022e-11 225.0708587
5.156304223e-05 -240.5822072 213.0198375
-242.9765331 4.888534022e-11 55.5255261
1.976537763 4.888534022e-11 -181.888156
5.156304223e-05 -231.6000095 -231.7778253
5.156304223e-05 -232.4801171 82.7693184
0.02934806304 -107.5522779 250
-189.9227658 4.888534022e-11 125.8769304
-248.7586208 4.888534022e-11 226.3954269
-15.66395554 -58.5354343 -250
5.156304223e-05 -158.6656409 76.3087513
-184.3881428 -212.9831499 -250
-73.94175604 4.888534022e-11 199.8828578
-125.1690137 4.888534022e-11 125.4290453
-103.3843871 4.888534022e-11 -55.5249597
5.156304223e-05 -168.7511031 -212.9099616
5.156304223e-05 -142.7231203 -141.0874236
-167.6631603 4.888534022e-11 21.5157982
-50.91728334 -135.8444277 -250
-183.2511335 4.888534022e-11 -150.0439042
-63.48064524 4.888534022e-11 -42.735218
5.156304223e-05 -95.5416969 -145.8257019
5.156304223e-05 -113.6774103 -56.2795719
-108.5915561 4.888534022e-11 126.4690119
5.156304223e-05 -146.3929359 87.5532252
-134.4093408 4.888534022e-11 -185.8825865
-184.7537177 4.888534022e-11 3.7177039
-249.5993985 -69.9259107 -250
-206.7274738 4.888534022e-11 8.0861364
-149.6993046 -72.512043 -250
5.156304223e-05 -198.4308957 101.6546424
5.156304223e-05 -188.6326097 -8.120015
5.156304223e-05 -55.4037203 -168.103903
-239.5233239 4.888534022e-11 -0.6045593
-28.06163444 4.888534022e-11 -40.6144119
-62.30917774 4.888534022e-11 -136.8691785
-19.22571264 4.888534022e-11 -202.2083472
5.156304223e-05 -189.2482982 -29.9248451
-125.6042764 4.888534022e-11 92.2548828
-32.50540474 4.888534022e-11 25.7601252
5.156304223e-05 -197.0537317 -222.0514488
-21.98410184 4.888534022e-11 -99.8756199
5.156304223e-05 -78.1539282 -233.7281011
-44.00752364 4.888534022e-11 -52.8456738
5.156304223e-05 -26.0666604 13.9725006
-108.4629539 -155.6541552 -250
-200.1394325 -160.9515688 -250
5.156304223e-05 -55.7699686 112.5797779
-208.6240362 -82.875921 -250
-162.8151593 4.888534022e-11 -122.219211
-175.122735 4.888534022e-11 155.5768385
5.156304223e-05 -12.0797079 -94.8208879
-35.14328124 4.888534022e-11 170.8769081
-158.1537863 4.888534022e-11 83.5970392
5.156304223e-05 -114.375557 -180.8156379
5.156304223e-05 -5.0453473 177.3842202
-217.6247082 4.888534022e-11 -10.0044636
-215.7545402 4.888534022e-11 42.167202
5.156304223e-05 -207.1619951 -228.4068892
-146.9435234 -224.1266641 -250
-102.6454759 -227.1540543 -250
5.156304223e-05 -116.6436828 -157.0659047
-249.4830521 4.888534022e-11 162.0508411
-18.50025334 -209.6485499 -250
-74.85739814 4.888534022e-11 -224.2925186
-45.29563254 -32.1507644 -250
-19.24147094 4.888534022e-11 -237.1636316
5.156304223e-05 -209.9700529 141.0613336
-120.546181 4.888534022e-11 -170.5789474
5.156304223e-05 -228.3636114 207.1774482
5.156304223e-05 -139.2564412 -21.7552436
5.156304223e-05 -157.8953208 -140.667145
-110.1359774 4.888534022e-11 -78.294586
-135.0737788 -83.3293084 -250
-28.74252354 -141.9646074 -250
-69.10937794 -65.908462 -250
-12.33939164 4.888534022e-11 -127.8204651
5.156304223e-05 -160.5212426 -20.1887321
-88.00126654 4.888534022e-11 58.698146
5.156304223e-05 -31.097503 227.5855246
5.156304223e-05 -10.3715139 147.6652921
-101.7391367 4.888534022e-11 178.304782
5.156304223e-05 -124.3721756 119.1269019
-175.4696214 -89.3427316 -250
-72.29571324 4.888534022e-11 3.9302522
-132.876223 4.888534022e-11 -45.9123802
-178.9135017 4.888534022e-11 83.8971738
5.156304223e-05 -13.4628845 54.1569672
-151.0011682 -169.1327013 -250
-154.4938386 4.888534022e-11 -89.8819926
5.156304223e-05 -105.8902468 -24.2069953
-218.8131 4.888534022e-11 109.4887295
5.156304223e-05 -59.5805253 212.184595
-10.30844864 4.888534022e-11 -6.8958557
5.156304223e-05 -195.3647453 -131.7215173
-235.3507182 -32.3284748 -250
-131.7951817 -27.3860367 -250
5.156304223e-05 -90.2771187 80.2065347
-7.898452437 -187.5820222 -250
-102.2596169 4.888534022e-11 -4.0667704
5.156304223e-05 -227.0965947 -185.6675129
5.156304223e-05 -91.0088026 -163.9333474
-79.30418684 4.888534022e-11 -11.995409
5.156304223e-05 -83.0395407 -68.8044529
5.156304223e-05 -161.8050021 55.4437716
5.156304223e-05 -117.3812734 -4.5839874
-141.1985189 4.888534022e-11 -12.407428
-219.6684455 -207.5564179 -250
-161.7470582 4.888534022e-11 -177.4611795
-153.651201 -237.0224631 -250
-223.1516706 4.888534022e-11 -198.913222
5.156304223e-05 -251.711716 -150.9369263
5.156304223e-05 -54.7064609 23.9274335
-178.8100643 4.888534022e-11 -13.7483887
5.156304223e-05 -58.5302568 -70.2555723
-65.17422024 4.888534022e-11 175.2044523
5.156304223e-05 -248.0199302 -84.6542792
5.156304223e-05 -152.0654691 182.4962939
5.156304223e-05 -141.0712516 165.6043225
5.156304223e-05 -240.1345565 -40.1436793
-33.54070224 4.888534022e-11 233.3549909
-165.1448255 -201.8114268 -250
-178.4393606 4.888534022e-11 -119.5358626
-178.4312998 -130.4406473 -250
5.156304223e-05 -115.6026865 -34.0336816
-192.560844 4.888534022e-11 -16.9492247
5.156304223e-05 -115.5398921 226.1437013
5.156304223e-05 -11.1101993 4.9014721
-82.53764154 -68.3091406 -250
5.156304223e-05 -159.9119147 97.2034351
-11.37019944 -10.9553013 -250
5.156304223e-05 -97.2573631 -42.9433355
5.156304223e-05 -36.4280668 104.4538039
5.156304223e-05 -201.9306434 -189.9932068
5.156304223e-05 -216.2478997 94.4328646
-67.75060254 -239.2510338 -250
5.156304223e-05 -89.7358208 -243.273755
5.156304223e-05 -193.1694506 -51.5982619
-132.4831173 -123.8450559 -250
-155.7159353 4.888534022e-11 145.5101476
5.156304223e-05 -84.4516441 -203.9936694
-203.6797305 4.888534022e-11 135.8699909
-200.981865 4.888534022e-11 -123.6713296
-8.646548437 4.888534022e-11 90.0874331
5.156304223e-05 -20.6201757 -185.7770312
-81.99091944 -182.230506 -250
-24.46934594 4.888534022e-11 148.8223238
5.156304223e-05 -224.6949646 128.9584035
-209.9936775 -22.8668466 -250
-182.5360998 -187.7339875 -250
-168.8970544 4.888534022e-11 -75.1336995
-30.50080654 4.888534022e-11 -132.8993941
5.156304223e-05 -237.630415 109.0256422
-157.14119 4.888534022e-11 189.7725031
-28.27139014 -225.6199227 -250
-120.3240853 4.888534022e-11 143.2256954
-194.8877467 -101.5602622 -250
-49.44835604 4.888534022e-11 118.1783761
5.156304223e-05 -163.0548718 15.8866827
5.156304223e-05 -126.2703744 141.7379118
-223.0872915 4.888534022e-11 -34.7260986
-203.3315631 4.888534022e-11 45.890486
5.156304223e-05 -84.1642953 162.8472296
-242.7179856 4.888534022e-11 87.5815669
5.156304223e-05 -195.3596737 91.0932749
-126.6012301 4.888534022e-11 -142.9411099
5.156304223e-05 -36.1713363 58.5211842
-145.850137 -133.0807235 -250
-176.9797822 4.888534022e-11 229.1332965
5.156304223e-05 -218.5347554 49.2336446
-19.60107874 4.888534022e-11 -169.2941758
5.156304223e-05 -244.2444273 -2.6950495
-215.5886372 4.888534022e-11 85.5730579
5.156304223e-05 -56.5366918 177.5562062
5.156304223e-05 -240.2189745 -25.0922774
-243.4053558 -104.4974791 -250
-2.290595337 4.888534022e-11 163.868041
-195.0566061 4.888534022e-11 115.5344376
5.156304223e-05 -23.0792885 164.4699496
-219.6921501 -228.0880825 -250
-84.91849004 4.888534022e-11 160.9315383
5.156304223e-05 -235.7642609 93.1337888
5.156304223e-05 -45.4461249 239.9395718
-16.49839674 -145.3298165 -250
-215.3473299 4.888534022e-11 183.3557373
-62.91587504 4.888534022e-11 230.1886199
-144.7838558 4.888534022e-11 83.327106
5.156304223e-05 -217.7165464 65.637708
5.156304223e-05 -209.5802462 117.113034
-7.383330237 4.888534022e-11 -76.4038981
-63.61688154 -20.9880815 -250
-70.16144104 -184.9060152 -250
-154.1417707 4.888534022e-11 15.9043997
-94.89410844 -125.0870465 -250
5.156304223e-05 -108.7608282 -95.573971
5.156304223e-05 -143.6839256 -12.667824
-19.00281484 4.888534022e-11 -76.3711989
-222.4662894 4.888534022e-11 -94.0713368
5.156304223e-05 -70.3807719 -166.368714
-206.6077471 4.888534022e-11 -142.1334996
-12.50499834 -103.3344085 -250
5.156304223e-05 -10.4711822 -203.0683878
5.156304223e-05 -162.2662929 -85.8383838
-241.7568346 4.888534022e-11 -220.3481193
-5.898408637 4.888534022e-11 185.0950895
-166.6391361 4.888534022e-11 195.1501508
-231.9976882 -144.9747766 -250
5.156304223e-05 -44.1818701 -200.3473363
-243.4521245 4.888534022e-11 -37.4295162
-152.5512297 4.888534022e-11 96.3052233
5.156304223e-05 -184.7865918 19.2244189
-51.82742984 4.888534022e-11 93.153226
5.156304223e-05 -18.8609275 -28.2291174
5.156304223e-05 -110.7044116 121.5232446
-30.73465264 4.888534022e-11 83.0005457
5.156304223e-05 -240.2345346 34.6361259
5.156304223e-05 -37.3909209 -93.5284611
5.156304223e-05 -104.9387053 210.7348951
5.156304223e-05 -207.6884872 -0.8507776
5.156304223e-05 -69.3693864 43.9113348
-100.3085637 4.888534022e-11 78.6836172
-106.2001248 -210.3588026 -250
-131.4895046 4.888534022e-11 -113.8225281
-73.19324194 4.888534022e-11 41.7054236
5.156304223e-05 -84.0740943 -86.8268054
-213.4338518 4.888534022e-11 217.0200654
-87.95426044 -203.4882161 -250
-247.3786952 4.888534022e-11 -18.2789626
5.156304223e-05 -149.5004256 109.7303446
-111.8561425 -7.5522715 -250
-189.2396349 4.888534022e-11 -158.0391726
-80.73296014 -10.5087793 -250
5.156304223e-05 -76.283891 -132.6252921
5.156304223e-05 -116.9663104 30.3926785
5.156304223e-05 -140.2641634 -244.8442769
-155.286371 -8.358782 -250
5.156304223e-05 -21.9162383 -80.5801345
-78.33501894 4.888534022e-11 190.7642655
-6.051294037 4.888534022e-11 100.4610973
-153.4610342 4.888534022e-11 -215.0674027
5.156304223e-05 -44.3929649 197.9745913
-19.97664444 4.888534022e-11 127.6299715
-0.200631137 -110.7785851 -250
5.156304223e-05 -46.0596275 -113.877907
-147.7243687 4.888534022e-11 198.9648448
5.156304223e-05 -247.8929629 125.9701903
5.156304223e-05 -203.6587031 -105.0508041
-90.65190004 4.888534022e-11 -72.4309239
-69.89857674 4.888534022e-11 -242.1449669
-51.65725114 4.888534022e-11 15.6887499
5.156304223e-05 -197.1636146 229.5101718
-150.8701383 4.888534022e-11 -200.8832058
5.156304223e-05 -196.8815812 170.8878487
5.156304223e-05 -223.3956359 -52.7256323
5.156304223e-05 -102.3411765 140.6542819
5.156304223e-05 -6.2744955 -231.3235484
5.156304223e-05 -196.3813927 -166.5701499
-164.1411075 4.888534022e-11 140.3042322
5.156304223e-05 -129.302354 -106.1118715
-188.6205556 -75.2242059 -250
5.156304223e-05 -246.6056003 53.5332049
5.156304223e-05 -57.5151428 -121.7231436
-5.557070337 -25.9211274 -250
-135.7635975 4.888534022e-11 8.0900665
-216.2369054 -123.3130411 -250
5.156304223e-05 -252.2307149 -75.7146811
5.156304223e-05 -19.9520026 -206.3832583
-135.8981885 -205.3890418 -250
-93.51637454 4.888534022e-11 -36.004269
-160.2563658 4.888534022e-11 170.5409863
5.156304223e-05 -117.1939042 -241.0483483
-231.8710469 4.888534022e-11 91.1261634
-240.2322921 4.888534022e-11 -67.6645122
5.156304223e-05 -240.7003473 -132.6748004
