# .PCD v0.7 - Point Cloud Data file format
VERSION 0.7
FIELDS x y z
SIZE 4 4 4
TYPE F F F
COUNT 1 1 1
WIDTH 1254
HEIGHT 1
VIEWPOINT 0 0 0 1 0 0 0
POINTS 1254
DATA ascii
-35.95063002 1.065814104e-10 159.7965389
-47.50681702 1.065814104e-10 6.707207
-6.669876023 1.065814104e-10 -106.05074
3.697746251e-05 -46.5774067 -211.7889056
-61.84122502 -163.4176471 -250
3.697746251e-05 -60.9769779 209.9586676
3.697746251e-05 -48.3444122 125.5106777
3.697746251e-05 -160.9063788 211.7003544
-150.189034 -222.1115987 -250
-219.133661 -209.4978991 -250
3.697746251e-05 -205.747731 -10.9005752
3.697746251e-05 -82.2864498 249.4731022
-141.984114 -161.341251 -250
-141.482247 1.065814104e-10 120.3197263
3.697746251e-05 -91.4009302 -33.9094596
3.697746251e-05 -78.2078165 67.9454066
1.271830977 -204.7490482 -250
-117.54541 1.065814104e-10 -208.0526067
0.01032197746 -230.9950816 250
3.697746251e-05 -44.2289013 26.3014353
-217.235023 -123.5588459 -250
-44.01994502 1.065814104e-10 -161.3675334
-9.734317023 1.065814104e-10 -38.8992757
-139.920609 -86.6202908 -250
-153.033465 1.065814104e-10 -57.5631653
-20.76052302 1.065814104e-10 246.9049839
-216.83274 -54.2366142 -250
-69.78451602 1.065814104e-10 -79.1701004
-141.292607 -40.3102155 -250
3.697746251e-05 -251.1719539 -40.4355258
3.697746251e-05 -130.9281957 21.2851431
3.697746251e-05 -42.560991 -168.9232486
-160.946053 1.065814104e-10 206.3211774
3.697746251e-05 -201.4571723 204.2236669
3.697746251e-05 -3.4422784 51.1163951
-189.41818 1.065814104e-10 -174.2265878
-25.47593702 -3.6940159 -250
3.697746251e-05 -209.7803941 -90.2055517
-208.258737 1.065814104e-10 -61.1246737
-19.77340402 1.065814104e-10 90.5482287
-90.82023102 1.065814104e-10 -155.2252747
-175.36878 1.065814104e-10 -131.961951
-34.23713502 1.065814104e-10 -203.9399721
-86.89327002 1.065814104e-10 189.2627634
3.697746251e-05 -146.0466806 120.7574112
-136.66464 1.065814104e-10 247.4606432
-69.55967502 -37.0973 -250
-26.13923002 -177.9445661 -250
3.697746251e-05 -66.8602362 -73.0622775
-143.935128 1.065814104e-10 -96.4870252
-93.33141002 1.065814104e-10 -39.6112672
-55.65828602 -250.6283973 -250
-84.14269802 -217.0090785 -250
-98.94820302 1.065814104e-10 114.9982763
3.697746251e-05 -204.4191404 -171.9911031
-84.45577702 -94.3480827 -250
3.697746251e-05 -197.4335341 130.1408169
3.697746251e-05 -188.9936634 58.5125384
-251.319183 1.065814104e-10 -141.6877515
-203.387085 1.065814104e-10 155.3972055
3.697746251e-05 -125.0865675 -163.3169169
-251.41757 1.065814104e-10 209.8529088
-23.65809102 1.065814104e-10 -74.1521512
-225.248693 1.065814104e-10 -230.3993845
3.697746251e-05 -34.1938133 -133.3512717
3.697746251e-05 -30.868573 -246.239229
3.697746251e-05 -213.7685466 94.1077386
-53.84794502 -74.233571 -250
3.697746251e-05 -168.6221426 -10.1146013
-69.31303302 1.065814104e-10 147.0839896
-77.51930902 -130.4491585 -250
-217.049175 1.065814104e-10 -2.8770356
3.697746251e-05 -221.3619802 20.1533936
-137.715261 1.065814104e-10 180.6683063
-251.394987 -54.7518496 -250
-206.984901 -164.4670278 -250
3.697746251e-05 -89.2844485 -146.6363718
-75.74319202 1.065814104e-10 59.4766417
3.697746251e-05 -224.6556211 -220.9686246
-116.441823 1.065814104e-10 44.0964059
-173.360879 -25.2143964 -250
-250.777917 1.065814104e-10 115.7557303
3.697746251e-05 -246.8147912 -164.7905859
3.697746251e-05 -154.9114219 -68.2114824
-27.02847102 -133.6817439 -250
3.697746251e-05 -15.3982967 -188.6207084
3.697746251e-05 -216.6527348 -47.286835
-76.57848602 1.065814104e-10 -10.5705504
-28.10632202 1.065814104e-10 -131.9599737
-97.11338202 -10.1082378 -250
-2.762616023 1.065814104e-10 157.8414087
-216.866092 -88.6901332 -250
-215.708735 1.065814104e-10 232.4581848
-214.496648 1.065814104e-10 -99.5977063
3.697746251e-05 -103.7719908 -206.5532832
3.697746251e-05 -245.979649 -114.2988833
-179.714701 1.065814104e-10 10.0910011
-217.401743 -244.3562664 -250
3.697746251e-05 -158.6191254 69.8165631
-195.267012 1.065814104e-10 68.6195612
3.697746251e-05 -125.2189697 -231.3826431
3.697746251e-05 -195.3379361 -123.5795617
-118.717258 -212.9394285 -250
3.697746251e-05 -95.5495861 -99.0204395
3.697746251e-05 -67.7600143 100.7016923
-248.558311 -198.3004322 -250
-138.335042 1.065814104e-10 69.8918378
3.697746251e-05 -147.5693457 183.5301848
3.697746251e-05 -250.8400483 81.7530199
-247.952128 -127.3166602 -250
-197.482062 1.065814104e-10 -216.8335885
-24.60777102 1.065814104e-10 27.4254525
3.697746251e-05 -161.8431212 -219.770457
-234.011297 1.065814104e-10 49.6841503
3.697746251e-05 -28.4278785 219.3207368
-247.694691 1.065814104e-10 179.4705231
3.697746251e-05 -136.6207972 -96.2075369
3.697746251e-05 -249.0374714 33.1806835
3.697746251e-05 -124.7245093 94.035141
-112.410223 -154.4469505 -250
-75.25680702 1.065814104e-10 -221.3678069
3.697746251e-05 -61.997816 -248.4307015
3.697746251e-05 -166.2640349 -184.5823073
-75.88442802 1.065814104e-10 89.5421487
3.697746251e-05 -17.7837877 -15.4508831
-187.184031 1.065814104e-10 180.7089775
-80.02548102 1.065814104e-10 218.5141329
3.697746251e-05 -35.8973235 -103.3963485
-114.564818 1.065814104e-10 -178.3319807
-179.326542 -215.8343952 -250
-168.656941 -94.4922109 -250
3.697746251e-05 -108.3921558 -4.4157408
-170.284185 1.065814104e-10 113.5948598
-51.18111402 1.065814104e-10 247.8468024
3.697746251e-05 -164.4781188 144.4093418
-177.327879 -156.0986132 -250
3.697746251e-05 -60.3757313 -43.618343
-150.672377 -251.5599212 -250
-163.196821 1.065814104e-10 -238.7566213
-151.098376 -190.6762179 -250
-58.06262502 1.065814104e-10 178.8738305
-136.42836 1.065814104e-10 148.9468449
-248.546293 1.065814104e-10 -58.5223778
-248.198795 1.065814104e-10 -4.4345693
-27.18775302 1.065814104e-10 -15.7695268
3.697746251e-05 -57.7944259 180.5840944
-146.365498 1.065814104e-10 -129.0796302
-27.57449302 1.065814104e-10 127.6217354
-65.39117902 -192.0554047 -250
-125.643028 1.065814104e-10 11.4572316
3.697746251e-05 -76.1406444 -214.6442319
3.697746251e-05 -74.8898656 -3.872205
-251.575772 1.065814104e-10 -218.8652583
-28.29166502 1.065814104e-10 187.5883408
3.697746251e-05 -24.4867441 109.5605211
-187.546466 1.065814104e-10 216.8886319
3.697746251e-05 -232.0921331 187.7449724
3.697746251e-05 -100.5005811 50.3042047
3.697746251e-05 -132.2978989 -51.0582653
3.697746251e-05 -160.4176357 240.211678
-40.49978902 1.065814104e-10 -104.5349546
-211.355967 -20.8015235 -250
-236.330495 1.065814104e-10 -117.3756712
-68.00958402 1.065814104e-10 32.4232737
-153.669537 1.065814104e-10 -7.9742851
3.697746251e-05 -53.4176531 54.9171028
-236.906023 1.065814104e-10 -167.5904426
-107.230542 1.065814104e-10 241.2889073
-180.267087 1.065814104e-10 -63.8274568
-26.46153802 -79.4806615 -250
-162.518165 1.065814104e-10 51.7371333
-86.03255302 1.065814104e-10 -108.5628558
3.697746251e-05 -148.6732103 42.2781133
1.489919977 1.6054818 -250
-140.377501 1.065814104e-10 -193.1884929
3.697746251e-05 -104.6458498 148.0448721
3.697746251e-05 -177.3846916 -242.3978937
3.697746251e-05 -218.4612473 225.9101269
3.697746251e-05 -110.9883262 177.6510184
2.347881977 1.065814104e-10 -66.4411783
3.697746251e-05 -62.0225457 -142.2870905
-23.05562802 -235.9555286 -250
-45.83519402 -24.4901381 -250
-50.02546402 1.065814104e-10 82.661399
3.697746251e-05 -186.2282204 -77.6548968
-113.563086 -82.4847829 -250
3.697746251e-05 -155.7356682 -129.9997939
-120.47139 1.065814104e-10 -150.7956364
3.697746251e-05 -218.4500549 -194.5774205
-82.26474102 -246.8670309 -250
-120.670287 -23.6894095 -250
3.697746251e-05 -208.9592657 174.8680023
-23.94550402 1.065814104e-10 -178.4515534
-140.077843 -128.0591165 -250
3.697746251e-05 -84.8305587 223.4408251
-142.936184 1.065814104e-10 -222.2654548
3.697746251e-05 -226.9936076 130.2035197
3.697746251e-05 -159.0171087 -40.1044448
3.697746251e-05 -32.8112467 -42.6528276
-210.376819 1.065814104e-10 -35.2527584
-128.247973 1.065814104e-10 -49.8736771
3.697746251e-05 -99.4277971 88.2549004
-195.385017 -109.563145 -250
-20.41001202 1.065814104e-10 220.2160481
3.697746251e-05 -23.644541 135.3992813
-102.046298 1.065814104e-10 -15.0054697
3.697746251e-05 -56.2118171 150.2508856
3.697746251e-05 -231.855787 -15.6419242
-87.57323802 -164.2919846 -250
-47.38106002 1.065814104e-10 -232.4865471
3.697746251e-05 -76.4142568 124.9056395
-223.816352 1.065814104e-10 110.3225562
-195.044512 -40.8960686 -250
3.697746251e-05 -184.3322991 224.1655095
-119.350497 1.065814104e-10 99.8581252
3.697746251e-05 -177.2566082 191.1269926
3.697746251e-05 -106.907086 240.7528947
-112.615829 1.065814104e-10 178.5999362
3.697746251e-05 -127.7605521 222.6329467
-198.314625 1.065814104e-10 93.6041532
3.697746251e-05 -17.5289445 30.6913545
-222.15788 1.065814104e-10 23.6656589
3.697746251e-05 -225.9459656 -71.6012067
3.697746251e-05 -86.9382488 196.2412352
3.697746251e-05 -123.4188265 132.1882174
-160.523894 1.065814104e-10 -179.1283416
-54.14600302 -140.0906918 -250
3.697746251e-05 -21.1639725 190.8817532
-150.707365 -62.9062338 -250
3.697746251e-05 -252.1365292 136.0615724
-128.025477 -181.8621848 -250
3.697746251e-05 -110.9586767 -183.42736
3.697746251e-05 -9.9104706 234.7678286
3.697746251e-05 -27.6503032 55.1265364
3.697746251e-05 -196.4081626 34.2287938
-163.2008 1.065814104e-10 182.2608404
-65.22863402 1.065814104e-10 -146.402345
-213.425154 1.065814104e-10 -174.6271086
-252.04934 1.065814104e-10 65.482968
-222.298572 1.065814104e-10 134.1293765
3.697746251e-05 -191.1904523 -147.0626412
3.697746251e-05 -153.3061719 13.0859878
-146.280672 1.065814104e-10 225.6634497
-109.110879 1.065814104e-10 -230.3251684
3.697746251e-05 -7.5579372 74.5447177
-147.583981 -13.9677489 -250
-157.404898 1.065814104e-10 -34.2483422
3.697746251e-05 -217.4411154 -114.9755595
-234.733758 -71.5249293 -250
-146.623186 1.065814104e-10 97.281147
3.697746251e-05 -22.7111338 -213.3318313
-195.753691 -134.8830398 -250
0.2446859775 1.065814104e-10 -129.6774475
3.697746251e-05 -108.0955811 -50.3372152
-190.706916 1.065814104e-10 -149.6524149
-7.008293023 -112.9476945 -250
1.395395977 1.065814104e-10 181.1631901
-33.07090702 1.065814104e-10 -51.7472372
-136.696561 1.065814104e-10 -74.4319706
3.697746251e-05 -227.4492964 -245.3892894
-240.04936 1.7259215 -250
-184.300402 1.065814104e-10 136.3132843
-48.71852702 1.065814104e-10 -185.8906647
3.697746251e-05 -187.3126478 -26.9713945
-191.47508 1.065814104e-10 -115.3643391
-204.227285 -187.4288818 -250
-37.75274602 -156.3760589 -250
-75.28860702 -65.811523 -250
3.697746251e-05 -53.9782532 -188.8932592
3.697746251e-05 -147.0495638 -172.182015
-211.026162 1.065814104e-10 176.9301043
3.697746251e-05 -44.9802847 99.0471394
3.697746251e-05 -251.464114 -136.454007
-116.225672 1.065814104e-10 135.2214038
-220.960667 -146.5220792 -250
-200.882569 1.065814104e-10 -194.3543635
3.697746251e-05 -204.3923462 151.756343
-229.151819 1.065814104e-10 -74.888323
-160.751529 1.065814104e-10 -81.3733645
3.697746251e-05 -60.029275 245.80269
-76.75682402 1.065814104e-10 118.9986568
-92.03629802 1.065814104e-10 -130.2548155
-203.259588 -226.8763662 -250
-172.373169 1.065814104e-10 31.591141
-124.5074 -102.6202811 -250
-251.408419 1.065814104e-10 93.5577603
-27.31838502 -104.4237324 -250
-99.34243802 1.065814104e-10 -195.7058879
-229.060368 -176.6826681 -250
-162.27872 1.065814104e-10 133.9909726
3.697746251e-05 -109.1943172 18.5382303
-216.957598 1.065814104e-10 64.955376
-129.270243 -66.9432144 -250
3.697746251e-05 -248.4407334 55.7172527
-94.52242202 1.065814104e-10 40.8254896
-76.90357402 1.065814104e-10 168.0148323
3.697746251e-05 -133.4817548 200.0781322
-192.887413 -79.9081703 -250
3.697746251e-05 -230.4086038 -96.849161
-20.35210002 -209.4828913 -250
3.697746251e-05 -251.1438802 171.348847
-91.69145502 1.065814104e-10 -65.6547399
3.697746251e-05 -71.7307355 43.604824
-68.81443002 1.065814104e-10 9.7181983
3.697746251e-05 -247.6710087 232.2630782
3.697746251e-05 -64.4696117 19.0797902
-107.274148 1.065814104e-10 -100.5194582
3.697746251e-05 -90.1768174 -78.2391881
3.697746251e-05 -229.608396 78.6244268
-74.15590502 1.065814104e-10 -49.1934867
3.697746251e-05 -93.1764453 -120.2943684
0.9439739775 1.065814104e-10 -173.7868348
3.697746251e-05 -111.7047068 -27.1458566
3.697746251e-05 -203.7777853 -65.4226638
3.697746251e-05 -191.471196 -101.2334677
-49.05558602 1.065814104e-10 -14.5943689
3.697746251e-05 -157.7392887 100.658161
-152.718301 -108.6486663 -250
3.697746251e-05 -74.7295855 -92.8164783
3.697746251e-05 -41.7752912 200.9310525
-101.058549 -31.7245381 -250
-60.51363302 1.065814104e-10 226.737669
3.697746251e-05 -138.141285 -118.3227017
3.697746251e-05 -197.0009048 109.0453202
3.697746251e-05 -102.6285876 -164.0594086
-49.95644102 1.065814104e-10 135.6963185
-93.59720002 1.065814104e-10 135.528747
3.697746251e-05 -40.1807726 5.6693549
-53.20472002 1.065814104e-10 -61.5812937
-128.151401 -243.1678842 -250
3.697746251e-05 -4.5964449 103.0409365
-61.84964002 -218.1835713 -250
3.697746251e-05 -55.8813766 75.6831269
-216.579841 1.065814104e-10 -249.4172209
-166.603398 -235.0473835 -250
3.697746251e-05 -48.7570692 -60.9803108
-155.089228 -142.5444219 -250
-11.11789802 1.065814104e-10 -197.2417474
3.697746251e-05 -192.6603819 82.067921
-46.15755602 -183.5635875 -250
-141.155008 1.065814104e-10 49.3077869
-201.054472 1.065814104e-10 247.176634
-45.32186302 1.065814104e-10 27.2863798
-19.52004902 1.065814104e-10 57.0169573
-252.342936 1.065814104e-10 -181.3305275
-236.086805 1.065814104e-10 223.6357214
3.697746251e-05 -14.0688189 -92.568785
3.697746251e-05 -202.6271151 -226.1637751
3.697746251e-05 -74.3287941 -160.7203513
-50.40555302 1.065814104e-10 -85.8770992
-162.254275 -173.474581 -250
3.697746251e-05 -139.8079704 -142.8942818
-164.372019 -47.6425092 -250
3.697746251e-05 -144.5460065 84.6612851
-77.73035202 -16.5716984 -250
3.697746251e-05 -175.1329697 126.9980725
-181.809357 1.065814104e-10 -43.4737725
-200.503617 1.065814104e-10 8.9901485
-27.76949802 1.065814104e-10 -223.2457827
-198.674816 1.065814104e-10 -81.4314874
-228.629276 -37.6758794 -250
3.697746251e-05 -202.8304626 11.8292636
3.697746251e-05 -45.2965088 230.599196
-105.898608 -228.6320843 -250
3.697746251e-05 -224.5365178 -169.7478498
-232.215616 -224.924132 -250
-91.21369402 -115.617822 -250
-162.469433 1.065814104e-10 -104.4322985
-19.09245702 1.065814104e-10 -157.3651837
3.697746251e-05 -52.6935552 -92.2644497
-70.91135602 1.065814104e-10 -171.3854909
-224.746554 1.065814104e-10 -49.2153671
3.697746251e-05 -174.955186 -124.6080809
-37.29984402 1.065814104e-10 230.7914756
-49.62067702 -54.1965837 -250
3.697746251e-05 -168.494769 44.276091
3.697746251e-05 -115.8070795 37.6011644
-15.14763202 -161.509887 -250
-66.59040202 1.065814104e-10 -98.6799171
-29.20811202 1.065814104e-10 107.8933147
3.697746251e-05 -72.2723726 -27.8897411
3.697746251e-05 -211.697144 246.2025198
-198.808225 -207.7437257 -250
-1.694832023 -131.8372588 -250
3.697746251e-05 -34.2690045 -196.6920831
-119.242866 -46.1001602 -250
-14.61540202 1.065814104e-10 142.1444365
-140.471597 1.065814104e-10 207.0901158
-72.60619302 -109.9468086 -250
-156.873337 1.065814104e-10 242.7882288
-203.070601 1.065814104e-10 -16.4033619
3.697746251e-05 -226.9961912 109.02814
3.697746251e-05 -185.3891692 -181.5032378
-236.205463 -251.7432002 -250
3.697746251e-05 -23.70337 -153.8761035
3.697746251e-05 -106.5455878 70.328167
-112.246547 1.065814104e-10 -35.8978642
-168.93501 1.065814104e-10 -150.110339
3.697746251e-05 -58.0462904 -229.609114
-82.60793502 -183.4916807 -250
-187.712317 1.065814104e-10 50.9812651
-18.77732402 -31.3430546 -250
3.697746251e-05 -113.5847457 -146.1821452
3.697746251e-05 -18.0799401 -231.8920648
-162.639456 -205.9234205 -250
3.697746251e-05 -226.9338757 208.8051603
2.331054977 1.065814104e-10 -21.914796
3.697746251e-05 -244.861674 -58.4216615
3.697746251e-05 -220.7044289 1.1177894
-236.056572 -112.4476163 -250
3.697746251e-05 -140.6188058 -1.1016811
3.697746251e-05 -209.5628563 -29.6527498
3.697746251e-05 -85.715202 141.4523518
-209.983574 1.065814104e-10 -119.3247566
3.697746251e-05 -20.8674562 -119.9332268
3.697746251e-05 -142.8667446 139.3891684
3.697746251e-05 -230.0571598 38.5247981
-88.88165902 -145.4603006 -250
3.697746251e-05 -112.8170914 -106.4435174
-106.682654 1.065814104e-10 -53.809139
-185.496193 1.065814104e-10 -233.6096831
-105.805203 -99.4776118 -250
3.697746251e-05 -207.2070888 62.6556752
-171.299125 1.065814104e-10 226.097299
-128.393806 -144.8045435 -250
-66.93527202 -87.9508987 -250
-159.683602 1.065814104e-10 9.6763609
-41.49583802 -238.4505326 -250
-184.027799 1.065814104e-10 158.4393077
-230.329826 1.065814104e-10 186.0411637
3.697746251e-05 -181.7854877 7.3338523
-227.045212 1.065814104e-10 158.9967341
-233.046572 1.065814104e-10 -144.4986438
-251.093186 1.065814104e-10 -200.4032324
3.697746251e-05 -249.252137 -21.7832542
-8.738789023 -13.7164147 -250
-192.868261 -16.7159593 -250
3.697746251e-05 -195.2010282 186.967421
-28.29329902 1.065814104e-10 74.3317118
-44.41552702 1.065814104e-10 -140.2903638
-250.380668 -180.089313 -250
-44.46715002 -4.369623 -250
-86.34046402 1.065814104e-10 74.3663284
-228.969855 -15.9607103 -250
3.697746251e-05 -157.2165535 168.0804747
-180.761155 1.065814104e-10 -197.743065
-146.799519 1.065814104e-10 164.8859476
-52.30380502 1.065814104e-10 -206.198523
3.697746251e-05 -152.8081253 -19.1207181
-8.120158023 1.065814104e-10 -7.02215
-108.535798 1.065814104e-10 1.967206
-100.199875 1.065814104e-10 224.548745
3.697746251e-05 -241.7262032 -232.1299255
3.697746251e-05 -232.9229075 -39.2918677
3.697746251e-05 -240.4179722 15.3799478
-5.890138023 1.065814104e-10 25.4151095
3.697746251e-05 -84.5584336 -61.0425739
-126.273792 1.065814104e-10 -92.570476
3.697746251e-05 -78.8410511 -131.8730117
-17.98993902 -62.7524883 -250
3.697746251e-05 -42.2489219 -150.8848563
-190.171991 -170.9544201 -250
-100.004588 1.065814104e-10 60.3577719
-250.850486 1.065814104e-10 43.3604029
-236.368728 1.065814104e-10 12.6612509
-199.267027 -58.3418853 -250
3.697746251e-05 -103.0767204 -224.4878269
-56.74825602 1.065814104e-10 66.0483899
-96.02109302 -78.8516674 -250
3.697746251e-05 -74.2930216 -196.3338571
-78.90768402 1.065814104e-10 -28.3183456
-16.12749002 1.065814104e-10 -57.9346763
3.697746251e-05 -143.9681358 -219.4806485
-30.68563302 1.065814104e-10 205.2876723
-156.509257 1.065814104e-10 68.5366106
-123.05124 1.065814104e-10 233.0452602
-28.36769602 1.065814104e-10 9.9978906
-20.39306702 1.065814104e-10 -91.6735513
-207.773465 1.065814104e-10 -233.8353651
-122.883412 1.065814104e-10 160.5051003
-74.12593002 1.065814104e-10 201.7603823
-123.311783 1.065814104e-10 117.1659143
-14.28372402 1.065814104e-10 -236.7691592
-198.174112 1.065814104e-10 194.5291552
3.697746251e-05 -146.4820791 229.3910018
-131.949214 1.065814104e-10 -175.400711
-128.197704 1.065814104e-10 -232.592211
-97.31925902 1.065814104e-10 93.7095403
3.697746251e-05 -14.5077179 -40.3667185
-57.41493102 1.065814104e-10 46.372785
3.697746251e-05 -150.122073 -85.0581824
-120.237684 1.065814104e-10 69.7618208
3.697746251e-05 -212.7853727 41.3270327
3.697746251e-05 -179.299446 -218.6624636
-216.984551 1.065814104e-10 45.7171654
3.697746251e-05 -201.9624649 231.7064849
-213.105947 1.065814104e-10 -209.0598054
-13.50136502 1.065814104e-10 172.1430195
-178.147413 1.065814104e-10 98.0564998
3.697746251e-05 -119.4569633 -199.024801
-3.172023023 1.065814104e-10 248.6857008
3.697746251e-05 -137.8931423 -71.6284124
3.697746251e-05 -88.3008388 102.1027099
-92.69061702 1.065814104e-10 -236.6338475
-94.60540602 -203.1930243 -250
3.697746251e-05 -77.6985724 -44.489596
3.697746251e-05 -93.7763698 -13.60227
-137.566024 1.065814104e-10 -114.2411175
-7.849496023 -45.7610501 -250
-12.51771702 -194.1224438 -250
-94.15364302 1.065814104e-10 -82.6533727
3.697746251e-05 -185.0948772 142.0442137
-96.04568102 1.065814104e-10 -212.5241262
3.697746251e-05 -133.2434562 174.1539316
-56.18169502 1.065814104e-10 158.0315457
-179.263221 -6.4203106 -250
-252.431287 1.065814104e-10 -104.001556
3.697746251e-05 -29.8021897 151.6683999
3.697746251e-05 -140.2209531 -35.7179186
-95.46782902 1.065814104e-10 -179.1995786
3.697746251e-05 -106.5674463 130.3207311
3.697746251e-05 -239.2231506 -212.3178317
-86.77487402 -40.8138187 -250
-44.41814102 -125.0206516 -250
-42.25660702 1.065814104e-10 -122.7474851
-217.583159 -105.541128 -250
-117.16209 -195.3220128 -250
3.697746251e-05 -65.6088111 229.9067037
-212.268175 1.065814104e-10 84.1663125
-13.94097002 -92.2952266 -250
-87.67690402 1.065814104e-10 3.202869
-21.75222702 1.065814104e-10 -116.3858101
3.697746251e-05 -234.9581715 -152.868362
3.697746251e-05 -170.2235823 -82.7420165
-34.85749502 1.065814104e-10 143.034683
-250.363286 1.065814104e-10 234.5502526
3.697746251e-05 -118.970162 -215.7946268
-175.058178 -109.9804227 -250
-109.824181 1.065814104e-10 21.642166
-86.39213002 1.065814104e-10 234.0152802
3.697746251e-05 -70.2928475 191.7059164
-132.985863 -221.6702999 -250
-236.412713 1.065814104e-10 202.4634915
-38.64716102 -198.4936391 -250
3.697746251e-05 -120.3476527 -91.5252656
3.697746251e-05 -60.4590772 -169.9817848
-235.755407 1.065814104e-10 -98.8452736
-125.203245 1.065814104e-10 -134.8139931
-232.856661 -93.1065555 -250
3.697746251e-05 -47.1165921 -122.9716997
3.697746251e-05 -170.4787028 -28.1333462
-226.03374 -192.9704038 -250
-221.97377 1.065814104e-10 247.7514819
3.697746251e-05 -205.5651236 -155.2084713
-62.69935302 1.065814104e-10 -25.1732181
-191.788731 1.065814104e-10 233.5157401
3.697746251e-05 -16.1010377 -56.795021
-212.680731 -72.7352207 -250
-114.108768 -170.8449511 -250
-92.46302402 1.065814104e-10 173.7681391
-60.61520202 -234.9349667 -250
-221.501468 1.065814104e-10 216.0974071
-251.533736 -224.0005463 -250
3.697746251e-05 -16.5957786 -172.2648726
3.697746251e-05 -75.5867467 84.1337143
3.697746251e-05 -160.447474 195.3156132
-218.536126 1.065814104e-10 -155.3418513
-105.513903 1.065814104e-10 -139.5630314
-68.68499802 -147.5060606 -250
-196.304597 -151.1621882 -250
-164.21848 -78.8312583 -250
2.207109977 1.065814104e-10 140.6090622
3.697746251e-05 -27.8261427 93.6415705
-179.042406 1.065814104e-10 203.025782
-45.19652502 -87.9889425 -250
-245.56332 -39.6046488 -250
3.697746251e-05 -175.5733085 81.8069601
-2.114492023 -77.9879902 -250
3.697746251e-05 -37.2389345 40.9205196
-143.283567 -207.4553373 -250
3.697746251e-05 -24.1701122 3.2515732
-235.159002 1.065814104e-10 121.8613685
3.697746251e-05 -105.6148113 224.6293761
3.697746251e-05 -82.3998969 176.0125808
-33.75227502 1.065814104e-10 -30.5321536
3.697746251e-05 -29.3811488 -26.6756344
-41.77179402 1.065814104e-10 97.7743941
-236.902849 1.065814104e-10 100.597358
-59.28104302 1.065814104e-10 195.5006737
3.697746251e-05 -237.5837647 92.6139403
3.697746251e-05 -95.6919133 5.4506123
3.697746251e-05 -141.6958078 100.9845158
-202.49407 1.065814104e-10 209.9771118
3.697746251e-05 -16.3723189 208.7417036
3.697746251e-05 -8.8329217 -205.2965557
-235.973253 -140.898838 -250
3.697746251e-05 -188.2465851 -10.9896501
3.697746251e-05 -142.0823918 60.169126
-30.34810302 1.065814104e-10 44.3661024
-249.965285 1.065814104e-10 134.7042044
3.697746251e-05 -211.8130839 192.1363431
3.697746251e-05 -171.2273875 60.1280168
-39.89460202 1.065814104e-10 -70.191668
-240.927924 1.065814104e-10 -232.6344149
-147.624974 1.869384 -250
3.697746251e-05 -81.7106643 -106.9818747
-131.628616 1.065814104e-10 -3.145728
-108.274014 1.065814104e-10 -163.8770314
-214.406431 1.065814104e-10 -82.1562397
3.697746251e-05 -168.5454643 -60.3434925
3.697746251e-05 -56.8504079 112.2662675
3.697746251e-05 -69.7509229 139.1661581
3.697746251e-05 -149.7464721 -52.8090849
-24.28870602 -251.6309308 -250
-238.016835 1.065814104e-10 -210.9228596
-84.48245902 0.7791616001 -250
-64.35395802 1.065814104e-10 128.6239024
3.697746251e-05 -170.0973013 177.0561295
-16.23070402 1.065814104e-10 116.6267238
3.697746251e-05 -142.6904743 -237.1478273
-203.083738 1.065814104e-10 -162.9295025
3.697746251e-05 -89.7549024 38.9780638
-86.22364002 1.065814104e-10 105.9661734
3.697746251e-05 -152.6127555 -112.5511651
3.697746251e-05 -233.1666018 -127.1798589
-218.323639 1.065814104e-10 -21.9036595
3.697746251e-05 -42.2930505 181.1264122
3.697746251e-05 -236.2497862 -179.9006566
-78.89768002 1.065814104e-10 -206.0129308
-145.156961 1.065814104e-10 -24.7560411
-13.14347902 1.065814104e-10 -22.5458385
3.697746251e-05 -105.6907443 -86.3776582
-166.131052 -251.4990365 -250
-166.48014 1.065814104e-10 -46.7602167
-118.017531 1.065814104e-10 -10.4681039
-123.370054 1.065814104e-10 -108.2464311
3.697746251e-05 -205.9101053 -139.8079521
-90.20034202 -231.1594518 -250
0.3530839775 1.065814104e-10 -50.4639681
3.697746251e-05 -188.2906153 -231.5937413
3.697746251e-05 -233.6115493 223.6188438
-15.23119302 1.065814104e-10 205.7956941
-161.910014 1.065814104e-10 -163.8735705
3.697746251e-05 -39.8653008 138.2518202
3.697746251e-05 -119.88109 5.6611251
3.697746251e-05 -176.1417242 210.6518259
-169.875344 1.065814104e-10 -11.6195513
-160.040105 1.065814104e-10 -223.8561666
3.697746251e-05 -109.4473698 162.4936573
-64.83000402 -53.7794343 -250
3.697746251e-05 -12.1393974 172.1249696
-11.14978902 1.065814104e-10 41.4231149
3.697746251e-05 -143.0547679 214.6136252
-240.892495 1.065814104e-10 165.1732641
-251.779729 1.065814104e-10 194.0576579
-44.62537302 1.065814104e-10 185.8637658
2.154268977 1.065814104e-10 -189.9567912
-175.025652 1.065814104e-10 -183.7363064
-4.836658023 1.065814104e-10 88.1495737
3.697746251e-05 -183.0679297 -159.8252128
-141.883198 -236.8259148 -250
3.697746251e-05 -121.347645 188.6653359
-180.444641 1.065814104e-10 65.636211
-73.83593702 1.065814104e-10 -133.9957173
3.697746251e-05 -100.1329303 188.9138715
-236.424763 -207.2621905 -250
3.697746251e-05 -178.9154418 -110.0621118
3.697746251e-05 -56.7240224 -4.3361997
3.697746251e-05 -31.016096 19.0480607
3.697746251e-05 -218.2001588 160.3585484
1.419009977 -172.1684126 250
3.697746251e-05 -203.9391203 -190.5827356
3.697746251e-05 -136.0965979 -186.0061006
3.697746251e-05 -14.7924095 151.0176185
3.697746251e-05 -244.0058481 196.8954206
-191.491325 1.065814104e-10 -6.8473844
-4.805538023 1.065814104e-10 -90.5375942
-110.956752 1.065814104e-10 -245.2044239
3.697746251e-05 -212.5697796 113.0974835
-135.97827 1.065814104e-10 32.1454867
3.697746251e-05 -58.98276 -203.4301037
3.697746251e-05 -11.5079175 -139.2109844
-251.061806 1.065814104e-10 -34.2009214
-18.46005302 -146.9468879 -250
-222.91551 1.065814104e-10 94.6384719
-245.768751 1.065814104e-10 -20.2559294
3.697746251e-05 -46.6276261 -37.0425369
-162.997662 1.065814104e-10 -123.6726641
-144.288634 1.065814104e-10 -41.2945339
3.697746251e-05 -115.519112 53.5607266
-184.779537 1.065814104e-10 119.8859508
-154.7209 -34.0002159 -250
-46.10177502 -39.8003786 -250
-58.28298202 -10.2955151 -250
-20.87344602 -120.2235514 -250
3.697746251e-05 -57.9624878 38.2439433
-17.51505302 1.065814104e-10 157.9310473
-65.91710002 1.065814104e-10 249.753326
-234.047169 -56.7940053 -250
-132.715084 -15.1855989 -250
3.697746251e-05 -99.3333214 -66.6963024
3.697746251e-05 -112.8503239 106.4826627
3.697746251e-05 -59.0852936 164.695102
-67.21744902 1.065814104e-10 107.7793864
-70.87292202 1.065814104e-10 186.1226992
-200.354008 -251.1204739 -250
-148.262313 1.065814104e-10 194.6344024
-100.512244 -128.4068878 -250
3.697746251e-05 -125.5812076 -36.5914185
-53.21198802 -200.2164542 -250
-181.67785 -142.107344 -250
3.697746251e-05 -124.8503136 -8.398865
3.697746251e-05 -100.7870424 -137.5692605
-176.083914 1.065814104e-10 170.7289923
-129.863691 -117.5868673 -250
-80.53471802 -197.9641447 -250
3.697746251e-05 -91.1831584 236.6061758
3.697746251e-05 -232.8085478 -197.196286
-148.505688 1.065814104e-10 80.7403474
-151.486112 1.065814104e-10 143.7991989
-183.970597 1.065814104e-10 -78.6866623
-241.247489 1.065814104e-10 -45.5043369
-223.253743 1.065814104e-10 -125.2902132
-162.820102 -157.1725768 -250
-141.037508 1.065814104e-10 15.4279893
-187.222294 -198.6092863 -250
-41.06998502 1.065814104e-10 122.2438931
-60.77101702 1.065814104e-10 -222.4561674
-249.899366 -69.1973057 -250
3.697746251e-05 -31.1048222 122.4462339
3.697746251e-05 -78.5061588 10.1534111
3.697746251e-05 -222.955795 144.1002975
-199.20941 1.065814104e-10 -103.1682561
-33.30283502 1.065814104e-10 -85.2378048
-39.53762202 -170.6828918 -250
-185.398309 -228.9057236 -250
-39.83792902 -141.7717143 -250
3.697746251e-05 -177.9144882 112.0681892
-125.363014 -161.9008723 -250
-250.402368 -111.525355 -250
3.697746251e-05 -117.8055992 79.2609609
-14.49757002 1.065814104e-10 -136.4979785
3.697746251e-05 -155.7183419 55.7413868
-178.198833 1.065814104e-10 -109.9703703
3.697746251e-05 -2.1514832 222.0790092
-83.58273102 1.065814104e-10 148.0703399
-25.08394102 1.065814104e-10 -192.9625913
3.697746251e-05 -161.1473102 124.0797329
3.697746251e-05 -243.3287355 69.0336848
-140.182816 -101.8758009 -250
3.697746251e-05 -23.1824724 243.9527805
3.697746251e-05 -93.9676173 -48.607039
3.697746251e-05 -4.3914664 194.8696897
-132.972701 1.065814104e-10 135.1760509
-212.267549 1.065814104e-10 144.3207063
3.697746251e-05 -49.200552 -108.3502472
-64.07253402 1.065814104e-10 80.6201726
3.697746251e-05 -91.9094518 71.6197112
-229.534689 1.065814104e-10 -179.7005008
-195.628176 1.065814104e-10 -40.3542447
-94.77185202 1.065814104e-10 248.8855481
-148.427169 -176.5023124 -250
3.697746251e-05 -153.38318 -146.8290778
3.697746251e-05 -202.7201714 -44.9779639
-179.26992 1.065814104e-10 -159.7096406
3.697746251e-05 -231.4229024 -54.1529983
3.697746251e-05 -71.9664725 -231.7993359
-98.05223002 1.065814104e-10 -117.5240432
-12.49402502 1.065814104e-10 -221.3088448
-84.88329002 1.065814104e-10 -169.9156006
3.697746251e-05 -19.9781347 82.0309827
-63.28863102 1.065814104e-10 213.001279
-177.218291 -42.046419 -250
3.697746251e-05 -46.9199435 -238.4635939
-117.12965 1.065814104e-10 84.116838
3.697746251e-05 -207.0497639 -103.8978182
-147.890487 1.065814104e-10 -235.317057
3.697746251e-05 -91.8711042 -216.1816054
3.697746251e-05 -104.9983055 -240.2590053
3.697746251e-05 -74.4444889 213.5403001
-75.54853902 -171.3222696 -250
-215.159153 -177.2388028 -250
3.697746251e-05 -163.874158 -239.0972214
-119.483473 1.065814104e-10 -191.3381845
-4.802203023 1.065814104e-10 63.7022961
3.697746251e-05 -166.2229492 7.9436151
-161.697673 1.065814104e-10 -137.5069328
3.697746251e-05 -148.7705268 26.2027019
-185.835715 1.065814104e-10 78.7967292
3.697746251e-05 -27.0797686 -87.7990896
-32.64408202 -20.2621794 -250
-132.478378 1.065814104e-10 104.2423608
-193.953679 1.065814104e-10 168.0840729
3.697746251e-05 -97.1087006 209.7374602
-246.5882 1.065814104e-10 -73.7825985
-208.277111 -36.9192333 -250
3.697746251e-05 -11.5679421 16.2000408
3.697746251e-05 -60.9970157 88.668565
3.697746251e-05 -31.8579675 -231.2550292
3.697746251e-05 -152.644184 -186.7013417
-53.91542802 1.065814104e-10 -107.6800838
3.697746251e-05 -92.1015579 -199.2279642
3.697746251e-05 -205.7791228 76.3602441
-161.958721 -17.5026292 -250
3.697746251e-05 -214.7022171 -232.7452918
3.697746251e-05 -46.1618898 213.9610096
3.697746251e-05 -17.6881791 64.5860769
-133.254183 1.065814104e-10 193.6305691
-11.18030802 1.065814104e-10 186.5999653
-166.467151 -188.140879 -250
1.881938977 1.065814104e-10 36.6907521
-144.096756 1.065814104e-10 -142.5839989
3.697746251e-05 -65.1450435 61.9801672
-73.35176102 1.065814104e-10 -238.6174632
-75.69729202 1.065814104e-10 -120.0988568
-61.73654702 -128.7638137 -250
-140.644202 1.065814104e-10 -206.8201834
3.697746251e-05 -144.0513425 158.3721942
-250.56661 1.065814104e-10 8.9866805
-251.140645 -140.558573 -250
3.697746251e-05 -181.0422332 -92.483443
-30.35406402 -224.4720187 -250
-233.283789 1.065814104e-10 -0.5716551999
3.697746251e-05 -163.9245412 -197.9617235
-61.24558602 1.065814104e-10 -161.8464119
3.697746251e-05 -63.0087065 -101.8728873
3.697746251e-05 -199.8847643 164.5603674
-38.80391902 1.065814104e-10 -5.7090772
3.697746251e-05 -16.536953 123.8720296
3.697746251e-05 -132.6759216 236.696704
-187.678007 1.065814104e-10 34.0400571
3.697746251e-05 -126.6037275 -149.7200239
3.697746251e-05 -96.213043 159.8908211
3.697746251e-05 -213.116276 -128.4097983
-147.345866 1.065814104e-10 -82.6918112
3.697746251e-05 -206.08157 -203.8804474
-127.029788 1.065814104e-10 -162.5463399
-173.178596 1.065814104e-10 -226.6524549
-36.99312302 1.065814104e-10 -175.2706993
3.697746251e-05 -81.9438166 55.0464735
3.697746251e-05 -98.3295828 -178.8862745
-227.293367 -163.3922262 -250
-188.44308 -123.6558998 -250
-59.68928102 1.065814104e-10 -193.5678325
-207.419579 1.065814104e-10 103.4203399
3.697746251e-05 -118.2591955 151.1222853
-224.053806 1.065814104e-10 -108.9618119
-133.028852 -50.8299861 -250
-33.81903902 -33.5790406 -250
-123.222569 1.065814104e-10 146.9586849
-78.24593102 1.065814104e-10 40.9886896
-121.12601 -227.7824023 -250
3.697746251e-05 -15.9437409 -79.3626359
-120.520572 1.065814104e-10 -221.0480065
3.697746251e-05 -218.5599542 -14.7818669
3.697746251e-05 -187.7292157 22.973094
-123.045093 1.065814104e-10 -65.1257489
3.697746251e-05 -186.9445157 -194.7237409
-75.75321702 -227.3332118 -250
-103.754204 1.065814104e-10 211.7383205
-194.72674 1.065814104e-10 20.9498193
3.697746251e-05 -74.9104373 -145.4267007
3.697746251e-05 -124.7359199 -65.5595696
-126.239223 1.065814104e-10 173.2953707
3.697746251e-05 -14.474619 94.0532119
-82.96593002 1.065814104e-10 -75.6181817
3.697746251e-05 -92.586271 125.0412021
-65.71121502 1.065814104e-10 -206.4006756
-15.31804002 1.065814104e-10 8.0946492
3.697746251e-05 -89.9540366 -167.6872068
-241.309763 1.065814104e-10 -133.107919
-228.798541 1.065814104e-10 -243.3501237
3.697746251e-05 -135.6979425 33.5721666
3.697746251e-05 -128.4417196 106.670885
-57.67234102 -31.4535118 -250
-73.23928502 1.065814104e-10 234.1252606
3.697746251e-05 -45.5871441 157.9926438
3.697746251e-05 -52.4847697 -159.5411598
3.697746251e-05 -146.5475157 201.4335766
-205.169516 -118.3667263 -250
3.697746251e-05 -176.1958727 234.4727292
3.697746251e-05 -222.0461481 175.8109088
-164.084383 -222.1745712 -250
3.697746251e-05 -191.8382597 -244.2055861
-196.236436 1.065814104e-10 -137.7776182
-153.530565 1.065814104e-10 -114.6245037
3.697746251e-05 -243.7691058 146.1312865
3.697746251e-05 -207.3277752 27.0403904
3.697746251e-05 -163.7321227 87.3470918
3.697746251e-05 -39.0807271 -181.5175209
-98.41654002 1.065814104e-10 195.4073253
-168.439233 1.065814104e-10 -92.8284375
-25.12028702 1.065814104e-10 -2.8950388
3.697746251e-05 -191.556171 -59.7297329
3.697746251e-05 -174.8930679 152.2191857
-119.372594 1.065814104e-10 189.7263014
3.697746251e-05 -12.1737613 -27.1886004
-75.35037502 1.065814104e-10 21.6885103
-152.186231 1.065814104e-10 -212.8031275
-77.50770202 -50.9021004 -250
-124.495362 1.065814104e-10 -78.8672215
-164.512021 1.065814104e-10 101.9705709
-150.821211 -49.1167304 -250
-165.560176 1.065814104e-10 -23.8552534
3.697746251e-05 -252.0429837 -214.2600565
3.697746251e-05 -214.2450425 127.8411212
-228.314019 1.065814104e-10 235.46092
3.697746251e-05 -96.7654342 248.8086623
-22.59647302 1.065814104e-10 -37.4331629
-226.603819 1.065814104e-10 -11.6569349
3.697746251e-05 -62.1992592 124.0465922
-88.28284602 1.065814104e-10 208.558132
-227.490427 1.065814104e-10 35.4494862
3.697746251e-05 -121.8994037 211.1272075
-58.43288502 -97.6635411 -250
3.697746251e-05 -158.120071 -2.6384177
3.697746251e-05 -168.9612612 -136.0206815
3.697746251e-05 -234.4508528 236.4788051
3.697746251e-05 -30.1376698 -11.783159
3.697746251e-05 -224.1104524 -26.4031639
-34.14268202 1.065814104e-10 -241.2260231
-126.859734 1.065814104e-10 -37.0755558
3.697746251e-05 -123.3048966 119.3242724
-63.92569402 -176.8313527 -250
-122.016952 1.065814104e-10 245.8562656
-147.722386 1.065814104e-10 -178.0219853
-209.741456 1.065814104e-10 131.4111227
3.697746251e-05 -219.5288863 -181.5777364
-15.67650702 1.065814104e-10 71.9432934
3.697746251e-05 -140.0873049 12.2933407
-151.557932 -95.8673443 -250
-98.58383302 -157.7099604 -250
-215.99074 1.065814104e-10 -187.1926519
-96.46235702 -246.3174784 -250
-138.531481 -193.1378763 -250
3.697746251e-05 -78.9538024 112.364646
-90.98215702 1.065814104e-10 161.0853125
-238.393348 1.065814104e-10 71.0194307
-55.83277402 1.065814104e-10 -2.9227215
-49.54198802 1.065814104e-10 234.2561163
3.697746251e-05 -24.3240123 41.442153
3.697746251e-05 -161.8588462 224.3817102
-119.702369 1.065814104e-10 29.6062878
-14.40754302 -220.6859152 -250
-192.318427 1.065814104e-10 -69.1403323
-87.54254702 -62.5550255 -250
3.697746251e-05 -52.5767399 14.6876428
3.697746251e-05 -243.6672515 249.9161343
-57.83260102 1.065814104e-10 -239.6507086
3.697746251e-05 -190.1631539 209.9635712
3.697746251e-05 -116.2486642 249.3105307
-222.423464 1.065814104e-10 -217.6382748
-43.05927702 -65.0185406 -250
3.697746251e-05 -130.1108755 -130.3924057
3.697746251e-05 -168.6545477 -172.1659565
3.697746251e-05 -77.7253463 -80.4168919
-153.045318 1.065814104e-10 39.1378301
-88.22073002 1.065814104e-10 -51.1555453
-85.94119802 1.065814104e-10 52.0817514
-214.83001 -221.908286 -250
3.697746251e-05 -83.4164858 -226.580359
-184.179277 1.065814104e-10 -220.5607918
3.697746251e-05 -55.5463649 137.6949401
-217.565071 1.065814104e-10 -69.9894235
3.697746251e-05 -246.5534699 159.6512615
-2.606012023 1.065814104e-10 -231.4548074
3.697746251e-05 -241.6650056 -72.2432409
-220.091396 1.065814104e-10 9.3047891
3.697746251e-05 -127.8249837 -175.5686523
3.697746251e-05 -239.5256414 130.9032944
-5.774865023 1.065814104e-10 -76.0049953
3.697746251e-05 -240.9002738 178.5943524
-81.09768202 1.065814104e-10 134.4539126
-210.130937 -198.4969937 -250
3.697746251e-05 -131.0398515 51.9314185
3.697746251e-05 -152.533909 148.1886428
3.697746251e-05 -148.5977823 244.3519395
3.697746251e-05 -234.4190784 -109.5123564
-180.641536 -98.7922871 -250
-176.223709 1.065814104e-10 186.7145926
-244.812365 1.065814104e-10 -152.3480543
3.697746251e-05 -132.8656192 -213.778543
3.697746251e-05 -192.4607024 0.7579250001
-201.261244 1.065814104e-10 -178.146855
-14.55695302 -75.7960777 -250
-54.91263302 1.065814104e-10 102.6404698
3.697746251e-05 -11.2093492 135.2836678
3.697746251e-05 -162.0585847 24.6067607
3.697746251e-05 -51.7353724 -73.0219189
-109.740488 -70.6875803 -250
-236.80909 -186.345641 -250
3.697746251e-05 -216.3573481 -59.6645072
-202.987572 1.065814104e-10 -148.2281097
-23.40566602 1.065814104e-10 -145.0664495
-99.78003502 1.065814104e-10 29.6544432
-12.85414602 -242.9048232 -250
-203.188886 1.065814104e-10 48.5830792
-64.95010002 1.065814104e-10 -65.3469718
-169.703063 -145.0177274 -250
-83.56969002 1.065814104e-10 -141.5456104
-38.49300902 -114.2274115 -250
3.697746251e-05 -9.7521793 -109.4957964
-143.137491 -72.6078367 -250
3.697746251e-05 -63.9106635 6.79534
3.697746251e-05 -134.7275236 187.8514685
-46.74354702 1.065814104e-10 219.9860704
-91.53975402 1.065814104e-10 -8.6484009
3.697746251e-05 -178.4536528 -18.4775042
3.697746251e-05 -175.4778257 -146.4194403
-178.497581 1.065814104e-10 42.2153049
-102.604252 -212.4464943 -250
3.697746251e-05 -222.2765551 237.6067891
-130.342891 -209.2904078 -250
-209.945434 1.065814104e-10 189.0641625
-166.310382 -6.1332003 -250
-247.265794 1.065814104e-10 82.1286043
-150.758493 1.065814104e-10 57.8331722
3.697746251e-05 -248.3980715 -179.7196926
-237.348711 1.065814104e-10 -65.8995377
-165.536402 -60.5140555 -250
3.697746251e-05 -252.2107096 -153.913851
-243.44205 -79.9747322 -250
3.697746251e-05 -68.93528 -52.8806969
3.697746251e-05 -69.3610648 176.9260262
-190.055574 1.065814104e-10 -52.3665891
-136.313157 -172.0577857 -250
3.697746251e-05 -80.7539293 -14.4770224
3.697746251e-05 -41.3538376 115.6145044
-50.59967802 1.065814104e-10 -150.7039713
-58.87185802 1.065814104e-10 -134.2045367
-60.81568202 -114.4374073 -250
3.697746251e-05 -22.516853 -199.5919638
-107.739638 -42.3377643 -250
3.697746251e-05 -140.5128511 73.2694269
-205.770266 1.065814104e-10 -46.9231741
-134.779856 1.065814104e-10 -150.2644092
-39.98149602 1.065814104e-10 71.3242283
3.697746251e-05 -23.8438337 -103.9751612
3.697746251e-05 -202.0943132 -80.9074152
-180.103819 -53.7580529 -250
-159.712889 1.065814104e-10 168.6319716
-10.55850602 1.920681 -250
-204.564749 -238.8551866 -250
-171.316057 1.065814104e-10 -75.5781094
-27.86625402 -189.8632541 -250
-141.214163 1.065814104e-10 -63.2692141
3.697746251e-05 -217.5739068 79.0010403
3.697746251e-05 -7.6980981 -242.5054083
-129.547163 -80.5293607 -250
-132.432994 1.065814104e-10 -215.6070549
3.697746251e-05 -239.2587569 -29.0776102
-116.530392 -142.8820466 -250
-83.85292302 1.065814104e-10 -88.8118863
-223.158185 -232.7962947 -250
-207.452701 -96.1305556 -250
-159.068906 1.065814104e-10 -67.9292977
3.697746251e-05 -215.0799564 207.0193579
-27.21840102 1.065814104e-10 -62.7075945
-177.10094 1.065814104e-10 -1.602961
-192.521586 -241.0684 -250
3.697746251e-05 -99.7747553 -110.2948486
-136.398395 1.065814104e-10 218.8919415
3.697746251e-05 -39.1850254 66.8215006
-207.50592 -146.970255 -250
-113.846535 1.065814104e-10 202.1926914
-138.704146 1.065814104e-10 88.3281072
3.697746251e-05 -236.815732 -86.7628309
-188.377567 1.065814104e-10 -186.1191483
-41.38191102 1.065814104e-10 109.701509
-210.290529 1.065814104e-10 24.8212734
-98.80504102 1.065814104e-10 -29.0336018
3.697746251e-05 -99.3645374 175.0962277
-93.27954102 -22.7374477 -250
1.881644977 1.065814104e-10 -141.5127764
-204.046809 1.065814104e-10 -4.5624859
3.697746251e-05 -170.1856832 -44.1496232
-157.831149 1.065814104e-10 230.9797758
3.697746251e-05 -193.8211395 -89.6405828
3.697746251e-05 -129.2410397 -105.4478818
-81.94799802 -30.0295124 -250
-97.35187202 1.065814104e-10 -224.2616958
3.697746251e-05 -25.1048646 -140.890321
3.697746251e-05 -239.4672961 -137.1656602
-154.846468 -236.013588 -250
3.697746251e-05 -136.5171185 -160.4051174
-176.374773 -85.5780723 -250
-169.516484 1.065814104e-10 -59.0338822
-193.173652 1.065814104e-10 109.116235
-106.122681 1.065814104e-10 -88.8127854
-46.46598502 1.065814104e-10 42.0739279
3.697746251e-05 -170.8181262 -210.5444532
-168.204871 1.065814104e-10 69.4960329
3.697746251e-05 -55.0499731 -131.6168105
-116.156872 -111.8315842 -250
-246.988045 1.065814104e-10 -122.8478839
-45.93319002 1.065814104e-10 146.8621806
-152.018792 1.065814104e-10 -194.465095
3.697746251e-05 -26.2418069 202.4515819
3.697746251e-05 -27.5345846 -187.1300156
3.697746251e-05 -217.9684896 -81.8650258
3.697746251e-05 -105.7714845 -195.0386253
3.697746251e-05 -188.8091624 -170.3302126
3.697746251e-05 -132.8700474 84.2636799
-102.424177 1.065814104e-10 -153.7674657
-218.714391 1.065814104e-10 -198.8186407
3.697746251e-05 -242.0016244 -98.2184851
3.697746251e-05 -186.842018 -38.6495562
3.697746251e-05 -154.4186294 -232.2721087
-4.704647023 -99.407665 -250
3.697746251e-05 -41.9806859 52.6795097
-160.972705 1.065814104e-10 217.9685138
3.697746251e-05 -54.0623414 -26.8449513
-112.953622 1.065814104e-10 222.1932284
-84.65319102 -76.3563661 -250
-233.279769 1.065814104e-10 -221.8320309
3.697746251e-05 -197.2908071 142.5403142
-241.122747 1.065814104e-10 -192.3507866
-75.18927602 -209.5969823 -250
1.737920977 -47.6162369 250
-5.474183023 1.065814104e-10 -164.1005714
-35.50895002 -248.6157399 -250
-14.95776402 1.065814104e-10 128.1703994
3.697746251e-05 -117.8265948 228.6451025
3.697746251e-05 -187.0010752 177.8621558
-39.05099902 1.065814104e-10 -41.8261854
-161.091341 1.065814104e-10 23.6002336
3.697746251e-05 -28.1489841 -172.59622
3.697746251e-05 -45.3149771 169.5435495
-206.735903 -82.6414636 -250
-26.53107902 -159.1219123 -250
-215.748694 1.065814104e-10 161.3817852
-37.81952202 1.065814104e-10 -151.6335979
-42.28547202 1.065814104e-10 169.4392737
-189.901686 1.065814104e-10 -208.1370131
3.697746251e-05 -36.4884877 -220.6990649
-174.661129 1.065814104e-10 142.6325141
-101.573579 -110.5854455 -250
-174.050251 -204.3610928 -250
3.697746251e-05 -227.9743921 10.0492147
3.697746251e-05 -23.3489694 176.8341897
-20.85983602 -20.0221408 -250
3.697746251e-05 -99.5991072 24.8898684
-152.161623 -120.1310595 -250
-178.715947 -170.0031362 -250
-190.091815 1.9710933 250
3.697746251e-05 -60.8704398 -84.2071454
3.697746251e-05 -85.5612389 -89.0363861
-64.07252402 1.065814104e-10 95.7574087
-162.271591 -126.6632653 -250
-132.843314 1.065814104e-10 -126.2795182
-113.177684 -240.0779742 -250
3.697746251e-05 -122.8239418 -243.1581127
-113.389352 1.065814104e-10 109.6162173
3.697746251e-05 -185.2303713 -137.3062109
-180.398691 1.065814104e-10 -142.2252628
-43.34455402 -99.7325683 -250
3.697746251e-05 -214.2069068 10.8535391
3.697746251e-05 -218.9141472 -211.1008352
3.697746251e-05 -11.8402309 -161.886479
3.697746251e-05 -44.4642658 87.6433082
3.697746251e-05 -179.2514019 48.0958694
-156.55629 1.065814104e-10 -153.4623919
-0.05963202254 1.065814104e-10 -118.2751731
-190.680082 1.065814104e-10 -127.8392225
-4.934219023 1.065814104e-10 232.1457824
-151.957487 1.065814104e-10 180.5481813
3.697746251e-05 -85.2804605 0.7476323001
-206.670808 1.065814104e-10 60.1162094
-129.555361 -91.8905225 -250
-135.94659 1.065814104e-10 -240.8974628
3.697746251e-05 -194.2825942 240.677259
3.697746251e-05 -148.1873398 -204.2576393
-72.82004702 1.065814104e-10 73.4294191
-15.39244002 -181.5060182 -250
-56.04926102 1.065814104e-10 30.8814379
3.697746251e-05 -236.887313 -5.5307755
-198.597868 1.065814104e-10 183.2500453
-115.750272 -33.8335042 -250
-126.326718 1.065814104e-10 38.7060943
-180.076974 1.065814104e-10 23.386414
-240.994827 -237.4414559 -250
-204.88428 -48.6242188 -250
-105.793051 1.065814104e-10 47.6300894
-19.07963702 1.065814104e-10 -212.2287473
-127.570892 1.065814104e-10 61.2829983
-72.81639202 -78.4076495 -250
-51.48417502 -211.7026483 -250
-195.144472 1.065814104e-10 133.5028643
-207.175559 1.065814104e-10 220.1533787
3.697746251e-05 -216.2638308 -244.8551566
-79.22261902 1.065814104e-10 -160.254341
-102.874296 1.065814104e-10 -65.2706084
3.697746251e-05 -150.5862676 109.2589294
-193.555134 -29.818361 -250
-101.370291 1.065814104e-10 127.5110422
3.697746251e-05 -73.8479873 150.7634619
3.697746251e-05 -194.3814464 71.0446709
-127.625417 -32.4110753 -250
-217.367301 -11.1027617 -250
-13.94281202 1.065814104e-10 -125.375144
3.697746251e-05 -32.369396 -122.3774851
-38.17359802 1.065814104e-10 -17.4834263
-210.987391 1.065814104e-10 113.9505274
3.697746251e-05 -122.1675726 173.1871898
-221.42538 1.065814104e-10 -34.0420869
-41.42197902 1.065814104e-10 -92.8238883
-244.870624 1.065814104e-10 33.3227241
-70.01468302 -8.119503 -250
3.697746251e-05 -37.711898 238.7129165
3.697746251e-05 -94.1747529 -156.8561402
3.697746251e-05 -198.79707 -32.3722583
-58.16160202 -44.9033494 -250
3.697746251e-05 -18.5309495 163.0533862
3.697746251e-05 -223.3708878 88.5624957
3.697746251e-05 -166.5298291 -72.2870734
-31.44256702 1.065814104e-10 219.1220723
3.697746251e-05 -4.3804655 114.1156011
3.697746251e-05 -114.6278079 -61.0351721
-7.058482023 -169.0719267 -250
-251.446716 -212.9376283 -250
-107.766965 1.065814104e-10 143.9030405
-76.12811302 1.065814104e-10 100.5908703
-58.26568602 1.065814104e-10 146.823374
3.697746251e-05 -54.5097255 221.2006175
-206.221819 1.065814104e-10 166.9868212
-174.896758 1.065814104e-10 -213.2704285
-27.16728802 1.065814104e-10 -100.391256
-229.555249 1.065814104e-10 -22.2924134
3.697746251e-05 -33.0077716 -209.3771865
3.697746251e-05 -110.1830651 119.6475066
-123.675265 -8.8909831 -250
3.697746251e-05 -236.1817629 117.1847334
3.697746251e-05 -215.9525478 -158.8320742
3.697746251e-05 -203.217954 52.4070104
-54.77891902 1.065814104e-10 -95.9633485
-9.413015023 -139.6533373 -250
-0.6321020225 1.065814104e-10 -32.7502025
3.697746251e-05 -145.0956067 -63.3356915
3.697746251e-05 -40.2470463 -54.0751213
3.697746251e-05 -51.3926018 189.462856
3.697746251e-05 -204.5065625 -239.1342228
-105.217018 -17.4586509 -250
-139.269663 -145.9813543 -250
-69.28236602 1.065814104e-10 160.181267
-150.255864 1.065814104e-10 2.4070118
-165.535476 1.065814104e-10 249.4453684
3.697746251e-05 -117.9345814 25.0851354
-54.40729302 0.3884982001 -250
-102.250898 1.065814104e-10 164.9483499
-192.420395 1.065814104e-10 205.8020946
-225.354579 -136.5526678 -250
-116.466703 -95.2822048 -250
-85.37898302 1.065814104e-10 -188.0571981
3.697746251e-05 -212.1097824 143.2131012
