# .PCD v0.7 - Point Cloud Data file format
VERSION 0.7
FIELDS x y z
SIZE 4 4 4
TYPE F F F
COUNT 1 1 1
WIDTH 1229
HEIGHT 1
VIEWPOINT 0 0 0 1 0 0 0
POINTS 1229
DATA ascii
88.20219 -106.5604345 6.565414878e-12
252.454819 -225.2819597 76.7453577
69.599379 -225.2819597 71.6863357
-2.955857781e-12 137.8227394 47.89646543
-2.955857781e-12 199.631282 26.82413004
118.349214 -149.3224739 6.565414878e-12
-2.955857781e-12 -161.1387569 74.4789141
152.464046 -225.2819597 108.3703228
28.571403 -67.72706266 6.565414878e-12
21.895432 -2.392094663 6.565414878e-12
131.601482 -225.2819597 49.78099505
130.430115 71.07032684 6.565414878e-12
-2.955857781e-12 -49.28712636 173.186243
-2.955857781e-12 -13.56680076 214.5811942
173.461029 -225.2819597 245.6062293
-2.955857781e-12 160.4006361 146.740161
47.01154 -200.3587803 6.565414878e-12
94.772553 74.96114494 6.565414878e-12
123.126193 -225.2819597 112.0564864
-2.955857781e-12 -199.6948224 250.9004873
89.19572 -169.9084574 6.565414878e-12
-2.955857781e-12 66.42976074 116.2640302
180.66454 106.8326489 6.565414878e-12
-2.955857781e-12 188.0901396 73.9434893
-2.955857781e-12 5.214380337 43.51566155
221.375424 -225.2819597 44.77621538
198.707782 -1.651182463 6.565414878e-12
228.419318 -54.28333596 6.565414878e-12
140.599518 165.0857564 6.565414878e-12
214.029239 76.00047374 6.565414878e-12
64.952153 -147.2545559 6.565414878e-12
235.088751 -171.3419915 6.565414878e-12
105.798728 -225.2819597 201.4747467
0.557953 -225.2819597 160.1614256
-2.955857781e-12 -85.01723496 26.70958597
-2.955857781e-12 119.5769817 109.2524425
25.984222 196.8643593 6.565414878e-12
12.703134 -224.6716003 6.565414878e-12
191.859366 -220.4977619 6.565414878e-12
38.024833 43.09144614 6.565414878e-12
-2.955857781e-12 -102.2318469 174.9230366
-2.955857781e-12 -112.552305 13.03530502
-2.955857781e-12 63.21370124 158.1971119
170.715178 -172.2707662 6.565414878e-12
203.948124 -225.2819597 244.58948
252.182464 -225.2819597 16.63487667
-2.955857781e-12 198.6082824 189.4776322
95.617226 -80.09210316 6.565414878e-12
225.479121 -124.1566757 6.565414878e-12
-2.955857781e-12 31.65429714 20.40500785
152.708277 213.1866941 6.565414878e-12
-2.955857781e-12 98.70992634 72.4105004
110.507733 -25.84951116 6.565414878e-12
-1.3360583 -15.30271066 6.565414878e-12
52.200561 -225.2819597 179.35528
82.503139 122.2218223 6.565414878e-12
169.549216 -121.2413449 6.565414878e-12
25.964631 -225.2819597 34.16410811
74.418815 11.13955354 6.565414878e-12
32.019647 -104.6256786 6.565414878e-12
-2.955857781e-12 38.11398014 74.4990932
38.870465 -225.2819597 76.8022532
108.317618 27.49514634 6.565414878e-12
-2.955857781e-12 -58.08097516 90.243556
32.046258 89.35288144 6.565414878e-12
123.503754 -212.796228 6.565414878e-12
-2.955857781e-12 114.2208026 155.3220396
58.280852 -249.3466205 6.565414878e-12
199.669016 -44.93169996 6.565414878e-12
163.607821 128.7829246 6.565414878e-12
-0.6308395 225.2819441 27.38203517
64.579716 -225.2819597 17.44230987
129.568576 -174.3784923 6.565414878e-12
-2.955857781e-12 -9.797284763 152.9046748
-2.955857781e-12 -147.3961552 95.9513074
146.300346 -225.2819597 224.2519032
-2.955857781e-12 -135.0122973 54.09818383
112.249834 -225.2819597 145.7542909
130.844904 199.3204038 6.565414878e-12
-1.9799242 70.73128984 6.565414878e-12
251.014545 -225.2819597 234.0688923
218.224145 -202.2756809 6.565414878e-12
244.71224 144.9694064 6.565414878e-12
-2.955857781e-12 -194.9422255 24.66818372
155.893334 66.82132544 6.565414878e-12
235.916444 -6.425350563 6.565414878e-12
-2.955857781e-12 -200.0322025 106.0865545
-2.955857781e-12 -141.6284342 154.6861699
220.549992 -225.2819597 108.6032011
88.10568 -225.2819597 220.2454737
72.422315 -225.2819597 164.9116008
62.310953 48.40517504 6.565414878e-12
23.548375 23.20037224 6.565414878e-12
160.792284 -225.2819597 159.7026398
-2.955857781e-12 -67.96799066 6.2405559
-2.955857781e-12 -97.38329426 133.2514705
-2.955857781e-12 72.06574104 204.3047406
245.252597 197.4983807 6.565414878e-12
163.481461 -223.814971 6.565414878e-12
213.945139 51.67745464 6.565414878e-12
151.982364 -10.71932406 6.565414878e-12
193.629121 -225.2819597 197.4934239
-2.955857781e-12 111.6947898 227.1166685
239.301926 36.95904094 6.565414878e-12
184.917802 -91.87094906 6.565414878e-12
187.258333 42.50345284 6.565414878e-12
226.238567 225.2819441 -0.93316526
208.966768 161.0520111 6.565414878e-12
-2.955857781e-12 151.3373357 107.630382
122.50305 119.0209165 6.565414878e-12
-2.955857781e-12 -83.73275746 50.69260417
-2.955857781e-12 -47.24467516 121.5465939
122.949178 -48.95817146 6.565414878e-12
-2.955857781e-12 149.0507468 197.3842107
-2.955857781e-12 -23.47085836 50.97905671
164.891718 164.3680526 6.565414878e-12
-2.955857781e-12 111.0036718 131.88759
-2.955857781e-12 -1.902089563 106.8035394
-2.955857781e-12 -108.36484 64.1868305
13.914233 -225.2819597 89.3970329
219.854734 -101.3588228 6.565414878e-12
102.901307 223.853307 6.565414878e-12
-2.955857781e-12 -215.4286004 51.0517578
198.883218 -225.2819597 29.38083349
-2.955857781e-12 -181.9918609 126.1869888
-2.955857781e-12 21.47914614 144.3239939
59.991284 116.8364405 6.565414878e-12
-2.955857781e-12 -47.09956066 231.5835694
-2.955857781e-12 16.93935584 193.5879882
-2.955857781e-12 -175.6991743 178.2020054
159.997563 -39.44291386 6.565414878e-12
-2.955857781e-12 185.7422957 97.0402484
-2.955857781e-12 153.1637204 169.1094545
-2.955857781e-12 51.63435234 32.87705438
110.495838 -115.9033113 6.565414878e-12
70.265961 -225.2819597 121.3927758
-2.955857781e-12 118.4674635 194.6798275
34.558437 -225.2819597 142.7131649
30.022 219.3348384 6.565414878e-12
250.580049 -225.2819597 206.8775938
57.216175 -225.2819597 223.0014731
-2.955857781e-12 189.9886114 49.08912787
108.439622 56.78766024 6.565414878e-12
-2.955857781e-12 -64.15272756 62.7670051
200.803475 -225.2819597 85.879905
-2.955857781e-12 -132.5558601 30.71785329
195.611825 -163.9510295 6.565414878e-12
52.168637 -225.2819597 247.9131446
181.148419 200.9131811 6.565414878e-12
145.420222 20.89090054 6.565414878e-12
17.211133 -225.2819597 214.1967412
-2.955857781e-12 -129.5840542 173.5406828
109.903815 -225.2819597 68.6995823
-2.955857781e-12 -90.55916406 247.9882961
97.922525 -225.2819597 249.0587003
-2.955857781e-12 -0.8618787625 233.0305939
116.642528 -225.2819597 182.0130599
-2.955857781e-12 27.07182594 122.7693996
238.332185 -220.1879465 6.565414878e-12
-2.955857781e-12 197.3074737 226.3019374
-1.5336832 225.2819441 155.9001057
27.982776 -245.6593799 6.565414878e-12
229.766149 118.6389912 6.565414878e-12
11.769423 -225.2819597 141.0969635
-2.955857781e-12 42.07425794 101.9408786
-2.955857781e-12 146.9268536 67.9619618
142.60562 -236.648452 6.565414878e-12
22.261905 -225.2819597 187.7434027
220.914034 -248.2716192 6.565414878e-12
-2.955857781e-12 16.21026764 75.829487
192.805301 -225.2819597 149.7596731
83.285971 -225.2819597 103.7855964
80.675107 -225.2819597 52.84374853
-2.955857781e-12 -119.5005387 129.8273347
6.402075 165.9678522 6.565414878e-12
195.479783 122.7837166 6.565414878e-12
-2.955857781e-12 -71.68610836 211.4436669
-2.955857781e-12 -100.1414086 196.4871106
-2.955857781e-12 -59.91743096 139.6358
121.565967 -225.2819597 30.70164217
66.404424 195.0094079 6.565414878e-12
82.507815 -225.2819597 29.36163899
-2.955857781e-12 36.80700374 166.6810136
22.694564 -143.429009 6.565414878e-12
-2.955857781e-12 36.28989644 202.7377041
202.799076 -225.2819597 129.7296205
72.852877 -126.310221 6.565414878e-12
68.538636 73.70656144 6.565414878e-12
-2.955857781e-12 143.0011947 231.8928533
-2.955857781e-12 -187.9660808 195.5489379
115.992992 -74.13898606 6.565414878e-12
50.834198 160.6341277 6.565414878e-12
1.154504 -225.2819597 250.7005558
199.024743 225.2819441 -2.45811441
228.18668 -225.2819597 131.3867618
142.532857 112.3633245 6.565414878e-12
43.009187 -225.2819597 20.80752713
97.304969 -207.6295045 6.565414878e-12
-2.955857781e-12 79.26933384 224.6103849
-2.955857781e-12 121.306847 61.9352034
223.596385 15.83597534 6.565414878e-12
28.751518 -210.7397798 6.565414878e-12
15.901103 130.2759744 6.565414878e-12
178.068616 -198.4674652 6.565414878e-12
105.320696 160.7208494 6.565414878e-12
214.669879 -225.2819597 198.7622044
-2.955857781e-12 -104.7910212 84.7944057
192.975357 89.93765794 6.565414878e-12
-2.955857781e-12 -171.9014597 231.2195507
-2.955857781e-12 -159.1293102 113.2779106
-2.955857781e-12 -189.3319636 155.205867
-2.955857781e-12 -125.3445933 99.9538064
-2.955857781e-12 65.78828114 137.5806398
54.498934 -13.25845206 6.565414878e-12
-2.955857781e-12 -174.4682261 33.50268926
-2.955857781e-12 -28.30703406 163.2867837
-2.955857781e-12 8.135419237 23.02411432
-2.955857781e-12 -86.45886396 102.7638433
-2.955857781e-12 -151.3867887 197.5040318
-2.955857781e-12 -18.83101326 129.1954246
-2.955857781e-12 74.65449684 181.3019403
-2.955857781e-12 206.9725423 166.4398817
-2.955857781e-12 221.8290953 74.0821884
215.495775 184.3289665 6.565414878e-12
195.712827 -66.59631536 6.565414878e-12
156.223957 -225.2819597 179.5650477
124.063614 -225.2819597 90.5258654
236.963934 -90.34977406 6.565414878e-12
118.195099 -225.2819597 249.5895967
-2.955857781e-12 134.4946678 155.6452761
166.487683 -225.2819597 225.6250143
-2.955857781e-12 56.97726244 65.7117198
205.756173 -134.3393133 6.565414878e-12
-2.955857781e-12 206.2781301 113.8451988
-2.955857781e-12 180.1676355 21.71974932
-2.955857781e-12 -45.81311926 22.87981349
34.363521 -225.2819597 102.1335016
18.033886 69.60510884 6.565414878e-12
16.369381 -24.64159046 6.565414878e-12
-2.955857781e-12 155.028302 127.4698652
-2.955857781e-12 172.9468754 191.5042336
137.301785 -195.2062431 6.565414878e-12
39.261002 -180.6707075 6.565414878e-12
-2.955857781e-12 -14.66509136 87.1543705
-2.955857781e-12 27.49015914 233.6370264
77.905323 225.2819441 -0.29594394
-2.955857781e-12 67.54126584 243.3927704
-0.6486312 147.4311015 6.565414878e-12
-2.955857781e-12 211.6103532 9.60403764
-2.955857781e-12 95.89378764 29.1013078
132.311276 94.07078224 6.565414878e-12
47.136097 -225.2819597 122.2987345
161.318989 -139.1591269 6.565414878e-12
234.140013 -225.2819597 29.77860949
76.066145 -187.8379664 6.565414878e-12
71.595704 -230.7231985 6.565414878e-12
35.006781 -225.2819597 57.6154765
-2.955857781e-12 -96.26674826 152.7723136
-2.955857781e-12 -150.1212857 249.5788031
140.893243 -99.32023006 6.565414878e-12
124.069198 149.0842925 6.565414878e-12
25.297491 -48.51049686 6.565414878e-12
-2.955857781e-12 -207.1457386 206.4563857
219.312204 -182.8329759 6.565414878e-12
178.396153 -236.2803664 6.565414878e-12
-2.955857781e-12 -163.796392 55.2433159
40.722753 142.470835 6.565414878e-12
109.454584 205.5888634 6.565414878e-12
101.079443 117.0338186 6.565414878e-12
217.683094 -225.2819597 65.5249374
-2.955857781e-12 -111.5911419 228.8443683
-2.955857781e-12 -59.00179636 190.7224286
76.10416 -44.06953046 6.565414878e-12
89.739953 22.88799964 6.565414878e-12
90.704819 -228.9554167 6.565414878e-12
-1.734554 -225.2819597 179.1518399
173.24311 -225.2819597 114.8045847
-0.3901707 225.2819441 229.522259
186.130956 23.63681714 6.565414878e-12
-2.955857781e-12 119.0063995 31.71855527
51.907061 98.53053684 6.565414878e-12
-2.955857781e-12 -211.4032673 4.19122297
159.750077 -225.2819597 70.8142687
-2.955857781e-12 -36.32570936 191.7983697
25.128064 -225.2819597 15.08090243
94.091454 96.01914874 6.565414878e-12
232.107866 -141.6674655 6.565414878e-12
33.191394 -85.83088836 6.565414878e-12
172.857502 89.87932204 6.565414878e-12
-2.955857781e-12 -0.5309571625 201.2522183
-2.955857781e-12 -158.7432582 131.9209035
-2.955857781e-12 154.2545441 37.88826353
208.162824 -225.2819597 220.7293889
227.409007 -225.2819597 160.8321472
177.15537 -225.2819597 63.2977675
50.80783 -159.0487866 6.565414878e-12
-2.955857781e-12 205.6309648 242.7074452
175.333005 -75.93129476 6.565414878e-12
53.018757 -225.2819597 61.2336802
78.511229 -73.43896506 6.565414878e-12
40.706367 -1.169337863 6.565414878e-12
70.953747 157.3370877 6.565414878e-12
55.093143 -225.2819597 197.4017405
154.206759 -78.21126766 6.565414878e-12
-2.955857781e-12 178.9478282 235.0518013
243.57314 -225.2819597 92.6388642
-2.955857781e-12 178.5927037 147.3898733
147.663165 -176.2700388 6.565414878e-12
88.746673 153.2269122 6.565414878e-12
12.42117 -110.0059359 6.565414878e-12
86.788749 -225.2819597 153.8116402
-2.955857781e-12 221.2128453 196.2002403
112.922998 79.08597264 6.565414878e-12
160.629541 -225.2819597 92.1962283
-2.955857781e-12 -211.7685104 123.044948
16.274198 -177.9435043 6.565414878e-12
-2.955857781e-12 138.6942861 26.64602877
51.752543 206.8863324 6.565414878e-12
139.939553 183.0893617 6.565414878e-12
96.13343 192.1904189 6.565414878e-12
34.15562 172.2569772 6.565414878e-12
125.617188 -230.627623 6.565414878e-12
121.904097 -12.01577986 6.565414878e-12
124.445376 -225.2819597 217.6825115
-2.955857781e-12 204.9328222 67.911761
78.730119 -91.39219156 6.565414878e-12
-2.955857781e-12 -147.1483668 20.38197065
-2.955857781e-12 -224.947882 78.1712291
-2.955857781e-12 190.0541919 205.1223749
162.365243 109.0187304 6.565414878e-12
251.290799 102.5584699 6.565414878e-12
93.19802 -35.53377286 6.565414878e-12
3.348684 -158.1003493 6.565414878e-12
55.537167 -225.2819597 159.3751903
-2.955857781e-12 -134.8317198 211.4045903
106.356073 -165.3469053 6.565414878e-12
-2.955857781e-12 96.78300294 189.6018684
-2.955857781e-12 84.13528044 116.4229738
15.63956 -225.2819597 107.6845586
199.728578 -204.677691 6.565414878e-12
81.320795 -225.2819597 183.1844278
-2.955857781e-12 109.0253464 14.018206
117.015156 -225.2819597 164.4472013
-2.955857781e-12 -185.1260775 66.0352434
154.718039 144.9840608 6.565414878e-12
151.210969 -225.2819597 37.74587367
-2.955857781e-12 -144.3737579 69.4091226
-2.955857781e-12 -8.552357163 170.3723061
-2.955857781e-12 -77.03933986 136.0469715
-2.955857781e-12 -54.04992046 156.394861
38.351042 -225.2819597 234.8985083
-2.955857781e-12 84.45079014 42.26621305
168.682334 23.48293034 6.565414878e-12
53.803436 33.23970884 6.565414878e-12
-2.955857781e-12 110.4338201 94.5819822
-2.955857781e-12 -42.91679806 42.24584074
113.831433 -225.2819597 128.551023
205.96813 -233.7835743 6.565414878e-12
-2.955857781e-12 87.49491064 13.96414934
233.535395 -37.88445276 6.565414878e-12
252.160479 -130.7600542 6.565414878e-12
84.262858 -225.2819597 83.944912
104.729462 -98.33983936 6.565414878e-12
55.315101 -77.75723416 6.565414878e-12
228.46101 -225.2819597 188.666288
-1.3832468 34.15160484 6.565414878e-12
-2.955857781e-12 105.6299933 248.6979283
-2.955857781e-12 -204.3833373 64.0399436
110.863711 7.894350237 6.565414878e-12
200.098547 -225.2819597 166.2535478
-2.955857781e-12 -66.30276166 173.1960251
-0.6353712 -185.7882953 6.565414878e-12
200.120794 146.6126499 6.565414878e-12
56.365511 -33.38327796 6.565414878e-12
203.604386 -96.63515676 6.565414878e-12
-2.955857781e-12 -132.6086262 245.5759066
247.852159 176.778388 6.565414878e-12
74.139691 -225.2819597 138.9960103
4.719571 117.0137022 6.565414878e-12
56.727914 -220.1104482 6.565414878e-12
212.665997 -60.08814356 6.565414878e-12
-2.955857781e-12 156.1961145 220.5565175
-2.955857781e-12 67.09858294 43.93689103
-2.955857781e-12 51.16514564 50.02815377
13.639541 208.1305568 6.565414878e-12
-2.955857781e-12 -206.4602213 235.6310295
105.124919 -225.2819597 114.3007587
246.574852 77.94826674 6.565414878e-12
181.139527 167.9777975 6.565414878e-12
92.069492 -153.0280939 6.565414878e-12
-2.955857781e-12 -136.5864273 138.8455381
76.035659 58.60536904 6.565414878e-12
-2.955857781e-12 -163.1396434 161.2047538
-2.955857781e-12 10.07875524 60.4200869
-2.955857781e-12 5.479307837 88.4636688
89.151354 -225.2819597 67.0732434
146.247181 -220.5298371 6.565414878e-12
161.656487 -62.82124726 6.565414878e-12
146.343288 47.14847614 6.565414878e-12
132.117723 -225.2819597 232.6885925
180.258528 129.1464827 6.565414878e-12
137.908493 -225.2819597 100.6098213
186.432396 -225.2819597 127.6977096
-2.955857781e-12 -86.03003436 171.8629516
-2.955857781e-12 214.4746905 143.5633038
-2.2202472 -225.2819597 132.1869181
-2.955857781e-12 136.5397437 114.8058227
201.401147 -225.2819597 67.7986869
243.949999 -225.2819597 136.0473551
196.471886 -17.91338706 6.565414878e-12
181.595641 -110.1145022 6.565414878e-12
54.927969 -225.2819597 80.0951467
143.19097 -225.2819597 154.2446225
-2.955857781e-12 146.7345513 85.392694
42.480326 -51.48204326 6.565414878e-12
-2.955857781e-12 5.241238837 146.4244825
30.66402 -16.68503566 6.565414878e-12
-2.955857781e-12 77.65120734 95.6303867
154.885984 -225.2819597 238.1692441
19.745933 -225.2819597 230.3314265
-2.955857781e-12 -0.6450166625 249.339684
72.42693 -225.2819597 215.8072617
181.514543 -40.30015866 6.565414878e-12
151.245238 -114.9591641 6.565414878e-12
139.420225 -225.2819597 185.5629135
211.382269 -168.6808245 6.565414878e-12
-2.955857781e-12 83.54343154 151.3307932
160.446477 -225.2819597 126.7427529
-2.955857781e-12 -70.21358906 79.393174
-2.955857781e-12 55.51442574 202.6789331
102.743029 -248.139862 6.565414878e-12
-2.955857781e-12 -22.04658376 70.8423196
-2.955857781e-12 224.963787 98.7887952
172.200862 -225.2819597 37.85132605
-2.955857781e-12 48.43585524 234.1048945
219.603359 -225.2819597 240.9100217
228.507943 150.3920595 6.565414878e-12
-2.955857781e-12 -139.1922768 187.0817888
252.045868 -163.9181564 6.565414878e-12
-2.955857781e-12 -209.4114409 162.3056076
109.622541 -230.2507274 6.565414878e-12
-2.955857781e-12 -3.861770463 11.09947128
125.127883 -225.2819597 15.11168925
-2.955857781e-12 124.573484 236.5657927
247.095848 -225.2819597 168.0001151
-2.955857781e-12 110.8201981 180.6895083
-2.955857781e-12 211.53129 37.4239764
-2.955857781e-12 94.96987944 227.3177672
228.604044 193.3116094 6.565414878e-12
202.897555 64.70144884 6.565414878e-12
125.938831 26.39844764 6.565414878e-12
-2.955857781e-12 195.2863523 125.2099569
-2.955857781e-12 171.2780781 36.51935406
60.803224 -192.767186 6.565414878e-12
132.099799 -225.2819597 68.5385166
-2.955857781e-12 -59.37082866 221.766853
17.65689 -225.2819597 47.48519798
223.951787 33.67374924 6.565414878e-12
70.710541 -225.2819597 39.70236962
-2.955857781e-12 52.01169324 122.4178224
-2.955857781e-12 188.6606988 160.652809
234.479593 208.8497256 6.565414878e-12
142.814299 225.2819441 -0.70300237
-2.955857781e-12 48.53890054 152.7821463
148.819236 -225.2819597 198.8738035
-2.955857781e-12 37.62559724 182.2909259
249.518756 -231.0542348 6.565414878e-12
68.121124 173.0833225 6.565414878e-12
26.000994 -128.1963635 6.565414878e-12
-2.955857781e-12 1.116638537 185.7618294
-2.955857781e-12 53.60483344 17.43312426
-2.955857781e-12 -17.34474726 109.4064977
249.514856 159.7754421 6.565414878e-12
-2.955857781e-12 136.9486153 247.3188512
197.54101 -225.2819597 182.2010645
127.728869 -110.2247083 6.565414878e-12
88.784126 -225.2819597 198.0042175
96.87585 -18.15858226 6.565414878e-12
243.910251 -55.16501956 6.565414878e-12
-2.955857781e-12 221.7777811 114.524728
124.055383 -134.9068297 6.565414878e-12
57.349432 -126.3808134 6.565414878e-12
75.878928 -162.010301 6.565414878e-12
232.114354 -225.2819597 59.99126163
250.716151 -14.77272606 6.565414878e-12
-2.955857781e-12 -52.70530376 107.1142211
-2.955857781e-12 -64.37318956 21.2455498
213.252655 3.493034837 6.565414878e-12
69.070369 -3.322980563 6.565414878e-12
-2.955857781e-12 -55.09107856 246.2093951
173.331824 74.48339974 6.565414878e-12
166.800276 -16.00714766 6.565414878e-12
234.565658 -72.71035606 6.565414878e-12
237.770553 -23.13319636 6.565414878e-12
-2.955857781e-12 167.4087377 71.9956993
100.308956 -225.2819597 187.003061
-2.955857781e-12 -217.1142354 94.6687775
225.604476 101.6915178 6.565414878e-12
11.360072 -225.2819597 170.9576878
-2.955857781e-12 63.42389564 228.4818852
105.922761 -225.2819597 32.60365689
223.068523 -230.5574451 6.565414878e-12
-2.955857781e-12 -73.78891386 94.1823334
103.027582 -225.2819597 157.8538014
131.846381 -80.99259006 6.565414878e-12
177.03764 -225.2819597 212.8336868
81.876587 107.0570144 6.565414878e-12
161.972552 -159.472804 6.565414878e-12
-2.955857781e-12 32.83711984 217.5107672
-2.955857781e-12 23.80240174 33.35394741
-2.955857781e-12 -188.3836618 91.5867257
-1.8526782 -30.49291076 6.565414878e-12
184.145227 -5.633143663 6.565414878e-12
216.676885 -44.79869156 6.565414878e-12
198.774076 -225.2819597 12.53384837
-2.955857781e-12 -183.9203827 247.4950742
138.529773 -46.10076616 6.565414878e-12
50.380838 -143.4112122 6.565414878e-12
141.708048 -225.2819597 121.9354642
97.741907 175.7067818 6.565414878e-12
108.046335 -50.78237416 6.565414878e-12
155.451103 -225.2819597 15.07817817
242.403342 -185.4167379 6.565414878e-12
81.791364 187.8744082 6.565414878e-12
174.699971 50.90702394 6.565414878e-12
-2.955857781e-12 -83.46464346 202.2224253
163.437405 225.2819441 -1.36412993
-2.955857781e-12 166.142169 105.743533
78.76733 -225.2819597 12.85395566
-2.955857781e-12 -180.7187134 219.2159061
191.071585 212.9331609 6.565414878e-12
203.091042 -225.2819597 100.5860464
-2.955857781e-12 -9.558200463 45.30747382
-2.955857781e-12 -157.0515893 234.2494549
105.412867 42.24600684 6.565414878e-12
12.664706 -225.2819597 122.248628
27.308059 53.36567714 6.565414878e-12
171.16703 -225.2819597 184.16011
199.234897 15.14182964 6.565414878e-12
180.47689 -183.4228953 6.565414878e-12
-2.955857781e-12 -97.74474576 13.65949799
233.232016 -197.4234672 6.565414878e-12
56.33082 82.07334414 6.565414878e-12
10.776534 -127.9933291 6.565414878e-12
-2.955857781e-12 -153.0489964 214.2822271
-2.955857781e-12 -88.42969966 121.5059423
-2.955857781e-12 -33.02998426 206.5427259
-2.955857781e-12 75.14803814 78.6784812
-2.955857781e-12 -113.188811 187.0797315
-2.955857781e-12 53.21468354 169.0389628
-2.955857781e-12 -24.40724676 149.0806281
82.136947 86.91065464 6.565414878e-12
147.463218 80.10677314 6.565414878e-12
208.024794 -216.8462032 6.565414878e-12
105.793778 -141.6328894 6.565414878e-12
157.16188 7.367711037 6.565414878e-12
147.724651 -225.2819597 57.47119986
45.74883 -94.03240716 6.565414878e-12
36.496746 -225.2819597 184.3522259
-2.955857781e-12 14.58896574 115.1459317
-2.955857781e-12 -33.44581866 129.5370537
191.516589 -131.20387 6.565414878e-12
43.431452 -225.2819597 90.7191069
210.005451 123.6666656 6.565414878e-12
-2.955857781e-12 -223.6985608 11.96803677
-2.955857781e-12 101.0840766 149.0718964
1.115765 -225.2819597 212.8952652
43.789215 -249.4035851 6.565414878e-12
133.976685 -150.0360142 6.565414878e-12
-2.955857781e-12 55.91555734 106.0931172
37.504284 -153.2729038 6.565414878e-12
-0.5137014 -118.7556071 6.565414878e-12
151.565587 -52.30467956 6.565414878e-12
-2.955857781e-12 -125.8716865 226.7386512
-2.955857781e-12 4.485172537 160.8383937
14.137509 -225.2819597 25.89696944
-2.955857781e-12 -212.8716193 190.4733285
229.975555 -225.2819597 97.7242424
232.198564 77.28022174 6.565414878e-12
-2.955857781e-12 147.1816167 183.1300918
118.767501 -225.2819597 56.25047452
-2.955857781e-12 -211.5997168 222.2185524
221.906029 -9.576421163 6.565414878e-12
-2.955857781e-12 -32.62957056 88.6871797
-2.955857781e-12 -161.4141927 98.9893724
197.307372 -149.7318481 6.565414878e-12
124.302403 -29.84910896 6.565414878e-12
88.812622 -194.3498146 6.565414878e-12
83.993066 -7.438781763 6.565414878e-12
79.861825 -58.78929996 6.565414878e-12
-2.955857781e-12 -25.50105226 229.5813407
-2.955857781e-12 -99.03079216 50.05810684
-0.7217795 -104.3835166 6.565414878e-12
-2.955857781e-12 145.1905511 146.1649195
-2.955857781e-12 173.8566101 249.8457478
194.642285 -81.41203606 6.565414878e-12
-1.1392171 -225.2819597 61.3191588
168.660765 207.8229558 6.565414878e-12
242.902356 -225.2819597 222.3282327
231.171817 49.69100264 6.565414878e-12
201.576222 44.63512944 6.565414878e-12
98.447133 -123.4746762 6.565414878e-12
185.30888 -225.2819597 98.5865586
-2.955857781e-12 97.70007034 120.6877887
232.103206 -225.2819597 116.8923807
108.792995 -216.0006033 6.565414878e-12
78.793961 -144.0261849 6.565414878e-12
251.381011 -214.5645438 6.565414878e-12
-2.955857781e-12 153.271608 52.60986237
-2.955857781e-12 80.02235334 167.3274707
37.114307 27.24166544 6.565414878e-12
-2.955857781e-12 -176.057321 47.81795483
162.036117 -225.2819597 27.59298408
147.195145 -139.4867216 6.565414878e-12
-2.955857781e-12 -74.54843206 39.95780199
41.253369 -73.93145526 6.565414878e-12
234.322827 -225.2819597 204.7200424
-2.955857781e-12 112.4698109 207.4247564
124.717153 -188.8953658 6.565414878e-12
174.657095 -225.2819597 157.4047233
126.586537 165.8951642 6.565414878e-12
23.83643 181.7628507 6.565414878e-12
198.918785 192.9159029 6.565414878e-12
89.761585 -225.2819597 237.7041491
-2.955857781e-12 -193.2778061 208.9849745
56.404045 -107.4800355 6.565414878e-12
238.532085 -225.2819597 75.5734946
-2.955857781e-12 166.2973372 203.7834824
153.136566 -27.30596696 6.565414878e-12
13.382618 34.69004064 6.565414878e-12
-2.955857781e-12 -121.5178292 57.49620815
180.037769 -225.2819597 8.89547937
-2.955857781e-12 182.1554542 61.3717065
-2.955857781e-12 156.6702754 234.4465859
178.536496 184.4032368 6.565414878e-12
29.757277 133.9387037 6.565414878e-12
137.970403 211.2376595 6.565414878e-12
122.250473 58.01530384 6.565414878e-12
-2.955857781e-12 -198.5826434 127.3248119
12.400051 193.6254348 6.565414878e-12
187.859621 -225.2819597 75.381923
-2.955857781e-12 -90.53908376 87.3624731
14.732968 -225.2819597 157.5626122
122.83768 -162.3594383 6.565414878e-12
5.147857 -236.1848236 6.565414878e-12
8.160814 5.549677237 6.565414878e-12
-2.955857781e-12 90.46069764 83.3952222
173.985133 -211.5743474 6.565414878e-12
76.446377 26.28775084 6.565414878e-12
17.587305 89.09750024 6.565414878e-12
-2.955857781e-12 28.98472974 248.4508062
225.817515 -160.5393337 6.565414878e-12
-2.955857781e-12 208.3139488 201.6428401
75.200423 -110.8768008 6.565414878e-12
8.128343 -58.88622776 6.565414878e-12
80.813322 142.0673035 6.565414878e-12
212.848398 -225.2819597 119.9134761
-2.955857781e-12 211.5611246 185.0665499
229.499755 -111.0630464 6.565414878e-12
54.973921 -225.2819597 27.44107459
-2.955857781e-12 44.01025334 86.8341807
-2.955857781e-12 -98.49280966 232.7461856
-2.955857781e-12 194.8962211 11.06456482
160.54359 -225.2819597 144.4881661
161.202992 -182.0389537 6.565414878e-12
39.643409 -225.2819597 34.01797864
120.776003 -225.2819597 194.9682249
70.32043 -225.2819597 107.8033994
-2.955857781e-12 141.8566892 13.45907667
169.136924 141.1573188 6.565414878e-12
246.454096 48.46587184 6.565414878e-12
-1.7449064 84.44795094 6.565414878e-12
54.55997 130.4628163 6.565414878e-12
-2.955857781e-12 -112.1507652 26.51149283
65.663869 -225.2819597 178.7172024
212.590994 -120.2495146 6.565414878e-12
-2.955857781e-12 89.89324374 58.72366907
-2.955857781e-12 -53.03165326 9.03599477
157.67753 -211.6783597 6.565414878e-12
-2.955857781e-12 160.491035 181.1903936
-2.955857781e-12 -81.92253576 13.62741153
69.997067 -225.2819597 93.4385776
37.051099 159.1428885 6.565414878e-12
53.919428 -235.4631729 6.565414878e-12
-2.955857781e-12 169.6177184 161.6978488
84.809154 -225.2819597 117.1020522
204.409626 -32.39554466 6.565414878e-12
246.020649 -225.2819597 64.4606024
218.590738 -138.1346153 6.565414878e-12
-2.955857781e-12 0.9205532375 214.5504328
131.945898 -249.9049474 6.565414878e-12
41.252757 192.3361816 6.565414878e-12
94.773396 128.9293644 6.565414878e-12
213.808296 -225.2819597 26.03929201
-2.955857781e-12 137.6406101 101.5016242
-2.955857781e-12 -183.3208401 167.2724132
-2.955857781e-12 175.5575815 9.23034382
-2.955857781e-12 38.55566984 35.3336463
142.689047 65.17716304 6.565414878e-12
-2.955857781e-12 -189.444745 115.1644748
-2.955857781e-12 -84.13779926 236.336825
197.226937 -225.2819597 210.5037255
-2.955857781e-12 -41.99619826 243.9077131
13.227755 -225.2819597 245.1528723
-2.955857781e-12 135.1474665 188.7236046
186.539628 -225.2819597 243.4740487
148.280233 -249.8855637 6.565414878e-12
11.550611 153.2752449 6.565414878e-12
31.225456 70.64638704 6.565414878e-12
-2.955857781e-12 -72.62799736 224.6318945
69.942676 214.7420768 6.565414878e-12
-2.955857781e-12 133.5138729 66.9787495
99.227839 -225.2819597 213.1357407
-2.955857781e-12 207.8592805 80.9017924
-2.955857781e-12 -201.7084636 13.3502532
30.508275 12.00202714 6.565414878e-12
155.379221 200.2804343 6.565414878e-12
221.761699 -88.32674936 6.565414878e-12
153.705322 -225.2819597 213.1615905
-2.955857781e-12 -125.6950804 13.45704229
40.995954 -225.2819597 222.0234815
34.734081 -195.6855171 6.565414878e-12
-2.955857781e-12 -203.0866788 46.58272312
-2.4426522 54.61264234 6.565414878e-12
99.93716 -225.2819597 141.2498385
119.946939 191.2388558 6.565414878e-12
41.539741 80.09885674 6.565414878e-12
187.404001 -225.2819597 35.62778002
141.471785 -208.3723744 6.565414878e-12
59.780464 5.847336837 6.565414878e-12
235.370716 10.20018814 6.565414878e-12
-2.955857781e-12 22.00968414 205.6095864
-2.955857781e-12 -9.564536863 119.8792127
13.955932 -245.8081297 6.565414878e-12
-2.955857781e-12 -36.59059616 176.1556042
180.892569 -225.2819597 194.7075407
-2.955857781e-12 -214.7461992 150.432754
-2.955857781e-12 -1.757018563 32.5339673
239.604667 -127.4098734 6.565414878e-12
25.335117 39.78452754 6.565414878e-12
-2.955857781e-12 184.1842586 183.5867864
-2.955857781e-12 -56.96048996 73.5662888
182.788919 -161.9852639 6.565414878e-12
15.979041 -37.97964186 6.565414878e-12
20.677576 -225.2819597 78.3316685
-2.955857781e-12 119.5519572 49.08662166
251.553815 -44.70904946 6.565414878e-12
154.603794 175.0652488 6.565414878e-12
-2.955857781e-12 -126.9305096 42.3706077
60.894287 -225.2819597 235.4043324
175.122366 34.69566114 6.565414878e-12
-2.955857781e-12 -140.8371691 84.8113555
31.015445 102.2303161 6.565414878e-12
55.593861 -46.27714386 6.565414878e-12
189.237414 -52.54280346 6.565414878e-12
72.808287 131.8257031 6.565414878e-12
252.101458 -225.2819597 246.9289876
150.741206 -225.2819597 135.977703
178.969145 -225.2819597 228.8627432
106.690404 -65.21668876 6.565414878e-12
222.479773 66.27817034 6.565414878e-12
-2.955857781e-12 -91.29505626 61.103428
-2.955857781e-12 -173.9733863 73.8659013
252.453799 59.78274104 6.565414878e-12
-2.955857781e-12 -160.3323045 187.1246004
127.803722 -225.2819597 128.6160426
21.563524 -80.57501616 6.565414878e-12
15.083493 -209.1597676 6.565414878e-12
97.573234 12.85002314 6.565414878e-12
-2.955857781e-12 120.8220038 166.1845761
-2.955857781e-12 80.64173004 192.5088625
110.634396 129.0102636 6.565414878e-12
-2.955857781e-12 -31.30727876 28.02194532
45.715145 -225.2819597 151.3352563
5.712 -77.75662106 6.565414878e-12
-2.955857781e-12 196.4121642 90.2021964
-2.955857781e-12 -128.4755288 118.822572
-2.955857781e-12 -122.4437901 214.0296624
-2.955857781e-12 207.2807173 49.77603924
-2.955857781e-12 -131.8989999 67.2613012
112.620158 -225.2819597 213.1956029
249.510202 -225.2819597 28.98807795
43.517998 -19.51403996 6.565414878e-12
193.483561 102.5599733 6.565414878e-12
-2.955857781e-12 -173.4287628 190.6273102
235.762113 129.7510198 6.565414878e-12
242.494183 111.5935587 6.565414878e-12
201.82146 -225.2819597 44.46584714
-2.955857781e-12 -169.7844607 119.9914828
233.057916 -225.2819597 17.24713521
-2.955857781e-12 -11.85150836 140.5014976
-2.955857781e-12 -97.99262436 97.8160119
136.336435 151.7295554 6.565414878e-12
-2.955857781e-12 103.0515372 162.6073131
126.905881 134.2553799 6.565414878e-12
184.590506 80.61592624 6.565414878e-12
51.134889 -225.2819597 109.7456804
88.258674 64.25140634 6.565414878e-12
110.434106 -87.18537326 6.565414878e-12
42.528747 218.7555691 6.565414878e-12
-2.955857781e-12 108.0952108 64.1249765
-2.955857781e-12 186.6478762 219.7557813
-2.955857781e-12 -193.8811071 143.1630225
237.735348 184.1295788 6.565414878e-12
76.954538 -225.2819597 228.1784773
-2.955857781e-12 23.48770724 55.05977833
240.829103 -225.2819597 107.6156986
176.969798 -131.2876241 6.565414878e-12
114.610285 -225.2819597 80.2445977
-2.955857781e-12 129.1035025 143.3955157
-2.955857781e-12 39.99259584 125.697315
17.326826 -154.6536603 6.565414878e-12
186.308934 11.20467964 6.565414878e-12
-2.955857781e-12 12.24291714 229.8430713
-2.955857781e-12 135.1348434 1.63695934
86.755019 -215.6006278 6.565414878e-12
-2.955857781e-12 46.68298934 193.9643062
237.614929 -234.8410027 6.565414878e-12
-2.955857781e-12 -127.6459774 155.964479
-2.955857781e-12 -151.3320946 141.8554324
49.198465 48.41763874 6.565414878e-12
192.805831 -104.2648841 6.565414878e-12
-2.955857781e-12 -23.58469726 198.5499997
154.266374 -232.5117248 6.565414878e-12
-2.955857781e-12 -115.9439292 90.1512996
130.34946 -225.2819597 247.3008384
67.114931 -225.2819597 250.8601792
251.32674 -84.56865786 6.565414878e-12
204.862957 86.61430884 6.565414878e-12
39.642956 -216.5292901 6.565414878e-12
91.728965 -182.3743597 6.565414878e-12
38.169849 60.46526554 6.565414878e-12
-2.955857781e-12 210.4448779 231.365497
-2.955857781e-12 129.1070537 201.6957244
63.951402 -225.2819597 55.57832924
-2.955857781e-12 62.80484404 192.6561279
213.687128 -225.2819597 252.1052406
208.253112 217.5402735 6.565414878e-12
-2.955857781e-12 -104.2069396 243.6252338
-2.955857781e-12 -166.4143274 87.7700528
126.845184 82.81130014 6.565414878e-12
-2.955857781e-12 26.40358014 110.5169789
42.831892 124.7029838 6.565414878e-12
93.889941 -225.2819597 34.9701575
66.13979 32.92667254 6.565414878e-12
-2.955857781e-12 -211.9608559 110.7997874
-2.955857781e-12 119.1022079 122.7050563
-2.955857781e-12 178.4046016 81.4271627
-2.955857781e-12 -191.9470086 36.52621794
68.897042 -243.2796233 6.565414878e-12
-2.955857781e-12 162.7785159 118.0127559
10.603896 -225.2819597 191.3563919
19.378889 -234.8841525 6.565414878e-12
-2.955857781e-12 -145.1534733 107.9319662
-2.955857781e-12 86.83631294 181.1213168
-2.955857781e-12 -13.23010836 59.40064382
-2.955857781e-12 -23.77686446 9.98479978
-2.955857781e-12 208.6594047 154.4010015
-2.955857781e-12 188.7640007 111.6281142
170.112672 193.1588959 6.565414878e-12
142.397699 195.6042497 6.565414878e-12
239.193072 -225.2819597 154.7646575
221.407425 165.5723093 6.565414878e-12
9.521986 80.00781714 6.565414878e-12
199.386818 168.4383191 6.565414878e-12
-2.955857781e-12 25.52950404 155.7185552
117.71513 -60.29928796 6.565414878e-12
63.075236 60.44111864 6.565414878e-12
238.083596 220.3560744 6.565414878e-12
73.294471 43.46773754 6.565414878e-12
165.239689 -83.00888506 6.565414878e-12
172.825176 153.831804 6.565414878e-12
-2.955857781e-12 -66.81571836 129.7082294
20.443423 -101.0428276 6.565414878e-12
-2.955857781e-12 29.82415984 65.7885568
-1.1181473 -223.7178303 6.565414878e-12
-2.955857781e-12 52.34883744 76.7941641
-2.955857781e-12 -29.87563036 40.82302919
151.639408 129.4726372 6.565414878e-12
-2.955857781e-12 -90.82198876 188.9481839
-2.955857781e-12 -161.6379036 27.99863336
216.724502 -225.2819597 134.8311187
226.63289 -217.7417406 6.565414878e-12
-2.955857781e-12 -33.33213786 61.8203759
-2.092874 104.9129064 6.565414878e-12
142.982795 -225.2819597 238.20972
-2.955857781e-12 40.32698694 10.07321675
-2.955857781e-12 -100.6224417 32.17053554
-2.955857781e-12 -191.2043893 233.8036912
97.526442 -225.2819597 105.1733833
30.84852 -116.4432573 6.565414878e-12
85.054552 5.864342237 6.565414878e-12
61.095283 -225.2819597 207.6407893
153.259741 -126.6492713 6.565414878e-12
85.520077 -225.2819597 134.7996227
-2.955857781e-12 -216.1786481 37.73164748
-2.955857781e-12 -214.5046461 244.3074869
7.680237 24.32351514 6.565414878e-12
174.090278 -225.2819597 51.89826452
118.678003 38.94147794 6.565414878e-12
13.204622 175.6091069 6.565414878e-12
-2.955857781e-12 -142.2141476 171.5242475
117.896654 -175.8832766 6.565414878e-12
-2.955857781e-12 -204.9919298 95.4280536
-2.955857781e-12 150.6328803 209.0323946
141.957329 -225.2819597 212.7701204
-2.955857781e-12 -116.4597727 73.1466906
194.224149 -233.7395198 6.565414878e-12
-2.955857781e-12 -52.76206136 59.90798754
145.919594 -86.51742756 6.565414878e-12
164.742462 -50.16696976 6.565414878e-12
188.683409 -225.2819597 23.59738135
223.418146 213.9460475 6.565414878e-12
249.197133 89.36752694 6.565414878e-12
125.992961 -225.2819597 172.9287629
84.514446 -117.9690602 6.565414878e-12
-2.955857781e-12 123.7032691 93.8642476
213.729811 -225.2819597 95.7234181
246.933457 -174.6392457 6.565414878e-12
0.43089 -225.2819597 145.4092098
97.487405 -225.2819597 58.05764233
123.911924 107.4390501 6.565414878e-12
52.596672 -184.4861557 6.565414878e-12
-2.955857781e-12 101.8518332 217.9167599
167.076843 -225.2819597 14.40893858
-2.955857781e-12 171.113868 95.2194939
212.140831 38.23917514 6.565414878e-12
21.191077 -225.2819597 203.2755841
-2.955857781e-12 13.21625984 182.5815354
96.471923 32.35491804 6.565414878e-12
-2.955857781e-12 128.6758441 224.8856976
207.070432 -9.697929663 6.565414878e-12
237.913452 160.0254717 6.565414878e-12
81.271024 -33.68959456 6.565414878e-12
69.478826 -225.2819597 153.6976209
38.737533 -225.2819597 172.7492458
29.62266 -225.2819597 45.16134368
251.012586 -225.2819597 102.1042391
116.078379 -225.2819597 40.89534387
-2.955857781e-12 -151.9339235 165.2411572
-2.955857781e-12 207.5377352 134.2991305
-2.955857781e-12 -37.53726086 115.246157
74.734287 -173.525607 6.565414878e-12
-2.955857781e-12 86.21294924 212.9499805
-2.955857781e-12 -36.05547866 224.856165
-2.955857781e-12 -116.7693787 162.9446853
-2.955857781e-12 76.38156144 10.80166436
205.020083 -225.2819597 55.56555848
40.471045 204.4131561 6.565414878e-12
-2.955857781e-12 186.2520976 138.7461446
246.938892 -2.987748463 6.565414878e-12
-2.955857781e-12 8.829831037 99.5122097
-2.955857781e-12 77.51697334 236.0115991
65.065507 -134.9177833 6.565414878e-12
-2.955857781e-12 32.41523104 140.7845695
216.57473 -225.2819597 210.7468555
168.552437 -225.2819597 172.975966
138.856369 -113.5176367 6.565414878e-12
-2.955857781e-12 167.5448039 19.08567628
24.405797 118.9839185 6.565414878e-12
165.161888 -105.777611 6.565414878e-12
189.392732 -225.2819597 86.8573655
-2.955857781e-12 -144.8102861 44.03332629
34.418803 -225.2819597 7.53670421
24.306971 -225.2819597 147.7963149
88.188692 220.3247557 6.565414878e-12
41.736501 -110.6237543 6.565414878e-12
-2.955857781e-12 101.3369049 238.1412245
187.576451 -209.9442771 6.565414878e-12
1.099779 -198.1638881 6.565414878e-12
-2.955857781e-12 157.864534 4.77667905
133.186116 -225.2819597 148.8597152
113.341894 216.2644552 6.565414878e-12
100.030435 64.89837844 6.565414878e-12
-2.955857781e-12 218.6915416 167.9626116
-2.955857781e-12 -186.1610336 17.48706825
-2.955857781e-12 -152.2741209 81.5522745
184.534871 -69.32130766 6.565414878e-12
195.140886 -225.2819597 231.446514
36.499404 -225.2819597 113.2468978
68.920275 109.8883388 6.565414878e-12
-2.955857781e-12 101.6767115 84.8320295
151.747551 163.225439 6.565414878e-12
234.360571 -225.2819597 41.07522265
242.358802 -225.2819597 53.77725661
148.476937 0.1613913375 6.565414878e-12
90.448805 -225.2819597 93.9236325
192.848264 52.30300964 6.565414878e-12
-2.955857781e-12 -181.7464625 146.5186932
80.983389 -225.2819597 207.1145109
-2.955857781e-12 -42.43798986 94.2360818
-2.955857781e-12 -76.86835906 249.1115501
89.880259 -225.2819597 14.62961652
217.295367 151.3108175 6.565414878e-12
-2.955857781e-12 46.51685694 61.5897867
-2.955857781e-12 95.34364034 47.39492411
42.993033 -225.2819597 132.7402715
83.0662 -225.2819597 168.5012976
-2.955857781e-12 222.6455303 7.56048198
166.465713 175.4779207 6.565414878e-12
1.703052 206.0666223 6.565414878e-12
-2.955857781e-12 -124.3786791 186.3367115
-2.955857781e-12 115.8128303 142.0076363
212.879724 -192.0015332 6.565414878e-12
20.956947 -225.2819597 134.696113
219.856807 -225.2819597 225.455182
143.270805 -225.2819597 68.2629821
172.781334 -225.2819597 126.4794687
53.399912 149.7685799 6.565414878e-12
185.473316 -225.2819597 184.5321535
-2.955857781e-12 64.58373924 99.0719762
-2.955857781e-12 12.82578724 10.77863838
-2.955857781e-12 -40.65776216 165.7814711
107.504838 -36.57364976 6.565414878e-12
174.03782 -94.23895156 6.565414878e-12
-2.955857781e-12 151.8908079 95.26135
-2.955857781e-12 3.725205137 117.5664099
83.089612 -225.2819597 246.6057057
59.24832 -225.2819597 129.3466122
-2.955857781e-12 -105.4734108 164.299592
100.248862 -237.3364127 6.565414878e-12
109.277635 -3.077575963 6.565414878e-12
190.155745 -225.2819597 138.1391011
231.739582 -245.6400018 6.565414878e-12
-2.955857781e-12 -81.43030116 217.3580331
-2.955857781e-12 -214.8050837 73.7408976
231.229835 -225.2819597 226.4843819
-2.955857781e-12 -12.75198096 243.5719471
-2.955857781e-12 156.9189783 63.0278591
-2.955857781e-12 -65.40523696 153.1981137
116.357169 160.6377821 6.565414878e-12
-2.955857781e-12 108.2656891 34.24919176
5.832062 -5.236451263 6.565414878e-12
167.517485 -191.8751798 6.565414878e-12
41.248774 -225.2819597 249.440129
101.800505 -225.2819597 237.3614686
233.1076 27.53530734 6.565414878e-12
201.974818 113.5495316 6.565414878e-12
-2.955857781e-12 224.2592291 38.32281176
145.345253 -187.6951242 6.565414878e-12
-2.955857781e-12 -195.5714519 187.5551122
-2.955857781e-12 -65.37095746 51.83462881
114.467305 -105.6467149 6.565414878e-12
240.207236 -225.2819597 236.0777562
-2.955857781e-12 -107.0111701 205.0547337
-2.955857781e-12 -10.39831746 19.91830342
97.217455 -220.1223397 6.565414878e-12
-2.955857781e-12 84.70774644 26.91465372
211.752185 14.36063774 6.565414878e-12
46.45142 -225.2819597 52.45083391
134.091028 -225.2819597 111.9421128
-2.955857781e-12 201.3669514 104.0413736
-2.955857781e-12 -8.316815163 191.350035
133.346209 18.31689914 6.565414878e-12
36.190152 -142.3907302 6.565414878e-12
24.580593 -225.2819597 177.0339877
33.835666 -235.6526794 6.565414878e-12
-2.955857781e-12 -138.7158329 198.016442
-2.955857781e-12 -31.65752306 76.0479258
-2.955857781e-12 -125.7501076 145.2029853
76.168487 203.3417482 6.565414878e-12
-2.955857781e-12 -160.2303773 11.61946999
242.084196 -225.2819597 11.11436957
-2.955857781e-12 68.37170134 148.1802996
-2.955857781e-12 69.54521504 170.3648036
-2.955857781e-12 -143.369497 32.1159582
172.06412 -31.69592766 6.565414878e-12
60.166753 23.81027034 6.565414878e-12
171.486348 -152.2008091 6.565414878e-12
29.395989 208.4588643 6.565414878e-12
71.68875 -225.2819597 28.1580461
-2.955857781e-12 -73.71442506 67.97016
19.920113 223.382147 6.565414878e-12
-2.955857781e-12 -186.5700014 177.7757701
122.511394 -225.2819597 239.6080652
209.07979 -225.2819597 78.8282074
-2.955857781e-12 -153.763185 154.5258107
107.206181 -14.78823886 6.565414878e-12
-2.955857781e-12 -62.88479376 99.9868399
157.47496 -171.6131541 6.565414878e-12
220.661476 84.59296324 6.565414878e-12
18.782879 -63.04024456 6.565414878e-12
-2.955857781e-12 -109.2737999 126.2412638
190.369341 133.0450747 6.565414878e-12
124.30165 -199.7149435 6.565414878e-12
166.751574 -234.1356791 6.565414878e-12
217.779061 116.1343808 6.565414878e-12
134.814924 -225.2819597 89.2797043
-2.955857781e-12 52.13223204 95.9553636
-2.955857781e-12 143.9322983 160.9350476
-2.955857781e-12 -84.14709526 147.9080934
24.326945 -225.2819597 0.43587445
188.510226 -120.8337649 6.565414878e-12
-2.955857781e-12 9.679724237 208.2509036
-2.955857781e-12 -59.34251786 201.5060754
-2.955857781e-12 -155.1599874 61.7063421
-2.955857781e-12 98.89303974 10.33069283
71.210735 -100.8641422 6.565414878e-12
-2.955857781e-12 18.20821034 128.878186
221.951896 -35.43079086 6.565414878e-12
-2.955857781e-12 -198.798687 160.705962
-2.955857781e-12 35.04217254 93.8347588
-2.955857781e-12 166.613729 128.0318519
235.466747 -207.9104813 6.565414878e-12
150.48074 -225.2819597 88.763103
-2.955857781e-12 -207.4655713 22.38156721
202.17897 -225.2819597 118.9971692
242.703145 -140.1170529 6.565414878e-12
-2.955857781e-12 -80.66313446 113.1771954
-2.955857781e-12 -164.508678 177.2784269
141.69535 10.86657614 6.565414878e-12
194.292433 -176.9105124 6.565414878e-12
-2.955857781e-12 13.67876274 36.98629121
-2.955857781e-12 76.52321434 137.0960992
123.464266 -225.2819597 101.1888042
29.06116 -225.2819597 84.9445568
210.022272 -225.2819597 235.8181533
47.453694 -225.2819597 189.956829
131.086341 -225.2819597 25.89236576
229.347784 -186.4258345 6.565414878e-12
-2.955857781e-12 -23.94440076 95.5227647
-2.955857781e-12 139.5734086 206.4178812
198.835186 157.7789793 6.565414878e-12
-2.955857781e-12 1.929335437 78.4272077
-2.955857781e-12 -53.77197236 46.48919926
78.624153 -225.2819597 65.6147965
169.26859 -3.947142863 6.565414878e-12
-2.955857781e-12 -210.850878 172.8243961
229.95052 -225.2819597 149.5464411
-2.955857781e-12 36.93971054 228.8171998
85.111566 -204.2880623 6.565414878e-12
97.647096 -225.2819597 224.8736908
25.190183 -183.6831081 6.565414878e-12
51.018939 -211.1771307 6.565414878e-12
-2.955857781e-12 -92.89431626 41.41415808
-2.955857781e-12 -25.99961856 137.0819103
149.415492 -39.97622756 6.565414878e-12
-2.955857781e-12 146.7902169 117.4852762
143.326076 95.36252544 6.565414878e-12
-2.955857781e-12 122.5369215 72.495999
59.708347 -225.2819597 187.9051906
202.505712 -225.2819597 191.5068411
103.931004 102.8841465 6.565414878e-12
-2.955857781e-12 192.6859316 61.4783166
-2.955857781e-12 -148.5744401 2.96992555
-2.955857781e-12 23.13982044 7.09265913
26.124615 -225.2819597 108.6728315
143.209725 31.17032994 6.565414878e-12
31.952896 -225.2819597 68.8874351
153.366375 -104.6664071 6.565414878e-12
-2.955857781e-12 73.28576224 215.9749251
-2.955857781e-12 84.13671184 67.5074599
215.841444 -225.2819597 157.9777222
238.475744 -225.2819597 195.0958101
-2.955857781e-12 135.1082222 91.3480781
-2.955857781e-12 -5.520052363 223.66564
-2.955857781e-12 -174.2100299 1.61854814
-0.1426613 225.2819441 216.7514717
192.406865 31.98275334 6.565414878e-12
92.944577 166.2292368 6.565414878e-12
185.776457 -225.2819597 207.1249785
98.628364 84.65477444 6.565414878e-12
174.592915 -225.2819597 92.0261613
-2.955857781e-12 -57.37770076 125.2984781
128.862584 -57.53087346 6.565414878e-12
-2.955857781e-12 -173.7012353 110.3093931
-2.955857781e-12 136.3626484 80.3678069
143.072969 -225.2819597 8.68073991
159.585147 -225.2819597 247.4366865
27.249122 -225.2819597 223.1619779
234.74302 -151.6949523 6.565414878e-12
-2.955857781e-12 -167.2986727 64.9930119
95.087552 108.587648 6.565414878e-12
7.160828 58.48558344 6.565414878e-12
-2.955857781e-12 190.7375324 234.304928
-2.955857781e-12 -147.7472904 132.1468314
-2.955857781e-12 -145.5530528 240.2945821
47.638888 171.5706544 6.565414878e-12
120.301837 1.699841637 6.565414878e-12
-2.955857781e-12 13.93694574 152.0118093
162.180341 -225.2819597 40.35298865
22.685283 -197.3820814 6.565414878e-12
3.035448 -225.2819597 50.73291569
96.079833 -225.2819597 22.86813034
-2.955857781e-12 -168.7016375 241.6922931
-2.955857781e-12 -174.9928961 137.0596698
215.701855 -237.7511503 6.565414878e-12
211.494589 -89.07292206 6.565414878e-12
210.27877 -225.2819597 109.2848731
87.210997 -225.2819597 44.90926624
132.632417 117.3283387 6.565414878e-12
-2.955857781e-12 6.905228937 239.746537
123.163676 -225.2819597 207.4960474
-2.955857781e-12 146.6131889 251.7099159
165.074788 -225.2819597 62.0384161
70.360199 -218.881533 6.565414878e-12
36.541003 -170.7796203 6.565414878e-12
114.958487 -225.2819597 16.40406201
127.429084 -225.2819597 183.0750954
66.045549 -46.01533836 6.565414878e-12
-2.955857781e-12 -113.3355635 172.5942462
128.006755 -71.52186956 6.565414878e-12
75.673658 -13.36299216 6.565414878e-12
157.2145 77.07424794 6.565414878e-12
199.778373 203.0910019 6.565414878e-12
56.97038 -202.5234357 6.565414878e-12
212.535904 -225.2819597 3.51320774
-2.955857781e-12 -160.1147833 247.5883717
33.462379 -42.41496226 6.565414878e-12
-2.955857781e-12 155.0199084 159.1016802
84.643708 75.94328804 6.565414878e-12
60.585499 103.8443967 6.565414878e-12
149.860385 103.157357 6.565414878e-12
229.36931 -225.2819597 69.7836622
131.618964 -91.15750926 6.565414878e-12
118.229177 139.542617 6.565414878e-12
-2.955857781e-12 -59.89033046 237.2189762
98.636978 -196.9038893 6.565414878e-12
164.983379 -225.2819597 235.6586608
204.115856 -225.2819597 203.0647166
116.255615 49.85033584 6.565414878e-12
-2.955857781e-12 209.1649617 252.2003283
-2.955857781e-12 61.69015774 31.66746702
208.917699 -225.2819597 16.65260644
-2.955857781e-12 181.6230585 199.5274617
34.582495 -57.80493706 6.565414878e-12
180.982849 -225.2819597 107.7312178
129.174727 -40.99276426 6.565414878e-12
88.514117 -238.8188497 6.565414878e-12
