# .PCD v0.7 - Point Cloud Data file format
VERSION 0.7
FIELDS x y z
SIZE 4 4 4
TYPE F F F
COUNT 1 1 1
WIDTH 1277
HEIGHT 1
VIEWPOINT 0 0 0 1 0 0 0
POINTS 1277
DATA ascii
-1.25827454e-05 87.0591422 74.9033257
-1.25827454e-05 -202.343871 188.929303
-1.25827454e-05 -129.9257662 84.6682873
-1.25827454e-05 82.5807613 185.196336
-19.75079418 247.6859236 6.23856522e-11
-1.25827454e-05 61.0510894 234.7747323
-44.41801338 -236.0742355 6.23856522e-11
-200.3071557 138.7891183 6.23856522e-11
-74.39059308 35.4648139 6.23856522e-11
-136.5726395 78.0990344 6.23856522e-11
-77.78322688 250 135.8344538
-119.3451669 250 187.8596265
-16.51748478 250 49.64137891
-135.0704955 -117.0489767 6.23856522e-11
-67.91724038 235.7568928 6.23856522e-11
-205.2256517 250 35.30488793
-138.0357048 -191.5887441 6.23856522e-11
-1.25827454e-05 -220.631498 33.54844699
-234.700247 -208.304705 6.23856522e-11
-166.3518979 106.2444557 6.23856522e-11
-1.25827454e-05 -140.1354404 57.57691772
-1.25827454e-05 -24.8249023 72.8031642
-1.25827454e-05 -1.0116527 214.6039126
-12.99738398 -9.8666973 6.23856522e-11
-81.45545078 250 120.2581885
-1.25827454e-05 -112.3528309 65.5257875
-1.25827454e-05 236.2138437 12.78105448
-135.5281353 44.6974478 6.23856522e-11
-180.5043766 -204.7398825 6.23856522e-11
-1.25827454e-05 -61.2503204 15.25597804
-108.1277792 250 136.2011214
-210.3967399 168.0848454 6.23856522e-11
-1.25827454e-05 168.7414174 136.8816762
-104.5272783 -15.5112237 6.23856522e-11
-93.59325328 191.769298 6.23856522e-11
-58.79228268 250 177.2295761
-229.1982706 146.552638 6.23856522e-11
-188.4654613 -111.5664585 6.23856522e-11
-197.7915671 -168.6554454 6.23856522e-11
-1.25827454e-05 -155.0175405 130.0783197
-159.7867721 27.7316483 6.23856522e-11
-1.25827454e-05 170.2569493 187.2907585
-174.8271943 250 192.6496645
-74.19633968 -222.0819107 6.23856522e-11
-163.0227606 173.3139918 6.23856522e-11
-1.25827454e-05 161.0764907 79.3436846
-208.5085337 -136.7686066 6.23856522e-11
-1.25827454e-05 -113.6880474 159.3042843
-212.0526052 -87.2831539 6.23856522e-11
-105.1004758 78.3545968 6.23856522e-11
-1.25827454e-05 -88.0135717 126.0629556
-188.5554395 -34.6809042 6.23856522e-11
-143.5169923 126.2599804 6.23856522e-11
-1.25827454e-05 -213.1572264 251.5068784
-211.4577552 250 170.7685863
-62.85003108 -232.9360252 6.23856522e-11
-1.25827454e-05 -164.4770992 230.1839701
-1.25827454e-05 -151.1399004 250.2558467
-1.25827454e-05 -29.5184342 217.2384651
-44.99243638 250 126.6286882
0.8751987173 -114.0713791 6.23856522e-11
-15.95764438 250 76.5621438
-204.8070868 109.1114605 6.23856522e-11
-157.1401973 -95.1768555 6.23856522e-11
-98.00684628 222.3862964 6.23856522e-11
-16.74874028 215.9226052 6.23856522e-11
-6.040443083 85.9453929 6.23856522e-11
-1.25827454e-05 -133.5372516 20.89396755
-83.89613318 66.3782557 6.23856522e-11
-43.56136518 220.4248403 6.23856522e-11
-84.62579118 -177.1622379 6.23856522e-11
-45.64625728 -207.7330531 6.23856522e-11
-1.25827454e-05 -220.6342184 163.7429204
-1.25827454e-05 -240.8109658 25.94998141
-1.25827454e-05 36.3212902 215.4773283
-251.6036097 250 8.45899784
-1.25827454e-05 -41.9524941 188.8828068
-70.56411068 250 248.0928775
-162.9616111 -182.0138246 6.23856522e-11
-221.8236607 -119.4099795 6.23856522e-11
-201.5844362 250 231.773477
-1.25827454e-05 93.2951805 89.7869385
-57.42701538 250 229.3175741
-251.885442 177.8954062 6.23856522e-11
-106.4042932 -166.8231675 6.23856522e-11
-1.25827454e-05 -181.4580045 247.6244404
-84.68269518 250 104.3186409
-244.8023587 -47.0314703 6.23856522e-11
-23.46860128 250 112.8727633
-162.9515373 138.2272115 6.23856522e-11
0.6230395173 37.7792211 6.23856522e-11
-222.6693608 250 77.4172195
-1.25827454e-05 -44.8302839 14.06459046
-1.25827454e-05 -126.0717926 129.4389048
-24.51835548 250 219.9753809
-127.8979357 149.1455258 6.23856522e-11
-115.941175 -141.0324971 6.23856522e-11
-190.5882307 74.5551036 6.23856522e-11
-7.387881783 250 204.2673534
-73.56349978 50.2705282 6.23856522e-11
-72.07500238 251.4640963 6.23856522e-11
-1.25827454e-05 153.6265273 49.47409134
-204.9877374 250 212.6161865
-147.2922366 230.2727622 6.23856522e-11
-180.97157 -98.5576442 6.23856522e-11
-212.5197824 50.9486586 6.23856522e-11
-34.68388288 -248.8386192 6.23856522e-11
0.4410056173 208.7801405 6.23856522e-11
-1.25827454e-05 -128.7115482 106.5697116
-129.6258183 250 53.59313856
-1.25827454e-05 -190.0280839 85.5146807
-221.7472647 260.2173555 6.23856522e-11
-1.25827454e-05 -205.2742609 162.2397234
-235.2981719 121.9771368 6.23856522e-11
-47.92623468 250 159.6803955
-1.25827454e-05 134.0251891 235.5880015
-1.25827454e-05 146.4114426 124.9517534
-218.9111349 -235.7087157 6.23856522e-11
-59.93129308 -156.1336467 6.23856522e-11
-114.1895834 65.1503224 6.23856522e-11
-242.461585 250 69.7172773
-184.6213638 250 12.02012213
-1.25827454e-05 -208.9998047 132.6742037
-1.25827454e-05 -162.0221707 82.9012909
-1.25827454e-05 -204.8943682 42.08312
-116.219193 250 65.9716421
-1.25827454e-05 -163.6438923 29.20765523
-151.4107052 80.3860735 6.23856522e-11
-1.25827454e-05 85.6479531 163.5731047
-135.5208548 250 125.8521608
-1.25827454e-05 -188.5716698 34.55498164
-1.25827454e-05 106.1239156 125.9910284
-1.25827454e-05 -36.3909706 34.1165725
-1.25827454e-05 -61.4144702 239.2926128
-1.25827454e-05 129.2865334 203.9367023
-186.3102265 250 75.3317991
-1.25827454e-05 25.6458027 45.66574593
-153.146723 153.5299766 6.23856522e-11
-178.1627176 86.6642842 6.23856522e-11
-8.182443683 250 36.79703979
-231.9123548 250 131.8812658
-152.4785093 250 232.4311334
-165.4509475 250 164.6361849
-50.38961418 134.8337143 6.23856522e-11
-1.25827454e-05 -19.1129196 57.46473582
-168.0275048 -32.164879 6.23856522e-11
-109.5207273 -42.0093468 6.23856522e-11
-1.25827454e-05 150.2691644 20.57270922
0.03203471725 -250 245.2022536
-60.32740118 -16.8334912 6.23856522e-11
-1.25827454e-05 216.637963 101.2475664
-167.0311435 250 142.6533122
-36.50007608 109.5359626 6.23856522e-11
-37.63807588 -92.1585586 6.23856522e-11
-1.25827454e-05 220.8681696 199.0897647
-1.25827454e-05 -231.5536846 204.05782
-114.0237159 261.9202102 6.23856522e-11
-158.1017954 -234.0039331 6.23856522e-11
-236.4332932 250 169.7080873
-129.8698646 29.445004 6.23856522e-11
-1.25827454e-05 -175.1261164 202.4741143
-1.25827454e-05 213.3907638 36.88640155
-210.7043412 224.6372001 6.23856522e-11
-1.25827454e-05 63.8469315 15.74193661
-210.9932821 250 156.5457608
-8.519977683 257.9674144 6.23856522e-11
-197.5844441 243.049675 6.23856522e-11
-122.3258991 250 1.19202603
-43.00876298 -55.8445469 6.23856522e-11
-133.696724 -236.3030009 6.23856522e-11
-70.20117658 -66.5829953 6.23856522e-11
-150.1504398 250 206.601511
-1.25827454e-05 118.3044271 219.8455546
-210.1084094 250 51.48360141
-68.00870298 250 116.1191715
-66.26137788 -95.3695745 6.23856522e-11
-1.25827454e-05 131.2837231 169.9677707
-197.5058018 49.40248 6.23856522e-11
-250.5671659 -170.0887517 6.23856522e-11
-101.3180919 250 212.452163
-1.25827454e-05 -209.8467394 80.2315508
-136.6658158 -34.971695 6.23856522e-11
-177.3676635 -227.9803564 6.23856522e-11
-1.25827454e-05 -90.1906122 85.6929042
-113.5008619 250 149.6297339
-194.0400783 180.8768185 6.23856522e-11
-50.53945898 59.2598342 6.23856522e-11
-1.25827454e-05 -84.3419406 245.7447866
-170.0154695 250 216.7750755
-1.25827454e-05 -154.0461231 56.84492719
-170.4473238 250 121.4839282
-1.25827454e-05 1.3393356 249.859337
-211.7932012 202.9080615 6.23856522e-11
-1.25827454e-05 -17.5685083 140.602538
-1.25827454e-05 -17.5638062 25.97114712
-111.0856286 250 104.6468895
-97.67340908 255.9503254 6.23856522e-11
-99.15995158 250 146.792747
-17.14666358 -45.5159841 6.23856522e-11
-238.0783624 -231.9985721 6.23856522e-11
-14.89507948 -229.0336253 6.23856522e-11
-1.25827454e-05 -142.6653648 79.1960341
-1.25827454e-05 -71.8899867 155.0246928
-1.25827454e-05 116.3664481 55.33614098
-251.7122996 145.2581419 6.23856522e-11
-193.8096569 -69.6510026 6.23856522e-11
-43.32112468 -137.3184903 6.23856522e-11
-84.35996168 250 164.6332368
-53.77428198 259.9191034 6.23856522e-11
-55.12756458 29.1594943 6.23856522e-11
-90.44060088 112.613659 6.23856522e-11
-108.3835758 165.3559712 6.23856522e-11
-1.25827454e-05 -90.3611199 21.48834232
-34.89592498 -29.1307963 6.23856522e-11
-141.2742392 250 73.4082295
-1.25827454e-05 7.2190472 63.7228002
-141.3051368 273.0411926 6.23856522e-11
-1.25827454e-05 -19.7725281 103.6264637
-1.25827454e-05 98.1973219 30.87466349
-1.25827454e-05 -99.1868672 150.9841184
-1.25827454e-05 -54.4791368 177.6459648
-8.271053883 -102.0594762 6.23856522e-11
-232.4397054 250 191.2104849
-24.23651628 194.2816492 6.23856522e-11
-26.07531258 -132.0648392 6.23856522e-11
-237.5665408 199.8752997 6.23856522e-11
-124.7352662 -67.5633826 6.23856522e-11
-1.25827454e-05 88.9438713 53.81110202
-1.25827454e-05 122.7635777 24.85097217
-208.138069 75.2157746 6.23856522e-11
-12.47305928 -181.4009641 6.23856522e-11
-1.25827454e-05 -239.6593578 114.5231237
-1.25827454e-05 217.8270932 10.05436173
-163.5316484 -71.7638516 6.23856522e-11
-1.25827454e-05 -6.6766257 173.642541
-89.02133338 -148.9552711 6.23856522e-11
-57.03531088 -120.7690685 6.23856522e-11
-172.2734395 235.5215936 6.23856522e-11
-182.6308066 221.4341321 6.23856522e-11
-1.25827454e-05 -139.469022 8.77529579
-51.64224868 250 23.75381429
-1.25827454e-05 -129.0222589 162.4033029
-74.55272908 -136.2490856 6.23856522e-11
-192.3450797 250 102.5947473
-1.25827454e-05 146.3849301 206.1699082
-84.14933978 -109.5974389 6.23856522e-11
-1.25827454e-05 -233.924826 171.794287
-18.27143358 250 141.6368397
-15.20558608 -161.5197039 6.23856522e-11
-61.69284258 97.973693 6.23856522e-11
-1.25827454e-05 193.7315232 0.3015015701
-1.25827454e-05 104.3287389 234.9903396
-238.005129 178.2523919 6.23856522e-11
-1.25827454e-05 -206.6442599 12.44737698
-112.8916015 250 12.68685939
-1.25827454e-05 -207.0149254 55.2457297
-55.26058588 250 98.6836656
-246.4871909 -106.4238446 6.23856522e-11
-1.25827454e-05 65.386133 95.0095731
-216.829137 250 14.85496178
-1.25827454e-05 0.4501236001 25.64500749
-1.25827454e-05 -66.0086489 124.6521649
-1.25827454e-05 232.7392492 109.2158577
-1.25827454e-05 134.0378918 36.58235517
-9.089194383 -249.8287818 6.23856522e-11
-1.25827454e-05 -202.5028871 203.307789
-53.46163048 250 84.4815831
-1.25827454e-05 155.7821263 162.8887534
-178.5291664 19.7651941 6.23856522e-11
-1.25827454e-05 201.0608135 142.7539869
-1.25827454e-05 113.0264308 157.7064301
-1.25827454e-05 -138.1830874 246.3645739
-77.03626278 -5.9354993 6.23856522e-11
-114.3555804 250 200.3016382
-149.8040905 -181.5776918 6.23856522e-11
-101.4296994 46.291105 6.23856522e-11
-1.25827454e-05 237.5436426 38.5938779
-127.6764085 -220.0771145 6.23856522e-11
-6.285602383 -87.0212034 6.23856522e-11
-227.3214709 -4.2349272 6.23856522e-11
-1.25827454e-05 -207.9436789 175.0793603
-234.6126722 250 52.14524668
-34.71087588 250 162.3300989
-1.25827454e-05 79.8413367 26.51334745
-91.31293168 152.4585152 6.23856522e-11
-1.25827454e-05 -223.0180708 216.4684471
-1.25827454e-05 158.767284 181.0413302
-1.25827454e-05 -23.6532742 187.605806
-1.25827454e-05 -74.116457 194.044801
-37.21507638 75.729918 6.23856522e-11
-30.37424148 250 7.21447845
-234.2240675 -18.1172762 6.23856522e-11
-33.49301528 -66.819545 6.23856522e-11
-215.1242547 64.2204529 6.23856522e-11
-1.25827454e-05 237.905364 85.8732352
-105.8359079 -152.517631 6.23856522e-11
-244.9566525 27.5593494 6.23856522e-11
-1.25827454e-05 214.7249562 231.3270009
-115.1795265 -240.5005402 6.23856522e-11
-1.25827454e-05 -102.7877409 75.0738163
-1.25827454e-05 72.2843942 45.76819685
-204.8133594 250 199.4467452
-1.25827454e-05 34.712917 102.8226402
-1.25827454e-05 240.826624 132.9170848
-140.1612454 250 198.3609294
-110.4971783 22.2083173 6.23856522e-11
-1.25827454e-05 -142.1369068 178.1599746
-216.3259377 250 119.7246338
-172.1396258 -7.9438842 6.23856522e-11
-1.25827454e-05 99.8818757 76.3170909
-1.25827454e-05 -230.2582316 139.6280057
-1.25827454e-05 70.6598157 155.1900483
-137.010994 250 27.88841969
-1.25827454e-05 206.1526808 70.6817042
-234.1087331 250 212.5030532
-39.40136788 -221.9319658 6.23856522e-11
-39.72054778 250 204.2758036
-16.19303598 235.3726932 6.23856522e-11
-94.20688808 -93.5639589 6.23856522e-11
-1.25827454e-05 156.490143 244.7070614
-154.7740582 111.6924253 6.23856522e-11
-1.25827454e-05 201.2689224 235.2593312
-116.9829245 -53.1103362 6.23856522e-11
-11.20129318 63.5146867 6.23856522e-11
-142.1276012 -135.3014324 6.23856522e-11
-1.25827454e-05 73.7555029 74.8315922
-90.87055098 250 76.6413203
-1.25827454e-05 -235.3855435 238.7115938
-1.25827454e-05 30.9429845 187.256444
-1.25827454e-05 93.10912 148.6350099
-229.8101577 239.1020588 6.23856522e-11
-170.5822077 -140.0753012 6.23856522e-11
-1.25827454e-05 -76.5638165 93.817114
-1.25827454e-05 110.8603596 187.583876
-156.3636108 250 218.1902611
-1.25827454e-05 -40.4764949 100.0790723
-1.25827454e-05 -77.6275223 73.4308412
-88.06603968 82.3566278 6.23856522e-11
-1.25827454e-05 55.6922099 202.2691567
-12.36051158 123.8039718 6.23856522e-11
-109.5419606 -99.7764094 6.23856522e-11
-233.5626278 158.4621671 6.23856522e-11
-27.63695038 -15.4981432 6.23856522e-11
0.004005517255 238.6697662 6.23856522e-11
-56.09193478 -191.9727018 6.23856522e-11
-52.92145608 250 60.9884134
-74.72343358 250 196.7222897
-137.2333937 250 87.0081264
-1.25827454e-05 -176.3832234 236.0598196
-1.25827454e-05 51.699794 63.3223645
-1.25827454e-05 18.0732435 86.2351274
-13.24300738 19.181645 6.23856522e-11
-1.25827454e-05 180.9817751 32.188158
-1.25827454e-05 205.2528431 94.7894512
-158.08428 -113.9821417 6.23856522e-11
-1.25827454e-05 -113.4596594 179.7631605
-1.25827454e-05 -244.0218211 54.93397422
-92.49399878 273.9665905 6.23856522e-11
1.436254017 -250 158.5433722
-1.25827454e-05 203.7827497 25.8239947
-70.75881188 6.0794177 6.23856522e-11
-244.956822 250 234.7690289
-118.361379 -79.3339682 6.23856522e-11
-44.77873608 250 228.3516587
-190.4216623 -154.1425289 6.23856522e-11
-1.25827454e-05 44.9812231 120.3115949
-159.5816466 -208.4803475 6.23856522e-11
-1.25827454e-05 187.3885533 44.09280519
-1.25827454e-05 179.4698303 71.1614556
-1.25827454e-05 41.8277523 235.5800951
-1.25827454e-05 182.3628161 241.8346532
-5.292445883 -25.5465362 6.23856522e-11
1.892033417 -250 193.8325482
-1.25827454e-05 190.0103758 136.9458811
-1.25827454e-05 -241.6281948 76.0298982
-89.49445808 -250 -0.9041505399
-193.9461026 250 137.1341131
-27.66014178 250 207.4567374
-1.25827454e-05 -19.8918216 84.2479894
-1.25827454e-05 224.6403051 148.9803349
-109.3881579 -192.4148981 6.23856522e-11
-14.22531848 186.8820059 6.23856522e-11
1.549618017 250 195.6106522
-11.48538118 250 109.5475078
-1.25827454e-05 10.5428921 209.0606591
-1.25827454e-05 131.7607635 60.8972743
-1.25827454e-05 -234.5964909 126.8495112
-201.771004 250 187.2134242
-196.4192089 -209.7028137 6.23856522e-11
-1.25827454e-05 -183.296282 11.79464751
-144.1548964 250 155.8104054
-1.25827454e-05 124.4553866 12.36380623
-92.45849818 -209.0656746 6.23856522e-11
-158.351361 -22.4995434 6.23856522e-11
-31.13685348 -161.2712696 6.23856522e-11
-1.25827454e-05 -167.8446741 8.16492111
-1.25827454e-05 -227.5167778 5.89868712
-152.9354339 -193.920335 6.23856522e-11
-28.83657728 250 49.39226073
-151.6465617 7.3778368 6.23856522e-11
-66.78789068 250 220.5353406
-33.47795148 260.0250608 6.23856522e-11
-1.25827454e-05 93.4976826 102.0930016
-227.2545212 112.6862985 6.23856522e-11
-1.25827454e-05 223.8087551 44.66793783
-238.5262238 74.5371844 6.23856522e-11
-32.87569528 250 138.4192333
-44.84537198 250 244.8371836
-49.76170468 72.8188323 6.23856522e-11
-98.74653918 250 10.66291614
-1.25827454e-05 -144.3159381 30.71365392
-1.25827454e-05 -195.2710172 16.99801838
-1.25827454e-05 20.3034676 138.2240231
-35.86283548 140.934072 6.23856522e-11
-184.8475068 250 121.6516861
-214.0439703 250 104.8424316
-136.8866348 175.2263502 6.23856522e-11
-1.25827454e-05 177.5616947 225.9889691
-206.1853574 -67.6731737 6.23856522e-11
1.517946617 158.9638464 6.23856522e-11
-1.25827454e-05 -142.0093896 134.5301
-215.5388817 -106.433516 6.23856522e-11
-68.55328198 250 79.3369951
-1.25827454e-05 -184.6372554 59.43971447
-1.25827454e-05 179.0451134 198.7793928
-225.5127626 250 175.0908191
-1.25827454e-05 70.6824746 182.6834981
-184.935535 250 56.72602669
-155.772522 250 20.4669704
-163.4957065 250 36.00616684
-77.72226428 162.1246703 6.23856522e-11
-1.25827454e-05 71.9632511 207.3485276
-1.25827454e-05 11.1538086 47.53167256
-194.7963207 -3.3973296 6.23856522e-11
-15.94561938 250 154.5992429
-141.6814033 -67.7189962 6.23856522e-11
-1.25827454e-05 -168.8265373 62.503903
-200.6304983 -183.6391111 6.23856522e-11
-137.5499363 250 15.4493247
-1.25827454e-05 -181.213953 121.2667709
-1.25827454e-05 -26.0666275 201.6511222
-1.25827454e-05 -91.9045678 205.0983929
-1.25827454e-05 101.6979496 206.5945967
-252.1449868 250 143.4449233
-238.3401089 9.1306594 6.23856522e-11
-1.25827454e-05 -105.4788306 87.9588918
-12.06001368 250 251.1983484
-1.25827454e-05 19.2648148 159.0611502
-118.190309 274.4333488 6.23856522e-11
-1.25827454e-05 -52.3222094 162.4372029
-1.25827454e-05 -192.6739423 227.6360118
-52.19618888 250 112.4899339
-1.25827454e-05 -141.483746 105.1183874
-101.3041866 -217.77764 6.23856522e-11
0.7147099173 250 65.7124704
-27.28318838 125.2186496 6.23856522e-11
-1.25827454e-05 133.8382277 78.5659182
-136.6231603 91.563906 6.23856522e-11
-187.9725381 134.5765686 6.23856522e-11
-41.54290438 250 67.3405753
-102.9956498 34.1010766 6.23856522e-11
-127.1466129 250 108.8618488
-83.69589088 250 217.7313449
-252.1513033 -6.957127 6.23856522e-11
-13.19193228 142.833528 6.23856522e-11
-1.25827454e-05 -167.8304062 137.3106213
-1.25827454e-05 -191.1304685 158.7221932
-1.25827454e-05 -123.2595978 14.75332777
-1.25827454e-05 6.2319602 185.0607842
-159.5605515 271.2118117 6.23856522e-11
-194.2968855 -230.8659387 6.23856522e-11
-80.98137638 -81.9815992 6.23856522e-11
-32.24751578 -107.331301 6.23856522e-11
-134.6824766 250 169.1127849
-1.25827454e-05 -98.9229186 98.2846669
-214.5638932 25.7945735 6.23856522e-11
-221.7357698 250 48.87611483
-39.95576388 -152.0522078 6.23856522e-11
-1.25827454e-05 139.6727896 151.887591
-1.25827454e-05 -80.5724244 13.91576953
-1.25827454e-05 -70.2617529 104.4971418
-1.25827454e-05 -62.4782873 137.9161588
-1.25827454e-05 101.9365413 172.7432839
-158.3319202 250 77.6764642
-246.8851028 -82.8240372 6.23856522e-11
-185.6949621 270.2982077 6.23856522e-11
-1.25827454e-05 50.5238863 26.81834324
-48.31965788 -247.2749884 6.23856522e-11
-1.25827454e-05 -47.6155616 74.0979275
-62.84291348 84.5661765 6.23856522e-11
-195.5344702 -128.8227468 6.23856522e-11
-1.25827454e-05 109.9398781 68.672602
-127.9482447 250 218.8130997
-1.25827454e-05 86.9615717 125.3806868
-34.79641538 274.8212922 6.23856522e-11
-156.7754492 250 54.49000849
-117.2414017 186.2945444 6.23856522e-11
-1.25827454e-05 -4.1227253 108.1612268
-1.25827454e-05 -40.2427852 136.8730061
-252.0364453 -139.4445746 6.23856522e-11
-1.25827454e-05 58.6946376 219.2498721
-68.51616028 153.667693 6.23856522e-11
-1.25827454e-05 8.1966592 115.5360901
-1.25827454e-05 54.5146607 188.3323752
-17.82809338 85.8852576 6.23856522e-11
-94.81206038 250 33.12437549
-177.288644 186.1223473 6.23856522e-11
-73.84503498 -164.6904789 6.23856522e-11
-95.59629038 -45.1669142 6.23856522e-11
-211.704245 -45.3373507 6.23856522e-11
-116.5843047 52.1827264 6.23856522e-11
-7.019301183 250 89.9794458
-55.28264808 -105.2045032 6.23856522e-11
-149.3247529 180.9074254 6.23856522e-11
-86.24762078 -135.4002121 6.23856522e-11
-184.2344863 250 167.5445622
-198.8203539 97.951089 6.23856522e-11
-138.7487608 261.6337002 6.23856522e-11
-233.222944 -145.5210687 6.23856522e-11
-1.25827454e-05 92.2118792 20.84462175
-1.25827454e-05 204.7788662 113.3456575
0.6591066173 -147.1343364 6.23856522e-11
-192.3301068 -48.3246908 6.23856522e-11
-105.478261 -3.8953546 6.23856522e-11
-24.69073068 224.4389003 6.23856522e-11
-1.25827454e-05 -48.9295494 210.7759419
-22.52370748 250 185.5481364
-31.13229468 -47.2455619 6.23856522e-11
-1.25827454e-05 132.3593399 121.9124462
-189.2898197 110.3189138 6.23856522e-11
-161.7752416 75.1398495 6.23856522e-11
-1.25827454e-05 118.6976925 82.1072465
-1.25827454e-05 50.9581204 86.0002797
-1.25827454e-05 -218.0184038 61.3998461
-1.25827454e-05 162.3871833 210.5950212
-1.25827454e-05 141.1038241 101.9654715
-214.0896194 -58.2754485 6.23856522e-11
-1.25827454e-05 -22.0665565 9.71225211
-1.25827454e-05 -13.2337822 36.94694236
-163.8245925 250 11.14607612
-129.2256946 7.5147171 6.23856522e-11
-101.0385056 238.3891156 6.23856522e-11
-183.1707842 159.6038341 6.23856522e-11
-211.5757427 250 62.946249
-1.25827454e-05 181.2036961 58.42836123
-1.25827454e-05 33.3191556 160.7491404
-162.9690225 250 189.8885697
-1.25827454e-05 -2.3801238 227.3094895
-25.11054328 21.5934498 6.23856522e-11
-224.7289971 135.9299315 6.23856522e-11
-144.1740973 250 99.8850451
-1.25827454e-05 -70.783305 215.1581692
-27.28019518 54.286062 6.23856522e-11
-225.3687544 250 219.9314689
-1.25827454e-05 35.1632864 35.60016776
-1.25827454e-05 -184.0216439 209.6940854
-234.0897796 220.9538245 6.23856522e-11
-207.3851463 -23.8153779 6.23856522e-11
-125.7247951 -171.0288317 6.23856522e-11
-69.16530828 179.2042082 6.23856522e-11
-181.6458009 -178.6180678 6.23856522e-11
-1.25827454e-05 194.1043086 199.4017225
-170.760507 -158.2393334 6.23856522e-11
-144.9305279 216.2052295 6.23856522e-11
-198.5123452 250 160.2162548
-111.6828122 250 26.3381434
2.344515517 113.3475612 6.23856522e-11
-1.25827454e-05 238.5987714 192.2976619
-1.25827454e-05 -224.6045785 195.0634802
-1.25827454e-05 -0.3024216999 159.3413316
-75.55030768 -188.8790904 6.23856522e-11
-1.25827454e-05 -213.6894815 98.214319
-184.9504262 -62.5062766 6.23856522e-11
-176.8219037 -216.0480289 6.23856522e-11
-155.4017687 250 244.4018927
-86.10984238 250 240.2118493
-1.25827454e-05 203.116589 207.1578306
-1.25827454e-05 -33.7079647 114.0900632
-1.25827454e-05 240.5538777 176.7509339
-1.25827454e-05 240.7140557 235.9440758
-1.25827454e-05 -60.4110556 111.5782491
-204.5914076 156.6153816 6.23856522e-11
-72.81616818 -125.0764509 6.23856522e-11
-46.70593858 250 45.70842672
-183.0698652 250 205.0536126
-1.25827454e-05 74.0094366 239.2257833
-120.2551628 -197.5350163 6.23856522e-11
-136.8695048 156.0096524 6.23856522e-11
-1.25827454e-05 -51.0481428 197.0211694
-208.1916255 250 141.5110353
-248.3704285 116.7354818 6.23856522e-11
-159.4276629 253.1380619 6.23856522e-11
-76.02615108 250 172.8992858
-107.9117776 250 221.5977381
-163.1518803 228.8995463 6.23856522e-11
-209.2926932 250 130.1940043
-1.25827454e-05 -125.588493 47.47233698
-239.4776488 250 103.4302073
-1.25827454e-05 217.2336378 25.41086845
-109.34811 125.4885296 6.23856522e-11
-62.59750648 191.0402924 6.23856522e-11
-1.25827454e-05 61.7233117 70.3186943
-1.25827454e-05 -208.1884434 68.5640671
-1.25827454e-05 219.0011623 130.0868114
-134.1904088 67.1163143 6.23856522e-11
-1.25827454e-05 93.9521422 6.72425281
-46.92387788 -4.5005551 6.23856522e-11
-16.11838188 -217.6979963 6.23856522e-11
-1.25827454e-05 117.7567473 112.6905128
-1.25827454e-05 -189.0420999 182.0452549
-1.25827454e-05 -49.1313057 235.2433496
-116.7048809 0.1503185001 6.23856522e-11
-148.9050449 -152.1321486 6.23856522e-11
-1.25827454e-05 -25.1607195 227.9081321
-1.25827454e-05 -197.6105289 61.7716257
-43.89265878 93.6775707 6.23856522e-11
-1.25827454e-05 166.3610371 25.28271084
-170.4947081 -58.8634815 6.23856522e-11
-1.25827454e-05 -4.0910473 195.6670317
-250.2305775 259.9957805 6.23856522e-11
-194.7397277 250 249.5303364
-1.25827454e-05 -242.2233572 216.9047782
-1.25827454e-05 -66.024857 57.59514429
-196.2247564 250 81.3565312
-1.25827454e-05 -125.8399262 221.707054
-129.8298204 -95.9116111 6.23856522e-11
-1.25827454e-05 -88.317811 165.7758065
-1.25827454e-05 -193.001435 132.7764209
-100.6207589 250 84.4480129
-160.8208487 200.4814428 6.23856522e-11
-1.25827454e-05 191.5547333 26.60638208
-56.07267368 114.9016807 6.23856522e-11
-69.13961778 262.4081782 6.23856522e-11
-1.25827454e-05 219.4483285 90.4778334
-203.5696476 24.099735 6.23856522e-11
-175.5740954 -123.131515 6.23856522e-11
-1.25827454e-05 -173.8259913 83.563435
-188.3025342 250 44.85416008
-238.7750743 250 28.1265911
-1.25827454e-05 -178.0592708 38.05723954
-211.4729529 131.5700901 6.23856522e-11
-1.25827454e-05 190.7098902 11.141604
-71.25137138 -18.6388769 6.23856522e-11
-93.80118748 180.7004958 6.23856522e-11
-4.248212883 11.7885297 6.23856522e-11
-1.25827454e-05 -101.4127528 21.83971703
-104.378414 250 123.8639875
-151.8075149 -170.6334241 6.23856522e-11
-202.3239645 250 110.9490817
-198.6744265 -141.7879773 6.23856522e-11
-86.62942988 251.5542675 6.23856522e-11
-27.92136388 -86.4367702 6.23856522e-11
-195.2072376 250 68.8095595
-168.8487743 218.811095 6.23856522e-11
-177.4617869 250 34.94344584
-1.25827454e-05 -107.4492484 123.3830057
-189.8740805 91.1013993 6.23856522e-11
-1.25827454e-05 54.342648 134.0937974
-197.5082748 -242.4788811 6.23856522e-11
-12.61488188 -71.820022 6.23856522e-11
-1.25827454e-05 105.666194 43.07284336
-180.4845533 198.8045916 6.23856522e-11
-1.25827454e-05 110.5524584 32.33533026
-1.25827454e-05 -121.6118284 192.8614816
-1.25827454e-05 -51.6004047 58.19793759
-97.11488088 -193.7467458 6.23856522e-11
-146.2125314 194.2373149 6.23856522e-11
-1.25827454e-05 -11.1869452 219.0384404
-249.7456328 250 93.345801
-89.91112528 250 21.73004658
-1.25827454e-05 34.0076234 13.28152699
-85.43258838 133.8199942 6.23856522e-11
-1.25827454e-05 -239.234921 14.72844949
-18.15176578 -239.4437367 6.23856522e-11
-174.1261562 250 61.362322
-1.25827454e-05 -211.0579977 215.7731737
-1.25827454e-05 216.7715833 68.3154119
-194.6094792 250 24.33017986
-28.69072398 162.8685936 6.23856522e-11
-1.25827454e-05 220.8267567 209.9566978
-225.4517722 250 2.42139754
-230.6300628 250 84.9254114
-1.25827454e-05 -155.923669 164.1174629
-1.25827454e-05 -89.316382 136.8283769
-1.25827454e-05 -6.1387107 56.59093233
-30.29929768 250 72.5461548
-1.25827454e-05 -152.0530681 200.4652899
1.796473417 -52.3365224 6.23856522e-11
-1.25827454e-05 96.297644 249.9496935
-1.25827454e-05 2.8419478 12.49569305
-203.1834284 250 8.71590484
-125.1554825 98.034394 6.23856522e-11
-191.2450951 250 238.288607
-1.25827454e-05 61.7141732 42.08458819
-73.09937178 114.067106 6.23856522e-11
-1.25827454e-05 142.2233398 225.9465032
-173.2554015 250 238.9976619
-1.25827454e-05 49.1001214 110.3689211
-10.07556108 250 24.22053634
-169.5833469 -47.8427384 6.23856522e-11
-1.25827454e-05 45.0403041 166.6860299
-24.81944708 250 233.9330143
-159.1480275 -82.435868 6.23856522e-11
-1.25827454e-05 111.5117815 10.60518014
-219.9950001 193.6457882 6.23856522e-11
-236.6969888 -218.8498847 6.23856522e-11
-1.25827454e-05 74.5476694 145.188255
-1.25827454e-05 164.6000046 46.20414979
-61.76226528 140.6176241 6.23856522e-11
-1.25827454e-05 119.4256649 194.0273287
-1.25827454e-05 122.8372582 137.9834716
-34.54808288 250 247.7758893
-186.0600832 30.3149718 6.23856522e-11
-162.2818856 1.7821824 6.23856522e-11
-1.25827454e-05 -122.7841975 139.6113105
-1.25827454e-05 31.7209591 136.1654617
-150.0114805 247.5208931 6.23856522e-11
-61.67215068 250 187.4999423
-1.25827454e-05 -201.2047151 234.038634
-71.55076648 -43.039434 6.23856522e-11
-32.85098498 250 173.4146401
-170.7692047 126.8349947 6.23856522e-11
-1.25827454e-05 -212.8083051 190.9002841
-110.9082475 -110.9152714 6.23856522e-11
-101.0775331 -73.4725188 6.23856522e-11
-249.6456443 250 174.2867048
-130.1807068 205.6589629 6.23856522e-11
-1.25827454e-05 225.6622775 249.3429193
0.03179541725 250 171.9057995
-54.70379448 -168.9764806 6.23856522e-11
-1.25827454e-05 240.3198563 154.6391724
-248.6526037 250 119.2833833
-163.8959661 -171.3842252 6.23856522e-11
-162.5325651 -104.2972429 6.23856522e-11
-189.8698762 10.6914816 6.23856522e-11
1.465723217 -249.3652895 6.23856522e-11
-1.25827454e-05 -91.5703689 175.8248987
-1.25827454e-05 64.3088822 244.8209845
-120.1149099 250 176.6818588
-214.3228562 252.2611578 6.23856522e-11
-1.25827454e-05 -238.3580876 36.74777228
-117.001268 250 241.1278221
-221.913944 -47.9871429 6.23856522e-11
-168.0960297 250 109.9723021
-1.25827454e-05 223.5058857 159.8909107
-237.712779 -95.7741253 6.23856522e-11
-1.25827454e-05 -129.85814 33.59882354
-1.25827454e-05 -211.5507787 237.3482069
-1.25827454e-05 -130.0425351 119.272269
-1.25827454e-05 168.972324 232.0682347
-61.84557818 250 200.7042853
-21.85372748 250 163.2809338
-242.3746608 250 194.6109552
-64.26333708 250 237.8527724
-1.25827454e-05 -88.275443 111.9260077
-217.5490535 178.4889981 6.23856522e-11
-1.25827454e-05 -210.1343161 149.339076
-219.7769371 250 150.831749
-1.25827454e-05 172.8406283 12.22528772
-232.7462203 250 95.4134081
-1.25827454e-05 -158.6652293 15.82079858
-167.8085982 116.8093526 6.23856522e-11
-1.25827454e-05 -102.5210506 190.3605774
-1.25827454e-05 183.4722764 175.5590785
-1.25827454e-05 -217.9857526 138.3336433
-28.13198288 -37.0495348 6.23856522e-11
-1.25827454e-05 192.1607048 159.7293395
-1.25827454e-05 -117.4492974 240.0377681
-157.3706546 -250 -1.3325806
-1.25827454e-05 -141.0140066 154.822931
-1.25827454e-05 166.239282 221.3647942
-115.0692514 -208.1121638 6.23856522e-11
-176.2506361 -192.1190011 6.23856522e-11
-1.25827454e-05 62.289427 163.8764786
-110.9876503 -178.1582106 6.23856522e-11
-1.25827454e-05 -164.6609067 114.8437441
-55.91410508 274.5744289 6.23856522e-11
-29.87250838 -117.8390418 6.23856522e-11
-213.2053593 250 89.4924577
-1.25827454e-05 -36.8847489 125.8694423
-221.6627259 -78.5150508 6.23856522e-11
-155.8710188 51.4360756 6.23856522e-11
-216.7548001 250 196.7935574
-236.3974403 107.8288423 6.23856522e-11
-1.25827454e-05 15.2428088 75.6185007
-219.08888 -142.2359682 6.23856522e-11
-241.3627974 50.3211559 6.23856522e-11
-206.8890791 273.1197173 6.23856522e-11
-1.25827454e-05 -229.3512604 113.720495
-1.25827454e-05 -109.5994785 103.7826172
-9.140717483 247.6611559 6.23856522e-11
-75.80387098 250 17.64720261
-212.7508532 250 25.41952071
-45.18610608 -29.8630299 6.23856522e-11
-100.2083789 -235.5244212 6.23856522e-11
-72.31898988 250 148.646577
-87.62836058 97.840707 6.23856522e-11
-236.0560642 250 239.9304423
-145.2859888 -118.2369607 6.23856522e-11
-126.7033539 -150.0264671 6.23856522e-11
-1.25827454e-05 -185.6131082 94.7833941
-236.0635946 -131.0500983 6.23856522e-11
-8.524820283 268.8130238 6.23856522e-11
-109.3169859 250 50.86990802
-116.029121 -91.8275398 6.23856522e-11
-1.25827454e-05 -174.6984076 170.3113487
-57.17043048 -202.1679153 6.23856522e-11
-1.25827454e-05 191.4626627 117.4002597
-107.131014 204.446396 6.23856522e-11
-54.14594378 250 135.6057509
-178.913639 -250 -0.9949592799
-1.25827454e-05 50.2463369 53.21195238
-1.25827454e-05 31.0741266 64.2027392
-125.4404222 250 152.1771616
1.077513417 -250 134.5381274
-192.7992342 -94.1566943 6.23856522e-11
-31.04460528 32.7651931 6.23856522e-11
-1.25827454e-05 -47.2174439 148.2281686
-1.25827454e-05 -241.116826 250.1982196
-97.60705178 85.9183402 6.23856522e-11
-36.73843418 86.4309477 6.23856522e-11
-122.4948884 -33.8860743 6.23856522e-11
-217.8677324 -181.8731647 6.23856522e-11
-197.7639619 232.8767826 6.23856522e-11
-188.3507439 169.9606127 6.23856522e-11
-60.52131588 130.389506 6.23856522e-11
-1.25827454e-05 139.2776518 188.3085561
-136.81127 250 226.6316245
-77.28992108 250 52.90635722
-49.38984458 -227.204689 6.23856522e-11
-8.208123083 250 11.57324274
-1.25827454e-05 19.556481 170.8107054
-173.3929415 -238.3494217 6.23856522e-11
-1.25827454e-05 156.536029 59.19067116
-11.91871148 94.2094251 6.23856522e-11
-56.80859528 244.8935635 6.23856522e-11
-56.74325388 161.0033378 6.23856522e-11
-1.25827454e-05 -188.2065734 69.8238907
-97.55285738 250 170.1818217
-157.3330663 101.6251767 6.23856522e-11
-218.0735196 35.3000567 6.23856522e-11
-15.75974148 250 225.0662461
-1.25827454e-05 -74.6831415 166.5920874
-246.9058261 3.4346444 6.23856522e-11
-64.23313008 250 63.8521222
-1.25827454e-05 -145.2545998 48.85144979
-25.52297868 66.0019114 6.23856522e-11
-216.6911429 -1.7058759 6.23856522e-11
-1.25827454e-05 -78.0006276 237.1975019
-126.5703174 250 244.3087145
-192.3763846 -177.8471675 6.23856522e-11
1.832701617 250 37.93132632
-184.5176717 250 189.2192618
-152.9636694 250 42.05736342
-1.25827454e-05 -52.1580488 223.3620002
-1.25827454e-05 -201.6356362 107.9678837
-1.25827454e-05 194.9147919 51.48164568
-34.89793858 178.205431 6.23856522e-11
2.230925517 -208.2562882 6.23856522e-11
-21.87494248 257.5179399 6.23856522e-11
-235.275548 32.9465893 6.23856522e-11
-45.35373558 45.0233052 6.23856522e-11
-1.25827454e-05 20.6963628 23.24258493
-22.17629908 -66.7231032 6.23856522e-11
-1.25827454e-05 -119.1585962 58.15222804
-1.25827454e-05 -118.5079467 32.97040485
-13.52717238 250 59.2098955
-128.4482084 -188.672696 6.23856522e-11
-42.21885788 250 94.5147454
0.3806042173 -250 103.4256208
-1.25827454e-05 -23.2683307 148.8342283
-124.2336718 78.5727389 6.23856522e-11
-1.25827454e-05 -106.1391453 236.5499853
-1.25827454e-05 -69.996284 33.07508285
-87.01524218 250 94.5927224
-220.4275765 -200.7812085 6.23856522e-11
-6.206668283 47.2285333 6.23856522e-11
-1.25827454e-05 224.6328448 230.0159435
-1.25827454e-05 -139.912709 225.1895294
-242.2405533 148.4239995 6.23856522e-11
-181.7333948 250 143.7900934
-184.262501 248.290989 6.23856522e-11
-1.25827454e-05 -61.4378275 27.68077465
-32.75417818 -185.804681 6.23856522e-11
-70.04379468 198.8928627 6.23856522e-11
-252.2077438 209.5680651 6.23856522e-11
-224.3344058 80.2755151 6.23856522e-11
-171.3044698 5.9989291 6.23856522e-11
-224.5837586 250 185.092098
-50.71114938 250 183.0389039
-1.25827454e-05 -64.1898692 3.84498342
-28.95235598 250 18.33416426
-77.11400618 -33.7369093 6.23856522e-11
-1.25827454e-05 43.9702456 148.138763
-1.25827454e-05 -35.8261175 176.9806581
-223.4582615 -162.6590603 6.23856522e-11
-1.25827454e-05 -131.9499908 191.1851509
-34.57374328 -1.7614564 6.23856522e-11
-71.00388428 -244.4818757 6.23856522e-11
-88.40263968 250 63.5830329
-8.594690283 33.412648 6.23856522e-11
-68.57707538 27.4349382 6.23856522e-11
-54.10656328 -238.1589944 6.23856522e-11
-140.5675724 -90.2465417 6.23856522e-11
-149.941448 -86.0894299 6.23856522e-11
-1.25827454e-05 -212.8434055 123.1953245
-1.25827454e-05 -52.3140359 39.60687127
-3.382299483 250 236.0792903
-1.25827454e-05 154.4542273 98.9681073
-71.15202828 250 40.48856744
-97.47657258 250 54.70116995
-1.25827454e-05 40.9491115 64.1984326
1.757938317 61.7404017 6.23856522e-11
-139.9381466 59.0947249 6.23856522e-11
-193.7093981 -26.2673838 6.23856522e-11
-15.26346188 106.2742843 6.23856522e-11
-130.0752495 -23.9105199 6.23856522e-11
-74.54651618 212.9431419 6.23856522e-11
-1.25827454e-05 -33.070079 79.3068105
-1.25827454e-05 10.1214819 94.5085141
-213.5499163 9.4790949 6.23856522e-11
-162.8815522 -122.585426 6.23856522e-11
-1.25827454e-05 197.0263748 179.7306375
-111.4344636 250 165.5062642
-101.6378443 250 182.5403291
2.305867117 -95.2874575 6.23856522e-11
-235.3784367 263.9756805 6.23856522e-11
-1.25827454e-05 68.1194731 216.4308362
-1.25827454e-05 -182.7668313 49.78318226
-1.25827454e-05 -171.8730836 107.2973259
-161.6809496 147.9667413 6.23856522e-11
-1.25827454e-05 84.8151278 246.620272
-196.2900524 250 206.0880538
-1.25827454e-05 159.7121759 69.6237081
-1.25827454e-05 -235.3704825 105.7101699
-1.25827454e-05 -78.8438898 143.8308082
-185.3987523 -142.9183693 6.23856522e-11
-1.25827454e-05 16.5285006 190.7952555
-1.25827454e-05 182.6893391 209.963939
-136.6388806 -76.3043184 6.23856522e-11
-129.9929299 255.9448905 6.23856522e-11
-1.25827454e-05 47.0106303 182.0736777
-1.25827454e-05 186.6110097 80.4705507
-249.8875915 -232.2351698 6.23856522e-11
-1.25827454e-05 187.5140824 101.3295133
-153.3807023 140.4904158 6.23856522e-11
-1.25827454e-05 -84.2988164 30.84944526
-247.7787003 87.9421542 6.23856522e-11
-1.25827454e-05 241.1950328 123.1669195
-64.09499258 212.588856 6.23856522e-11
-46.83464818 -121.7592494 6.23856522e-11
-82.16869598 250 190.1502936
-122.3712781 235.5075101 6.23856522e-11
-1.25827454e-05 206.2311408 197.9314325
-1.25827454e-05 15.3520189 56.4413296
-199.2227813 252.6443474 6.23856522e-11
-227.3303701 -110.9657993 6.23856522e-11
-1.25827454e-05 -96.443042 43.73029374
-154.2000141 250 99.1382168
-149.6602993 21.3681615 6.23856522e-11
-64.61829718 250 138.9098391
-55.86457518 -84.4615794 6.23856522e-11
-157.597241 162.1448245 6.23856522e-11
-227.1568282 38.6806294 6.23856522e-11
-1.25827454e-05 -221.7190954 243.0667766
-195.5338911 250 14.68321618
-1.25827454e-05 -111.5506098 215.6542354
-1.25827454e-05 -168.9626403 219.4365611
-1.25827454e-05 -161.3680123 241.6642932
-1.25827454e-05 -149.3417807 186.7041755
-1.25827454e-05 148.7837714 31.75288174
-177.492513 61.8626942 6.23856522e-11
-235.8786067 250 123.063799
-1.25827454e-05 -183.2799134 190.7727107
-1.25827454e-05 -87.2918347 223.0364897
-6.915475583 163.6343643 6.23856522e-11
-82.58258288 -69.3577655 6.23856522e-11
-189.7017304 -121.172113 6.23856522e-11
-49.04309398 -72.0051434 6.23856522e-11
-152.2699106 -44.9395345 6.23856522e-11
-39.55811488 -178.3205473 6.23856522e-11
-43.99901578 146.0180589 6.23856522e-11
-1.25827454e-05 -98.1214276 128.8682711
-1.25827454e-05 206.535675 44.67557145
-1.25827454e-05 -62.4923463 250.7392404
-1.25827454e-05 -220.9172955 86.016681
-168.6505365 24.0733974 6.23856522e-11
-1.25827454e-05 -106.7304774 13.87026457
-82.11662108 184.9572328 6.23856522e-11
-1.25827454e-05 143.5633601 57.65049063
-142.8865019 250 176.6981902
-1.25827454e-05 113.5699421 99.748651
-1.25827454e-05 -142.1291033 69.6648755
-214.7532546 140.5329736 6.23856522e-11
-65.78956748 -217.5643905 6.23856522e-11
-77.70336778 24.6669467 6.23856522e-11
-170.4267118 -98.9465014 6.23856522e-11
-226.1002235 58.092295 6.23856522e-11
-1.25827454e-05 199.2756572 217.5809147
-50.38211198 250 9.54166586
-1.25827454e-05 108.7780086 135.1908441
-45.15636008 250 77.4674896
-130.262691 -56.9791541 6.23856522e-11
-233.2730835 131.2804037 6.23856522e-11
-1.25827454e-05 138.4609662 161.3300136
-1.25827454e-05 -173.0949468 193.1763097
-51.14913468 226.8730008 6.23856522e-11
-1.25827454e-05 -68.6623017 231.7233546
-82.61566378 107.2120415 6.23856522e-11
2.218134117 250 134.0260826
-16.40726468 -107.7991919 6.23856522e-11
-121.1807404 250 86.5064838
-128.9157107 -11.8011692 6.23856522e-11
-1.25827454e-05 -63.5536881 180.406539
-1.25827454e-05 -32.9565522 159.175709
-101.2977872 155.9445445 6.23856522e-11
-121.5253743 250 123.9131585
-126.2624538 250 62.4574249
-202.2494256 -45.9040051 6.23856522e-11
-17.39785658 -92.4307513 6.23856522e-11
-243.5705264 250 139.4255443
-98.33272428 -173.8064634 6.23856522e-11
-1.25827454e-05 -155.0724043 223.2953561
-238.1604269 -243.2601396 6.23856522e-11
-60.13324668 202.5591605 6.23856522e-11
-239.2535339 250 60.5062889
-1.25827454e-05 -83.8050838 187.5371952
-97.84106858 265.3980691 6.23856522e-11
-191.7591368 144.9225739 6.23856522e-11
-91.77319978 -59.3672194 6.23856522e-11
-1.25827454e-05 126.5135292 42.28697361
-1.25827454e-05 38.5665687 87.1768323
-49.35904788 -152.8826648 6.23856522e-11
-115.3299953 -218.2988089 6.23856522e-11
-134.8656389 250 151.7636845
-3.236885283 -138.2592038 6.23856522e-11
-139.826074 117.5838044 6.23856522e-11
-1.25827454e-05 76.5354364 99.5817466
-96.29985438 250 241.5290785
-233.1507059 250 181.1724986
-1.25827454e-05 -220.2961135 116.3023868
-1.25827454e-05 97.2835711 122.7524996
-1.25827454e-05 248.1206062 106.1891413
-136.6930206 -163.0817344 6.23856522e-11
-83.08480058 250 71.3383209
-1.25827454e-05 89.5193152 65.8279997
-1.25827454e-05 -117.0172736 126.9149563
-225.5019051 19.5430661 6.23856522e-11
-124.8028891 67.3074719 6.23856522e-11
-103.4800754 250 74.0011798
-1.25827454e-05 227.7382439 8.75229656
-1.25827454e-05 240.3151715 53.58127713
-252.4895623 -207.3864427 6.23856522e-11
-1.25827454e-05 -117.097644 73.616406
-56.42485958 250 242.9862262
-176.9126604 48.4428021 6.23856522e-11
-1.25827454e-05 136.6618443 246.4639202
-32.57908918 250 117.7392451
-155.347506 250 180.9188174
-146.6794916 250 241.0129295
-99.63667358 110.8830675 6.23856522e-11
-202.3103802 -79.6239969 6.23856522e-11
-83.67001898 -228.2588482 6.23856522e-11
-1.25827454e-05 53.2880112 14.23296585
-1.25827454e-05 166.9210281 91.5374008
-86.74324248 250 138.4497214
-166.0659121 -148.2403755 6.23856522e-11
-105.3186089 250 204.0248
-105.1656677 -132.91298 6.23856522e-11
-1.25827454e-05 131.0468446 180.3174753
-1.25827454e-05 -34.9798189 236.8557657
-1.25827454e-05 64.9878225 61.459242
-175.3111587 250 82.3795384
-9.683747083 -169.0259732 6.23856522e-11
-1.25827454e-05 -0.2419026999 37.90748851
-1.25827454e-05 169.1409946 196.53907
-223.7555219 250 107.4215597
-1.25827454e-05 5.3783874 142.9621965
-1.25827454e-05 227.0847704 63.5541775
-170.0617625 199.4586115 6.23856522e-11
-218.1316397 217.5044317 6.23856522e-11
-1.25827454e-05 -205.8934985 226.0114302
-1.25827454e-05 -229.848077 149.0955928
-12.57350298 250 163.3134808
-1.25827454e-05 57.1678692 152.2654394
-100.8330138 197.5625392 6.23856522e-11
-249.6088423 -31.2606603 6.23856522e-11
-137.2236936 250 65.0722627
-134.4424939 141.4692082 6.23856522e-11
-7.009766783 250 178.2916579
-1.25827454e-05 138.4146774 90.2537295
-118.7912409 -20.5061574 6.23856522e-11
-1.25827454e-05 -70.8536245 15.48420731
-1.25827454e-05 34.5802778 117.1276906
-1.25827454e-05 24.5512515 13.47487608
-1.25827454e-05 171.8552384 34.51031885
-44.85084908 19.2540345 6.23856522e-11
-84.57343668 227.4421186 6.23856522e-11
-1.25827454e-05 -2.1391899 204.6764297
-245.6211314 250 163.0455873
-137.3725809 -206.6331904 6.23856522e-11
-219.7987043 250 129.1200938
-137.3722101 250 246.1409037
-148.2310807 -162.148821 6.23856522e-11
-27.13280608 -221.7396953 6.23856522e-11
-167.3320668 -20.4747571 6.23856522e-11
-1.25827454e-05 20.1205907 119.2299683
-1.25827454e-05 -1.2561843 86.1044554
-58.01594868 -34.1039379 6.23856522e-11
-1.25827454e-05 -164.2953077 205.5591337
-230.4921037 -123.7412144 6.23856522e-11
-1.25827454e-05 -62.3625262 158.3827439
-1.25827454e-05 7.9432025 223.5096364
-1.25827454e-05 -167.0388404 20.67801108
-229.0690312 -67.5595882 6.23856522e-11
-1.25827454e-05 -182.2614019 175.4921113
-127.7562365 174.4191882 6.23856522e-11
-183.557428 250 99.9984976
-90.30998188 -184.3454387 6.23856522e-11
-63.12915508 75.4107938 6.23856522e-11
-1.25827454e-05 23.4237028 211.5220019
-66.86119598 -141.2101462 6.23856522e-11
-1.25827454e-05 -183.8601136 78.7529184
-143.1733365 49.724665 6.23856522e-11
-10.22929008 250 145.9929053
-27.16637618 145.4299485 6.23856522e-11
-162.006254 250 86.0502393
-67.03745388 -57.4885979 6.23856522e-11
-242.1614936 250 218.7421484
-99.39352658 16.3198198 6.23856522e-11
-1.25827454e-05 82.1796849 46.51748495
-1.25827454e-05 -21.0803744 213.7768133
-127.2065809 48.4260685 6.23856522e-11
-1.25827454e-05 -104.8154593 176.8617378
-1.25827454e-05 116.7645122 91.0139816
-236.0056365 -27.053022 6.23856522e-11
-175.20959 250 5.94416628
-1.25827454e-05 -157.9922742 91.0705594
-87.34583648 -51.4102518 6.23856522e-11
-75.79698998 250 111.4113668
-179.2703302 263.8574315 6.23856522e-11
-177.9808518 250 18.83264879
-6.252646983 250 80.5428864
-248.035857 -157.8811691 6.23856522e-11
-1.25827454e-05 -239.6264572 178.8674889
-19.17562268 -205.5765033 6.23856522e-11
-130.5163026 -178.7428046 6.23856522e-11
-165.4471686 250 97.7979093
-127.8060491 -122.4914089 6.23856522e-11
-177.5589988 250 69.7563151
-1.25827454e-05 -14.6729614 241.6820805
-1.25827454e-05 212.3940183 17.30817267
-1.25827454e-05 120.1313204 210.9709765
-73.15216698 250 123.8817988
-1.25827454e-05 190.6200624 220.2445217
-1.25827454e-05 28.3559463 172.9466908
-252.2106839 -52.2356621 6.23856522e-11
-7.331716283 -223.8152717 6.23856522e-11
-161.4822176 182.7338451 6.23856522e-11
-1.25827454e-05 181.0492964 135.7743735
-191.0150572 250 182.9402846
-137.9947406 -248.2367335 6.23856522e-11
-1.25827454e-05 25.96604 100.5788214
-1.25827454e-05 -69.3228155 69.8236513
-149.48561 -236.697295 6.23856522e-11
-1.25827454e-05 145.360053 215.2320955
-1.25827454e-05 -106.3799573 4.61520379
-150.3009096 272.4969901 6.23856522e-11
-222.0837857 154.3146184 6.23856522e-11
-1.25827454e-05 -108.7749827 112.7455098
-1.25827454e-05 245.1609291 205.9992015
-119.8044187 250 214.9885975
-242.2459209 -66.5096389 6.23856522e-11
-1.25827454e-05 -163.2346523 69.547775
-122.3205134 214.0979717 6.23856522e-11
-1.25827454e-05 -21.2792211 248.2822895
-1.25827454e-05 12.2986619 9.47894965
-39.02934208 212.6603254 6.23856522e-11
-1.25827454e-05 -31.8278118 60.5125789
-1.25827454e-05 158.0966961 172.0773388
-1.25827454e-05 -49.4064422 99.1151095
-142.4426783 253.4470883 6.23856522e-11
-43.75191778 260.4663077 6.23856522e-11
-70.73949358 -206.957209 6.23856522e-11
-1.25827454e-05 -191.9635648 250.2507319
-148.7531468 -213.7165495 6.23856522e-11
-1.25827454e-05 86.4369816 95.5713938
-130.8083594 250 9.53263965
-233.7215555 -194.8630075 6.23856522e-11
-1.25827454e-05 -134.0289718 174.3437398
-37.43230458 -203.8555222 6.23856522e-11
-1.25827454e-05 63.5583302 126.399565
-65.98550198 244.8954859 6.23856522e-11
-1.25827454e-05 176.1301968 128.1058088
-150.1478068 33.0031448 6.23856522e-11
-31.72863288 -172.1644169 6.23856522e-11
-174.3677456 250 225.7589491
-1.25827454e-05 -66.4167589 147.9469309
-179.6405378 -35.4095156 6.23856522e-11
-70.65725708 138.7615056 6.23856522e-11
-1.25827454e-05 241.4643462 95.7596075
-142.7831914 6.2224258 6.23856522e-11
1.642570317 -250 78.6823045
-80.68811648 -200.0165422 6.23856522e-11
-60.06292778 250 155.5323595
-1.25827454e-05 213.5151924 245.0434786
-119.9004417 -115.9587139 6.23856522e-11
-107.299616 -224.3765155 6.23856522e-11
-223.8575782 250 231.1582293
-15.60894448 -1.3259664 6.23856522e-11
-163.7077578 -134.4125263 6.23856522e-11
-1.25827454e-05 -149.4483422 241.5127278
-1.25827454e-05 -238.7194207 150.0020911
-154.3303112 131.6421267 6.23856522e-11
-1.25827454e-05 -38.9451521 24.76273739
-76.82473728 -52.3779706 6.23856522e-11
-1.25827454e-05 40.7031516 250.0910523
-81.58627738 91.3193269 6.23856522e-11
-251.0382838 250 64.2062514
-27.55388618 250 105.0022887
-151.8747275 -1.4862761 6.23856522e-11
-15.33872578 -32.9787856 6.23856522e-11
-189.7141945 250 129.3497703
-1.25827454e-05 -70.6392397 185.7165455
-1.25827454e-05 172.9360018 100.4160008
-1.25827454e-05 119.6071899 243.366491
-63.93671658 255.2562632 6.23856522e-11
-73.94163088 250 94.5922534
-196.9407328 250 93.1564842
-197.8284894 -106.524648 6.23856522e-11
-143.8544649 107.9686604 6.23856522e-11
1.178379917 250 14.10079446
-98.24804478 54.5214884 6.23856522e-11
-1.25827454e-05 209.6292161 131.2461152
-112.7546165 211.2422337 6.23856522e-11
-169.1796287 39.6217537 6.23856522e-11
-179.7551432 -88.25894 6.23856522e-11
-151.2419228 -67.0774974 6.23856522e-11
-1.25827454e-05 73.8763512 17.3055042
-1.25827454e-05 -174.9063941 153.6340519
-1.25827454e-05 -58.6484744 129.9865827
0.3975050173 -250 114.4371556
-215.6613414 -190.3877215 6.23856522e-11
-210.052898 250 234.147781
-1.25827454e-05 21.4031739 231.1241912
-1.25827454e-05 40.2146594 191.1968125
-133.1300514 250 193.1094515
-173.5352995 -131.6656784 6.23856522e-11
-94.94203848 250 188.197082
-112.3362188 86.9676114 6.23856522e-11
-68.79594238 250 167.9451069
-235.3321702 -181.8248155 6.23856522e-11
1.225837317 -170.7712831 6.23856522e-11
-219.07603 -127.7244175 6.23856522e-11
-58.55717938 233.2167712 6.23856522e-11
-208.4705413 123.3512739 6.23856522e-11
-1.25827454e-05 222.1731977 170.4296378
-169.9869851 -77.6591017 6.23856522e-11
-80.29299548 -215.8223335 6.23856522e-11
-110.4745908 -60.3146003 6.23856522e-11
-136.0499241 250 214.8377355
-161.017526 43.6964408 6.23856522e-11
-1.25827454e-05 -18.9577981 66.3452811
-234.663383 250 73.627369
-7.002511483 75.9079713 6.23856522e-11
-1.25827454e-05 -121.1724703 101.4710916
-45.14451288 112.2073646 6.23856522e-11
-64.99398738 250 93.3315463
-38.75288388 51.4051804 6.23856522e-11
-216.9904261 250 177.6897456
-146.8804398 250 164.0837009
-149.5836885 88.9016874 6.23856522e-11
-140.1525781 -10.1221444 6.23856522e-11
-1.25827454e-05 -241.4569594 44.8855336
-135.5149834 129.6875844 6.23856522e-11
-1.25827454e-05 233.6087168 70.380094
-75.36751378 70.8773992 6.23856522e-11
