# .PCD v0.7 - Point Cloud Data file format
VERSION 0.7
FIELDS x y z
SIZE 4 4 4
TYPE F F F
COUNT 1 1 1
WIDTH 1276
HEIGHT 1
VIEWPOINT 0 0 0 1 0 0 0
POINTS 1276
DATA ascii
-2.955857781e-12 122.0690735 96.747506
-2.955857781e-12 63.64404057 -222.0013666
133.207493 -1.552508081e-05 69.8482429
147.347912 222.431579 -250
16.78665 -1.552508081e-05 -155.1691844
52.90648 -1.552508081e-05 53.0838878
85.844981 -1.552508081e-05 -130.3738426
198.759747 -1.552508081e-05 192.586637
157.242368 29.40547397 -250
-2.955857781e-12 200.7942615 13.0683167
-2.955857781e-12 136.8522445 -128.4940577
-2.955857781e-12 62.14230077 -88.7952462
163.623706 -1.552508081e-05 203.7618654
229.572522 52.91857227 -250
160.629541 -1.552508081e-05 -157.8037717
165.239689 142.2730591 -250
205.279417 84.69568507 -250
46.45142 -1.552508081e-05 -197.5491661
139.484767 71.44985237 -250
-2.955857781e-12 221.0022071 159.2074232
10.033649 -1.552508081e-05 207.6143675
127.803722 -1.552508081e-05 -121.3839574
-2.955857781e-12 93.22472907 74.2353083
-2.955857781e-12 122.8091979 -188.1110576
97.486144 -1.552508081e-05 79.124854
49.02363 -1.552508081e-05 79.2145418
220.354393 -1.552508081e-05 159.9998131
222.652901 -1.552508081e-05 96.4411035
227.48365 -1.552508081e-05 -195.1699349
234.695878 113.5119784 -250
234.140013 -1.552508081e-05 -220.2213905
78.720528 -1.552508081e-05 193.2602154
128.041392 151.1046775 -250
-2.955857781e-12 225.4619412 10.1140568
250.777668 -1.552508081e-05 -33.1795069
-2.955857781e-12 231.0462957 125.3736148
-2.955857781e-12 48.42304877 130.8181159
34.24685 -1.552508081e-05 102.9748123
-2.955857781e-12 166.8103594 26.2366478
45.562927 -1.552508081e-05 -118.7493709
195.144055 -1.552508081e-05 122.5567956
251.553815 180.5728947 -250
225.556315 -1.552508081e-05 -70.2360229
-2.955857781e-12 74.77683747 140.9881695
16.121233 -1.552508081e-05 51.3727482
-2.955857781e-12 237.5479545 -7.9270206
-2.955857781e-12 70.71305267 98.8059344
-2.955857781e-12 112.6456101 -8.8767724
208.917699 -1.552508081e-05 -233.3473936
48.078887 -1.552508081e-05 4.2591205
-2.955857781e-12 168.3908951 93.6396382
60.166753 249.0922145 -250
-2.955857781e-12 99.48761057 168.5090466
101.522132 195.41627 -250
88.784126 -1.552508081e-05 -51.9957825
144.927823 -1.552508081e-05 -85.3205794
147.441562 -1.552508081e-05 -42.1485595
-2.955857781e-12 206.6039609 -146.5123576
125.127883 -1.552508081e-05 -234.8883107
92.857974 -1.552508081e-05 -200.1296813
130.420259 -1.552508081e-05 107.3072307
79.790926 -1.552508081e-05 -228.3446874
66.490144 -1.552508081e-05 -189.8590553
191.58808 -1.552508081e-05 -0.7028115
-2.955857781e-12 232.7519577 -147.8338094
-2.955857781e-12 203.390981 212.4911277
45.715145 -1.552508081e-05 -98.6647437
-2.955857781e-12 227.5301079 -92.6751863
-2.955857781e-12 19.90106247 -117.3705716
-2.955857781e-12 192.9169623 -84.2059601
-2.955857781e-12 160.131198 219.4633853
-2.955857781e-12 134.7428604 -162.6375269
22.261905 -1.552508081e-05 -62.2565973
189.392732 -1.552508081e-05 -163.1426345
-2.955857781e-12 72.32784287 55.6284065
128.604089 110.3036598 -250
-2.955857781e-12 252.3115543 184.8806527
-2.955857781e-12 172.987957 -158.0337647
187.962197 -1.552508081e-05 -46.2808698
112.620158 -1.552508081e-05 -36.8043971
148.819551 -1.552508081e-05 -20.6439922
148.305931 -1.552508081e-05 22.9785586
50.755336 96.33592097 -250
104.214966 -1.552508081e-05 -177.0917596
131.601482 -1.552508081e-05 -200.2190049
228.195537 194.2800042 -250
218.606971 -1.552508081e-05 -10.4729922
-2.955857781e-12 71.81388187 236.9846305
236.425401 138.6091552 -250
230.630112 235.9382176 -250
150.980408 -1.552508081e-05 146.4418629
-2.955857781e-12 147.1901681 -94.4220744
252.448608 -1.552508081e-05 153.7198919
-2.955857781e-12 135.7574282 187.5083418
-2.955857781e-12 218.8094337 248.6119676
-2.955857781e-12 235.7465695 70.5085175
-2.955857781e-12 27.93656167 136.7950187
231.231685 -1.552508081e-05 195.2314366
209.088143 164.9967335 -250
93.444989 -1.552508081e-05 60.2253481
-2.955857781e-12 241.4441239 35.1399367
212.040517 10.13538637 -250
39.259756 -1.552508081e-05 218.019305
-2.955857781e-12 97.40385207 198.7918894
-2.955857781e-12 97.05194307 54.0640681
72.770182 -1.552508081e-05 111.533575
-2.955857781e-12 25.05072897 -13.6723407
-2.955857781e-12 65.08044347 33.1951665
-2.955857781e-12 18.68141057 194.8596519
20.564073 94.03718327 -250
-2.955857781e-12 21.17177107 233.9322435
-2.955857781e-12 6.484539475 83.189281
-2.955857781e-12 18.96947057 50.0892321
236.207624 -1.552508081e-05 16.0133119
159.896167 -1.552508081e-05 164.6166425
-2.955857781e-12 72.22739417 165.4135369
104.267364 137.0504731 -250
-2.955857781e-12 77.58451837 13.6634334
-2.955857781e-12 184.790581 231.9274457
-2.955857781e-12 167.9042434 -124.7015219
105.538882 -1.552508081e-05 -93.364424
94.085436 -1.552508081e-05 -7.595039
13.878093 135.9773537 -250
-2.955857781e-12 207.0624598 137.3653287
-2.955857781e-12 242.2608496 227.4746997
208.298148 -1.552508081e-05 -190.0733376
212.604952 -1.552508081e-05 129.5447932
14.117434 11.38663057 -250
190.253574 16.26731697 -250
135.928643 -1.552508081e-05 177.6020478
-2.955857781e-12 249.6819498 165.2010004
-2.955857781e-12 222.2391371 57.4481845
-2.955857781e-12 18.42882787 170.974895
195.17897 -1.552508081e-05 79.7579958
61.264579 146.8319107 -250
23.863025 -1.552508081e-05 17.2634101
40.69902 -1.446544925 -250
75.284662 -1.552508081e-05 -165.3479586
-2.955857781e-12 51.13021157 67.1047984
187.168991 252.0960301 -250
125.695232 -1.552508081e-05 136.6783695
-2.955857781e-12 46.60364777 -4.0815279
251.744089 2.588999975 -250
50.80783 66.23315757 -250
155.451103 -1.552508081e-05 -234.9218218
-2.955857781e-12 169.5544199 -230.4524244
108.543306 -1.552508081e-05 201.5386459
-2.955857781e-12 213.7171848 -213.2165833
18.195239 -1.552508081e-05 186.8026368
89.630986 -1.552508081e-05 146.1875018
67.373337 -1.552508081e-05 81.5385589
-2.955857781e-12 209.8006333 97.9469966
16.740553 -1.552508081e-05 119.8646558
243.957413 -1.552508081e-05 226.2243049
242.403342 39.86520627 -250
-2.955857781e-12 38.79559857 225.2959792
219.26813 123.2374355 -250
187.477437 80.44841147 -250
52.745553 179.830223 -250
-2.955857781e-12 112.1649754 146.9288965
97.755441 100.3531657 -250
-2.955857781e-12 206.4509309 -120.8045754
153.70973 10.62625147 -250
233.002556 -1.552508081e-05 63.2560095
14.137509 -1.552508081e-05 -224.1030306
-2.955857781e-12 216.1435659 -183.0182256
-2.955857781e-12 122.2123305 -148.0268831
-2.955857781e-12 251.4426976 -215.6699703
209.90582 -1.552508081e-05 -34.8370018
-2.955857781e-12 21.99413287 -60.1762861
241.226122 -1.552508081e-05 -81.3811317
-2.955857781e-12 45.67683617 204.7679929
130.160755 -1.552508081e-05 -47.7531436
85.773045 81.42246087 -250
-2.955857781e-12 149.0353334 155.2839623
184.323352 -1.552508081e-05 106.4578192
30.84852 108.8386869 -250
-2.955857781e-12 170.513642 133.0923658
-2.955857781e-12 131.1621609 144.9661773
185.254367 -1.552508081e-05 138.0033227
-2.955857781e-12 37.74840187 -148.6267517
56.012371 -1.552508081e-05 234.0608164
-2.955857781e-12 122.7630128 -85.0095568
35.987325 -1.552508081e-05 183.8609532
123.388409 82.01134877 -250
240.207236 -1.552508081e-05 -13.9222438
-2.955857781e-12 20.68409927 -135.5064452
160.207456 -1.552508081e-05 -175.4380515
-2.955857781e-12 44.47602717 -82.892094
-2.955857781e-12 80.96511357 -208.6967653
160.54359 -1.552508081e-05 -105.5118339
-2.955857781e-12 154.7852661 -1.1537418
-2.955857781e-12 55.78618957 108.067531
94.941732 7.411512975 -250
-2.955857781e-12 51.30855787 -176.1340987
242.302582 -1.552508081e-05 98.5996082
46.910639 40.31976287 -250
213.587109 231.4979913 -250
-2.955857781e-12 53.53082057 179.6259293
-2.955857781e-12 141.4762439 -57.6050763
124.629913 -1.552508081e-05 48.6091966
-2.955857781e-12 89.17836417 -90.7413977
38.351042 -1.552508081e-05 -15.1014917
175.987288 -1.552508081e-05 232.4793443
98.628962 -1.552508081e-05 31.6231803
-2.955857781e-12 59.62595247 -238.8952602
-2.955857781e-12 207.3337459 -29.9826104
159.354704 -1.552508081e-05 130.5631818
-2.955857781e-12 193.7622508 175.0164772
171.94669 -1.552508081e-05 -25.7255322
239.110487 -1.552508081e-05 -130.2611329
110.438493 -1.552508081e-05 -212.2375906
-2.955857781e-12 250.3930641 -232.9539055
228.543788 -1.552508081e-05 236.2308661
202.126624 -1.552508081e-05 214.7642744
248.237811 -1.552508081e-05 133.4834084
-2.955857781e-12 248.0106508 103.4052046
-2.955857781e-12 221.4201737 -238.9005287
-2.955857781e-12 104.6570765 16.9637057
158.870711 -1.552508081e-05 6.2022498
16.906816 -1.552508081e-05 233.0216864
161.573633 -1.552508081e-05 110.3829788
6.725179 204.0559297 -250
-2.955857781e-12 223.837042 -114.48351
220.542517 -1.552508081e-05 25.8348342
200.459707 -1.552508081e-05 248.1737778
75.200423 114.4051434 -250
187.471043 -1.552508081e-05 154.8976731
156.279598 93.08790357 -250
96.018585 -1.552508081e-05 -77.7160015
149.266 -1.552508081e-05 189.9221412
173.184177 -1.552508081e-05 -125.2245027
38.477086 -1.552508081e-05 -220.1708109
-2.955857781e-12 98.74915347 -170.8084967
-2.955857781e-12 101.7125113 -213.3157624
212.230353 46.94083837 -250
-2.955857781e-12 11.66407667 21.2351427
-2.955857781e-12 127.5371984 -236.340502
43.85564 -0.7866744251 250
-2.955857781e-12 212.0174982 173.4672375
105.074201 -1.552508081e-05 106.5343192
-2.955857781e-12 65.02604647 -125.4433791
-2.955857781e-12 99.00979197 233.9654189
17.326826 70.62828387 -250
199.2847 151.4015019 -250
-2.955857781e-12 86.46133257 110.598938
-2.955857781e-12 29.68046727 -213.0845474
124.824736 -1.552508081e-05 242.89119
16.983303 -1.552508081e-05 -19.0522645
-2.955857781e-12 173.6924637 199.3143839
-2.955857781e-12 64.60289977 -60.3624947
23.548375 248.4823164 -250
142.371526 -1.552508081e-05 213.2644227
76.954538 -1.552508081e-05 -21.8215227
185.242409 -1.552508081e-05 -76.8252539
157.606015 70.29149697 -250
-2.955857781e-12 37.44108597 17.1328431
94.110954 -1.552508081e-05 122.3842528
69.558792 -1.552508081e-05 17.2761162
-2.955857781e-12 247.0490805 -39.025713
-2.955857781e-12 16.90493657 111.6755105
162.726036 -1.552508081e-05 -61.4987898
215.413511 -1.552508081e-05 -105.7440609
229.337922 97.89453247 -250
-2.955857781e-12 194.8067231 67.2525611
37.4149 -1.552508081e-05 166.1214147
103.411977 -1.552508081e-05 233.1807192
67.816746 12.97726727 -250
-2.955857781e-12 100.9032651 -63.6632885
206.082913 -1.552508081e-05 -79.4453717
-2.955857781e-12 201.5578802 83.3180714
165.76963 -1.552508081e-05 54.8518262
137.54499 -1.552508081e-05 87.2389672
135.174307 233.7881832 -250
239.897895 76.80157257 -250
139.915079 -1.552508081e-05 -164.383094
25.190183 41.59883607 -250
137.596449 202.904705 -250
-0.5899939 -1.552508081e-05 170.8385214
123.501505 -1.552508081e-05 -15.4712104
-2.955857781e-12 84.62670337 -185.5635639
111.565559 151.5848952 -250
162.764683 -1.552508081e-05 246.0844586
-2.955857781e-12 20.72054637 -181.1226698
61.202059 -1.552508081e-05 195.6676599
-2.955857781e-12 133.2209134 27.8930785
-2.955857781e-12 241.4494121 -126.9780733
-1.5053882 -1.552508081e-05 -41.4183709
-2.955857781e-12 108.556296 84.4434032
175.927794 -1.552508081e-05 166.3536542
20.992823 -1.552508081e-05 -188.1528567
-2.955857781e-12 234.935272 -248.4033022
215.42691 -1.552508081e-05 58.3463187
-2.955857781e-12 162.5099137 -99.3296624
-2.955857781e-12 102.3996425 -121.7682026
-2.955857781e-12 85.60344247 128.0165868
203.604386 128.6467874 -250
60.331417 -1.552508081e-05 -243.9511031
-2.955857781e-12 111.8923371 113.6082495
-2.955857781e-12 234.3594897 -182.0680592
-2.955857781e-12 3.612663675 -234.5742595
-2.955857781e-12 138.8230802 -147.2361567
44.494865 -1.552508081e-05 -48.1214134
-2.955857781e-12 129.603696 236.3824931
55.353598 -1.552508081e-05 -152.7437663
40.139846 -1.552508081e-05 18.038898
-2.955857781e-12 224.4200654 -16.9694061
211.398356 201.9319144 -250
-2.955857781e-12 102.4507723 -44.6699415
8.90368 -1.552508081e-05 -3.9680506
228.989409 -1.552508081e-05 81.9881801
106.356073 59.93503887 -250
-2.955857781e-12 50.28904807 -112.9403302
236.595792 -1.167110025 250
-2.955857781e-12 161.5910885 -34.9137076
124.047903 -1.552508081e-05 -182.2191294
173.910565 98.87095657 -250
11.986277 -1.552508081e-05 -131.1933114
110.495838 109.3786329 -250
-2.955857781e-12 221.1860845 -58.7900405
103.841438 -1.552508081e-05 138.8288026
192.883115 -1.552508081e-05 -183.2892838
237.923003 11.49114887 -250
232.232669 -1.552508081e-05 0.9603794
145.226913 -1.552508081e-05 235.3688424
107.206181 210.4937053 -250
190.138891 180.9901872 -250
75.299206 -1.552508081e-05 220.5596141
-2.955857781e-12 110.4815757 31.3386275
93.952025 -1.552508081e-05 190.3727608
-2.955857781e-12 182.2126444 16.9372305
52.108562 235.8652041 -250
-2.955857781e-12 243.4184203 197.5565214
20.390621 -1.552508081e-05 248.1011263
181.145987 209.503744 -250
197.326711 -1.552508081e-05 59.1149664
199.657476 -1.552508081e-05 13.7768417
-2.955857781e-12 99.58686377 -236.5429577
-2.955857781e-12 77.92704477 -155.0842692
232.976125 -1.552508081e-05 171.1098316
-2.955857781e-12 222.3701982 186.8952803
85.111566 20.99388187 -250
209.366539 -1.552508081e-05 231.6921101
-2.955857781e-12 30.85158677 83.3454648
69.13816 181.6060662 -250
-2.955857781e-12 80.80326167 -23.6803183
-2.955857781e-12 11.10225797 -79.0351752
-2.955857781e-12 252.2782615 135.6804563
216.102485 -1.552508081e-05 197.5490011
-2.955857781e-12 184.6584563 -232.8638073
80.723932 -1.546724325 250
-2.955857781e-12 3.787333075 48.317719
38.265857 -1.552508081e-05 138.9255836
-2.955857781e-12 135.3705166 5.463801
118.030544 -1.552508081e-05 169.2956454
83.285971 -1.552508081e-05 -146.2144036
175.413642 241.8034874 -250
-2.955857781e-12 69.05265427 180.3237905
68.436928 -1.552508081e-05 43.9539938
160.792284 -1.552508081e-05 -90.2973602
-2.955857781e-12 138.9653902 46.8178499
-2.955857781e-12 132.2188655 76.8177859
-2.955857781e-12 150.7335121 -210.042198
124.272768 -1.552508081e-05 -63.3779514
85.520077 -1.552508081e-05 -115.2003773
181.576713 -1.552508081e-05 72.8536026
-2.955857781e-12 134.5736507 -178.5386482
-2.955857781e-12 172.5766404 -142.8857789
184.470023 -1.552508081e-05 182.1016266
-2.955857781e-12 182.6321634 -119.1078808
175.77886 -1.552508081e-05 -202.5150674
-2.955857781e-12 51.58070887 -139.6906069
-2.955857781e-12 151.4930303 -155.8176666
122.565859 66.93733827 -250
116.602044 29.38020507 -250
85.054552 231.1462864 -250
142.912687 -1.552508081e-05 -121.1704349
-2.955857781e-12 59.42027777 84.9995593
124.258448 183.9407017 -250
44.174248 167.5216657 -250
87.563106 211.3780888 -250
-2.955857781e-12 95.51895427 -11.2353519
128.862584 167.7510707 -250
61.171873 -1.552508081e-05 145.0222493
-2.955857781e-12 169.8292811 40.8819523
39.487076 205.7138049 -250
-2.955857781e-12 25.45030467 -98.5891898
-2.955857781e-12 181.9028293 159.0366072
93.889941 -1.552508081e-05 -215.0298425
57.598451 80.49562707 -250
-2.955857781e-12 190.6273909 -176.8524061
130.414369 40.10152927 -250
-2.955857781e-12 232.1793903 -75.9318591
100.990012 -1.552508081e-05 -126.4359497
39.275694 -1.552508081e-05 -183.8470628
223.696358 -1.552508081e-05 -230.7823933
-2.955857781e-12 162.439956 -245.2851506
-2.955857781e-12 15.35491817 128.9254925
90.949716 -1.552508081e-05 -167.7737033
-2.955857781e-12 227.8247492 139.8479425
196.616568 -1.552508081e-05 -109.1968559
73.284514 -1.552508081e-05 -51.1222056
-2.955857781e-12 192.2519599 -43.4572741
-2.955857781e-12 186.5165587 187.8925512
-2.955857781e-12 126.2901902 212.5348197
243.220812 228.3442578 -250
248.568065 108.681824 -250
28.08305 150.8911067 -250
151.245238 110.3227801 -250
149.675265 236.885512 -250
113.468939 -1.552508081e-05 -74.6125866
-2.955857781e-12 117.5982805 -115.9496498
-2.955857781e-12 45.06024777 163.9493686
102.300173 -1.552508081e-05 45.7535942
12.42117 115.2760083 -250
69.478826 -1.552508081e-05 -96.3023791
224.569916 -1.552508081e-05 -170.3184376
-2.955857781e-12 50.58602537 236.9167811
-2.955857781e-12 69.54457777 1.5410084
-2.955857781e-12 183.2857459 -6.0922869
251.733727 195.1109158 -250
-2.955857781e-12 64.16855067 -168.0876942
83.003515 -1.552508081e-05 80.2076957
44.512991 -1.552508081e-05 197.6333494
38.907442 -1.552508081e-05 -162.9004149
-2.4411734 152.2274901 250
-2.955857781e-12 99.11820307 184.3940993
112.047794 -1.552508081e-05 215.5973587
186.836093 118.8339812 -250
143.920656 -1.552508081e-05 59.7859225
4.783398 87.27584257 -250
151.565587 172.9772646 -250
-2.955857781e-12 149.9239385 -17.6530791
10.433896 -1.552508081e-05 -98.2830531
231.901125 -1.552508081e-05 209.6278221
57.543968 -1.552508081e-05 -23.1361734
161.202992 43.24299047 -250
-2.955857781e-12 54.17372907 -33.8788927
-2.955857781e-12 158.6186264 104.1946553
0.280621 -1.552508081e-05 -210.8626141
36.496746 -1.552508081e-05 -65.6477741
-2.955857781e-12 37.05685277 -193.9884931
234.322827 -1.552508081e-05 -45.2799576
-2.955857781e-12 206.6201123 -64.6125624
252.388842 -1.552508081e-05 -217.3499502
-2.955857781e-12 81.80571627 89.789928
173.447623 16.38024137 -250
-2.4657787 -1.552508081e-05 -156.8310511
68.783745 -1.552508081e-05 -128.9582919
49.284312 -1.552508081e-05 -73.5307863
-2.955857781e-12 86.70006007 160.6569056
-2.955857781e-12 234.9659707 161.7508594
-2.955857781e-12 154.6961874 -233.3926306
-2.955857781e-12 133.0797484 -249.5216569
-2.955857781e-12 176.5882929 -199.3469455
-2.955857781e-12 178.6637075 -92.2005047
151.210969 -1.552508081e-05 -212.2541263
152.464046 -1.552508081e-05 -141.6296772
12.303044 33.27673527 -250
123.993863 -1.552508081e-05 -216.3681858
143.849688 143.0964327 -250
201.558282 -1.552508081e-05 -217.9850837
-2.955857781e-12 40.23029087 143.8012913
127.841883 215.01473 -250
-2.955857781e-12 15.54303737 -167.9690136
-2.3933151 -1.552508081e-05 -90.4619968
-2.955857781e-12 233.0163854 214.4471386
-2.955857781e-12 163.1882153 168.026971
-2.955857781e-12 32.69368397 -32.6594836
211.767683 -1.552508081e-05 111.69736
79.22525 -1.552508081e-05 -196.511048
109.811504 -1.552508081e-05 14.061474
211.122155 -1.552508081e-05 -126.6437042
45.375992 138.4817576 -250
117.648058 252.1515853 -250
-2.955857781e-12 131.094634 -46.1085766
167.557416 126.7724918 -250
234.565658 152.5715881 -250
-2.955857781e-12 10.77729807 -5.6925131
-2.955857781e-12 222.0275298 109.9851029
141.377492 -1.552508081e-05 -234.544749
55.065416 -1.552508081e-05 -138.6321119
-2.955857781e-12 91.26138977 21.2441213
174.657095 -1.552508081e-05 -92.5952767
11.749243 -1.552508081e-05 65.5510908
82.195954 43.19706377 -250
194.292433 48.37143177 -250
163.718603 156.226975 -250
203.785226 221.4680405 -250
-2.955857781e-12 162.0495878 -193.7621065
36.413663 11.89737147 -250
80.99575 -1.552508081e-05 9.1908327
213.729811 -1.552508081e-05 -154.2765819
25.599353 -1.552508081e-05 -144.3071878
65.663869 -1.552508081e-05 -71.2827976
76.751255 -1.552508081e-05 94.548002
252.454819 -1.552508081e-05 -173.2546423
107.378631 -1.552508081e-05 92.7546483
5.523305 -1.552508081e-05 137.1597612
-2.955857781e-12 46.13303147 -220.3987126
60.401801 131.1908439 -250
159.997563 185.8390303 -250
-2.955857781e-12 11.52646937 212.0781248
126.410686 -1.552508081e-05 5.2367919
-2.955857781e-12 237.2004066 84.3609957
144.345165 20.96606017 -250
-2.955857781e-12 46.68663857 36.5673454
-2.955857781e-12 161.0949391 -70.5484826
133.074321 -1.552508081e-05 36.6468665
-2.955857781e-12 152.5150092 -128.7322016
-2.955857781e-12 201.6423978 -17.3395139
-2.955857781e-12 250.8114482 -94.2814448
-2.955857781e-12 201.1175742 39.8471913
186.332883 -1.552508081e-05 36.8225049
-2.955857781e-12 102.6650971 249.7591151
113.624096 -1.552508081e-05 75.3076688
-2.955857781e-12 73.73787887 216.4341601
-2.955857781e-12 17.30833747 -236.1751957
-2.955857781e-12 212.8586517 -87.4549713
129.198675 11.61277637 -250
180.062252 -1.552508081e-05 196.9576877
-2.955857781e-12 198.2808609 125.4039739
-2.955857781e-12 245.7260655 -152.2807211
13.162867 -2.278566525 -250
180.037769 -1.552508081e-05 -241.1045206
-2.955857781e-12 171.967126 -110.5194095
-2.955857781e-12 134.7156351 -23.2899139
-2.955857781e-12 113.4399553 162.3258795
202.126045 243.5391376 -250
105.360469 -1.552508081e-05 -20.7964765
34.179397 -1.552508081e-05 77.9177079
-2.955857781e-12 56.56422697 -76.3228022
-2.955857781e-12 190.9140986 48.9198403
38.987362 192.0698304 -250
191.901241 -1.552508081e-05 -138.8052949
238.849909 -1.552508081e-05 48.8972105
41.89334 -1.552508081e-05 91.7034453
47.498031 -1.552508081e-05 65.6842968
91.502254 -1.552508081e-05 -235.2901392
78.511229 151.8429791 -250
-2.955857781e-12 122.9024354 179.4247708
-2.955857781e-12 157.8443249 232.8661416
-2.955857781e-12 156.4937279 86.9202948
-2.955857781e-12 113.9143741 -96.3087452
-2.955857781e-12 201.3610727 225.9145002
-2.955857781e-12 12.77604977 67.5940988
251.060233 -1.552508081e-05 193.4568968
209.50159 -1.552508081e-05 170.5180077
109.837975 -1.552508081e-05 -158.53003
-2.955857781e-12 179.891907 -55.2316468
218.590738 87.14732887 -250
125.624824 -1.552508081e-05 188.0748509
20.956947 -1.552508081e-05 -115.303887
-2.955857781e-12 209.9678016 65.5178683
74.634616 -1.552508081e-05 177.37199
53.526692 -1.552508081e-05 -183.3123055
-2.955857781e-12 115.8545808 203.6724797
-2.955857781e-12 57.46639227 -199.7007024
214.808907 23.30518017 -250
-2.955857781e-12 179.2723428 -213.0400112
181.612464 -1.552508081e-05 -214.974122
-2.955857781e-12 146.4417033 32.9510322
13.152944 -1.552508081e-05 -168.0925521
204.115856 -1.552508081e-05 -46.9352834
-2.955857781e-12 75.84475327 -92.1741068
120.272137 -1.552508081e-05 154.5820026
135.64698 58.60964387 -250
246.020649 -1.552508081e-05 -185.5393976
62.237378 -1.552508081e-05 -220.6787098
-2.955857781e-12 249.7575998 2.5456341
55.882913 -1.552508081e-05 162.9636373
37.216022 69.55250237 -250
95.38512 -1.552508081e-05 -64.355374
157.014235 -2.330246025 -250
-2.955857781e-12 229.1939608 46.0429129
237.430402 209.133544 -250
237.051618 -1.552508081e-05 -113.0003078
88.238412 -1.552508081e-05 202.6056307
-2.955857781e-12 158.0563562 120.7669402
179.674823 -1.552508081e-05 -56.708271
-2.955857781e-12 59.61921027 138.0223638
12.224013 -1.552508081e-05 10.8077053
149.128748 81.86430817 -250
-2.955857781e-12 33.54366237 -68.8895037
25.332512 -1.552508081e-05 93.1032658
-2.955857781e-12 213.0681081 18.1927745
-2.955857781e-12 133.9879869 104.1638312
-2.955857781e-12 108.5579357 -193.9509681
-2.955857781e-12 231.8169734 245.8663491
-2.955857781e-12 14.53486007 34.2119859
26.629375 229.382025 -250
232.002022 -1.552508081e-05 129.6463932
-2.955857781e-12 201.2585859 -205.0738487
205.945665 -1.552508081e-05 87.4896344
-2.955857781e-12 198.1937489 200.3218532
203.948124 -1.552508081e-05 -5.41052
201.018944 -1.552508081e-05 -150.6774065
237.063577 63.93752517 -250
-2.955857781e-12 184.6207109 91.7527424
220.888282 170.7806845 -250
44.152986 -1.552508081e-05 115.1447609
-2.955857781e-12 208.9292307 -168.1630596
138.27098 -1.552508081e-05 -12.8496212
-2.955857781e-12 139.701844 -112.5966701
200.563381 99.35655747 -250
34.779804 -1.552508081e-05 -111.3383634
247.323193 -1.552508081e-05 -161.2234763
-2.955857781e-12 128.7868245 199.695915
218.756195 61.75403057 -250
174.676128 -1.552508081e-05 -158.4642431
24.453608 -1.552508081e-05 -75.1894292
99.079944 168.6228474 -250
-2.955857781e-12 122.7544767 -0.6089778
147.028591 -1.552508081e-05 160.5793213
238.034947 181.3856698 -250
-2.955857781e-12 60.54863757 207.3571718
148.475582 -1.552508081e-05 114.6212196
9.491014 -1.552508081e-05 -48.3454087
103.11402 -1.552508081e-05 166.5607064
15.979041 187.3023023 -250
-2.955857781e-12 100.659882 41.6198757
21.073795 -1.552508081e-05 214.3652177
-2.955857781e-12 185.7049269 244.8345503
-2.955857781e-12 235.1891912 -160.5357135
17.719095 -1.552508081e-05 154.5826783
43.161376 -1.552508081e-05 44.5937864
78.168849 164.965318 -250
171.014682 -1.552508081e-05 10.565198
212.247149 -1.552508081e-05 42.2489269
-2.955857781e-12 84.97219197 202.1894054
27.249122 -1.552508081e-05 -26.8380221
60.685477 -1.552508081e-05 -201.3575357
-2.955857781e-12 17.32266517 -24.3668722
-2.955857781e-12 189.5810942 148.7065671
-2.955857781e-12 193.7461331 -146.9961777
102.267174 182.5959277 -250
-2.955857781e-12 80.38818217 -237.5986212
-2.955857781e-12 124.1121279 249.4195431
-2.955857781e-12 60.04815657 123.5337632
34.292493 95.55997947 -250
-2.955857781e-12 176.0623907 -172.6982636
-2.955857781e-12 134.7707016 -91.3083688
-2.955857781e-12 114.6243248 -71.836204
-2.955857781e-12 105.8613843 -19.7008873
-2.955857781e-12 213.5838359 44.0666237
239.193072 -1.552508081e-05 -95.2353425
121.815656 -1.552508081e-05 -153.9147527
-2.955857781e-12 15.52053697 154.2290926
-2.955857781e-12 217.3496514 129.8313398
126.674769 -1.552508081e-05 208.4538455
54.498934 212.0234921 -250
-2.955857781e-12 156.5709705 188.0421341
-2.955857781e-12 36.07934357 44.5156995
-2.955857781e-12 231.9860325 -210.4702439
178.222678 -1.552508081e-05 -14.6939859
68.643298 -1.552508081e-05 234.8895586
150.979303 -1.552508081e-05 177.3884541
220.400719 -1.552508081e-05 139.4859738
-1.8526782 194.7890334 -250
-2.955857781e-12 81.60471997 47.0631905
30.176361 214.241272 -250
250.699175 -1.552508081e-05 69.4110387
95.684107 238.4345997 -250
57.373783 -1.552508081e-05 -109.6906803
225.637861 14.26220327 -250
-2.955857781e-12 109.734427 175.8306293
205.161094 116.155676 -250
160.690123 208.0414417 -250
-2.955857781e-12 74.60175597 249.2550094
85.849028 -1.552508081e-05 -36.9364543
-2.955857781e-12 127.0815941 -67.3040514
-2.955857781e-12 88.69551687 -111.1544619
77.287637 59.37673257 -250
105.798728 -1.552508081e-05 -48.5252533
-2.955857781e-12 47.62778887 -235.2106544
-2.955857781e-12 143.757001 239.0178987
-2.955857781e-12 237.1912247 114.4381619
157.027267 -1.552508081e-05 86.0833467
91.527777 -1.552508081e-05 158.5799317
167.501835 -1.552508081e-05 94.1612163
250.404998 -1.552508081e-05 -72.855523
53.610396 29.75660457 -250
-2.955857781e-12 78.37973537 -35.9497607
215.26907 -1.552508081e-05 -22.521649
-2.955857781e-12 5.898141975 197.953111
9.550276 -1.552508081e-05 -182.7723156
-2.955857781e-12 53.15873467 -14.6736031
-2.955857781e-12 138.490816 122.4685479
-2.955857781e-12 93.86243857 86.6518082
-2.955857781e-12 115.3639204 -204.4439215
-2.955857781e-12 236.7285661 -102.7786529
9.369421 -1.552508081e-05 -110.635921
201.005204 175.0425518 -250
-1.734554 -1.552508081e-05 -70.8481601
22.694564 81.85293517 -250
42.882176 105.8612251 -250
251.32674 140.7132863 -250
59.818763 -1.552508081e-05 66.2798937
175.333005 149.3506494 -250
-2.955857781e-12 216.0598245 204.7131254
128.319122 -1.552508081e-05 -133.6862232
-2.955857781e-12 252.3052981 -10.7558333
168.587541 -1.552508081e-05 -187.9762485
85.075557 139.0189578 -250
-2.955857781e-12 2.311408075 113.1735524
112.113199 238.167537 -250
27.557041 3.405210175 -250
104.197656 -0.6421602251 -250
-2.955857781e-12 9.871363875 243.3204702
149.428614 250.3394301 -250
217.147434 152.8015904 -250
197.830033 190.5087725 -250
96.563325 75.61608467 -250
-2.955857781e-12 237.5248613 -20.1569287
33.191394 139.4510558 -250
19.972407 -1.552508081e-05 36.4884447
-2.955857781e-12 52.82231577 -127.5557328
119.256199 -1.552508081e-05 102.4097605
-2.955857781e-12 37.45815877 237.4011187
242.084196 -1.552508081e-05 -238.8856304
76.09571 -1.552508081e-05 205.1518536
-2.955857781e-12 73.89515547 -52.4959682
186.424934 220.463182 -250
-2.955857781e-12 185.4377678 123.0138368
226.226457 -1.552508081e-05 -209.8226162
183.960915 -1.552508081e-05 221.8048777
-2.955857781e-12 127.9191476 53.2704615
47.240821 125.7681487 -250
-2.955857781e-12 90.07373947 -40.3137018
-2.955857781e-12 32.53897177 105.1131692
64.579716 -1.552508081e-05 -232.5576901
-2.955857781e-12 93.17177077 -72.9260896
-2.955857781e-12 72.23230187 152.7784915
119.434303 -1.552508081e-05 -109.591668
99.227839 -1.552508081e-05 -36.8642593
239.936253 28.08085407 -250
-2.955857781e-12 58.62959547 -187.7264447
176.714049 -1.552508081e-05 -227.6001213
20.443423 124.2391166 -250
-2.955857781e-12 182.9114879 -77.5390366
235.381861 -1.552508081e-05 182.888958
-2.955857781e-12 140.620901 210.4414409
66.08535 -1.552508081e-05 30.8609369
143.519842 -1.552508081e-05 76.8177945
139.77376 116.9674177 -250
-2.955857781e-12 157.6821262 -82.0405912
-2.955857781e-12 170.6037764 77.5739798
-2.955857781e-12 140.6823533 163.8569555
69.599379 -1.552508081e-05 -178.3136643
196.193785 -1.552508081e-05 -37.6134449
-2.955857781e-12 213.2144341 150.1430664
-2.955857781e-12 151.5675191 -182.02984
-2.955857781e-12 117.9003326 77.0250431
247.862989 -1.552508081e-05 18.4907456
158.953852 -1.552508081e-05 32.006637
75.673658 211.918952 -250
164.314236 -1.552508081e-05 -117.2971356
36.499404 -1.552508081e-05 -136.7531022
-2.955857781e-12 111.5425042 -156.8546322
74.418815 236.4214977 -250
8.415013 98.57866287 -250
7.879118 -1.552508081e-05 219.2870477
88.428424 -1.552508081e-05 111.9737379
-2.955857781e-12 198.9781763 25.5165602
117.096756 -1.552508081e-05 233.912949
-2.955857781e-12 50.97162797 192.6998979
-2.955857781e-12 57.24145987 -49.3805294
52.438131 -1.552508081e-05 222.7753339
41.950672 -1.552508081e-05 30.3951793
-2.955857781e-12 29.55254577 199.5194897
-2.955857781e-12 171.9433728 219.98999
-2.955857781e-12 139.2068999 -215.5806144
109.277635 222.2043682 -250
-2.955857781e-12 9.853343775 -198.9482422
232.401559 -1.552508081e-05 -60.6169704
201.276218 20.48668397 -250
-2.955857781e-12 136.3956185 -196.2962505
208.021721 -1.552508081e-05 156.4772898
-0.7217795 120.8984276 -250
129.278247 -1.552508081e-05 -74.0372147
83.089612 -1.552508081e-05 -3.3942943
-2.955857781e-12 171.5971541 63.6875062
17.755187 210.6137143 -250
235.212652 -1.552508081e-05 27.7279909
233.081093 -1.552508081e-05 159.3602906
201.828307 72.88731277 -250
155.579506 -1.552508081e-05 212.3248474
57.439184 -1.552508081e-05 -125.9067629
226.07746 132.8051613 -250
16.173006 173.6906577 -250
87.252831 187.1715626 -250
137.735625 -1.552508081e-05 225.1925185
-2.955857781e-12 93.79253757 211.3188925
170.109213 -1.552508081e-05 136.4021045
22.785938 60.26428937 -250
-2.955857781e-12 98.69267787 -182.5220676
84.514446 107.312884 -250
41.1913 -1.552508081e-05 -234.2983768
143.085616 -1.552508081e-05 137.8076498
246.933457 50.64269847 -250
-2.955857781e-12 49.67917607 25.2752462
-2.955857781e-12 65.48025987 67.0981948
147.724651 -1.552508081e-05 -192.5288001
-2.955857781e-12 118.5000746 -217.5882701
75.446543 -1.552508081e-05 -81.130429
145.345253 37.58681997 -250
46.612761 -1.552508081e-05 179.0720659
16.398153 -1.552508081e-05 106.977415
7.734481 -1.552508081e-05 180.3370518
167.076843 -1.552508081e-05 -235.5910614
5.729353 62.86146157 -250
21.191077 -1.552508081e-05 -46.7244159
239.92951 192.8490361 -250
-2.955857781e-12 143.5038067 74.0739175
210.637717 -1.386620225 -250
-2.955857781e-12 239.1773526 -235.9216624
-2.955857781e-12 170.231209 -61.6515031
157.180236 131.9227108 -250
-2.955857781e-12 13.13348807 184.6948939
240.829103 -1.552508081e-05 -142.3843014
-2.955857781e-12 209.8274825 29.5512214
191.219528 32.80359057 -250
228.611832 41.38602757 -250
54.781646 -1.552508081e-05 -42.8251071
-2.955857781e-12 159.6396513 137.0300227
61.447297 100.7186306 -250
-2.955857781e-12 203.2353604 -179.1576804
245.498847 -1.552508081e-05 -48.1928789
-2.3525532 -1.552508081e-05 -108.3094057
203.484521 -1.552508081e-05 203.3060819
201.82146 -1.552508081e-05 -205.5341529
189.998251 144.5622829 -250
154.156241 -1.552508081e-05 -78.4389526
-2.955857781e-12 5.908636875 -129.6075727
194.60795 -1.552508081e-05 -85.6824437
-2.955857781e-12 67.52342137 45.1812963
-2.955857781e-12 33.84739717 -244.9096241
216.055742 34.72787737 -250
241.724193 240.6256601 -250
-2.955857781e-12 11.64436957 -50.6953527
-1.782609 -1.552508081e-05 93.3523856
-2.955857781e-12 252.353885 31.6425101
226.075757 -1.552508081e-05 54.1286406
15.006188 -1.552508081e-05 24.6296721
-2.955857781e-12 115.9359286 50.112681
201.474482 -1.552508081e-05 -162.109839
-2.955857781e-12 206.6718903 -222.2303813
-2.955857781e-12 235.8113887 189.0180993
-2.955857781e-12 109.959934 2.2358645
251.316021 77.37172777 -250
-2.955857781e-12 218.3177856 -34.8574005
130.492801 -1.552508081e-05 148.115201
-2.955857781e-12 7.280884575 -186.4210324
-2.3013107 9.492545875 -250
34.49512 242.0084797 -250
-2.955857781e-12 172.6821144 -27.1172148
131.595875 -1.552508081e-05 -173.6850786
177.768884 230.6615141 -250
15.946395 -1.552508081e-05 -209.4959476
-2.955857781e-12 103.7868789 -91.1326241
-2.955857781e-12 163.6304032 -181.1810384
224.799319 144.4036198 -250
-2.955857781e-12 208.1312223 4.023932
124.276089 99.82549027 -250
250.388385 -1.552508081e-05 -8.936478
121.049758 -1.552508081e-05 -248.3056882
-2.955857781e-12 79.72889137 -9.7054179
194.146115 90.04279947 -250
155.40808 -1.552508081e-05 -34.1213648
209.718153 -1.552508081e-05 31.0451439
-2.955857781e-12 214.5188888 -199.4143539
-2.955857781e-12 144.6188097 -136.8228046
-2.955857781e-12 155.1321974 55.5324848
-2.955857781e-12 11.42518047 100.289155
-2.955857781e-12 151.8751869 211.3045836
184.166974 -1.552508081e-05 -28.1712152
119.089726 -1.552508081e-05 -49.9298515
225.848867 251.4122955 -250
88.145679 125.4148547 -250
-2.955857781e-12 223.9987473 -5.7234759
-2.955857781e-12 102.8709799 223.1493829
-2.955857781e-12 82.33608727 71.4136229
-2.955857781e-12 115.2079461 230.5420696
-2.955857781e-12 96.94629057 -140.2223395
45.482302 -1.552508081e-05 -130.0234839
-2.955857781e-12 125.204574 -11.548661
20.875336 -1.552508081e-05 -91.5393194
-2.955857781e-12 128.658012 -117.7053905
114.033894 74.18568817 -250
58.445448 157.9645342 -250
-2.955857781e-12 34.00755657 -120.5380653
-2.955857781e-12 225.0863356 -228.2841894
-2.955857781e-12 198.544082 -56.8891932
137.9246 104.1602209 -250
-2.955857781e-12 80.69304027 -62.0673699
113.403491 -1.552508081e-05 34.4777396
62.82355 36.20606977 -250
-2.955857781e-12 88.00863307 232.1430523
-2.955857781e-12 35.86405797 128.9552364
95.887343 -1.552508081e-05 245.7918566
-2.955857781e-12 99.13523417 30.5783522
-2.955857781e-12 22.43268417 24.0936174
95.153554 -1.552508081e-05 -185.5289582
-2.955857781e-12 19.07373117 223.0174881
186.258264 59.79891057 -250
63.373244 237.5845135 -250
-2.955857781e-12 199.566209 -93.0999245
7.34686 -1.552508081e-05 239.5129996
-2.955857781e-12 59.19721757 -23.9846791
-2.955857781e-12 40.75679107 -57.1582114
154.206759 147.0706765 -250
-2.955857781e-12 20.91712057 245.0188253
174.75405 -1.552508081e-05 26.7056461
66.951126 -1.552508081e-05 -154.4496037
-2.955857781e-12 48.16338717 -193.7122275
181.50565 8.816367475 -250
81.62065 -1.552508081e-05 48.9290063
-2.955857781e-12 201.4915323 -6.2184235
-2.955857781e-12 38.79026407 63.4281874
177.3461 167.6194694 -250
131.618964 134.1244349 -250
83.957218 94.83309627 -250
167.517485 33.40676437 -250
135.873853 222.5667921 -250
224.520196 109.2699527 -250
104.539761 19.07078967 -250
-2.955857781e-12 116.7939502 127.1221281
-2.955857781e-12 108.8221715 -176.8533094
225.058882 -1.552508081e-05 149.457266
93.311624 -1.552508081e-05 -141.6841637
114.467305 119.6352293 -250
-2.955857781e-12 84.23195147 -146.0836094
-2.955857781e-12 55.77337717 1.9712079
11.345516 -1.552508081e-05 90.7659694
177.004299 42.38271287 -250
-2.955857781e-12 244.0592524 -207.5481982
-2.955857781e-12 39.60439957 -159.437325
-2.955857781e-12 54.01542477 96.4954549
162.180341 -1.552508081e-05 -209.6470113
198.774076 -1.552508081e-05 -237.4661516
129.961367 -1.552508081e-05 118.2404547
26.308837 -1.552508081e-05 46.2931909
164.450265 -1.552508081e-05 233.8918333
57.119773 -1.552508081e-05 134.8669963
217.489338 -1.552508081e-05 -184.1542893
149.916588 211.8147444 -250
-2.955857781e-12 238.8221341 -194.0653436
-2.955857781e-12 178.1074474 27.8225081
-2.955857781e-12 195.9643805 95.4283282
-2.955857781e-12 252.3537701 -127.2306004
-2.955857781e-12 200.0679789 110.3534215
115.098106 141.2753363 -250
-2.955857781e-12 63.86775147 -151.0106276
0.916859 -1.552508081e-05 19.1207059
229.516692 83.08226667 -250
157.47496 53.66879007 -250
-2.955857781e-12 185.6408882 -34.179462
-2.955857781e-12 163.7025613 -7.3307958
-2.955857781e-12 126.5873551 67.5559104
229.36931 -1.552508081e-05 -180.2163378
83.914091 -1.552508081e-05 65.3855767
62.929239 -1.552508081e-05 92.4968632
240.908562 -1.552508081e-05 238.6948007
65.065507 90.36416087 -250
-2.955857781e-12 63.28553297 -110.0543886
-2.955857781e-12 91.24843937 -216.0938348
-2.955857781e-12 76.37977697 37.5885822
176.184427 73.79204877 -250
-2.955857781e-12 161.8590902 -152.7365137
213.174631 -1.552508081e-05 208.0980148
-2.955857781e-12 134.8979288 16.2614708
127.277105 241.1661094 -250
-2.955857781e-12 178.7819809 148.4583811
147.756967 -1.552508081e-05 -3.016439
-2.955857781e-12 229.0742097 235.4324283
-2.955857781e-12 60.42514197 232.4953869
83.82524 32.53759157 -250
-2.955857781e-12 146.9252768 97.6324761
163.340437 101.2368594 -250
92.75272 65.53639047 -250
12.51185 -1.552508081e-05 -66.8226217
184.762759 -1.552508081e-05 -96.9548336
168.342349 -1.552508081e-05 220.7771299
54.888139 -1.552508081e-05 12.572241
226.32055 -1.552508081e-05 -129.7999719
-2.955857781e-12 220.6275139 -142.1165798
133.186116 -1.552508081e-05 -101.1402848
152.703507 -1.552508081e-05 -224.5580309
25.551099 13.93631967 -250
-2.955857781e-12 172.2502909 -240.9640052
217.462073 -1.552508081e-05 87.0664834
150.48074 -1.552508081e-05 -161.236897
40.483217 21.80793077 -250
-2.955857781e-12 21.77439657 77.6571737
-2.955857781e-12 162.8199856 16.3010419
29.828744 -1.552508081e-05 112.7248481
154.885984 -1.552508081e-05 -11.8307559
-2.955857781e-12 220.490231 98.2765393
-2.955857781e-12 164.4742853 50.1382317
-2.955857781e-12 223.5249256 -217.4660327
60.012834 -1.552508081e-05 1.7267637
16.499683 49.82895817 -250
130.044947 -1.552508081e-05 95.2959871
-2.955857781e-12 198.6544955 -75.1951069
44.408891 -1.552508081e-05 237.1952126
-2.955857781e-12 38.97133987 3.3605835
-2.955857781e-12 73.94386467 -219.2573511
-2.955857781e-12 199.2823256 -112.9180897
-2.955857781e-12 142.7100617 -84.1991606
-2.955857781e-12 224.750987 -48.7477817
-2.955857781e-12 252.0568733 242.2167427
216.860078 -1.552508081e-05 239.4420712
-2.955857781e-12 221.9997397 -101.7681112
177.03764 -1.552508081e-05 -37.1663132
237.217171 128.0001275 -250
174.32943 -1.552508081e-05 -169.0968464
-2.955857781e-12 39.00776867 76.5592623
-0.497081 -1.552508081e-05 -26.4783137
-2.955857781e-12 238.498204 -67.4184646
150.741206 -1.552508081e-05 -114.022297
149.415492 185.3057166 -250
152.337843 -1.552508081e-05 247.9124401
213.808296 -1.552508081e-05 -223.960708
165.475179 -1.552508081e-05 193.3416981
177.298183 108.8820266 -250
197.39459 -1.552508081e-05 136.8196308
-2.955857781e-12 4.786847975 160.5765853
-2.955857781e-12 79.45736977 191.6981678
-1.6126546 -1.552508081e-05 -4.8051992
-2.955857781e-12 40.72369277 178.5826772
43.879766 -1.552508081e-05 -174.3773728
94.124197 202.9032719 -250
68.151429 -1.552508081e-05 121.7838525
94.966732 -1.552508081e-05 -89.5782342
-2.955857781e-12 231.3487861 -134.0848921
-2.955857781e-12 27.35275807 -109.9594831
-2.955857781e-12 77.11223617 -121.8112899
185.473316 -1.552508081e-05 -65.4678465
-2.955857781e-12 168.2228804 -46.1777196
30.815825 169.3406287 -250
68.869815 -1.552508081e-05 -14.5483394
-2.955857781e-12 40.15586667 -183.9647566
-2.955857781e-12 100.3535002 158.0573842
-2.955857781e-12 154.4196014 -27.2620173
202.799076 -1.552508081e-05 -120.2703795
-2.955857781e-12 198.9708373 144.0503704
239.083663 -1.552508081e-05 -196.6064032
-2.955857781e-12 55.86611177 -97.1715178
220.221187 2.778361475 -250
173.502293 -1.552508081e-05 63.0143782
184.534871 155.9606365 -250
-2.955857781e-12 26.04430377 41.7251066
-2.955857781e-12 178.037269 -128.4534061
-1.1794768 -1.552508081e-05 206.4523565
-2.955857781e-12 239.6420844 5.0100506
82.233152 -1.552508081e-05 163.2649969
-2.955857781e-12 101.4871377 113.6257554
134.533356 -1.552508081e-05 -85.6617921
215.282354 -1.552508081e-05 -74.5978627
-2.955857781e-12 112.3089473 -144.8885814
142.255583 -1.552508081e-05 31.4180407
-2.955857781e-12 75.92359827 226.5699852
-2.955857781e-12 10.09263597 229.559531
-2.955857781e-12 214.8836267 -230.0816966
65.246274 -1.552508081e-05 55.9643112
227.235938 -1.552508081e-05 -240.5491246
101.269563 -1.552508081e-05 -193.8850332
27.019569 -1.552508081e-05 177.1920285
232.096158 -1.552508081e-05 107.8502981
-2.955857781e-12 28.23065607 -144.5822028
-2.955857781e-12 65.60885407 17.3416255
197.235812 -1.552508081e-05 158.2941382
103.274878 -1.552508081e-05 22.0501828
44.093372 -1.552508081e-05 -6.5453806
157.604693 221.4460584 -250
31.601065 -1.552508081e-05 246.5776433
59.228401 191.1478211 -250
220.549992 -1.552508081e-05 -141.3967989
8.215614 -1.552508081e-05 196.1055017
229.95052 -1.552508081e-05 -100.4535589
103.435156 -1.552508081e-05 176.823894
145.332828 -1.552508081e-05 -32.1154437
114.958487 -1.552508081e-05 -233.595938
180.56049 -1.552508081e-05 -116.6573167
124.778346 -1.552508081e-05 64.0636487
211.41151 -1.552508081e-05 -95.2780647
62.197788 24.21719817 -250
-2.955857781e-12 51.13703837 143.702255
-2.955857781e-12 190.4304012 -205.1163829
8.128343 166.3957164 -250
-2.955857781e-12 83.81235997 99.7859187
197.741274 -1.552508081e-05 182.4550447
113.542168 39.08724977 -250
-2.955857781e-12 112.2567773 136.2308296
203.766905 139.1182104 -250
-2.955857781e-12 89.78152247 191.1793133
-2.955857781e-12 100.8655408 140.9597968
148.295419 100.5958057 -250
35.137814 -1.552508081e-05 -122.3779097
15.63956 -1.552508081e-05 -142.3154414
105.124919 -1.552508081e-05 -135.6992413
-2.955857781e-12 145.1561439 -168.4841565
50.63856 -1.552508081e-05 -248.7154002
186.977612 -1.769507725 -250
66.092819 -1.552508081e-05 224.7616152
104.729462 126.9421048 -250
-2.955857781e-12 127.7734644 131.2190106
-2.955857781e-12 233.6538741 -170.5334501
-2.955857781e-12 182.8439543 -155.7639182
242.214932 -0.7928972251 -250
117.79817 -1.552508081e-05 -119.9557438
135.515926 -1.552508081e-05 54.1786635
-2.955857781e-12 9.023631175 56.9578462
141.545652 -1.552508081e-05 -138.0879703
22.701954 140.8597894 -250
234.862239 -1.552508081e-05 39.5969473
114.551313 191.6401844 -250
-2.955857781e-12 237.6500244 -92.7634982
71.792917 249.0831552 -250
224.334233 -1.552508081e-05 8.840066
-2.955857781e-12 48.61996107 218.3528558
153.331168 -1.552508081e-05 56.294526
30.838847 -1.552508081e-05 -153.3386749
187.859621 -1.552508081e-05 -174.618077
9.250888 -1.552508081e-05 168.9788906
-2.955857781e-12 109.5442628 -237.5253142
178.296825 -1.552508081e-05 -190.3859045
-1.3360583 209.9792335 -250
24.198705 -1.552508081e-05 223.8651286
-2.955857781e-12 127.2907308 -131.4233024
25.859864 -1.552508081e-05 56.2812106
126.991199 -1.552508081e-05 81.1891894
194.14893 -1.552508081e-05 68.5821988
136.0577 -1.552508081e-05 240.8402463
164.430908 -1.552508081e-05 120.6501092
173.24311 -1.552508081e-05 -135.1954153
-2.955857781e-12 10.45060957 -120.5309921
227.341613 -1.552508081e-05 224.1403257
99.26292 -1.552508081e-05 205.1387897
48.885809 85.30478457 -250
192.405706 -1.552508081e-05 89.3154312
54.045327 -1.552508081e-05 114.0737614
202.17897 -1.552508081e-05 -131.0028308
145.52266 -1.552508081e-05 203.8285117
-2.955857781e-12 210.5733838 87.830602
183.99308 -1.552508081e-05 238.3829582
122.904925 -1.552508081e-05 -5.5429992
220.64282 187.8135606 -250
77.083574 86.24240767 -250
-2.955857781e-12 164.9639922 -170.0087658
-2.955857781e-12 211.912168 217.5562838
-2.955857781e-12 121.2474948 106.6240549
122.296874 -1.552508081e-05 38.8513941
151.862968 -1.552508081e-05 -100.7340224
-2.955857781e-12 142.6393125 180.3803078
103.953655 -1.552508081e-05 -71.7889764
71.820815 191.739701 -250
52.076312 -1.552508081e-05 40.2818827
214.519123 -1.552508081e-05 102.1879215
-2.955857781e-12 172.9391562 233.6693841
237.030974 219.0120288 -250
-2.955857781e-12 15.87050327 -87.6943924
68.142305 0.2868356749 -250
221.888011 -1.552508081e-05 169.7472006
143.19097 -1.552508081e-05 -95.7553775
22.032603 -1.552508081e-05 -218.2054677
-2.955857781e-12 194.2855707 -127.3840178
-2.955857781e-12 13.73540177 -109.6855645
92.106696 -1.552508081e-05 224.6948874
125.855159 -1.552508081e-05 18.6187347
153.366375 120.6155371 -250
174.420588 133.8128065 -250
-2.955857781e-12 44.57254877 -35.996743
-2.955857781e-12 81.75228007 23.7384631
-2.955857781e-12 182.4005608 -143.1399746
172.200862 -1.552508081e-05 -212.1486739
-2.955857781e-12 112.65256 -62.0835518
194.635203 -1.552508081e-05 29.03696
129.568576 50.90345187 -250
-2.955857781e-12 70.61600317 -236.7761438
-2.955857781e-12 125.3584812 -159.7927608
140.169982 -1.552508081e-05 106.3254215
106.131172 -1.552508081e-05 190.7661779
-2.955857781e-12 62.54529587 55.8729354
17.55112 -1.552508081e-05 2.6000345
-2.955857781e-12 213.4304358 -109.4985024
106.690404 160.0652554 -250
-2.955857781e-12 141.1348489 -102.0919066
122.776918 160.1094979 -250
-2.955857781e-12 243.1057577 92.1426957
5.832062 220.0454929 -250
-2.955857781e-12 10.48822777 143.3314871
52.13308 -1.552508081e-05 191.5396712
-2.955857781e-12 93.23210777 121.9379487
139.669335 -1.552508081e-05 -54.6867829
252.025508 -1.552508081e-05 97.8452925
-2.955857781e-12 197.2257888 -224.6420847
-2.955857781e-12 71.27136037 -25.7086715
139.508055 -1.552508081e-05 167.061648
43.530995 182.9909195 -250
63.619419 -1.552508081e-05 -53.4652673
-2.955857781e-12 241.289156 209.3161132
168.059785 -1.552508081e-05 1.2909905
240.759385 -1.552508081e-05 193.2451724
-2.955857781e-12 10.47686047 -176.2591024
122.100952 18.24492897 -250
-2.955857781e-12 104.886669 -204.1722069
-2.955857781e-12 157.5240307 -45.1689881
55.641116 -1.552508081e-05 -33.1962032
26.890946 73.14474317 -250
89.097569 -1.552508081e-05 -225.7324867
53.565032 -1.552508081e-05 -207.8892557
-2.955857781e-12 207.965091 238.7514178
210.984503 75.96107347 -250
101.255818 -1.552508081e-05 129.5250715
160.627798 -1.552508081e-05 146.3244782
200.724982 -1.552508081e-05 -175.9907518
153.215752 -1.552508081e-05 -59.9098153
-2.955857781e-12 112.5516068 41.0859623
243.910251 170.1169246 -250
190.99828 -1.552508081e-05 -212.7964526
-2.955857781e-12 232.913152 54.9213715
194.442798 -1.552508081e-05 206.6064635
-2.955857781e-12 223.2337334 -176.510858
-2.955857781e-12 181.0638617 37.168375
-2.955857781e-12 145.209064 -2.0552802
242.902356 -1.552508081e-05 -27.6717673
-2.955857781e-12 0.5397628749 -220.4514145
-2.955857781e-12 133.0540221 -139.5583832
186.65284 -1.552508081e-05 166.1138695
43.097126 -1.552508081e-05 207.121159
-2.955857781e-12 37.83449097 -89.8046441
206.064633 209.8954449 -250
248.69754 219.8754951 -250
7.202476 -1.552508081e-05 120.7400664
105.692929 -1.552508081e-05 -167.1647391
-2.955857781e-12 77.38947967 -82.7299195
17.198213 23.85997777 -250
-2.955857781e-12 180.9086565 168.5526008
-2.955857781e-12 181.4981071 3.3063432
233.057916 -1.552508081e-05 -232.7528648
246.696907 -1.552508081e-05 161.3612367
-2.955857781e-12 8.947449275 -154.5333454
71.438407 123.1949713 -250
165.445897 -1.552508081e-05 172.4377557
174.478404 -1.552508081e-05 204.7060716
21.014051 -1.552508081e-05 202.8419555
-2.955857781e-12 147.3314807 61.9934723
-2.955857781e-12 201.3375434 -154.4772353
35.006781 -1.552508081e-05 -192.3845235
-2.955857781e-12 66.91212447 -70.630506
22.292687 -1.552508081e-05 -165.3498316
-2.955857781e-12 67.21607957 129.8319147
119.260183 -1.552508081e-05 -24.017529
-2.955857781e-12 22.13893817 -4.5888167
91.728965 42.90758447 -250
101.244855 -1.552508081e-05 -208.9607256
-2.955857781e-12 84.80209057 6.9426882
154.706028 -1.552508081e-05 197.7519965
-2.955857781e-12 161.0706357 208.8147597
26.418217 -1.552508081e-05 149.9322348
71.68875 -1.552508081e-05 -221.8419539
-2.955857781e-12 103.6837613 62.4415418
50.120773 -1.552508081e-05 -220.894617
-2.955857781e-12 161.9522134 5.1095561
91.699941 88.86104537 -250
-2.955857781e-12 6.941340075 177.4821534
198.568335 -1.552508081e-05 -192.6743431
131.171732 -1.552508081e-05 -210.1423651
-2.955857781e-12 51.50942017 119.3843751
171.16703 -1.552508081e-05 -65.83989
207.076439 -1.552508081e-05 241.3733029
138.192024 -1.552508081e-05 -40.0512296
34.418803 -1.552508081e-05 -242.4632958
-2.955857781e-12 4.546323975 72.3030173
-2.955857781e-12 159.5809793 159.2597979
