# .PCD v0.7 - Point Cloud Data file format
VERSION 0.7
FIELDS x y z
SIZE 4 4 4
TYPE F F F
COUNT 1 1 1
WIDTH 1216
HEIGHT 1
VIEWPOINT 0 0 0 1 0 0 0
POINTS 1216
DATA ascii
-187.7981641 14.90424087 3.193179055e-11
166.1106535 -1.552502215e-05 82.7910052
-248.9950472 196.7897947 38.07225393
-91.05753209 130.0642884 3.193179055e-11
-5.345561691 -1.552502215e-05 16.96528817
-222.6717022 27.59934967 3.193179055e-11
-128.7094213 -1.552502215e-05 161.3251674
-248.9950472 32.50474847 76.8258891
240.8116297 -1.552502215e-05 73.5227993
-248.9950472 248.001065 24.93298366
252.3988812 24.86849457 3.193179055e-11
248.9950651 84.56898027 69.4761986
-238.2802638 -1.552502215e-05 70.3440398
55.75630971 -1.552502215e-05 167.5540545
-169.7426901 -1.552502215e-05 53.63813425
-196.5865937 -1.552502215e-05 145.5517297
-65.86390539 -1.552502215e-05 180.6891429
173.1948925 178.6049527 3.193179055e-11
-100.153867 -0.931085125 3.193179055e-11
-269.3922345 210.4760788 3.193179055e-11
242.2730214 -1.552502215e-05 187.3794602
119.0282284 181.9162135 3.193179055e-11
103.2670293 141.1441725 3.193179055e-11
-248.9950472 62.98935547 205.9282008
130.5305273 -1.784064825 3.193179055e-11
248.9950651 75.45390957 247.6213194
-272.3849241 -1.552502215e-05 215.8934764
-139.2902972 -1.552502215e-05 27.56515459
-272.7815758 61.26219157 3.193179055e-11
3.767733709 -1.552502215e-05 166.0950841
-270.8996688 28.38462077 3.193179055e-11
-244.1797718 -1.552502215e-05 118.816268
-150.8472916 -1.552502215e-05 132.6260264
262.1314736 -1.552502215e-05 101.8464551
-248.9950472 174.4527199 137.1346324
-114.3540745 100.023034 3.193179055e-11
81.08787491 -1.552502215e-05 181.9024325
59.10391981 174.6199553 3.193179055e-11
-131.6792293 215.3549953 3.193179055e-11
-248.9950472 179.0087118 106.5108655
-53.07390099 31.19535497 3.193179055e-11
248.9950651 100.5165451 183.6677654
-248.9950472 152.5148159 57.94772759
248.9950651 122.8414152 60.5363635
81.15421681 -1.552502215e-05 217.3847996
248.9950651 67.82424767 103.4710785
248.9950651 69.16892517 146.7042775
248.9950651 34.67818187 149.3618011
38.90620931 74.00421207 3.193179055e-11
248.9950651 112.4061903 218.4105149
248.9950651 228.4332386 226.3091803
-136.080345 -1.552502215e-05 220.4608845
29.15623611 -1.552502215e-05 215.5748661
248.9950651 209.5641049 118.8870873
-63.53575129 -1.552502215e-05 221.0286262
248.9950651 27.98976007 64.6048269
-42.74257189 112.9572562 3.193179055e-11
-248.9950472 53.69707017 156.5379312
-215.3755451 118.0085501 3.193179055e-11
174.8402607 -1.552502215e-05 132.5694087
93.09214631 78.95970347 3.193179055e-11
-248.9950472 124.4596285 204.2432102
55.20351871 -1.552502215e-05 139.7785248
-138.4059974 151.1696381 3.193179055e-11
132.7008326 -1.552502215e-05 216.3498916
248.9950651 190.638009 174.8814456
-244.0585459 76.84221727 3.193179055e-11
243.6231738 114.4221227 3.193179055e-11
87.08801871 242.5450429 3.193179055e-11
248.9950651 131.0948454 109.0679662
79.09692401 -1.552502215e-05 122.0413035
-248.9950472 13.49070787 148.9387867
53.96211011 -1.552502215e-05 227.7277731
31.14209371 -1.552502215e-05 179.6590538
-211.4192981 -1.552502215e-05 118.5404322
-248.9950472 29.07565557 209.5570564
-248.9950472 148.1540734 184.2130555
248.9950651 20.72098057 204.6689913
-164.9133336 190.4061814 3.193179055e-11
248.9950651 21.96990387 122.0351814
118.4003711 217.475003 3.193179055e-11
265.1638683 132.876364 3.193179055e-11
248.9950651 131.1199533 164.0160547
104.9335327 26.33290727 3.193179055e-11
-154.1053786 126.955345 3.193179055e-11
-11.85942109 -1.552502215e-05 50.73115739
-92.70734659 45.75316067 3.193179055e-11
7.004297809 -1.552502215e-05 71.7644148
186.15001 121.2021807 3.193179055e-11
-248.9950472 210.2116126 66.0136528
248.9950651 187.5071838 68.4722745
111.9114147 -1.552502215e-05 144.6672309
248.9950651 142.5364472 78.9498824
263.1539554 189.869288 3.193179055e-11
-162.7764116 -1.552502215e-05 230.3545573
-195.3172553 -1.552502215e-05 21.66580689
-248.9950472 96.37234047 168.0466534
109.3191991 -1.552502215e-05 56.58744828
-216.7505004 63.10566667 3.193179055e-11
179.0710765 47.15195967 3.193179055e-11
-157.8080453 -1.602726625 3.193179055e-11
167.3674997 -1.552502215e-05 25.66207855
-248.9950472 23.89326727 109.7740624
248.9950651 152.5855995 199.6339072
-241.7633266 -1.552502215e-05 4.26262188
-248.9950472 157.2403515 92.4912489
267.5311942 77.83487177 3.193179055e-11
248.9950651 154.0999474 30.95552719
-248.9950472 65.36875817 123.5992282
67.25905161 -1.552502215e-05 72.5977281
37.40719791 -1.552502215e-05 90.4063683
248.9950651 132.0400703 251.9604822
-181.5883506 -1.552502215e-05 182.0439514
198.0618205 248.0164866 3.193179055e-11
8.574270909 -1.552502215e-05 129.3087564
-68.54792619 -1.552502215e-05 95.3617059
-248.9950472 98.40055157 39.58292785
-110.812224 187.2250713 3.193179055e-11
238.2004991 57.90547317 3.193179055e-11
68.72203481 95.01524447 3.193179055e-11
248.9950651 177.6128155 236.3787129
162.5042522 218.2586031 3.193179055e-11
-248.9950472 127.6032867 117.5416627
-121.8839349 64.62741337 3.193179055e-11
75.00462661 -1.552502215e-05 19.61569107
-169.5205146 48.80672877 3.193179055e-11
4.545667409 -1.552502215e-05 230.5230589
181.3883428 72.21359737 3.193179055e-11
158.0369272 88.56540977 3.193179055e-11
248.9950651 0.342796575 9.752154
248.9950651 62.63127337 48.68588832
-251.6608465 157.5794705 3.193179055e-11
145.1179754 -1.552502215e-05 52.16237672
-166.0711296 245.1766287 3.193179055e-11
-37.26626399 -1.552502215e-05 129.3554408
196.9743596 1.109925075 3.193179055e-11
248.9950651 205.267418 214.4510586
226.2629704 -1.552502215e-05 22.81244641
70.73843601 150.5117227 3.193179055e-11
-24.22973419 192.1568628 3.193179055e-11
-45.43788399 -1.552502215e-05 67.8476941
248.9950651 248.9274809 18.50990505
216.7497992 216.390902 3.193179055e-11
-248.9950472 46.35023117 33.23645844
161.9569953 26.10569377 3.193179055e-11
-248.9950472 145.7605193 21.64903
-272.8408605 -1.552502215e-05 71.0524414
22.93310811 125.4113644 3.193179055e-11
40.79159021 231.906898 3.193179055e-11
130.2103955 52.61453017 3.193179055e-11
135.0213728 -1.552502215e-05 128.0574426
248.9950651 215.7397049 160.0249019
-7.632852091 163.4792565 3.193179055e-11
151.4794917 135.3420139 3.193179055e-11
150.7471006 -1.552502215e-05 236.0323477
-16.48388939 -1.552502215e-05 105.7246105
33.41020701 168.7160685 3.193179055e-11
-92.48679699 -1.552502215e-05 140.2128537
-248.9950472 151.4462247 146.6262217
-35.49010599 -1.552502215e-05 18.53999754
-150.0934117 -1.552502215e-05 180.5626115
150.9157593 171.4755515 3.193179055e-11
-248.9950472 77.33765357 82.4700027
251.3216957 232.6715687 3.193179055e-11
-194.3625461 -1.552502215e-05 101.8025552
248.9950651 13.03301307 158.982014
39.62171801 12.99402777 3.193179055e-11
242.8730456 141.8728966 3.193179055e-11
166.114326 -1.552502215e-05 186.858713
-267.0488103 -1.552502215e-05 153.818187
-246.185284 -1.552502215e-05 235.798572
71.28514711 201.3720403 3.193179055e-11
-247.6635953 -1.552502215e-05 26.30461924
248.9950651 49.38107927 167.6253917
-100.7877888 -1.552502215e-05 67.4510422
83.23388831 53.79957797 3.193179055e-11
248.9950651 210.0087428 71.3057771
-248.9950472 11.69236287 192.4065121
-248.9950472 203.7696068 191.5350671
-248.9950472 222.6669531 29.05653868
248.9950651 30.80505087 251.480307
220.7891048 36.56727757 3.193179055e-11
125.943577 -1.552502215e-05 101.9743759
-115.5850251 -1.552502215e-05 211.2397537
-35.83590139 226.7685997 3.193179055e-11
-248.9950472 233.7589367 5.45477196
-92.00452969 101.2363946 3.193179055e-11
-248.9950472 200.1714015 15.98739012
248.9950651 152.0660109 154.2707802
-248.9950472 75.23785607 224.5607662
-248.9950472 17.00202067 60.7406182
248.9950651 179.3955818 46.29664266
-90.94932989 -1.552502215e-05 94.4449212
21.12484621 92.20896317 3.193179055e-11
239.8394534 169.862327 3.193179055e-11
248.9950651 219.5522193 97.7339177
-243.8848727 100.5530528 3.193179055e-11
-41.43208169 142.2058704 3.193179055e-11
-247.1587104 21.00332557 3.193179055e-11
201.7056453 138.0209567 3.193179055e-11
28.74711331 190.3061424 3.193179055e-11
-183.2745696 177.3108414 3.193179055e-11
248.9950651 106.9204097 23.19251032
84.36455661 -1.552502215e-05 99.9889882
-160.633373 -1.552502215e-05 252.2113717
248.9950651 62.89552597 220.722241
-248.9950472 134.3120517 231.4099981
236.1328314 -1.552502215e-05 245.3229858
-220.162708 160.053328 3.193179055e-11
208.1058262 79.03065927 3.193179055e-11
-196.2661528 -1.552502215e-05 74.5394425
248.9950651 225.1294761 55.59020704
-152.1849467 208.116145 3.193179055e-11
113.6759369 160.8784038 3.193179055e-11
-248.9950472 109.8919518 77.5118166
-133.5602187 82.83592917 3.193179055e-11
-189.6594287 204.8415927 3.193179055e-11
44.50329601 126.5309017 3.193179055e-11
-248.9950472 90.57629007 188.9871261
-221.886234 -1.552502215e-05 203.1773585
248.9950651 92.92931987 231.6032091
210.7294778 -1.552502215e-05 112.0148619
-271.7493025 -1.552502215e-05 31.20836664
-248.9950472 230.0888215 127.8873807
-270.181113 111.4101722 3.193179055e-11
248.9950651 181.4396672 111.9153278
-88.86337869 156.5658716 3.193179055e-11
78.95494601 7.618197175 3.193179055e-11
-53.33457909 91.69760747 3.193179055e-11
-75.58499239 -1.017249025 3.193179055e-11
-167.7675674 70.08698217 3.193179055e-11
60.38666461 223.4247163 3.193179055e-11
-76.32691979 85.18889987 3.193179055e-11
248.9950651 44.61242327 17.27152111
-248.9950472 231.5397672 229.886913
-141.4277219 43.38152657 3.193179055e-11
-13.42500509 -1.552502215e-05 192.2170684
184.8816949 -1.552502215e-05 72.7680899
248.9950651 250.4037093 153.4570431
248.9950651 90.02903137 91.1463665
248.9950651 199.633318 24.22291205
-61.47779609 -1.552502215e-05 118.9892933
-117.3222455 -1.552502215e-05 18.72601664
-66.41908639 126.4088701 3.193179055e-11
240.0121022 -1.552502215e-05 43.58497875
-174.5495044 104.3067925 3.193179055e-11
248.9950651 236.3798163 191.8835067
-248.9950472 33.02414527 160.6728833
-14.28260949 114.1210312 3.193179055e-11
-184.5278687 -1.552502215e-05 223.0188689
250.7048846 -1.552502215e-05 122.1173976
-44.31790409 -1.552502215e-05 167.6632289
-219.1991545 204.4628239 3.193179055e-11
-115.4815711 14.97240687 3.193179055e-11
-76.70936179 -1.552502215e-05 160.693194
-134.919647 -1.552502215e-05 85.9402733
-248.9950472 226.4484799 198.0241515
3.729467309 11.95643267 3.193179055e-11
-198.8367312 98.68016587 3.193179055e-11
248.9950651 32.78832607 221.6359668
-85.16085809 -1.552502215e-05 234.5031603
-7.989394291 74.91628027 3.193179055e-11
-151.3852217 230.4826295 3.193179055e-11
192.3022507 -1.552502215e-05 49.61459991
248.9950651 172.6467244 151.6176633
192.3329218 -1.552502215e-05 247.2973987
248.9950651 226.2185285 250.9704881
-61.34687819 -1.552502215e-05 49.82530966
2.658620009 129.5455769 3.193179055e-11
248.9950651 69.74472047 197.5784283
197.0386725 159.927503 3.193179055e-11
146.1000929 -1.552502215e-05 89.0550464
-196.1438596 65.31896257 3.193179055e-11
50.17344401 -1.552502215e-05 47.78210937
-150.7956728 -1.552502215e-05 45.5175507
216.0848252 101.7109805 3.193179055e-11
248.9950651 114.2651595 120.8932634
-248.9950472 159.6291713 233.8690118
-271.7691407 -1.552502215e-05 109.6966231
170.2339825 -1.552502215e-05 111.941662
141.0943398 106.4771211 3.193179055e-11
-248.9950472 77.33693957 50.86042646
-105.6547833 -1.552502215e-05 193.3206259
-248.9950472 97.03754317 230.473999
-212.5551299 -1.552502215e-05 161.6611828
-248.9950472 230.0570074 82.2923304
-248.9950472 188.8864098 56.8162585
-55.27129919 169.0558679 3.193179055e-11
-149.6542313 -1.552502215e-05 205.3697956
-248.9950472 186.0790899 221.91946
-248.9950472 115.9234508 222.954651
-265.1749591 -1.552502215e-05 195.505914
-123.542949 -1.552502215e-05 109.7589732
-120.6863533 -1.552502215e-05 57.69114892
-248.9950472 35.58038977 51.72696792
148.5551669 44.33952257 3.193179055e-11
54.43037951 53.88690957 3.193179055e-11
58.79351191 19.06105817 3.193179055e-11
-210.4392561 -1.552502215e-05 234.6851109
-65.87666169 -1.552502215e-05 200.7883904
150.0754926 252.3900355 3.193179055e-11
161.2073973 -1.552502215e-05 166.3924537
-252.8903105 127.0533646 3.193179055e-11
248.9950651 47.65377177 95.7821857
-35.49711189 65.91394917 3.193179055e-11
-70.45933099 47.07672167 3.193179055e-11
120.8374435 -1.552502215e-05 188.3934238
-33.19783449 -1.552502215e-05 148.9027193
256.4178602 -1.552502215e-05 58.40853208
248.9950651 150.8609001 123.6178886
112.4664752 74.17424667 3.193179055e-11
30.12181771 51.51931527 3.193179055e-11
-248.9950472 61.39517647 14.16208746
86.92649971 189.0850985 3.193179055e-11
-248.9950472 77.18083937 106.0581896
-248.9950472 167.0229549 190.4352753
248.9950651 17.36054537 19.91328939
248.9950651 169.1270624 75.8128659
-89.23027169 -1.552502215e-05 45.76298974
239.161011 250.1507329 3.193179055e-11
94.25145211 -1.552502215e-05 135.7968666
248.9950651 42.69431247 51.42066693
-165.9000625 -1.552502215e-05 102.3053313
226.695711 -1.552502215e-05 125.541191
-248.9950472 47.20301157 114.6515282
-248.9950472 51.17059397 187.5599905
249.2526344 -1.552502215e-05 216.3013109
262.6819872 -1.552502215e-05 147.638673
215.6635749 -1.552502215e-05 231.37691
106.946948 197.3908644 3.193179055e-11
-248.9950472 121.3740678 98.2767097
179.7805674 13.83440797 3.193179055e-11
142.0561083 -1.552502215e-05 15.72711292
174.4029098 -1.552502215e-05 232.2108796
-248.9950472 101.556696 120.992079
-91.98313279 182.1756081 3.193179055e-11
235.2092465 -1.552502215e-05 163.6640265
-134.3041581 19.96787597 3.193179055e-11
-248.9950472 56.22797367 79.3828821
248.9950651 16.45888937 48.83385371
-63.01416859 251.5453647 3.193179055e-11
-134.1392822 -1.552502215e-05 142.6308659
-218.2503504 -1.552502215e-05 72.1091447
206.9407965 -1.552502215e-05 204.9171732
-86.74260299 233.2874048 3.193179055e-11
-110.7089996 136.1891749 3.193179055e-11
-175.3684397 29.83060957 3.193179055e-11
-255.7911623 191.5157114 3.193179055e-11
120.7571115 -1.552502215e-05 233.9048607
15.94648911 -1.552502215e-05 18.92204431
201.0310792 -1.552502215e-05 161.1992327
248.9950651 161.7468549 218.4617507
184.0394875 194.6301746 3.193179055e-11
-132.3773818 107.1808636 3.193179055e-11
270.002308 32.86063637 3.193179055e-11
-248.9950472 250.5017843 161.3761624
115.0203683 98.59113657 3.193179055e-11
248.9950651 117.5130695 41.98071138
-248.9950472 176.2674513 16.09385868
155.5606758 -1.552502215e-05 132.2527126
248.9950651 103.1516004 64.3656458
-248.9950472 197.8880266 94.227509
-90.91749839 -1.552502215e-05 24.4905877
-127.9193203 167.3866328 3.193179055e-11
224.6394622 181.5898716 3.193179055e-11
-248.9950472 96.35620047 20.50009825
-248.9950472 197.199739 115.4150319
0.9537359086 206.3437898 3.193179055e-11
-21.36743539 -1.552502215e-05 235.0572531
267.1252614 -1.552502215e-05 188.3495732
125.8388206 199.7891804 3.193179055e-11
-90.10322289 -1.552502215e-05 182.3602138
-235.8562514 117.7454807 3.193179055e-11
-119.4047866 251.957615 3.193179055e-11
114.0863816 -1.552502215e-05 87.2075802
-248.9950472 241.8041272 98.9453936
-182.3037148 142.0762294 3.193179055e-11
248.9950651 102.1428689 202.5935482
-32.19054449 -0.518613025 3.193179055e-11
-212.5383107 238.6968637 3.193179055e-11
249.0323202 213.9983316 3.193179055e-11
272.2272439 234.3146383 3.193179055e-11
-272.8771727 158.2036835 3.193179055e-11
-255.6408721 -1.552502215e-05 137.8242764
248.9950651 88.85880977 160.7810828
-248.9950472 133.2008179 161.4870863
-114.141724 -1.552502215e-05 175.9983033
251.3827191 97.42886487 3.193179055e-11
92.28336241 -1.552502215e-05 166.9769403
248.9950651 176.9156874 187.5194872
-3.188101691 49.66762017 3.193179055e-11
-228.3218424 -1.552502215e-05 54.64065035
271.5501538 -1.552502215e-05 228.5174783
227.9220459 -1.552502215e-05 86.811697
248.9950651 250.0869871 126.1208234
266.8079132 -1.552502215e-05 20.9138113
-248.9950472 183.4861144 155.3052639
210.052015 -1.552502215e-05 13.92590953
103.7176226 234.4803329 3.193179055e-11
-65.72741409 -1.552502215e-05 15.59049958
248.9950651 113.9679534 170.8051403
-153.4936894 175.2631636 3.193179055e-11
-268.0455409 231.5086661 3.193179055e-11
99.20480831 -1.552502215e-05 221.3687155
-248.9950472 31.65967487 252.291999
3.676845009 231.5294621 3.193179055e-11
-100.3871408 -1.552502215e-05 113.6989303
-74.16261979 -1.552502215e-05 141.0471148
248.9950651 158.8758737 11.44242962
-248.9950472 68.03295307 145.1412141
254.399594 -1.552502215e-05 246.5544482
-97.73063769 19.42640707 3.193179055e-11
233.1478768 224.5137205 3.193179055e-11
124.9905096 -1.552502215e-05 157.4127011
-242.5721045 -1.552502215e-05 96.4080169
-64.87820759 198.7533382 3.193179055e-11
90.03163951 127.1910684 3.193179055e-11
112.4178169 -1.552502215e-05 251.7944903
154.9212592 153.6934182 3.193179055e-11
-248.9950472 107.5216525 195.5707077
-248.9950472 144.3615093 40.76902899
-248.9950472 202.3740462 229.9137222
-248.9950472 131.0166699 64.0136434
248.9950651 91.21865167 141.018847
248.9950651 4.083094475 90.1561342
23.56376421 -1.552502215e-05 102.6004716
248.9950651 230.9072966 120.0211615
97.37422831 -1.552502215e-05 189.9339763
-51.48197309 235.7088915 3.193179055e-11
-202.6123439 28.82390977 3.193179055e-11
-248.9950472 223.4861441 169.7284176
-248.9950472 102.3052848 148.2881045
-188.7826018 232.3090786 3.193179055e-11
-235.513279 -1.552502215e-05 190.7487773
146.857035 7.951617675 3.193179055e-11
124.1286298 236.6691109 3.193179055e-11
151.6757116 -1.552502215e-05 72.0407652
-266.4796692 -1.552502215e-05 232.7946389
54.87558101 83.66838677 3.193179055e-11
37.37956281 -1.552502215e-05 162.910564
-248.9950472 152.8918002 166.5116219
-111.620867 -1.552502215e-05 148.1319271
-194.1804581 -1.761083925 3.193179055e-11
-248.9950472 214.7981209 118.2890091
239.9082711 40.20174237 3.193179055e-11
-248.9950472 42.63057037 221.0581375
-224.9524213 -1.552502215e-05 107.0299339
201.7934083 199.9546493 3.193179055e-11
-248.9950472 171.2659994 54.81835446
-168.5222318 -1.552502215e-05 133.6730641
225.8054133 -1.552502215e-05 193.8152693
-248.9950472 37.38219357 98.3605179
-36.25259349 36.59172517 3.193179055e-11
-4.850123791 94.62102827 3.193179055e-11
-248.9950472 107.9797856 56.23003088
-248.9950472 21.27391247 90.4076007
-124.3073579 -1.552502215e-05 234.9089633
-248.9950472 14.17343197 129.8592707
-146.2173029 -1.552502215e-05 161.2999391
179.4868797 -1.552502215e-05 10.69679991
248.9950651 144.7563069 45.73828076
-211.7388601 43.98564057 3.193179055e-11
-248.9950472 210.0712998 149.7720587
248.9950651 18.79421747 139.2187542
-25.18230589 244.0633156 3.193179055e-11
248.9950651 217.1481844 37.98625835
-248.9950472 165.1453807 74.6149831
-248.9950472 167.1794654 215.6813421
-178.6010896 -1.552502215e-05 38.61473389
77.60574451 227.9147005 3.193179055e-11
-122.429901 200.5910018 3.193179055e-11
19.49075541 -1.552502215e-05 59.61618469
-248.9950472 212.0876859 46.34717513
248.9950651 58.59248727 251.8226617
21.11577551 -1.552502215e-05 84.3691523
211.1676192 -1.552502215e-05 94.6534832
-104.7068785 58.30064247 3.193179055e-11
90.81938851 -1.552502215e-05 47.64717912
27.42727111 142.1538524 3.193179055e-11
61.24897111 -1.552502215e-05 32.61625026
-59.55362089 -1.552502215e-05 238.1337203
82.35192311 -1.552502215e-05 64.1210617
-6.341860891 -1.552502215e-05 34.22981052
248.9950651 86.67916447 194.2340482
248.9950651 232.876735 155.2329172
-212.9784967 -1.552502215e-05 16.69420046
-254.5614077 -1.552502215e-05 181.0803988
266.0795949 14.17203677 3.193179055e-11
252.6071056 69.34913647 3.193179055e-11
-153.4241752 -1.552502215e-05 75.852983
-248.9950472 240.2560108 67.0288579
-39.76546669 184.9232435 3.193179055e-11
85.52228381 98.39516687 3.193179055e-11
118.5119418 10.41841807 3.193179055e-11
192.8024357 57.38624407 3.193179055e-11
248.9950651 176.0762308 95.6607829
-248.9950472 63.18784707 39.6337264
224.0666804 -1.552502215e-05 69.9934647
-101.1625724 249.1973256 3.193179055e-11
-234.7127037 196.8396088 3.193179055e-11
255.3030301 -1.552502215e-05 176.003458
29.76855891 -1.552502215e-05 198.4950718
33.36293861 -1.552502215e-05 44.77120914
2.858920509 -1.552502215e-05 212.2419338
248.9950651 49.77761767 33.53759963
248.9950651 120.2585384 143.3464691
-173.3431684 5.449837375 3.193179055e-11
146.2748763 212.9976075 3.193179055e-11
55.16831271 -1.552502215e-05 117.8176346
42.88207641 -1.552502215e-05 10.53215452
82.54958051 -1.552502215e-05 248.352242
-222.3884248 183.6873052 3.193179055e-11
248.9950651 146.5018567 183.7698942
272.0173904 175.3793701 3.193179055e-11
234.7515259 -1.552502215e-05 228.406248
248.9950651 247.0576792 228.0010737
248.9950651 225.7383108 178.6790775
133.7667436 173.5499044 3.193179055e-11
-25.49355849 -1.552502215e-05 32.18934486
212.178502 22.03863137 3.193179055e-11
-14.74337859 -1.552502215e-05 122.5021382
-264.043964 46.84644017 3.193179055e-11
248.9950651 20.46189147 80.0813248
-41.84864569 13.26981547 3.193179055e-11
248.9950651 188.9594113 223.9515809
248.9950651 195.0531765 191.1176423
248.9950651 72.14756917 87.2169252
-118.6739942 -1.552502215e-05 76.6252532
-96.12772909 -1.552502215e-05 248.5196823
-153.9344949 -1.552502215e-05 16.3463302
-190.2001033 -1.552502215e-05 196.3809351
-207.8578776 -1.552502215e-05 35.22586605
124.3498729 -1.552502215e-05 49.29866115
248.9950651 141.7523751 96.2147649
77.28418281 -1.552502215e-05 201.1498679
-34.26634969 -1.552502215e-05 187.3038831
-256.2633444 -1.552502215e-05 72.9221613
10.09227891 -1.552502215e-05 145.9185054
-53.07940479 219.1068837 3.193179055e-11
55.52392781 -1.552502215e-05 85.8103116
115.2624238 -1.552502215e-05 25.45146953
202.9362113 226.7176535 3.193179055e-11
147.6726318 -1.552502215e-05 31.39225321
-248.9950472 211.2396672 82.6183307
177.3216689 104.1401103 3.193179055e-11
272.985723 -1.552502215e-05 49.31538529
-185.3958318 -1.552502215e-05 157.7937779
248.9950651 193.7402191 123.8531343
-248.9950472 251.405818 190.0062398
-115.2288682 217.3075007 3.193179055e-11
-248.9950472 148.6391474 75.7434097
248.9950651 110.3130163 104.8335272
176.3801974 -1.552502215e-05 95.7183587
222.237332 -1.552502215e-05 142.4452544
-161.7989161 -1.552502215e-05 192.1710646
-248.9950472 218.3782891 13.14146366
248.9950651 233.7563755 208.1145756
115.4503148 40.30963457 3.193179055e-11
-248.9950472 48.06155387 251.3091049
-62.89969229 -1.552502215e-05 75.1827234
149.0739134 -1.552502215e-05 217.6934759
124.2339741 141.1483694 3.193179055e-11
207.704948 -1.552502215e-05 33.87393793
-154.0850419 146.2803613 3.193179055e-11
-107.4842941 114.938692 3.193179055e-11
-240.3596131 -1.552502215e-05 152.5473259
-226.082237 103.6281149 3.193179055e-11
-134.5328 -1.552502215e-05 43.41795389
248.9950651 83.71782517 107.4981499
68.87389801 -1.552502215e-05 234.4551615
255.5184649 174.4732625 3.193179055e-11
248.9950651 0.650151975 26.08888666
160.7183012 234.493306 3.193179055e-11
203.305016 44.36885087 3.193179055e-11
248.9950651 39.62213107 79.0589439
88.33116201 152.8984815 3.193179055e-11
-248.9950472 45.78451607 170.8501191
259.6698462 117.3737224 3.193179055e-11
248.9950651 216.3864083 142.7070022
-248.9950472 39.68738237 18.35565595
-248.9950472 74.35407567 160.1686627
-199.0728014 167.7987056 3.193179055e-11
-248.9950472 132.4263424 188.4352549
248.9950651 141.5732742 62.7429133
-248.9950472 46.25280007 203.0225384
167.5208058 138.2527433 3.193179055e-11
-86.52996339 60.73332097 3.193179055e-11
-28.22921839 -1.552502215e-05 205.674992
230.7650993 131.1211104 3.193179055e-11
-10.09843749 -1.552502215e-05 85.9848467
-248.9950472 249.6432247 2.48122588
-230.6531355 226.2483759 3.193179055e-11
248.9950651 207.0597971 176.1482195
62.86484221 -1.552502215e-05 183.9757836
-33.42256349 126.106912 3.193179055e-11
248.9950651 126.8002539 87.5730998
248.9950651 37.22568517 108.2771411
-248.9950472 79.16931687 200.3424651
141.9836282 64.24095707 3.193179055e-11
248.9950651 34.25901687 193.9085333
58.78616471 113.8301833 3.193179055e-11
228.4118549 70.81752797 3.193179055e-11
248.9950651 58.06446347 184.5968547
-248.9950472 182.043656 123.0428449
-248.9950472 248.8620171 225.8874436
248.9950651 242.8321202 61.7662697
-205.6751187 130.710548 3.193179055e-11
109.5686069 121.2029756 3.193179055e-11
-248.9950472 182.2149695 185.5439477
6.728862509 81.71728917 3.193179055e-11
-248.9950472 141.1655483 107.1537054
248.9950651 15.81211227 107.3408053
-253.2599933 -1.552502215e-05 162.0182144
-248.9950472 14.70742477 249.9319427
-197.0380026 -1.552502215e-05 170.1323224
-210.8915587 15.26258247 3.193179055e-11
181.4622588 233.1405931 3.193179055e-11
-248.9950472 141.6208782 202.157466
35.95919391 -1.552502215e-05 229.9138991
-248.9950472 173.2795764 90.9329471
-182.6305155 160.5371304 3.193179055e-11
-248.9950472 234.0955362 249.4225906
-134.7652682 -1.552502215e-05 120.9148956
-134.6255 -1.552502215e-05 177.3170852
-13.83155649 -1.552502215e-05 3.64873529
-248.9950472 14.85810077 216.4257391
-143.3934976 -1.552502215e-05 235.2255161
-199.967022 114.5818174 3.193179055e-11
-248.9950472 231.1928692 214.0685614
248.9950651 75.10598747 230.7176664
50.58981741 -1.552502215e-05 249.0386282
91.24714141 17.47319527 3.193179055e-11
248.9950651 150.1992098 238.1100755
-248.9950472 53.32803227 133.7267151
15.52965331 -1.552502215e-05 181.5349682
93.17730931 36.75207347 3.193179055e-11
248.9950651 15.39053317 248.5018845
-0.3537239914 -1.552502215e-05 183.4112755
-28.51709969 102.335512 3.193179055e-11
-248.9950472 120.093052 30.68457254
99.90574911 -1.552502215e-05 16.83776503
99.79806201 -1.552502215e-05 97.4362173
248.9950651 54.35882627 140.3912199
67.22131841 44.70331397 3.193179055e-11
-48.00911999 -1.552502215e-05 222.7338287
-79.57463439 207.3311904 3.193179055e-11
-248.9950472 80.90690907 122.0414
240.1311831 14.97600167 3.193179055e-11
-112.307788 76.95457827 3.193179055e-11
41.08953741 -1.552502215e-05 133.145027
103.4360978 181.805113 3.193179055e-11
139.8765313 -1.552502215e-05 170.9072547
-125.0029665 142.3758328 3.193179055e-11
248.9950651 250.0395272 85.5558964
56.53926651 137.1340425 3.193179055e-11
182.8761256 -1.552502215e-05 204.2672116
113.2825406 -1.552502215e-05 127.7599252
-101.264135 -1.552502215e-05 217.2650758
-51.18136119 -1.552502215e-05 30.70266021
-248.9950472 15.94632747 164.249011
71.25346801 -1.552502215e-05 167.8912294
-147.1694991 113.0865084 3.193179055e-11
4.359695209 -1.552502215e-05 113.7251829
-248.9950472 14.52491387 45.46141104
73.26966661 -1.552502215e-05 138.3138179
-198.5195432 83.16732137 3.193179055e-11
-8.731192891 21.09014647 3.193179055e-11
126.9414673 68.78283187 3.193179055e-11
201.5320678 119.8152853 3.193179055e-11
248.9950651 177.8748665 166.1377015
65.94548721 -1.552502215e-05 214.7871302
196.3714344 -1.552502215e-05 87.7220442
248.9950651 191.3604429 246.536396
10.18879701 -1.552502215e-05 244.8374226
-259.4788276 -1.552502215e-05 120.3955242
-71.24600449 162.5039932 3.193179055e-11
-127.5520857 230.1635929 3.193179055e-11
56.82857771 -1.552502215e-05 16.97823401
-183.8763707 -1.552502215e-05 133.8313968
-46.57070309 -1.552502215e-05 83.1281622
-248.9950472 131.4101502 247.3963302
208.4725722 -1.552502215e-05 57.56592001
248.9950651 4.711104475 201.7543248
-183.7689548 -1.552502215e-05 59.73185766
248.9950651 107.5753206 134.8045571
-254.3533663 172.6316624 3.193179055e-11
-207.5504708 -1.552502215e-05 196.8192513
-30.59640509 -1.552502215e-05 250.9296612
-248.9950472 191.0666983 172.9903928
-196.4349961 -1.552502215e-05 121.4326194
158.4372075 184.7414194 3.193179055e-11
-25.57952039 -1.552502215e-05 90.147153
-248.9950472 244.9213476 136.0786397
216.4656897 194.4431684 3.193179055e-11
248.9950651 86.19880807 178.4728972
-18.24591959 174.3831057 3.193179055e-11
-232.6615016 -1.552502215e-05 84.8712722
18.79371121 -1.552502215e-05 163.7471543
159.6653114 -1.552502215e-05 43.64493658
-230.7369877 -1.552502215e-05 127.1001795
26.26746301 110.597886 3.193179055e-11
248.9950651 86.69861667 54.4431614
-120.3691896 -1.552502215e-05 251.9714491
-229.5897564 -1.552502215e-05 216.8156108
-87.65836989 -1.552502215e-05 9.71064335
-262.8606967 72.68929957 3.193179055e-11
-248.9950472 197.2347322 249.2399858
-248.9950472 143.34494 4.29247847
23.59392511 -1.552502215e-05 130.6469825
165.6739177 -1.552502215e-05 151.9908514
-248.9950472 70.90774337 68.8328037
248.9950651 11.50018197 64.6530674
73.64011801 170.7799516 3.193179055e-11
-248.9950472 37.78917197 235.561146
18.13396611 42.47459037 3.193179055e-11
-211.2465543 -1.552502215e-05 249.8472745
-57.09186759 -1.552502215e-05 133.3222063
-174.9057743 201.5696228 3.193179055e-11
248.9950651 135.010398 210.9860044
248.9950651 75.67546877 120.1289324
-90.30584439 -1.552502215e-05 78.1280849
248.9950651 197.6619807 109.4203675
191.3279035 -1.552502215e-05 126.666677
248.9950651 234.3854373 99.3050596
19.57051751 236.4238628 3.193179055e-11
-213.6889369 -1.552502215e-05 133.2816296
78.19431141 79.64252037 3.193179055e-11
192.6088892 -1.552502215e-05 148.0747448
45.31233341 -1.552502215e-05 184.2886181
-255.8946613 217.0480635 3.193179055e-11
214.9747437 -1.852979825 3.193179055e-11
248.9950651 154.9578932 137.9203504
-248.9950472 230.5643092 108.6831486
248.9950651 33.00949117 236.7816974
59.85025271 191.8905429 3.193179055e-11
-20.81401999 152.1130718 3.193179055e-11
-99.74495559 88.56942797 3.193179055e-11
-21.80710619 33.26512627 3.193179055e-11
16.74129221 23.75000707 3.193179055e-11
102.0218745 -1.552502215e-05 155.8206344
236.3940189 -1.552502215e-05 0.63005912
-166.5677307 118.9697258 3.193179055e-11
248.9950651 174.0214202 60.0703242
74.48482931 250.2498039 3.193179055e-11
-248.9950472 182.0305496 38.46733204
-232.0937954 -1.552502215e-05 231.4259977
5.193341209 -1.552502215e-05 56.0068012
-10.93199329 -1.552502215e-05 164.9503863
44.71792721 -1.552502215e-05 103.2053713
-255.0252178 -1.552502215e-05 105.1384885
42.76450021 185.7644366 3.193179055e-11
-230.1898966 -1.552502215e-05 13.38118434
248.9950651 145.3596124 17.29057574
-230.8523695 58.86006647 3.193179055e-11
248.9950651 110.8976761 233.0365186
-163.8878703 -1.552502215e-05 117.8666987
258.0024273 145.7104099 3.193179055e-11
-156.1177526 84.32954417 3.193179055e-11
-248.9950472 104.5134141 181.1965632
31.08238031 213.4600244 3.193179055e-11
-78.19893559 -1.552502215e-05 221.0474106
248.9950651 12.14794667 182.7266086
-248.9950472 158.5357981 14.53457191
248.9950651 222.7593398 80.4166297
46.25029581 215.9408245 3.193179055e-11
231.2230021 -1.552502215e-05 55.24438025
-233.5177071 11.26215147 3.193179055e-11
-39.11574089 80.05190687 3.193179055e-11
127.2833501 -1.552502215e-05 14.1021418
39.08548351 246.378835 3.193179055e-11
-7.120969591 144.3370991 3.193179055e-11
-151.4061798 -1.552502215e-05 90.2779187
-26.41864679 -1.552502215e-05 50.49359474
-188.4352219 -1.552502215e-05 86.8095328
42.12201881 -1.552502215e-05 149.1553834
221.8346461 86.31838217 3.193179055e-11
-153.9705079 -1.552502215e-05 60.3202853
19.57122691 162.0951923 3.193179055e-11
-248.9950472 101.2695501 247.7672437
11.15188711 195.538194 3.193179055e-11
125.894817 -1.552502215e-05 140.8763942
-32.14523869 212.7658652 3.193179055e-11
-228.6267515 -1.552502215e-05 161.0322227
-248.9950472 167.783122 149.9820106
248.9950651 250.5540816 188.955429
248.9950651 164.5382882 116.7345985
80.62341141 139.9630242 3.193179055e-11
190.4319085 175.7975405 3.193179055e-11
108.5526324 -1.552502215e-05 73.8623338
113.6071721 -1.552502215e-05 8.72355967
-149.7933991 -1.552502215e-05 147.0326677
-248.9950472 114.9722274 155.220803
248.9950651 185.0219175 135.3621014
-248.9950472 75.99102757 239.1972945
-248.9950472 87.76525107 92.4024367
60.00656121 -1.552502215e-05 60.159416
-97.23761329 144.8712244 3.193179055e-11
-256.0469535 4.316544775 3.193179055e-11
-70.96181449 32.72047207 3.193179055e-11
-248.9950472 188.7706302 135.9962286
-272.0664771 -1.552502215e-05 52.5377175
-226.089299 44.18925617 3.193179055e-11
248.9950651 48.18696917 216.678709
-28.06380249 -1.552502215e-05 117.1792374
-248.9950472 80.15589177 14.36975319
103.6657214 88.63104637 3.193179055e-11
248.9950651 196.5807764 158.6941198
178.5599742 -1.552502215e-05 179.7767673
-251.0453197 61.66247847 3.193179055e-11
-158.2593527 -1.552502215e-05 33.31425017
-49.21337039 -1.552502215e-05 13.37259248
-73.51457109 66.58614697 3.193179055e-11
-49.20258389 154.1717191 3.193179055e-11
-220.9176019 -1.552502215e-05 175.2920526
135.5651663 -1.552502215e-05 113.8148525
-248.9950472 117.3000103 133.7931919
248.7818282 -1.552502215e-05 106.7742083
-19.57193539 -1.552502215e-05 17.12623472
248.9950651 30.94862587 163.7650005
58.57765641 157.8633303 3.193179055e-11
248.9950651 132.8444901 179.9161575
-248.9950472 201.3233428 215.5549214
248.9950651 169.1559204 32.12437731
-248.9950472 147.5334917 131.2118379
-179.965771 -1.552502215e-05 104.0348409
248.9950651 60.05264667 158.3075772
248.9950651 207.2665748 230.0720819
-248.9950472 67.19125917 192.4062942
-248.9950472 217.0109221 136.9037384
-238.2848803 152.9859172 3.193179055e-11
135.9330746 -1.552502215e-05 199.7762717
-248.9950472 199.1357647 75.320494
254.4183911 -1.552502215e-05 159.5430036
248.9950651 35.69287087 126.4073966
-9.889505091 197.2954672 3.193179055e-11
-71.87660579 240.5553481 3.193179055e-11
-249.6511789 -1.552502215e-05 251.084038
79.16471851 -1.552502215e-05 80.1784194
248.9950651 115.1269058 186.3167546
248.9950651 205.6967995 132.7624194
170.7066084 160.7330979 3.193179055e-11
-68.21117869 10.99822407 3.193179055e-11
-182.5564311 69.06443217 3.193179055e-11
72.62871351 -1.552502215e-05 109.0981826
175.3997154 205.7564322 3.193179055e-11
-84.02389899 193.7918455 3.193179055e-11
198.8019486 -1.552502215e-05 234.134027
248.9950651 199.8458037 59.99544437
41.96240781 -1.552502215e-05 205.5229276
-231.9336515 83.96735717 3.193179055e-11
114.9369999 -1.552502215e-05 221.1030125
248.9950651 62.21348957 237.8534905
230.7366684 -1.552502215e-05 179.3498717
-183.723808 217.5576442 3.193179055e-11
-18.50622209 65.63163267 3.193179055e-11
-269.1140351 195.9059442 3.193179055e-11
173.4685153 -1.552502215e-05 38.89812451
-272.2643271 14.43362967 3.193179055e-11
225.3964986 51.48700827 3.193179055e-11
273.3639394 200.5023799 3.193179055e-11
248.9950651 51.17659037 109.4428731
-258.4053608 -1.552502215e-05 216.3666555
248.9950651 236.0434422 238.0369019
167.8584713 75.73270867 3.193179055e-11
24.25374381 72.27001667 3.193179055e-11
248.9950651 126.6077834 229.2282536
155.8809039 -1.552502215e-05 17.70335312
248.9950651 192.9574857 5.38184184
221.9917789 -1.552502215e-05 156.3829265
248.9950651 185.5473465 85.4590202
248.9950651 162.2059529 188.0040207
33.73472531 -0.01066322502 3.193179055e-11
-223.9544025 128.9510762 3.193179055e-11
-248.9950472 0.790391175 58.24965129
257.1244236 40.75966837 3.193179055e-11
19.35094741 -1.552502215e-05 117.119108
-248.9950472 113.0674143 42.65981316
262.393021 224.3097596 3.193179055e-11
-159.4625408 -1.552502215e-05 215.1808072
248.9950651 219.723374 238.7161147
-257.5448241 105.7160887 3.193179055e-11
-248.9950472 214.0676312 237.346632
-143.6652254 165.4966912 3.193179055e-11
14.63445521 -1.552502215e-05 219.542041
-210.1933047 -1.552502215e-05 148.010597
-248.9950472 172.9601853 228.2345581
134.4265904 -1.552502215e-05 235.8509553
248.9950651 31.14662517 20.65429641
84.35671131 114.605939 3.193179055e-11
-236.227681 30.19563997 3.193179055e-11
120.1674053 -1.552502215e-05 65.7350768
254.5213876 -1.552502215e-05 74.9903539
-58.55652339 113.5687945 3.193179055e-11
183.3273322 247.8703229 3.193179055e-11
-248.9950472 129.0358632 15.96603225
-248.9950472 110.3866557 210.3627183
-183.2699247 -1.552502215e-05 15.07799609
135.5384702 133.3760925 3.193179055e-11
248.9950651 230.2588873 41.99360495
-212.168118 174.5517641 3.193179055e-11
174.195655 60.57046657 3.193179055e-11
-124.3781423 185.440191 3.193179055e-11
248.9950651 115.1955743 73.3952695
-248.9950472 133.9345309 129.7599571
-87.27441719 33.21532807 3.193179055e-11
-248.9950472 234.3144935 21.91491513
257.7435364 -1.552502215e-05 226.9871682
248.9950651 252.4167797 139.9824691
-185.7601584 -1.552502215e-05 209.2573824
263.5519189 -1.552502215e-05 117.6048398
-248.9950472 3.499279675 84.2536071
-89.48306149 -1.552502215e-05 155.4565006
-116.2832423 -1.298443725 3.193179055e-11
-191.7900641 -1.552502215e-05 35.42013625
-270.114404 124.9796951 3.193179055e-11
-256.0073384 -1.552502215e-05 12.86051251
-232.4720374 165.7406856 3.193179055e-11
-248.9950472 111.7216531 112.0628042
204.5989075 92.62690007 3.193179055e-11
161.748312 -1.552502215e-05 95.5755794
53.38043481 69.23796997 3.193179055e-11
248.9950651 19.75391247 218.1974063
-222.1549309 -1.552502215e-05 188.9670492
-248.9950472 138.9165247 53.08591789
-99.21949299 194.4094797 3.193179055e-11
-144.365563 -0.873583225 3.193179055e-11
-248.9950472 174.8629888 251.9357485
-107.525318 174.1881734 3.193179055e-11
-253.0637009 -1.552502215e-05 201.5240282
239.097378 183.273903 3.193179055e-11
158.4117662 -1.552502215e-05 249.3632219
172.8536068 -1.552502215e-05 66.7981738
248.9950651 115.532925 201.7549535
204.7120328 -1.552502215e-05 175.8978541
248.9950651 221.1042277 212.5631273
-248.9950472 29.41519497 195.4596055
-128.0372165 -1.552502215e-05 206.3007495
95.70699941 -1.552502215e-05 63.0891381
181.2420762 133.657438 3.193179055e-11
-248.9950472 97.07427497 82.7989998
-78.91417909 -1.552502215e-05 175.0472577
-7.620808091 -1.552502215e-05 236.0193502
30.09036341 23.58279857 3.193179055e-11
-77.19661279 -1.552502215e-05 55.56467185
195.1007512 70.53084017 3.193179055e-11
-17.36542059 228.6033415 3.193179055e-11
-248.9950472 223.1619078 70.8699526
-248.9950472 18.47710437 77.3759994
-248.9950472 41.88856147 67.366906
-248.9950472 162.3479328 203.2648386
-152.1980414 244.8452734 3.193179055e-11
-234.3619086 -1.552502215e-05 42.77647442
248.9950651 129.9194808 49.27220261
-248.9950472 27.26572837 148.6841731
214.0536208 250.2401485 3.193179055e-11
68.18178111 -1.552502215e-05 154.3573282
216.727464 135.4992999 3.193179055e-11
248.9950651 60.00885947 8.6751666
-104.3418521 -1.552502215e-05 54.68750344
-150.6657586 -1.552502215e-05 117.421203
156.546931 -1.552502215e-05 58.81667024
-248.9950472 56.75769617 222.6598905
239.4951961 -1.552502215e-05 129.0804803
-39.16992089 93.24479897 3.193179055e-11
248.9950651 127.306779 122.8669745
-248.9950472 45.05035447 86.3838799
-182.517928 243.9028409 3.193179055e-11
-152.4114398 194.5130831 3.193179055e-11
248.9950651 68.56358547 60.4305624
-248.9950472 29.30662967 224.7943565
248.9950651 242.6977238 30.08061364
-41.84670179 -1.552502215e-05 117.0455945
-248.9950472 29.33743607 10.27281809
257.1419398 3.610213575 3.193179055e-11
162.2098255 39.21095267 3.193179055e-11
272.3026643 -1.552502215e-05 156.9615951
-105.2778936 35.63154407 3.193179055e-11
-5.638079691 -1.552502215e-05 68.3439514
248.9950651 76.36923367 135.7710364
85.77261141 -1.552502215e-05 229.6325138
-45.16999539 -1.552502215e-05 143.6117133
-46.12049379 57.06581757 3.193179055e-11
-204.4011997 198.9612304 3.193179055e-11
-139.3043987 138.1521524 3.193179055e-11
-3.141619791 -1.552502215e-05 145.4163386
189.1343471 -1.552502215e-05 36.97248053
-97.26357419 220.1166697 3.193179055e-11
248.9950651 6.807749475 146.9365492
-248.9950472 128.9008806 216.4651949
-62.63968429 82.61962287 3.193179055e-11
-248.9950472 165.0398092 122.397989
44.96947881 -1.552502215e-05 218.1490471
233.8611834 211.5642425 3.193179055e-11
-206.8014759 -1.552502215e-05 82.1072883
-74.26769759 -1.552502215e-05 81.4167957
-248.9950472 201.5445739 54.08713779
92.75368221 200.925076 3.193179055e-11
225.9550561 112.729945 3.193179055e-11
253.7505318 246.6905952 3.193179055e-11
248.9950651 74.46045127 43.44985922
-248.9950472 33.09092817 33.78943203
209.8462177 158.1111271 3.193179055e-11
-171.2295056 -1.552502215e-05 172.1983244
-0.9623210914 -1.552502215e-05 4.60043329
74.36422301 -1.552502215e-05 34.69477771
21.68336721 -1.552502215e-05 31.4740707
-37.97085479 -1.552502215e-05 214.6392684
176.942006 84.87704177 3.193179055e-11
-72.31427869 -1.552502215e-05 111.0481267
-54.71850719 131.8070035 3.193179055e-11
45.50674901 161.7327401 3.193179055e-11
-248.9950472 60.87923787 246.9663187
248.9950651 119.8247693 156.2079062
-248.9950472 40.10833787 149.4577616
-248.9950472 88.18934747 3.51319685
160.8483254 126.5296603 3.193179055e-11
-84.59718109 142.5087509 3.193179055e-11
171.2948083 -1.552502215e-05 198.6837311
-272.4523074 -1.552502215e-05 87.7371549
149.0311969 28.83904317 3.193179055e-11
-58.66301019 -1.552502215e-05 62.3863656
-165.7760442 -1.552502215e-05 146.2173708
-141.3868499 -1.552502215e-05 12.46043521
-1.322017891 218.9758055 3.193179055e-11
-5.128589891 62.34782957 3.193179055e-11
248.9950651 99.68419517 220.0520372
-137.1332773 55.46812207 3.193179055e-11
250.6218431 84.63116937 3.193179055e-11
152.6168326 -1.552502215e-05 175.9082564
-105.5173333 -1.552502215e-05 13.7342732
-177.3756347 -1.552502215e-05 70.8331706
248.9950651 212.072833 21.17956412
237.8454924 -1.552502215e-05 94.9375786
92.99653201 -1.552502215e-05 201.9593754
248.9950651 239.4430327 250.3725166
43.76489271 89.99781397 3.193179055e-11
207.3655956 -1.552502215e-05 148.531331
-213.4541596 101.704816 3.193179055e-11
248.9950651 157.2237831 80.4447636
-248.9950472 211.5173776 201.6852153
248.9950651 197.6216055 204.2345381
-106.2816901 -1.552502215e-05 79.667012
-192.4339578 134.32225 3.193179055e-11
-248.9950472 159.0071327 246.9899458
248.9950651 56.93403887 87.0317639
-216.3111382 -1.552502215e-05 44.77640542
-248.9950472 188.1820179 11.56672496
139.3238525 76.70331977 3.193179055e-11
-224.9862551 147.6163558 3.193179055e-11
-34.14467749 -1.552502215e-05 80.3525736
70.30893941 215.46586 3.193179055e-11
8.766213609 95.18577687 3.193179055e-11
4.663181009 248.273148 3.193179055e-11
224.552321 167.3426897 3.193179055e-11
248.9950651 130.2564313 36.56654989
-248.9950472 139.0241694 172.7593326
248.9950651 101.648448 114.0918411
99.12540481 67.80736927 3.193179055e-11
248.9950651 234.4867665 167.8080915
-175.359441 -1.552502215e-05 231.8801868
-57.08851999 -1.552502215e-05 100.7628206
141.5408905 183.5464881 3.193179055e-11
-61.61320099 -1.552502215e-05 163.0466449
-223.6391715 74.40631307 3.193179055e-11
49.17241651 -1.552502215e-05 68.8193229
225.7036156 -1.552502215e-05 10.17493394
-142.6471998 -1.552502215e-05 194.2884314
-248.9950472 120.6217424 84.1711889
-248.9950472 156.649483 43.67530835
259.6418683 -1.552502215e-05 206.6037692
-185.2811845 193.0145998 3.193179055e-11
248.9950651 104.2642808 51.80672312
-190.5604469 -1.552502215e-05 234.0886889
31.76586221 85.47825377 3.193179055e-11
-248.9950472 176.3676806 66.7769371
248.9950651 142.7579552 168.7964058
-109.5386921 201.6068615 3.193179055e-11
-266.9114195 -1.552502215e-05 19.11883265
238.7996148 153.7482355 3.193179055e-11
-210.6548929 79.22902237 3.193179055e-11
123.6933743 27.05767217 3.193179055e-11
-183.1127869 50.49649357 3.193179055e-11
-248.9950472 106.0034676 28.51483837
-255.2981044 37.87689187 3.193179055e-11
70.00388761 57.58416647 3.193179055e-11
151.9991021 225.0637332 3.193179055e-11
248.9950651 251.8525152 73.1741577
-71.60539689 -1.552502215e-05 126.333656
248.9950651 41.40168897 66.6808791
-19.55586519 -1.552502215e-05 151.2026604
-230.167199 -1.856076625 3.193179055e-11
248.9950651 219.3825409 111.1644712
248.9950651 195.5633086 234.7902598
-260.4445248 18.41578037 3.193179055e-11
158.9681968 199.3335919 3.193179055e-11
-36.13096779 49.60004707 3.193179055e-11
160.0279774 -1.552502215e-05 223.5861564
120.9676783 -1.552502215e-05 113.367238
152.8421591 -1.552502215e-05 205.8497935
196.9990289 14.12100177 3.193179055e-11
118.7536356 -1.552502215e-05 38.20298109
-58.03969279 46.84495147 3.193179055e-11
248.9950651 164.8655337 206.4410509
266.3342943 90.19408987 3.193179055e-11
-262.1080291 150.8795278 3.193179055e-11
222.7031067 -1.552502215e-05 243.3551229
267.2857466 -1.552502215e-05 83.9962533
23.88595821 12.84655167 3.193179055e-11
248.9950651 50.92100487 0.24026282
21.56194881 174.3285637 3.193179055e-11
55.91825051 -1.552502215e-05 152.5996728
-248.9950472 220.2705222 58.79218149
28.47784961 -1.552502215e-05 73.4485539
-55.39665249 -1.552502215e-05 207.3811085
-248.9950472 112.007931 167.8227901
-248.9950472 198.129459 152.9909321
188.456586 36.94631527 3.193179055e-11
-32.16458869 -1.552502215e-05 229.041361
-121.1855517 -1.552502215e-05 30.73079226
243.5455283 129.5386497 3.193179055e-11
-122.6996076 52.31293357 3.193179055e-11
-46.96879129 70.53682497 3.193179055e-11
136.7032743 40.97959697 3.193179055e-11
255.3377689 -1.552502215e-05 191.9162165
-31.20952689 -1.552502215e-05 66.8556483
-32.66030269 155.4534893 3.193179055e-11
-157.5662293 45.89398397 3.193179055e-11
-256.5644972 204.7643029 3.193179055e-11
248.9950651 161.9747898 234.5641398
72.24814271 112.4597514 3.193179055e-11
221.8982085 -1.552502215e-05 101.3162265
125.5866648 109.6744497 3.193179055e-11
-201.6949313 -1.552502215e-05 11.18951221
103.3107022 -1.552502215e-05 44.05998795
-56.63682509 -1.552502215e-05 192.7458096
-84.54559859 119.6906416 3.193179055e-11
-12.20492089 126.1863628 3.193179055e-11
-3.203206391 187.0471948 3.193179055e-11
248.9950651 207.9770098 86.1048687
-90.67936179 -1.552502215e-05 57.90170937
-102.152635 -1.552502215e-05 180.3136694
248.9950651 193.5729526 34.8230687
248.9950651 212.6545385 203.7613991
250.0432627 -1.552502215e-05 135.1946038
191.3419449 -1.552502215e-05 168.5983787
246.0725897 -1.552502215e-05 233.0311758
41.53583891 55.79060287 3.193179055e-11
-102.4022052 -1.552502215e-05 133.1328481
272.0101011 -1.552502215e-05 31.92974293
107.1163621 222.0516511 3.193179055e-11
199.1568793 -1.552502215e-05 115.7702926
125.729295 249.0557979 3.193179055e-11
-119.8549622 116.0759171 3.193179055e-11
66.37452881 9.557103275 3.193179055e-11
-165.370781 -1.552502215e-05 72.7421629
260.940259 201.8118129 3.193179055e-11
30.91384081 -1.552502215e-05 12.59063087
180.9546118 -1.552502215e-05 243.0801118
-248.9950472 252.232102 173.3836263
206.7782691 170.6434297 3.193179055e-11
-37.12612159 -1.552502215e-05 93.8493242
248.9950651 103.5258098 35.91144535
-137.2064416 94.38761407 3.193179055e-11
-248.9950472 75.76900697 132.9739661
39.15929631 137.3599231 3.193179055e-11
-248.9950472 147.6945403 237.7133471
271.1848524 120.9904743 3.193179055e-11
224.5440393 203.8973052 3.193179055e-11
-248.9950472 241.5789003 43.55703294
-45.59947439 -1.552502215e-05 55.79069741
-206.2106654 57.26694627 3.193179055e-11
270.9323336 143.4350103 3.193179055e-11
-248.9950472 59.06856467 167.3002654
-129.7399188 -1.552502215e-05 70.8381544
-53.58996669 19.18989517 3.193179055e-11
-138.7547503 234.4795931 3.193179055e-11
248.9950651 71.53317487 161.8002272
-248.9950472 20.21969777 181.5841714
143.2493415 144.0695547 3.193179055e-11
-248.9950472 220.4345475 187.64675
176.4920979 -1.552502215e-05 214.9779944
-248.9950472 239.5650716 191.8589412
248.9950651 16.39084947 31.85561173
-248.9950472 84.10188837 40.97343425
59.36445521 206.4327307 3.193179055e-11
248.9950651 95.19362447 80.3404957
-248.9950472 9.175094375 8.37085534
-248.9950472 65.63959017 86.7674856
132.8326282 -1.552502215e-05 57.73170173
-134.2630435 198.944333 3.193179055e-11
-248.9950472 11.96242197 109.9205627
-257.9149478 -1.552502215e-05 36.15080245
-176.4774438 -1.552502215e-05 249.3317333
-62.41435989 -1.552502215e-05 37.9512334
226.7419942 -1.552502215e-05 37.3690461
102.0853059 152.9995575 3.193179055e-11
-248.9950472 49.26369427 11.28195
-254.2712734 -1.552502215e-05 149.6477529
248.9950651 133.8876272 240.2095971
242.5701226 -1.552502215e-05 58.7900672
248.9950651 5.765290275 38.35305894
-19.04456449 -1.552502215e-05 63.8308831
-183.8750522 96.95863087 3.193179055e-11
248.9950651 36.02439647 7.21749202
248.9950651 59.07403497 206.3868116
49.27812371 6.132627775 3.193179055e-11
-217.7897643 -1.552502215e-05 217.4988103
-53.42976779 180.7248756 3.193179055e-11
248.9950651 53.02183687 57.15188535
-248.9950472 236.7839975 160.2792856
195.1882501 -1.552502215e-05 203.8192367
-114.7477774 -1.552502215e-05 226.9485917
-5.078536091 -1.552502215e-05 200.5553366
-50.18792079 103.8060343 3.193179055e-11
-144.9298747 32.11833257 3.193179055e-11
248.9950651 133.7714175 148.6423221
