# .PCD v0.7 - Point Cloud Data file format
VERSION 0.7
FIELDS x y z
SIZE 4 4 4
TYPE F F F
COUNT 1 1 1
WIDTH 1200
HEIGHT 1
VIEWPOINT 0 0 0 1 0 0 0
POINTS 1200
DATA ascii
-3.364579169e-05 -121.9442258 225.5968801
-3.364579169e-05 210.7903763 76.6000151
-3.364579169e-05 146.7080617 139.4713168
79.86235685 -225.2819597 118.4788582
248.8131582 137.1807945 3.890932021e-11
-3.364579169e-05 -102.5936849 31.65059732
177.0033438 -225.2819597 221.08424
-3.364579169e-05 -185.1736063 149.4577616
134.7370524 -154.5060112 3.890932021e-11
-2.000123446 -225.2819597 209.083392
231.1162995 191.6615595 3.890932021e-11
-3.364579169e-05 53.57810134 60.7452999
-3.364579169e-05 -180.5790601 177.0641822
184.7883525 164.1805624 3.890932021e-11
-3.364579169e-05 -206.6570675 30.68911702
235.7587666 -7.571633762 3.890932021e-11
70.09862115 57.72090514 3.890932021e-11
-3.364579169e-05 99.80033304 210.0773847
208.0577027 -100.6676148 3.890932021e-11
32.24451315 -162.1762775 3.890932021e-11
119.5343988 56.43148234 3.890932021e-11
134.6445498 -233.473822 3.890932021e-11
192.9716869 -142.1120353 3.890932021e-11
130.2138606 179.8493458 3.890932021e-11
103.9621454 85.11451594 3.890932021e-11
193.410266 -225.2819597 65.3914392
-1.432332646 225.2819441 207.6822668
-3.364579169e-05 -68.93997776 14.37110832
-3.364579169e-05 36.56381774 160.3111612
48.93201605 43.93216764 3.890932021e-11
45.75024105 -225.2819597 213.2285444
-3.364579169e-05 94.26406844 88.5247506
-3.364579169e-05 -15.82361926 199.8714645
-3.364579169e-05 116.8656639 150.9008631
183.1311082 -225.2819597 180.6891429
-3.364579169e-05 34.24756274 61.0962313
74.43454905 -225.2819597 135.5470567
-3.364579169e-05 -154.627337 103.38276
-3.364579169e-05 -88.31113456 206.4904463
126.7756948 -225.2819597 48.4873698
96.65397985 -166.7807808 3.890932021e-11
197.8136524 -225.2819597 30.70266021
-3.364579169e-05 -96.98472736 87.0290787
171.5701436 -249.4621399 3.890932021e-11
-3.364579169e-05 4.775063238 82.2923304
41.52972365 119.1577316 3.890932021e-11
-3.364579169e-05 -126.9884406 46.901277
-3.364579169e-05 201.863295 130.7891198
-3.364579169e-05 77.54403444 74.0356747
179.0966936 -225.2819597 48.11068513
182.8619144 52.53497264 3.890932021e-11
-3.364579169e-05 206.011169 40.6345717
-3.364579169e-05 186.4840195 204.6465482
148.4327657 -28.83512776 3.890932021e-11
38.15884545 73.03173974 3.890932021e-11
153.8401291 113.5960275 3.890932021e-11
-3.364579169e-05 -167.1557248 187.9964068
67.63129055 -86.72084736 3.890932021e-11
135.7136131 -94.86240696 3.890932021e-11
77.05521355 220.9009351 3.890932021e-11
231.0231269 80.30800184 3.890932021e-11
220.9595206 154.4972632 3.890932021e-11
-3.364579169e-05 -153.5308069 177.8575996
-3.364579169e-05 -204.0080317 90.4076007
-3.364579169e-05 161.5513357 107.7866146
-3.364579169e-05 -206.1720437 230.2295106
52.75040675 -225.2819597 106.1528795
78.33287215 97.45277464 3.890932021e-11
113.5811898 146.0292945 3.890932021e-11
-3.364579169e-05 182.1382087 149.7510806
139.8556012 94.76557654 3.890932021e-11
-3.364579169e-05 -18.23704456 57.97401625
-3.364579169e-05 26.09940184 16.19007985
137.2244925 -225.2819597 97.9992951
72.20602655 -51.05781036 3.890932021e-11
11.54550625 176.8225384 3.890932021e-11
-3.364579169e-05 131.3561678 195.6604304
-3.364579169e-05 -74.90464736 91.8682965
247.2993064 -103.1421168 3.890932021e-11
-3.364579169e-05 68.82875884 39.70615236
-3.364579169e-05 -43.25139456 38.46733204
-3.364579169e-05 -160.173361 127.5746479
-3.364579169e-05 169.4509418 50.37010488
103.0597852 -225.2819597 98.1825382
186.7922707 -196.0783136 3.890932021e-11
228.4864123 28.16605604 3.890932021e-11
-3.364579169e-05 122.1552099 16.05523119
114.4689835 98.05204344 3.890932021e-11
101.1852457 -225.2819597 15.9112139
-3.364579169e-05 49.27192924 117.3903841
-3.364579169e-05 159.0639396 207.3126869
-3.364579169e-05 -191.6728724 130.2351111
-3.364579169e-05 -50.41895536 251.9357485
-3.364579169e-05 -22.64614336 226.0294391
236.21236 -225.2819597 143.9446535
247.3861696 -225.2819597 234.294313
109.9422504 -240.3258409 3.890932021e-11
203.5312516 101.588611 3.890932021e-11
174.727316 -225.2819597 81.4167957
181.6488455 -2.212618562 3.890932021e-11
-3.364579169e-05 -90.27991076 119.8030233
226.6902322 -147.6738608 3.890932021e-11
53.58985875 -65.07313336 3.890932021e-11
38.83165255 -125.5888299 3.890932021e-11
-0.9418063458 -41.81719186 3.890932021e-11
128.5542696 126.7948598 3.890932021e-11
80.93910085 -249.5361204 3.890932021e-11
86.24788695 38.83821804 3.890932021e-11
-3.364579169e-05 -218.9300783 66.9467188
14.84663655 -249.0482818 3.890932021e-11
-3.364579169e-05 -0.1586999625 32.76359513
-3.364579169e-05 4.829763938 209.7042884
-3.364579169e-05 61.58983084 92.4721034
143.4776803 -225.2819597 13.7342732
-3.364579169e-05 -167.2610933 48.48497592
-2.050306146 -163.6194657 3.890932021e-11
146.7118874 -179.1193943 3.890932021e-11
-3.364579169e-05 -123.8250915 168.228201
-3.364579169e-05 -209.8802641 121.3928448
47.66229795 -245.3209062 3.890932021e-11
155.1748718 -225.2819597 140.357452
151.9589866 185.205079 3.890932021e-11
-3.364579169e-05 152.3445849 84.3441835
45.49453245 -225.2819597 69.8075923
-3.364579169e-05 163.749322 229.9793958
-3.364579169e-05 -121.3152337 2.61490798
205.2592752 225.2819441 -0.07692208996
8.575998054 -225.2819597 150.220922
60.48529355 -225.2819597 9.8765843
-1.340332946 153.0339024 3.890932021e-11
-3.364579169e-05 39.24044294 200.5294649
216.8304249 -225.2819597 229.041361
223.177693 139.1503134 3.890932021e-11
-3.364579169e-05 -131.6548897 185.5851109
151.5705135 -84.03711126 3.890932021e-11
100.359722 -225.2819597 227.2220857
191.7884297 -225.2819597 12.06635787
-3.364579169e-05 186.4412474 187.1340562
-1.569216046 -74.37015006 3.890932021e-11
248.8283463 209.7846178 3.890932021e-11
214.0036433 -225.2819597 166.4349259
179.2963135 179.3367958 3.890932021e-11
-3.364579169e-05 171.6390809 34.55602572
-3.364579169e-05 -43.54327306 150.6720434
150.5863648 154.0196284 3.890932021e-11
-3.364579169e-05 -139.4513064 18.96780832
11.99365225 -225.2819597 57.44846043
-3.364579169e-05 -105.1438994 108.8300289
26.56068275 -225.2819597 236.4611472
238.0630203 -225.2819597 164.9503863
-3.364579169e-05 -131.5591625 153.6879108
216.9796851 -35.70662276 3.890932021e-11
43.17938005 -225.2819597 123.4054705
-3.364579169e-05 20.90187894 236.8295983
-3.364579169e-05 72.17829784 212.3069307
-3.364579169e-05 95.83117584 54.72335957
209.7865539 82.75360034 3.890932021e-11
25.33435885 133.5624752 3.890932021e-11
156.3092558 -136.9560094 3.890932021e-11
236.8423084 -225.2819597 194.4206928
251.6445451 -225.2879757 3.890932021e-11
-3.364579169e-05 173.0995841 75.4508762
-3.364579169e-05 -210.7570303 45.46141104
-3.364579169e-05 -65.50703536 141.128745
127.1255553 39.74878964 3.890932021e-11
-3.364579169e-05 -99.24593466 181.5903597
57.34409865 -225.2819597 195.2397326
128.4955848 -225.2819597 19.01492654
113.7964969 -225.2819597 248.7186708
166.5721365 -156.7763376 3.890932021e-11
174.2490425 90.78409024 3.890932021e-11
-3.364579169e-05 83.02110194 159.7796733
189.0149833 -225.2819597 245.150144
91.84448345 177.7081568 3.890932021e-11
89.80861805 -75.80197996 3.890932021e-11
144.4193186 125.4194921 3.890932021e-11
239.2944808 -130.6748325 3.890932021e-11
-3.364579169e-05 -151.5549097 236.4836703
57.97922315 149.592956 3.890932021e-11
-3.364579169e-05 25.09858604 111.3571509
234.3699093 -58.35990936 3.890932021e-11
81.49254875 -225.2819597 15.56373533
216.9962792 -225.2819597 139.701124
238.7576967 -225.2819597 35.87194537
187.5516649 126.3086353 3.890932021e-11
160.6783519 79.04548684 3.890932021e-11
194.2765064 -93.47494066 3.890932021e-11
160.4264113 -230.0468132 3.890932021e-11
45.22442585 -203.3041052 3.890932021e-11
-0.3325564458 -225.2819597 244.549113
-3.364579169e-05 137.7630738 235.5757744
-3.364579169e-05 -7.977331262 251.9207906
-3.364579169e-05 -37.81663366 125.9726422
-3.364579169e-05 -162.9267337 205.7078095
-3.364579169e-05 -187.8997506 98.3605179
-3.364579169e-05 -104.8926851 247.8475495
-3.364579169e-05 85.78972124 21.69914815
-3.364579169e-05 196.812683 169.5405613
103.8839076 -92.74112956 3.890932021e-11
26.70682275 -225.2819597 1.6723448
174.6318249 107.2908949 3.890932021e-11
74.81150875 123.9764673 3.890932021e-11
-3.364579169e-05 5.282365038 108.6831486
-3.364579169e-05 -209.3356167 164.249011
-3.364579169e-05 -103.1373812 131.6387607
147.7308786 -225.2819597 217.2650758
207.2470015 -246.2733333 3.890932021e-11
8.634225254 -225.2819597 171.338822
90.57989195 210.2389302 3.890932021e-11
-3.364579169e-05 24.59317614 188.8278943
158.3156518 -225.2819597 57.90170937
82.67473775 -225.2819597 209.2967151
-3.364579169e-05 -52.22645536 108.833134
178.8922284 18.42570904 3.890932021e-11
21.14050935 -171.738503 3.890932021e-11
15.84274505 -225.2819597 200.2653363
123.4628072 -17.13617186 3.890932021e-11
59.17242915 -31.50381316 3.890932021e-11
82.92388395 19.89468454 3.890932021e-11
-3.364579169e-05 152.953082 181.4437038
83.49131185 -225.2819597 250.4440511
195.0836004 -225.2819597 216.0253515
46.10665365 101.9960397 3.890932021e-11
-3.364579169e-05 143.0209377 66.7046453
103.6837059 -10.36692316 3.890932021e-11
-3.364579169e-05 -77.58740386 237.7133471
219.3876737 108.0100804 3.890932021e-11
-3.364579169e-05 -84.90428456 149.7327569
-3.364579169e-05 206.6737695 3.05412109
-3.364579169e-05 115.2892655 126.2240798
-3.364579169e-05 -19.14478266 42.31646057
195.6767974 151.5583531 3.890932021e-11
119.8048527 -225.2819597 195.8884063
16.09161865 -225.2819597 137.7880565
-3.364579169e-05 -68.63246116 43.67530835
207.4514543 -225.2819597 92.8238937
110.9140514 -39.89419706 3.890932021e-11
213.1591122 1.486655538 3.890932021e-11
-3.364579169e-05 2.068966138 231.6872909
-3.364579169e-05 126.1935278 46.99675413
-3.364579169e-05 139.0729395 31.75821089
209.0271466 64.55303924 3.890932021e-11
142.250277 -225.2819597 149.9100791
225.5175128 -225.2819597 243.9738517
39.87470155 156.8109986 3.890932021e-11
169.138551 145.4419875 3.890932021e-11
117.1390894 215.9005774 3.890932021e-11
51.66706225 -225.2819597 241.168241
140.1751639 218.248715 3.890932021e-11
0.2904364542 30.93250544 3.890932021e-11
-3.364579169e-05 93.47962724 148.7516435
244.6607035 -161.35638 3.890932021e-11
-3.364579169e-05 -189.7015544 51.72696792
15.11335705 225.2819441 -1.56699859
124.438365 -225.2819597 175.7754793
216.791779 169.8225974 3.890932021e-11
8.693141554 -218.0848041 3.890932021e-11
154.5247116 3.289378638 3.890932021e-11
151.2643759 -205.8555371 3.890932021e-11
-3.364579169e-05 -194.0220506 200.5738624
191.903146 -225.2819597 133.3222063
-3.364579169e-05 -114.1515678 73.9487672
-3.364579169e-05 66.34454584 150.7040016
214.4019331 26.18308194 3.890932021e-11
-3.364579169e-05 -13.90739816 130.3295831
114.9028982 112.8245396 3.890932021e-11
229.4230782 -225.2819597 17.12623472
195.6252923 -72.99863606 3.890932021e-11
58.47272885 -235.1783167 3.890932021e-11
-3.364579169e-05 -128.2076692 82.7989998
112.2251116 3.711105938 3.890932021e-11
-3.364579169e-05 -75.59651836 166.6436856
66.43858245 -156.217512 3.890932021e-11
-3.364579169e-05 80.48826534 7.91786918
-3.364579169e-05 215.482243 179.6497713
49.09684445 -136.1425063 3.890932021e-11
-3.364579169e-05 39.19499004 45.58822252
249.1054982 -27.73379126 3.890932021e-11
102.9801977 -225.2819597 58.88559187
131.2448326 9.965582538 3.890932021e-11
229.4966299 209.531889 3.890932021e-11
-3.364579169e-05 199.995397 200.8604891
-3.364579169e-05 121.2299434 213.791238
-3.364579169e-05 165.035617 136.3851666
147.7581711 59.92502194 3.890932021e-11
-3.364579169e-05 -15.83740596 173.8951573
-3.364579169e-05 -215.6510595 219.7763247
230.278386 -195.7487935 3.890932021e-11
180.7838349 -214.2837201 3.890932021e-11
68.35637415 -225.2819597 87.6693869
180.8352617 200.8002642 3.890932021e-11
239.5068013 -225.2819597 60.468465
90.13978555 -225.2819597 147.9875515
-3.364579169e-05 48.50542094 167.4420166
213.9501967 -198.7991543 3.890932021e-11
115.4347949 -142.446015 3.890932021e-11
214.0619314 -225.3169986 3.890932021e-11
0.3681112542 -231.7778899 3.890932021e-11
-0.3737937458 225.2819441 106.9129391
104.8463526 -225.2819597 124.716918
238.8965761 -225.2819597 85.9848467
134.439891 71.26206544 3.890932021e-11
65.46971075 73.64273484 3.890932021e-11
-3.364579169e-05 -132.711985 246.5944038
-3.364579169e-05 -60.13656346 74.6149831
-3.364579169e-05 -51.70523586 122.9292538
217.7854867 -225.2819597 66.8556483
44.83489235 -225.2819597 55.67575786
-3.364579169e-05 144.6113094 114.8966803
233.529318 -242.9880149 3.890932021e-11
-3.364579169e-05 -96.24608096 15.96603225
166.0711319 -32.53550786 3.890932021e-11
-3.364579169e-05 148.8148709 158.0280025
84.69957775 -225.2819597 45.58161846
-3.364579169e-05 -75.13205016 60.8960832
31.65006165 -195.7093858 3.890932021e-11
44.86895005 -113.315375 3.890932021e-11
-3.364579169e-05 -15.31863646 148.7735983
-3.364579169e-05 -29.53331006 5.83927219
-3.364579169e-05 56.37649464 26.25362557
172.2680863 -225.2819597 123.8631001
171.6846345 40.57630054 3.890932021e-11
-3.364579169e-05 119.6523916 72.8376633
-3.364579169e-05 19.63940344 136.0786397
-3.364579169e-05 -147.3154911 30.78396624
-3.364579169e-05 171.9048883 121.8057581
208.307275 -66.37606296 3.890932021e-11
13.52854165 -122.3073668 3.890932021e-11
150.2177919 -225.2819597 165.3707121
71.29541245 -214.7005211 3.890932021e-11
-3.364579169e-05 34.25775554 146.99379
236.8349972 130.9207028 3.890932021e-11
239.8845105 163.1624163 3.890932021e-11
156.9706709 -225.2819597 27.62191516
-3.364579169e-05 211.8022753 194.3173537
-3.364579169e-05 216.300143 54.77107328
-3.364579169e-05 -101.4091957 145.1001195
203.2200191 195.1403475 3.890932021e-11
221.7034185 -236.3946596 3.890932021e-11
-3.364579169e-05 -68.30091886 103.5932283
-3.364579169e-05 214.9409032 160.9247388
106.1054832 -110.4779121 3.890932021e-11
39.36669565 55.39819754 3.890932021e-11
-3.364579169e-05 -82.36260436 13.88808682
162.7986531 175.9559733 3.890932021e-11
-2.180429446 -225.2819597 116.3529697
-3.364579169e-05 -39.06256236 93.7197316
20.98741325 -225.2819597 103.3988249
-3.364579169e-05 -114.3452244 198.2542776
14.85051675 65.59896774 3.890932021e-11
91.33203605 -28.72881716 3.890932021e-11
93.22321855 -127.5988552 3.890932021e-11
-3.364579169e-05 79.24448334 108.0469247
82.37948825 63.74661014 3.890932021e-11
-3.364579169e-05 -198.9216045 18.10764193
-3.364579169e-05 -206.8048398 77.3759994
-3.364579169e-05 -155.1748336 159.840574
236.3978338 17.37474744 3.890932021e-11
28.12224555 0.08508243752 3.890932021e-11
43.90877875 -5.321799662 3.890932021e-11
176.3761993 -225.2819597 95.4212836
165.4941907 -89.51340206 3.890932021e-11
-3.364579169e-05 -128.0347817 119.8366705
12.95291275 -94.66519356 3.890932021e-11
21.95739575 -225.2819597 81.4175387
174.2124208 133.1895167 3.890932021e-11
-3.364579169e-05 -55.83626516 16.31650044
25.35584205 -150.8756311 3.890932021e-11
188.0770799 -235.5896518 3.890932021e-11
130.4614544 165.5900933 3.890932021e-11
72.22895545 -225.2819597 166.6182147
243.88848 28.59297934 3.890932021e-11
10.50631555 50.97974374 3.890932021e-11
-3.364579169e-05 -109.6208814 168.3758211
186.2351138 82.74709274 3.890932021e-11
93.85168465 -225.2819597 192.190128
167.2378002 -218.6886078 3.890932021e-11
-3.364579169e-05 60.81071664 205.4696548
31.05313565 -74.95398966 3.890932021e-11
239.6831491 -225.2819597 128.5402151
235.5575434 -183.7778467 3.890932021e-11
41.37067205 -225.2819597 25.66545814
115.6404446 176.9480993 3.890932021e-11
125.4520646 -225.2819597 109.7589732
133.4099885 -225.2819597 211.2397537
-3.364579169e-05 -12.36986206 186.4833297
-3.364579169e-05 -75.37658326 132.604469
238.6630486 -93.38851706 3.890932021e-11
223.4154932 -225.2819597 90.147153
46.41632015 83.08049794 3.890932021e-11
201.8525668 -225.2819597 80.633267
159.794232 -225.2819597 206.8962491
18.80511695 -225.2819597 13.38118434
112.0013814 -225.2819597 49.63358668
78.10528855 152.5193142 3.890932021e-11
4.764414354 3.964941438 3.890932021e-11
57.29786165 10.49587624 3.890932021e-11
55.53961515 -225.2819597 221.6198829
-3.364579169e-05 156.1895575 56.0206732
128.0376404 99.91545234 3.890932021e-11
110.5890162 -74.11230606 3.890932021e-11
67.17060145 -120.4307488 3.890932021e-11
188.0994302 -225.2819597 149.7555647
45.11748915 175.6263893 3.890932021e-11
-3.364579169e-05 108.2493964 61.2843939
-3.364579169e-05 -96.38106356 216.4651949
111.8617363 -169.8138221 3.890932021e-11
-3.364579169e-05 192.3013265 216.0765199
119.3282934 -159.0289294 3.890932021e-11
202.8971182 -21.87534336 3.890932021e-11
191.9064936 -225.2819597 100.7628206
38.49573245 22.60581644 3.890932021e-11
178.3740736 -225.2819597 235.4947061
135.4543945 192.474484 3.890932021e-11
-3.364579169e-05 -49.35898306 215.4145495
-3.364579169e-05 9.032549338 21.91491513
250.6068564 -225.2819597 80.8965906
107.9019796 16.15969444 3.890932021e-11
111.001413 -225.2819597 108.1745515
142.7133235 -225.2819597 79.667012
-3.364579169e-05 178.6457308 7.72286187
190.5870458 -225.2819597 42.58961779
225.7289653 -44.97042806 3.890932021e-11
128.3430931 -60.80200226 3.890932021e-11
245.8116175 -225.2819597 221.6659734
-3.364579169e-05 -190.7095162 68.3945091
246.1194403 -43.43367486 3.890932021e-11
197.3340983 -225.2819597 160.7010009
102.6363451 -201.2829096 3.890932021e-11
91.44205925 90.99658604 3.890932021e-11
-1.106152346 -225.2819597 87.0661269
15.04533405 -225.2819597 28.94600313
210.1998539 124.3424587 3.890932021e-11
73.47993185 -225.2819597 25.39373881
152.2851458 -151.5427663 3.890932021e-11
20.78870275 -225.2819597 167.7753891
-3.364579169e-05 -179.7258183 43.78158367
-3.364579169e-05 -82.11099986 177.7900427
6.788559754 163.1982614 3.890932021e-11
130.9244929 24.98229364 3.890932021e-11
-3.364579169e-05 -80.92043486 40.76902899
238.2880464 59.07971444 3.890932021e-11
-3.364579169e-05 83.61233604 235.3824647
-3.364579169e-05 43.74461084 135.9834108
217.8812764 -108.5769912 3.890932021e-11
83.70354645 112.5839874 3.890932021e-11
-3.364579169e-05 -48.91426356 66.7769371
-3.364579169e-05 101.4145162 197.5975119
-3.364579169e-05 -9.836154762 86.526594
242.8926568 -70.28766286 3.890932021e-11
106.7959126 -52.99811206 3.890932021e-11
174.5008746 -193.4978464 3.890932021e-11
149.6996491 -96.82842306 3.890932021e-11
144.095932 -225.2819597 127.5308684
-3.364579169e-05 45.34392324 87.5625463
208.4409456 -225.2819597 182.6971382
141.0201242 -38.95484256 3.890932021e-11
-3.364579169e-05 -67.42620746 197.35992
101.1502263 -225.2819597 32.0166703
-3.364579169e-05 194.5275275 13.44759671
192.9407643 -219.3978931 3.890932021e-11
191.0686262 108.1962193 3.890932021e-11
39.80887465 -101.7791358 3.890932021e-11
239.5344389 114.1967279 3.890932021e-11
-3.364579169e-05 -27.14739596 117.7204718
210.7609622 -225.2819597 153.3497806
-3.364579169e-05 16.88368714 79.3937679
91.29390905 -11.50059396 3.890932021e-11
25.91275725 210.5108321 3.890932021e-11
106.3478138 -225.2819597 194.2884314
175.2504719 223.1218604 3.890932021e-11
45.45626585 -39.36134446 3.890932021e-11
179.3055824 -119.8094434 3.890932021e-11
55.60029425 54.40421704 3.890932021e-11
-3.364579169e-05 -100.8223157 204.2432102
124.9340599 -225.2819597 225.3857201
35.27289265 -225.2819597 43.67021044
-3.364579169e-05 214.9198908 12.2902038
-3.364579169e-05 -138.5474942 51.3387905
-3.364579169e-05 -26.14617946 75.320494
-3.364579169e-05 133.8925868 121.079844
116.2928463 70.34611914 3.890932021e-11
-3.364579169e-05 -193.0668344 176.4937284
-3.364579169e-05 -24.74332006 99.754976
72.27634725 -225.2819597 58.92975346
-3.364579169e-05 -98.04644056 47.02371902
186.0566229 -225.2819597 206.0955391
124.7145248 -225.2819597 240.0125663
-3.364579169e-05 92.62962694 167.4427052
203.3272537 -225.2819597 235.8508726
-3.364579169e-05 12.26172834 187.8539857
8.833210954 -225.2819597 223.0464791
87.75704535 -53.40034386 3.890932021e-11
-3.364579169e-05 -184.5281168 231.1284157
-3.364579169e-05 -190.0952231 6.95615182
-3.364579169e-05 153.8949879 98.250345
210.2489708 212.4235414 3.890932021e-11
186.0953213 -225.2819597 75.1827234
95.35939305 -153.6112157 3.890932021e-11
105.5451979 -225.2819597 173.2729421
-3.364579169e-05 -173.9941774 154.3827305
38.86994775 -218.0001826 3.890932021e-11
182.8707463 -148.97585 3.890932021e-11
56.23680105 110.8244388 3.890932021e-11
44.99415665 -52.44187756 3.890932021e-11
32.51216935 -225.2819597 145.0318655
27.30050835 -103.6392304 3.890932021e-11
32.28953125 182.4046147 3.890932021e-11
205.6280137 11.53114414 3.890932021e-11
140.6576951 -165.1281264 3.890932021e-11
-1.906628946 -225.2819597 178.3969737
73.56135985 86.28786044 3.890932021e-11
-3.364579169e-05 88.88042214 137.0377525
93.61658525 191.0600318 3.890932021e-11
100.9732081 150.8713673 3.890932021e-11
-3.364579169e-05 -35.37874136 195.6390502
-3.364579169e-05 -152.9695234 215.8397179
-3.364579169e-05 114.7348038 235.8211893
158.3578492 -225.2819597 108.064005
175.7768522 -225.2819597 192.4123777
176.0773547 -164.2258769 3.890932021e-11
-3.364579169e-05 105.4587976 146.93939
-3.364579169e-05 -76.10113866 114.4224835
-3.364579169e-05 58.20755824 12.72292397
172.1822505 -68.77065266 3.890932021e-11
42.78434815 -168.0149979 3.890932021e-11
-3.364579169e-05 -116.7287565 34.09055967
-3.364579169e-05 128.3780378 184.0129467
153.8039678 -18.02319646 3.890932021e-11
27.05247525 -238.1813037 3.890932021e-11
47.30008225 -225.2819597 11.18951221
-3.364579169e-05 213.3797928 127.4202238
-3.364579169e-05 191.3861317 158.2991744
-3.364579169e-05 82.68641074 52.05518721
72.36723605 190.5353251 3.890932021e-11
-3.364579169e-05 -213.3195222 109.9205627
144.0712393 -196.2800408 3.890932021e-11
57.81384205 -111.6429989 3.890932021e-11
-3.364579169e-05 -168.7017058 10.62009818
72.02859455 -241.6151384 3.890932021e-11
71.71147805 -225.2819597 182.2605598
-3.364579169e-05 -143.4737072 153.4374066
-3.364579169e-05 -52.34214776 52.0391989
225.8883978 -225.2819597 167.1499821
-3.364579169e-05 102.5305714 31.51854568
-3.364579169e-05 -166.5217793 98.6904243
-3.364579169e-05 215.9233728 34.05491837
-3.364579169e-05 -1.057836262 169.3589166
93.80034745 -225.2819597 83.7672727
23.50779005 87.00872264 3.890932021e-11
196.260591 37.15823314 3.890932021e-11
-3.364579169e-05 -171.3597891 235.4512868
166.1653281 -225.2819597 169.4322364
4.936467654 -148.4397269 3.890932021e-11
31.20524925 -225.2819597 217.4988103
-3.364579169e-05 70.42909404 195.3698392
-3.364579169e-05 129.0115386 90.0357547
199.4599937 88.47856704 3.890932021e-11
206.2524417 -112.324688 3.890932021e-11
220.9312111 -225.2819597 117.1792374
50.59219775 137.9307672 3.890932021e-11
-3.364579169e-05 -51.78685656 235.5779524
-3.364579169e-05 -119.4082425 110.3522086
-3.364579169e-05 -39.20285426 221.91946
131.0473245 -46.66007416 3.890932021e-11
-3.364579169e-05 176.5547021 230.0154765
137.6695348 -225.2819597 44.11052579
-3.364579169e-05 -34.21524586 172.9903928
210.6245023 -176.9827372 3.890932021e-11
50.17233595 210.7071719 3.890932021e-11
129.1400514 -109.2060271 3.890932021e-11
137.7372525 -22.43100036 3.890932021e-11
-3.364579169e-05 -113.0205275 143.673072
-3.364579169e-05 56.23892524 237.4312248
-3.364579169e-05 -12.54920506 24.53214711
-3.364579169e-05 -134.9899013 38.40546229
94.00153945 75.69862754 3.890932021e-11
-3.364579169e-05 206.5091778 247.6639249
195.7843831 61.22119914 3.890932021e-11
80.64567705 -43.02177216 3.890932021e-11
231.629593 3.321397338 3.890932021e-11
-3.364579169e-05 78.23940414 30.56913858
-3.364579169e-05 -157.743234 75.3719399
-3.364579169e-05 60.58767914 50.67199346
102.6990392 116.2394448 3.890932021e-11
144.4375826 144.1442798 3.890932021e-11
225.7043676 -175.237183 3.890932021e-11
9.184257754 95.61005584 3.890932021e-11
-3.364579169e-05 -88.53210956 230.576896
30.66499585 -136.123628 3.890932021e-11
-3.364579169e-05 -173.6048802 121.319872
-3.364579169e-05 61.87273034 219.3284538
131.4672111 -138.2944141 3.890932021e-11
-3.364579169e-05 -217.5470279 149.1633181
-1.713399146 42.35480714 3.890932021e-11
41.44454275 -225.2819597 196.8192513
154.460402 -225.2819597 235.6281051
63.54530045 -225.2819597 47.95486618
56.41695035 193.5414531 3.890932021e-11
-3.364579169e-05 157.7994549 218.822877
38.05218075 -225.2819597 92.8815391
-3.364579169e-05 -101.4667941 97.8701671
-3.364579169e-05 160.0926446 26.27768232
-3.364579169e-05 55.26939144 158.0959495
195.6866825 171.4399216 3.890932021e-11
-3.364579169e-05 -202.8533389 241.2679162
90.51481375 -215.1451891 3.890932021e-11
90.13291355 -225.2819597 7.93912246
14.63310495 -225.2819597 42.77647442
34.91970525 109.7273337 3.890932021e-11
-3.364579169e-05 175.1751334 23.60072098
62.81645245 139.0497344 3.890932021e-11
195.5652458 -44.55706856 3.890932021e-11
-3.364579169e-05 117.9580285 103.5838469
238.5783259 -214.9357234 3.890932021e-11
31.48642785 46.09366494 3.890932021e-11
7.482103454 -225.2819597 109.7345218
-3.364579169e-05 33.09389324 220.2212065
196.9820619 -104.6300328 3.890932021e-11
12.76465635 192.1097415 3.890932021e-11
14.03589315 120.9830632 3.890932021e-11
-3.364579169e-05 -164.3317179 138.241298
205.0367321 -225.2819597 200.9608684
238.2926738 -18.71305326 3.890932021e-11
-3.364579169e-05 144.6578837 128.2372824
-3.364579169e-05 92.55800024 11.18411432
-3.364579169e-05 -102.0566387 6.14367897
136.781704 -0.004197462483 3.890932021e-11
224.756034 50.79315924 3.890932021e-11
-3.364579169e-05 25.21984014 161.3761624
-3.364579169e-05 98.64827844 43.68591921
252.1540272 -225.2819597 132.1376633
170.7551746 -225.2819597 153.9277465
-3.364579169e-05 -204.1256916 153.0405335
-3.364579169e-05 -181.6963749 217.4181218
27.71613235 152.3049496 3.890932021e-11
-3.364579169e-05 102.1345037 119.0837164
34.92989685 -225.2819597 168.3573205
233.4045912 -83.37813006 3.890932021e-11
126.3658599 -181.6431291 3.890932021e-11
8.989208254 -84.09811196 3.890932021e-11
119.4296747 -225.2819597 79.5803448
-3.364579169e-05 -123.2743189 13.72611243
141.3206163 -248.1219662 3.890932021e-11
-3.364579169e-05 185.6594087 244.2651691
-3.364579169e-05 -69.07717776 226.9244699
-3.364579169e-05 111.564638 208.033896
-3.364579169e-05 147.3826716 229.7514182
184.4769299 -71.59812966 3.890932021e-11
92.06336435 -233.1382374 3.890932021e-11
111.6297945 -194.5035018 3.890932021e-11
67.05090395 215.1866073 3.890932021e-11
-3.364579169e-05 -215.8032716 199.6635076
-3.364579169e-05 98.63152384 252.4692742
32.18848765 -30.10778616 3.890932021e-11
56.58053005 -225.2819597 143.0748364
166.6187704 -225.2819597 133.5207039
154.7139839 68.68302494 3.890932021e-11
-3.364579169e-05 -5.011421962 58.79218149
146.0266213 32.21060024 3.890932021e-11
-3.364579169e-05 -193.6222693 252.291999
42.88251275 -192.3785064 3.890932021e-11
-3.364579169e-05 212.3230919 225.2473706
-3.364579169e-05 201.3555679 68.0772339
-3.364579169e-05 60.57185844 103.5877088
-3.364579169e-05 177.9417171 195.6694
112.3350803 -225.2819597 15.73664632
8.588349654 -225.2819597 237.8592154
130.286401 154.4459416 3.890932021e-11
109.2202355 -225.2819597 88.8943102
62.81922185 31.81849734 3.890932021e-11
-3.364579169e-05 72.08966664 129.1502232
77.91333155 48.66813784 3.890932021e-11
208.8167431 -225.2819597 41.64945427
237.6250857 37.78991414 3.890932021e-11
-3.364579169e-05 200.1981917 31.14672665
81.74401045 6.275614338 3.890932021e-11
205.410832 -225.2819597 9.48184076
82.42728285 -106.3122184 3.890932021e-11
192.4621811 -28.57898976 3.890932021e-11
-3.364579169e-05 161.1369405 247.1091149
-3.364579169e-05 -217.054166 237.0964022
213.3129414 -210.2144681 3.890932021e-11
226.0589842 -219.3629344 3.890932021e-11
120.3024193 -225.2819597 162.9749393
156.8420214 124.2718441 3.890932021e-11
-3.364579169e-05 -50.04126536 160.7549612
-3.364579169e-05 214.4578922 98.9126839
11.42604695 -205.7897238 3.890932021e-11
-3.364579169e-05 43.35017784 240.2822402
-3.364579169e-05 -39.04224076 248.0872191
171.2323594 -225.2819597 34.35278673
185.8137744 -181.5821962 3.890932021e-11
195.8634917 140.5208894 3.890932021e-11
66.11171145 -227.2175492 3.890932021e-11
173.2766616 -103.2628113 3.890932021e-11
9.152289754 140.8157057 3.890932021e-11
68.47014605 162.0116847 3.890932021e-11
-3.364579169e-05 -72.25251276 33.29318462
123.5107289 188.8044105 3.890932021e-11
236.7949963 -225.2819597 252.2766012
48.57383505 -225.2819597 173.6975863
18.87104975 -225.2819597 155.7684003
221.840616 -225.2819597 216.4891095
-3.364579169e-05 -153.664785 13.18987673
102.123958 -225.2819597 150.3629796
236.8613793 -225.2819597 237.3288305
245.0783388 -115.2587172 3.890932021e-11
100.4922564 -225.2819597 182.9896127
-3.364579169e-05 -149.5129372 132.9739661
59.33558485 -20.44035146 3.890932021e-11
-3.364579169e-05 -175.3469571 22.16601175
-1.323791246 -213.7057698 3.890932021e-11
234.7966576 -225.2819597 116.413055
181.9783222 -93.89169426 3.890932021e-11
-3.364579169e-05 84.53543174 185.3718254
250.2565741 147.9979426 3.890932021e-11
156.9904839 -124.0455496 3.890932021e-11
23.10107675 -225.2819597 70.5777267
8.012799554 -225.2819597 15.79482332
-3.364579169e-05 29.54903564 27.31729684
154.5479166 165.8803929 3.890932021e-11
142.0741827 -225.2819597 240.6939289
-3.364579169e-05 132.3109957 71.3603995
167.4033297 68.33133324 3.890932021e-11
162.5544537 -225.2819597 243.4018283
236.5318135 -154.1329583 3.890932021e-11
218.1748398 -85.43862626 3.890932021e-11
-3.364579169e-05 -205.5039993 174.4157622
174.5038682 -25.68521556 3.890932021e-11
219.3026483 -225.2819597 182.6273756
108.6838079 -225.2819597 210.8878938
-3.364579169e-05 -57.38170686 149.6311862
-3.364579169e-05 -117.3021586 56.23003088
210.1952854 -48.04780516 3.890932021e-11
248.5606938 184.0324163 3.890932021e-11
229.0823865 163.1675675 3.890932021e-11
102.1061493 129.2925156 3.890932021e-11
-3.364579169e-05 -143.1505455 69.3618095
-3.364579169e-05 204.6485944 106.4565989
-3.364579169e-05 174.2754959 173.3517394
-3.364579169e-05 15.90331824 12.66669631
-3.364579169e-05 57.47503164 175.3849953
-3.364579169e-05 -39.33876756 140.7430182
-3.364579169e-05 113.875262 31.75606508
83.09495105 -225.2819597 102.3053313
-3.364579169e-05 220.7800234 236.5744381
147.7412016 11.65358684 3.890932021e-11
-3.364579169e-05 140.2386116 187.2019596
164.0698193 -225.2819597 197.0348114
-3.364579169e-05 21.31124814 173.3762604
154.8750185 213.7202342 3.890932021e-11
188.5574575 -81.52692336 3.890932021e-11
183.4154805 -225.2819597 57.93618642
71.83018705 -225.2819597 245.3898774
-3.364579169e-05 91.55977804 98.9068512
202.0262223 -154.7451192 3.890932021e-11
6.422909054 -225.2819597 96.4080169
-3.364579169e-05 -186.5478772 113.4865897
-3.364579169e-05 169.4465385 61.0756779
142.5112386 -225.2819597 201.8507676
60.73657305 44.94247594 3.890932021e-11
-3.364579169e-05 -182.0581394 74.6901544
-3.364579169e-05 29.41329344 71.3663143
202.5209984 181.7979911 3.890932021e-11
216.8107952 -72.82417636 3.890932021e-11
180.5140265 -225.2819597 131.7907883
133.028849 -12.41085466 3.890932021e-11
168.2716465 201.1147777 3.890932021e-11
201.1722245 -225.2819597 113.1776086
-3.364579169e-05 -129.222338 210.9492965
-3.364579169e-05 -61.56335416 167.7473819
-3.364579169e-05 -161.8488071 149.553103
99.36117515 46.81867194 3.890932021e-11
114.7319701 -26.33761116 3.890932021e-11
25.48526515 222.3790038 3.890932021e-11
57.20494945 -225.2819597 35.42013625
209.5000078 -235.8659686 3.890932021e-11
219.2386502 -140.0683039 3.890932021e-11
-3.364579169e-05 82.81801474 212.0035736
239.2242758 -225.2819597 96.6189037
194.7511724 13.78358194 3.890932021e-11
148.2072248 -225.2819597 67.4510422
128.4277453 -225.2819597 87.0746103
102.2907064 -121.1731927 3.890932021e-11
57.42894135 173.2842583 3.890932021e-11
-3.364579169e-05 204.0485773 120.4042192
-3.364579169e-05 103.2692459 82.9343985
248.251532 -225.2819597 167.8704249
157.2247682 -6.952164762 3.890932021e-11
-3.364579169e-05 94.11121964 234.0165614
48.54441925 -14.83818356 3.890932021e-11
87.06836515 -225.2819597 126.2751564
-3.364579169e-05 118.1792539 187.152591
-3.364579169e-05 191.6558638 128.0092768
-3.364579169e-05 -178.931713 33.23645844
206.8294154 37.05211994 3.890932021e-11
-3.364579169e-05 -23.95860136 215.5549214
-3.364579169e-05 118.6861374 54.41423086
123.0066675 -240.6961564 3.890932021e-11
-3.364579169e-05 -189.2853945 191.1567586
248.3047059 -209.9801439 3.890932021e-11
103.6647219 196.4578002 3.890932021e-11
-3.364579169e-05 136.2276803 14.23368204
220.4318929 -225.2819597 43.8315473
-3.364579169e-05 108.3890143 95.9912334
9.559709654 -167.1617505 3.890932021e-11
105.9003836 -225.2819597 238.1518818
-3.364579169e-05 -21.32607986 162.0451318
162.8720345 -240.2811666 3.890932021e-11
-3.364579169e-05 -123.2894364 129.2278867
-3.364579169e-05 112.7585251 220.0320001
16.90121815 -225.2819597 231.4259977
127.8094619 -225.2819597 30.73079226
-3.364579169e-05 -216.4132278 137.9594347
-3.364579169e-05 -198.41292 212.9261338
-3.364579169e-05 52.54547364 1.85550382
85.49473835 141.7963124 3.890932021e-11
177.4508151 156.6768225 3.890932021e-11
154.3142877 -53.24704686 3.890932021e-11
19.76981885 6.435649738 3.890932021e-11
161.0663281 154.3606158 3.890932021e-11
-3.364579169e-05 -162.3133744 60.1036441
-3.364579169e-05 -141.873188 140.8377929
-3.364579169e-05 -216.8546626 35.70353667
99.11619115 -80.58954516 3.890932021e-11
112.9146686 -225.2819597 220.4608845
-3.364579169e-05 -101.2156611 121.3527935
-3.364579169e-05 74.38410324 241.0916822
106.3338843 159.8490928 3.890932021e-11
63.92583935 101.1092302 3.890932021e-11
194.9549416 -131.1942057 3.890932021e-11
175.3687039 -43.39500246 3.890932021e-11
144.9763312 -225.2819597 104.9976931
225.4971289 -225.2819597 58.08748097
203.5571296 -225.2819597 67.8476941
-3.364579169e-05 -78.78509176 202.2225329
130.5467255 -225.2819597 8.79780709
110.564557 30.49939244 3.890932021e-11
-3.364579169e-05 -125.7933871 72.6838877
181.7568259 213.2020935 3.890932021e-11
163.8018183 110.6388756 3.890932021e-11
251.8539341 -225.2819597 212.2419338
-3.364579169e-05 121.985295 159.9356908
167.3747627 -225.2819597 217.2129553
62.59091465 -71.37350456 3.890932021e-11
-3.364579169e-05 -164.2093798 116.9269609
248.6076756 -189.1749444 3.890932021e-11
30.48208755 65.47383294 3.890932021e-11
-3.364579169e-05 -180.2082112 166.7022585
91.44160125 -225.2819597 232.5110729
-3.364579169e-05 -33.67891716 68.1967116
-3.364579169e-05 -207.9091615 100.0124402
-3.364579169e-05 178.3112374 105.8863946
-3.364579169e-05 87.41185864 77.1937679
-3.364579169e-05 111.8524729 15.09907458
-3.364579169e-05 117.7242117 140.5933933
211.0381847 151.610436 3.890932021e-11
-3.364579169e-05 -177.6605033 100.2092821
-3.364579169e-05 -96.85179226 241.3628164
249.4895514 -225.2819597 57.33189737
37.20467725 194.8335577 3.890932021e-11
119.2910378 -132.3415629 3.890932021e-11
243.2457795 -225.2819597 10.05808485
-3.364579169e-05 -207.186732 132.3773363
240.6005135 -225.2819597 184.8187504
119.2058797 -215.2428895 3.890932021e-11
94.57684525 -225.2819597 66.8919354
5.111855954 -66.48114856 3.890932021e-11
221.5475655 -21.68035676 3.890932021e-11
-3.364579169e-05 -161.7296652 239.0974371
112.8799564 191.8657831 3.890932021e-11
9.290009354 -225.2819597 160.4916778
157.5560548 21.94028034 3.890932021e-11
175.9528033 -225.2819597 18.77516129
230.9879205 69.62560204 3.890932021e-11
191.681575 -225.2819597 186.3789194
-3.364579169e-05 -28.49214946 38.07225393
140.5435746 -225.2819597 1.84135741
120.8478443 -92.50172606 3.890932021e-11
20.58091525 -36.52868766 3.890932021e-11
-3.364579169e-05 -162.0940971 39.6337264
-3.364579169e-05 147.2317799 251.6892337
43.47229895 -155.8501626 3.890932021e-11
-3.364579169e-05 -158.8742297 91.887532
-3.364579169e-05 -145.9330365 97.9823449
-3.364579169e-05 15.26023124 114.1774876
84.28519145 -225.2819597 80.0061716
48.90817635 -225.2819597 187.8953677
85.35490715 159.7257708 3.890932021e-11
-3.364579169e-05 8.088290938 68.1911494
234.0167401 -102.4755309 3.890932021e-11
76.45766655 -176.546852 3.890932021e-11
248.5492512 -225.2819597 105.5443572
232.5756317 -225.2819597 216.5633439
5.715977854 -225.2819597 198.5228482
21.61933965 43.53422934 3.890932021e-11
-3.364579169e-05 -151.6550074 205.7371722
220.2846749 -225.2819597 105.7225635
209.8250927 -132.0371452 3.890932021e-11
26.84008265 -225.2819597 188.9670492
28.43084215 -225.2819597 27.60726803
-3.364579169e-05 -217.1889673 81.0087222
-3.364579169e-05 224.3109567 117.0274914
226.6841071 -225.2819597 194.0523726
-3.364579169e-05 -139.4855599 179.1077188
54.71644895 -180.5016923 3.890932021e-11
-3.364579169e-05 -122.9766594 148.2881045
109.5082919 222.5762743 3.890932021e-11
83.82532185 128.6148367 3.890932021e-11
-3.364579169e-05 -114.0455351 252.3389103
114.9161322 -120.3229642 3.890932021e-11
-3.364579169e-05 -137.1105945 87.6054231
130.7829747 -73.87384556 3.890932021e-11
16.52297615 -59.54125856 3.890932021e-11
-3.364579169e-05 -169.8683896 197.7222184
-3.364579169e-05 -21.51233736 191.5350671
-3.364579169e-05 3.771164838 130.4534853
237.0824066 -170.5432348 3.890932021e-11
-3.364579169e-05 -94.04688456 196.2642317
-3.364579169e-05 155.6476051 144.1305618
38.18218975 -241.9043461 3.890932021e-11
-1.251750246 -225.2819597 142.8297405
-3.364579169e-05 48.78908084 203.7423436
-3.364579169e-05 49.40792534 182.6502085
247.7788792 -225.2819597 192.2729829
-3.364579169e-05 50.20249774 127.4001544
-3.364579169e-05 132.5011402 220.0723682
220.5817534 -225.2819597 22.55196327
-3.364579169e-05 152.2423482 167.4650352
-3.364579169e-05 180.2287921 82.5083671
-3.364579169e-05 31.71812214 242.016789
164.0580339 -225.2819597 69.7124457
52.45808105 1.727031938 3.890932021e-11
103.44022 56.72516204 3.890932021e-11
28.49546315 -225.2819597 95.8764031
239.5971543 -233.4766068 3.890932021e-11
9.140646354 -139.1427064 3.890932021e-11
205.6521157 -219.9002364 3.890932021e-11
59.44830945 -80.86880166 3.890932021e-11
-3.364579169e-05 42.18671054 67.1718943
113.7754282 -14.69107956 3.890932021e-11
175.7350569 170.0071248 3.890932021e-11
17.71165965 109.4335615 3.890932021e-11
-3.364579169e-05 -73.83571946 146.6262217
-3.364579169e-05 83.89785834 66.341233
-3.364579169e-05 39.46070394 115.5863871
67.53252305 -42.25123266 3.890932021e-11
19.74755815 -200.3318456 3.890932021e-11
-3.364579169e-05 -216.4183829 171.2206125
163.631844 134.2708502 3.890932021e-11
132.992706 -225.2819597 56.23503862
45.82672895 -225.2819597 113.8313006
8.970628754 -225.2819597 130.871951
210.6239391 -225.2819597 53.37009585
-3.364579169e-05 -191.8576203 140.1565346
6.260618854 -129.0604628 3.890932021e-11
65.29655865 -225.2819597 73.3722527
-3.364579169e-05 52.45173074 224.3817097
-3.364579169e-05 -201.9726941 39.42204725
-3.364579169e-05 -93.77613856 173.1711484
-3.364579169e-05 -204.4350897 195.2213292
240.2638207 -204.1917977 3.890932021e-11
73.68917745 -225.2819597 205.1389909
-3.364579169e-05 -48.09307196 226.2684949
122.5843617 -225.2819597 39.52230169
165.9013829 219.8773238 3.890932021e-11
-3.364579169e-05 -154.121825 52.67542556
241.3092432 190.7327998 3.890932021e-11
186.3019547 -225.2819597 109.1919238
-3.364579169e-05 41.45055904 214.0971965
223.0324113 185.362994 3.890932021e-11
11.91102095 28.19530644 3.890932021e-11
203.6966991 -190.1896755 3.890932021e-11
227.7881421 -225.2819597 137.4222867
178.0124009 6.927320038 3.890932021e-11
168.1844951 -225.2819597 88.7597537
89.95073305 -225.2819597 168.9279765
-3.364579169e-05 -33.38737246 27.88111146
-0.7437523458 74.73315614 3.890932021e-11
-3.364579169e-05 219.4343656 21.00282387
99.76034525 -225.2819597 217.4300989
-3.364579169e-05 6.651233938 158.3328938
109.9276934 -225.2819597 3.26815396
13.48173455 -225.2819597 190.7487773
-3.364579169e-05 61.69350284 185.1796368
-3.364579169e-05 -6.079958862 206.7518621
-3.364579169e-05 215.4290419 89.1655259
174.7576347 -14.86143906 3.890932021e-11
78.04214845 33.50147624 3.890932021e-11
80.09835975 -210.4222972 3.890932021e-11
-3.364579169e-05 182.345017 51.92485523
185.980845 26.26342054 3.890932021e-11
230.9286267 220.1221933 3.890932021e-11
-3.364579169e-05 14.44350994 207.9596334
-3.364579169e-05 68.07789844 71.6182924
97.92333795 34.80026444 3.890932021e-11
-3.364579169e-05 126.9378024 170.108434
-3.364579169e-05 162.6181331 81.9337014
245.8533938 -225.2819597 145.4163386
124.2798443 -225.2819597 185.526363
242.3661986 -0.4043983625 3.890932021e-11
-3.364579169e-05 160.594531 193.4860302
-3.364579169e-05 2.997733738 43.09044932
31.85368995 -225.2819597 177.9353483
-3.364579169e-05 -109.3584934 222.954651
248.500523 222.5710006 3.890932021e-11
9.443833054 202.344525 3.890932021e-11
-3.364579169e-05 -173.7360895 144.6678358
-3.364579169e-05 192.4538586 91.7185137
137.5094787 -81.97479416 3.890932021e-11
-3.364579169e-05 -9.332675362 35.90942436
251.5681439 78.37674254 3.890932021e-11
-3.364579169e-05 160.5948079 159.2029942
-3.364579169e-05 9.760364238 32.66318969
-3.364579169e-05 -78.73257766 249.732296
-3.364579169e-05 -123.259871 101.4863707
57.37058905 -225.2819597 114.6390174
-3.364579169e-05 -64.19639656 214.3794696
18.43141665 -107.4405057 3.890932021e-11
86.72102595 29.20047194 3.890932021e-11
-3.364579169e-05 -217.587064 55.4451726
111.8929291 -225.2819597 158.1849653
-3.364579169e-05 -62.83500046 51.35968407
-3.364579169e-05 221.9287345 216.7841141
-3.364579169e-05 -114.1624255 231.2875743
-3.364579169e-05 -104.70412 81.2933206
132.4057424 212.5811314 3.890932021e-11
-3.364579169e-05 -58.25898926 190.4352753
88.66683875 224.5852168 3.890932021e-11
177.0111615 60.15494244 3.890932021e-11
-3.364579169e-05 -166.6317199 214.571527
-3.364579169e-05 92.18746324 191.3553256
-3.364579169e-05 29.65238934 135.5591479
192.8071569 -152.0979068 3.890932021e-11
48.40308915 149.1028759 3.890932021e-11
-3.364579169e-05 -212.6314415 185.5129611
-3.364579169e-05 131.2939955 144.9493757
156.287667 -179.5287835 3.890932021e-11
40.15428635 40.08395954 3.890932021e-11
170.5907962 -225.2819597 52.52665584
-3.364579169e-05 91.18199664 112.0754092
64.06019325 3.715024138 3.890932021e-11
181.0496012 -242.6354955 3.890932021e-11
-3.364579169e-05 169.5904365 2.15213977
41.13713595 -225.2819597 35.22586605
-1.145389746 121.7236659 3.890932021e-11
82.28803805 177.4413287 3.890932021e-11
-1.100819946 -225.2819597 76.0440227
192.5711294 198.2499918 3.890932021e-11
127.7734398 -225.2819597 201.1635644
-3.364579169e-05 145.6561334 92.4377936
31.82730495 -171.721082 3.890932021e-11
143.4909107 -212.3194841 3.890932021e-11
241.749112 -225.2819597 46.8998829
-3.364579169e-05 -135.1719947 76.2738951
56.96337335 -90.08202366 3.890932021e-11
65.44714015 -190.5482024 3.890932021e-11
8.441378554 153.0957399 3.890932021e-11
80.47035975 -77.70252456 3.890932021e-11
195.9156088 -6.175060462 3.890932021e-11
-3.364579169e-05 203.4078831 228.6005959
143.2233233 104.666824 3.890932021e-11
139.6644854 162.8601081 3.890932021e-11
-3.364579169e-05 74.15449784 164.8809528
85.97448685 -119.1285242 3.890932021e-11
9.482266554 -225.2819597 207.3386789
-3.364579169e-05 -182.3583918 140.266973
-3.364579169e-05 -83.23519666 68.9080325
210.230094 -225.2819597 21.57839829
-2.246657046 225.2819441 79.2666726
-3.364579169e-05 -81.04826076 158.3964857
165.981278 -225.2819597 232.9493871
100.2888422 -237.852266 3.890932021e-11
-3.364579169e-05 -138.6245675 209.7512485
151.0359174 87.22840494 3.890932021e-11
65.11864285 -225.2819597 133.8313968
-3.364579169e-05 -116.4833076 174.9046444
190.4384902 -111.7131497 3.890932021e-11
72.47764325 -148.9440238 3.890932021e-11
237.1697416 140.5489462 3.890932021e-11
34.63723765 -93.43353116 3.890932021e-11
-3.364579169e-05 -141.930829 244.5631884
-3.364579169e-05 -119.8484503 22.52246807
-3.364579169e-05 6.922979238 143.5873229
48.14156565 -219.9685922 3.890932021e-11
-3.364579169e-05 -221.4819162 20.98165432
-3.364579169e-05 182.4826699 114.3307245
94.88963495 -98.32659916 3.890932021e-11
134.6409391 -125.2589102 3.890932021e-11
21.15149025 26.46597674 3.890932021e-11
45.01824225 218.5574754 3.890932021e-11
161.7389753 -144.6053219 3.890932021e-11
83.78376135 187.6438914 3.890932021e-11
124.6168713 -39.84175316 3.890932021e-11
-3.364579169e-05 191.6956941 179.3803389
114.8202099 203.827326 3.890932021e-11
82.57683685 -236.8530513 3.890932021e-11
-3.364579169e-05 74.51351384 119.0218128
73.46435485 202.1121341 3.890932021e-11
30.96547165 -225.2819597 227.8958056
136.0163322 -201.3206111 3.890932021e-11
252.0032092 -155.6051049 3.890932021e-11
57.47058615 -168.0643967 3.890932021e-11
-3.364579169e-05 -9.777943062 108.5810448
132.3768387 83.42708494 3.890932021e-11
170.8177034 -0.1761866625 3.890932021e-11
24.25729215 77.72294514 3.890932021e-11
120.337935 14.45785954 3.890932021e-11
188.9355402 67.51951544 3.890932021e-11
120.8668668 -225.2819597 24.33944085
222.367653 76.89893514 3.890932021e-11
-3.364579169e-05 -47.93375356 30.43269924
16.92089385 -225.2819597 4.13548675
-3.364579169e-05 137.0942834 244.8449721
-3.364579169e-05 -27.15248516 152.9909321
-3.364579169e-05 -41.43116336 49.02059336
-2.044464746 225.2819441 178.6111645
88.88372625 99.91633694 3.890932021e-11
-3.364579169e-05 140.4624928 162.067206
22.96273595 182.3451046 3.890932021e-11
-3.364579169e-05 27.34472084 120.3482115
-3.364579169e-05 -180.2315897 86.3838799
-3.364579169e-05 105.0228232 236.3934127
-3.364579169e-05 136.270691 60.370749
100.7553807 175.2565869 3.890932021e-11
89.07353405 -225.2819597 241.5482747
-3.364579169e-05 193.3183082 102.2936034
-3.364579169e-05 23.58007294 225.8874436
71.69263325 -225.2819597 112.8703305
79.77757225 -225.2819597 152.8590705
167.4105543 -57.79028586 3.890932021e-11
32.14890095 161.843188 3.890932021e-11
133.881455 -225.2819597 220.447156
188.7932821 -225.2819597 22.30158153
-3.364579169e-05 184.6631306 33.2277594
-3.364579169e-05 -11.42684296 224.8783202
-3.364579169e-05 -196.5116387 229.6320806
-3.364579169e-05 -150.0440881 224.5607662
250.5630637 54.65349654 3.890932021e-11
5.806904754 216.2283821 3.890932021e-11
-3.364579169e-05 -95.43245246 55.82548755
163.760503 87.69150234 3.890932021e-11
-3.364579169e-05 210.910202 150.946374
149.845645 -225.2819597 226.1917929
-1.936173846 225.2819441 35.68726363
245.2335801 8.306140038 3.890932021e-11
144.1048779 -225.2819597 183.1005014
152.1112912 -64.27433066 3.890932021e-11
-3.364579169e-05 97.37042544 219.5577396
227.6275782 -225.2819597 235.0572531
183.349947 -225.2819597 227.8025559
80.17468645 -225.2819597 66.3043041
109.235891 105.6479786 3.890932021e-11
-3.364579169e-05 32.61340744 39.24136245
118.2766342 37.48115174 3.890932021e-11
251.9607831 -71.30804486 3.890932021e-11
160.3953864 205.722114 3.890932021e-11
-3.364579169e-05 63.33255514 59.41429704
-3.364579169e-05 173.8766717 153.6216436
20.67317115 -225.2819597 54.64065035
8.973659954 -12.18762536 3.890932021e-11
-3.364579169e-05 185.4854899 14.62050856
-3.364579169e-05 194.980944 241.2266619
-3.364579169e-05 -96.80765956 112.5051419
208.9070923 94.23798594 3.890932021e-11
69.36301735 149.9966469 3.890932021e-11
-3.364579169e-05 218.1226525 143.6333386
32.58088725 -225.2819597 8.6132879
-3.364579169e-05 35.02170724 17.92332295
33.20515365 -225.2819597 121.8012356
22.90571455 -181.092688 3.890932021e-11
-3.364579169e-05 149.8292444 29.91795937
-3.364579169e-05 93.54444624 158.0242387
-3.364579169e-05 154.5020814 132.11058
152.4909214 101.2705097 3.890932021e-11
216.716767 54.97161384 3.890932021e-11
185.0868159 -60.36078476 3.890932021e-11
232.0214095 -136.0758239 3.890932021e-11
-0.1923011458 142.1178211 3.890932021e-11
0.3759356542 -225.2819597 219.834556
123.3907442 -202.843287 3.890932021e-11
249.0333907 127.2729333 3.890932021e-11
89.53247275 -225.2819597 215.1808072
69.27489215 -20.55187146 3.890932021e-11
-3.364579169e-05 172.8333895 205.8258905
156.7737235 -225.2819597 171.6786945
36.70244265 172.3540721 3.890932021e-11
22.32251775 -217.5685834 3.890932021e-11
72.94451085 68.58962894 3.890932021e-11
91.83941035 -225.2819597 16.79463511
22.86007235 -23.15779346 3.890932021e-11
18.25802585 -225.2819597 127.1001795
226.1251885 -64.41847006 3.890932021e-11
214.4587853 -225.2819597 131.0812058
35.28323285 -227.3650927 3.890932021e-11
-3.364579169e-05 -102.502993 162.9013201
91.56666345 201.3161463 3.890932021e-11
25.02377025 -225.2819597 209.8146933
-3.364579169e-05 -144.5893032 11.61219187
