# .PCD v0.7 - Point Cloud Data file format
VERSION 0.7
FIELDS x y z
SIZE 4 4 4
TYPE F F F
COUNT 1 1 1
WIDTH 1247
HEIGHT 1
VIEWPOINT 0 0 0 1 0 0 0
POINTS 1247
DATA ascii
29.01589121 -176.9177551 -250
210.5432712 1.059561328e-10 -38.6712296
123.7859242 1.059561328e-10 87.7081271
178.4150512 -117.696165 -250
-7.578558348e-05 -218.5944079 19.6219061
-7.578558348e-05 -147.8905562 -203.1669093
79.82877921 1.059561328e-10 -222.5632542
-7.578558348e-05 -244.782337 249.26671
-7.578558348e-05 -35.2130274 56.5862034
156.4072802 -145.7391952 -250
-7.578558348e-05 -213.4345906 196.4210192
-7.578558348e-05 -251.0489 -196.430153
131.8476622 -23.5163325 -250
173.4819412 1.059561328e-10 82.3005923
80.53961721 -224.0561426 -250
170.6146782 1.059561328e-10 223.4455495
119.6395872 1.059561328e-10 -107.3378211
-7.578558348e-05 -105.0062208 172.4342744
-7.578558348e-05 -247.2899154 137.9232649
226.2534352 1.059561328e-10 -64.9821758
119.4891282 1.059561328e-10 24.8167455
-7.578558348e-05 -154.1118774 20.3416571
-7.578558348e-05 -112.9625613 94.4692198
230.8702472 1.059561328e-10 -128.6013605
183.8012042 1.059561328e-10 19.8936017
125.5097792 1.059561328e-10 -9.6981097
-7.578558348e-05 -93.0125989 59.6136015
72.36127221 1.059561328e-10 138.4992294
251.8578052 1.059561328e-10 34.7304345
150.8097532 1.059561328e-10 183.4625446
2.888066214 -105.0916047 -250
108.0938522 1.059561328e-10 182.9043921
49.06200621 -224.956556 -250
-7.578558348e-05 -198.9942266 -172.4030874
-7.578558348e-05 -246.1949515 174.612239
123.3037512 1.059561328e-10 -164.997168
144.3709552 1.059561328e-10 -136.6725531
85.58023421 1.059561328e-10 41.349521
210.1247012 1.059561328e-10 72.3883183
-7.578558348e-05 -114.5839898 -15.5125059
46.71170221 1.059561328e-10 -48.6234345
56.24182321 1.059561328e-10 168.4252431
-7.578558348e-05 -228.1461381 -84.3571566
147.8209602 1.059561328e-10 132.4706677
124.7703552 1.059561328e-10 -226.6296984
-7.578558348e-05 -150.7389884 -117.9065139
-7.578558348e-05 -220.0578242 -38.9244922
-7.578558348e-05 -251.8125756 -136.4776373
180.1182702 -22.6079767 -250
26.20666921 1.059561328e-10 -137.3229313
68.08891421 1.059561328e-10 -5.4635389
178.5494692 1.059561328e-10 -156.4267197
-7.578558348e-05 -225.5257333 -119.1384414
-7.578558348e-05 -130.4535461 231.4451957
248.5395602 1.059561328e-10 165.8615125
107.2075872 1.059561328e-10 -34.9021911
47.43038621 -45.2200059 -250
224.0516142 1.059561328e-10 19.1518932
252.4809012 1.059561328e-10 62.1760027
131.1915872 -85.327799 -250
-7.578558348e-05 -225.184824 -225.3002008
252.2830142 -221.5566826 -250
-7.578558348e-05 -155.9784417 -154.9833464
-7.578558348e-05 -83.0317158 -190.832677
176.8092972 1.059561328e-10 115.8937956
-7.578558348e-05 -1.7954488 -162.2693653
27.91786821 0.8608317001 -250
4.896580214 1.059561328e-10 34.9150529
24.04970021 -61.8286765 -250
-7.578558348e-05 -62.0403576 -123.5247384
72.32030021 -95.4845378 -250
-7.578558348e-05 -223.7492585 221.0810874
-7.578558348e-05 -191.15522 157.5606712
2.878943214 -238.1739918 -250
-7.578558348e-05 -107.5240969 -70.0959996
173.2592242 1.059561328e-10 -81.6638748
87.56735421 1.059561328e-10 -184.6670617
-7.578558348e-05 -140.7983194 -34.080312
97.98031021 1.059561328e-10 93.2335065
-7.578558348e-05 -15.77536 -59.071607
-7.578558348e-05 -86.4377373 233.433708
105.2499742 1.059561328e-10 218.5878495
23.18218921 1.059561328e-10 -76.5092437
2.330939214 1.059561328e-10 -218.588809
20.66516321 1.059561328e-10 73.3130036
-7.578558348e-05 -246.7952879 10.6741519
-7.578558348e-05 -133.8162362 -63.5552421
218.5145862 -157.316116 -250
-7.578558348e-05 -198.62869 1.2232084
94.47365421 -63.2739282 -250
-7.578558348e-05 -143.39781 136.8061481
-7.578558348e-05 -185.7927128 240.4589453
52.19801421 -113.7158388 -250
-7.578558348e-05 -86.2112647 19.6641163
-7.578558348e-05 -206.9150505 42.6524834
2.933624214 1.059561328e-10 -110.9425566
153.9272772 1.059561328e-10 -58.5610952
238.4714872 1.059561328e-10 114.2220341
75.44862721 1.059561328e-10 -78.9044058
-7.578558348e-05 -46.2683681 -239.0311994
59.10544021 1.059561328e-10 -167.0360456
-7.578558348e-05 -142.6908897 82.0189904
211.6105952 1.059561328e-10 -208.9295538
248.8967602 1.059561328e-10 -76.4963594
103.5751112 1.059561328e-10 148.7236973
30.07000421 -148.9167504 -250
221.1986132 1.059561328e-10 248.6380064
246.4807492 1.059561328e-10 -186.2657843
-7.578558348e-05 -65.3505389 144.8345161
131.3418422 -145.2654776 -250
178.4763642 2.3299529 -250
54.84353321 1.059561328e-10 -222.9844235
2.754642214 -184.095473 -250
-7.578558348e-05 -24.6815256 -9.4143552
-7.578558348e-05 -53.2726075 218.0800687
-7.578558348e-05 -53.1896121 186.0446177
25.53620521 1.059561328e-10 162.3031912
19.44682121 1.059561328e-10 121.2247558
18.86258721 1.059561328e-10 247.4853793
-7.578558348e-05 -34.2295319 -149.1901781
251.8275292 1.059561328e-10 217.944925
-7.578558348e-05 -24.5776784 -87.4199077
77.50830921 1.059561328e-10 -247.4465407
57.58143821 1.059561328e-10 201.0482249
-7.578558348e-05 -121.8944218 -114.3875258
22.40158121 1.059561328e-10 -198.7895984
-7.578558348e-05 -57.2532274 94.7093298
193.2263822 1.059561328e-10 -127.0045524
-7.578558348e-05 -189.5869372 69.3499878
10.88026021 1.059561328e-10 193.5632026
-7.578558348e-05 -230.3849844 49.6688466
139.5855992 -188.7963148 -250
251.8578552 1.059561328e-10 -235.8375665
-7.578558348e-05 -142.1945039 41.8230936
196.3576722 1.059561328e-10 43.7751516
210.2129152 -6.3807752 -250
-7.578558348e-05 -172.6353893 1.364893
200.2801912 1.059561328e-10 204.1196273
-7.578558348e-05 -136.0206935 187.3742749
225.9193842 1.059561328e-10 196.2009872
52.84437621 1.059561328e-10 -114.6681518
41.76742321 1.059561328e-10 35.3166539
-7.578558348e-05 -31.0541396 230.6325743
129.2064852 1.059561328e-10 235.261146
161.7261932 1.059561328e-10 30.6064273
96.77125021 -182.0747614 -250
202.6186402 1.059561328e-10 -65.2041646
82.58440121 1.059561328e-10 -134.8364088
168.2644732 1.059561328e-10 162.2706009
145.7177522 -249.9886025 -250
224.3913332 1.059561328e-10 -19.6718068
-7.578558348e-05 -24.5129267 182.3695581
-7.578558348e-05 -199.2423711 -133.0340957
-7.578558348e-05 -158.2503788 154.9463218
-7.578558348e-05 -204.1582356 137.7288987
251.3058792 1.059561328e-10 -117.1968139
171.4865822 1.059561328e-10 -219.9910471
-7.578558348e-05 -116.8986999 148.3590221
-1.103282786 1.059561328e-10 10.8327541
251.7507362 -117.4174213 -250
-7.578558348e-05 -106.1269344 -143.2661007
185.1187512 -185.926367 -250
-7.578558348e-05 -75.3879971 -167.4768271
162.0673192 1.059561328e-10 -190.5169819
150.9581422 1.059561328e-10 -24.6641852
-7.578558348e-05 -64.1812286 -99.7268564
-7.578558348e-05 -96.0808785 -29.2697118
229.9331392 1.059561328e-10 -157.2970429
70.07084121 -41.3673632 -250
102.2541422 1.059561328e-10 -217.6162865
137.8249862 1.059561328e-10 -191.1541729
-2.246565786 -142.0944266 -250
241.3842062 -18.8645842 -250
-7.578558348e-05 -166.0420263 223.5202806
157.4261312 -22.1054874 -250
145.1297802 1.059561328e-10 -107.7664047
150.8953482 1.059561328e-10 80.3293155
130.7492792 1.059561328e-10 112.8925677
-7.578558348e-05 -25.901607 110.1166774
222.6124562 1.059561328e-10 -229.804766
68.34655621 -173.4179104 -250
20.95766221 1.059561328e-10 -13.6276814
-7.578558348e-05 -249.4671441 -17.6098008
-7.578558348e-05 -208.7455926 173.374688
-7.578558348e-05 -100.385012 -93.6708391
218.7861682 -88.9168764 -250
32.38270821 -199.0629971 -250
64.51218621 1.059561328e-10 224.5682866
-7.578558348e-05 -224.7449641 -168.4258238
-7.578558348e-05 -222.1292631 96.610795
127.5657192 1.059561328e-10 -70.8087103
-7.578558348e-05 -251.6771149 224.403109
51.69673521 1.059561328e-10 116.9478966
-7.578558348e-05 -75.2864884 125.0715595
21.86368021 1.059561328e-10 49.1000951
25.91374721 1.059561328e-10 209.7747291
71.59548921 1.059561328e-10 -57.0860866
126.0239602 -2.1536104 -250
202.8583082 -60.926918 -250
-7.578558348e-05 -60.2959989 -24.2768681
-7.578558348e-05 -229.3611445 123.7939006
-7.578558348e-05 -166.0231649 -217.3562891
147.6168442 1.059561328e-10 223.3943796
103.3207212 -226.258361 -250
-7.578558348e-05 -182.5265376 -112.3622997
229.1611902 -242.1661297 -250
178.3037172 -70.5096038 -250
-7.578558348e-05 -177.2961728 -158.8731519
51.14855821 1.0460624 250
-7.578558348e-05 -161.4941967 -19.7513044
55.69118721 1.059561328e-10 78.1302238
-7.578558348e-05 -65.5051447 -229.1223589
232.7051382 1.059561328e-10 74.2413541
-7.578558348e-05 -106.8680424 223.5506688
242.1354142 -161.0718083 -250
-7.578558348e-05 -183.8219777 -72.4004548
179.3036482 -96.1878628 -250
-7.578558348e-05 -35.7642586 -126.9291693
-7.578558348e-05 -14.5100191 76.7914892
-7.578558348e-05 -97.705406 192.5950449
-7.578558348e-05 -82.2131859 83.4791699
165.6291862 -199.4466909 -250
-7.578558348e-05 -21.248395 -199.9163724
165.7097922 1.059561328e-10 -40.3678491
126.2828362 -205.3450728 -250
190.5572412 1.059561328e-10 64.2783033
75.71087521 -20.9401277 -250
196.2057502 1.059561328e-10 124.3606212
83.93429221 1.059561328e-10 186.7029695
228.1110182 1.059561328e-10 153.8555917
-7.578558348e-05 -133.0508642 18.5867326
186.3163832 1.059561328e-10 173.2284186
-7.578558348e-05 -170.1058665 111.1436116
215.7857392 -136.5396089 -250
-7.578558348e-05 -26.2999571 -245.3631278
-7.578558348e-05 -224.2721457 -63.7743929
-7.578558348e-05 -187.2466571 -44.4014528
-7.578558348e-05 -17.1938016 46.0314118
108.4978862 -20.1150196 -250
-7.578558348e-05 -8.9102888 -31.2543943
246.1871242 1.059561328e-10 -15.3470772
14.10776821 1.059561328e-10 144.9056345
18.65995821 -88.6654365 -250
122.9237632 1.059561328e-10 140.9701643
186.2906752 -237.2013122 -250
-7.578558348e-05 -199.0442245 -236.0008541
195.2591542 1.059561328e-10 224.1495083
96.38832421 -109.1894103 -250
76.64603821 -141.9314312 -250
160.7671592 1.059561328e-10 204.1292199
226.4636962 -37.1549768 -250
-7.578558348e-05 -89.2137334 -60.6284348
-7.578558348e-05 -55.6525651 50.8280444
92.41531221 1.059561328e-10 -54.4095894
244.9849402 -68.193431 -250
-7.578558348e-05 -67.3501364 5.4844968
102.3956542 1.059561328e-10 -165.7251618
-7.578558348e-05 -198.3021739 -196.9346933
94.07398721 1.059561328e-10 22.7650006
61.46164221 1.059561328e-10 -96.1559324
217.4935172 1.059561328e-10 -85.353453
85.81305321 1.059561328e-10 -17.0943446
103.2682932 -246.5967036 -250
233.9374292 -107.6704512 -250
-7.578558348e-05 -185.6401153 44.099663
102.0913832 1.059561328e-10 -97.1622773
-7.578558348e-05 -248.2908526 -81.9799697
180.3021542 -162.6652727 -250
211.4736602 1.059561328e-10 -118.3655288
-7.578558348e-05 -20.8353371 -109.2044835
111.2044802 -46.9449731 -250
-7.578558348e-05 -40.3621435 29.215853
131.1984712 1.059561328e-10 179.341346
205.8808632 -204.1709492 -250
-7.578558348e-05 -104.4739897 -222.920954
151.3578502 -66.5320652 -250
190.3025452 1.059561328e-10 -38.7888723
15.73886921 1.059561328e-10 94.039867
227.8723912 -196.4537972 -250
-7.578558348e-05 -149.5079893 -81.8200421
-7.578558348e-05 -248.4744406 -41.8735649
169.7738482 1.059561328e-10 -0.01900739994
169.2859172 -219.6409895 -250
-7.578558348e-05 -75.7907959 -137.9307744
116.6992492 1.059561328e-10 -54.1229464
198.8562892 1.059561328e-10 152.8796178
-7.578558348e-05 -33.2414141 139.4530398
117.1511942 -69.9231528 -250
-7.578558348e-05 -99.0691162 118.0574528
-0.4702467856 1.059561328e-10 240.5476651
-0.6519757856 -138.8347306 250
-7.578558348e-05 -194.7237789 190.1274701
180.6055222 1.059561328e-10 -176.0545552
-7.578558348e-05 -173.7380331 197.2515607
-7.578558348e-05 -208.0456913 -16.0780367
-7.578558348e-05 -187.4624729 121.2772806
-7.578558348e-05 -112.9066411 74.8228217
-7.578558348e-05 -121.1652352 -155.8725327
43.40455321 -65.0178347 -250
193.6059402 1.059561328e-10 89.2085734
246.0306402 1.059561328e-10 -57.1174883
20.35090921 -228.4021394 -250
152.2326762 -43.0095148 -250
59.57783821 1.059561328e-10 -33.9159866
43.05912621 -26.1800265 -250
-7.578558348e-05 -115.1411615 -175.3786363
48.10671321 -180.5988015 -250
-7.578558348e-05 -205.1166941 226.5844325
175.5567502 -142.5010368 -250
59.03718121 1.059561328e-10 44.0725154
97.05324121 1.059561328e-10 236.3143797
41.59838921 1.059561328e-10 -196.6559065
97.46234221 1.059561328e-10 -119.9277804
202.8725552 1.059561328e-10 22.9272456
17.87315021 1.059561328e-10 -155.1946529
135.9831072 1.059561328e-10 66.5239988
120.8954442 -101.6497585 -250
-7.578558348e-05 -15.0739702 157.9372386
-7.578558348e-05 -124.1849502 1.1948133
44.12051021 -131.2083582 -250
80.72106921 -202.2933874 -250
-7.578558348e-05 -169.6413013 76.1888331
164.4647242 1.059561328e-10 -98.6908965
-7.578558348e-05 -141.7915206 -100.2559676
197.7740032 -128.2393864 -250
152.7340022 1.059561328e-10 151.2152767
91.05387321 1.059561328e-10 125.7239216
-7.578558348e-05 -132.002474 99.1165756
-7.578558348e-05 -146.4213307 -224.2968401
-7.578558348e-05 -178.0075174 -198.6231924
14.97154021 -13.0522167 -250
193.6058912 1.059561328e-10 -20.0653641
141.3718022 -231.5226538 -250
97.66239621 -137.2364013 -250
162.6059302 -107.3019722 -250
141.8684532 -169.1540876 -250
98.08946721 1.059561328e-10 201.1373009
-7.578558348e-05 -152.9194551 179.0212915
48.00618221 -245.5765284 -250
200.8391212 1.059561328e-10 185.3464858
-7.578558348e-05 -93.7651848 40.8689861
228.4069202 1.059561328e-10 176.8991612
7.369584214 -126.103217 -250
-7.578558348e-05 -144.9854782 60.2625794
-7.578558348e-05 -62.2213837 -60.658212
167.8427882 1.059561328e-10 -141.2098258
-7.578558348e-05 -104.6998895 4.537353
203.1016892 1.059561328e-10 -175.9599088
-7.578558348e-05 -50.509065 -166.1866858
-7.578558348e-05 -124.9155436 35.155419
-7.578558348e-05 -124.8581161 -211.2923312
104.9948422 1.059561328e-10 -16.6288057
187.8818722 -44.6591753 -250
126.1359872 1.059561328e-10 -89.1123758
-7.578558348e-05 -43.8444555 246.0246199
-7.578558348e-05 -41.7724208 -50.4490394
54.90713421 1.059561328e-10 98.9334071
33.07594121 1.059561328e-10 -61.1290392
138.6183892 1.059561328e-10 19.9657469
-7.578558348e-05 -229.8479489 182.7598559
46.00445521 1.059561328e-10 215.1672287
-7.578558348e-05 -70.373466 224.7789699
-7.578558348e-05 -206.9685414 -78.9936316
-7.578558348e-05 -233.3403463 69.2068611
-7.578558348e-05 -202.4484377 -154.5395873
43.65761021 1.059561328e-10 -157.495176
-7.578558348e-05 -150.2502773 233.9350279
220.6351842 1.059561328e-10 -0.05723639994
39.18184221 1.059561328e-10 0.2231274001
81.41335421 -79.8768281 -250
-7.578558348e-05 -232.2190455 -101.954239
1.807815214 1.059561328e-10 125.0867377
-7.578558348e-05 -133.1809719 -190.821705
-0.8876717856 1.059561328e-10 -50.4273883
-7.578558348e-05 -164.0218413 35.3316563
-7.578558348e-05 -208.4483676 -113.7357074
66.19848921 1.059561328e-10 184.2049519
118.2524732 -187.9078052 -250
-7.578558348e-05 -84.4916615 -101.876117
-7.578558348e-05 -156.0026193 -134.9732051
29.21262421 -103.4197027 -250
65.17722321 -234.0244254 -250
202.8183732 -230.5366221 -250
-7.578558348e-05 -149.8009415 -183.492922
117.4963292 1.059561328e-10 161.544178
-7.578558348e-05 -87.0240347 -151.7074555
-7.578558348e-05 -156.3808994 122.9086487
-7.578558348e-05 -234.5505529 27.2021009
-7.578558348e-05 -16.8888301 -152.532019
194.5444612 -107.6905337 -250
206.1490012 1.059561328e-10 239.4503369
128.5375152 1.059561328e-10 -148.1691072
77.39240621 1.059561328e-10 13.4007262
183.5025052 1.059561328e-10 211.0820556
-7.578558348e-05 -232.1632406 -205.9788424
222.7557032 -20.0068447 -250
78.26044521 1.059561328e-10 91.8489354
131.7812862 -127.7432877 -250
162.2873952 1.059561328e-10 64.5190599
8.483680214 1.059561328e-10 -236.0308908
43.91322021 1.059561328e-10 -242.2098452
234.7102582 1.059561328e-10 221.5594278
123.7382282 1.059561328e-10 -27.0984545
38.38324921 1.059561328e-10 80.5696151
-7.578558348e-05 -234.5831166 -182.8701292
190.7066422 1.059561328e-10 -80.763015
23.60363721 1.059561328e-10 31.6092648
-7.578558348e-05 -75.1174342 188.8217807
76.23778921 1.059561328e-10 56.0395143
-7.578558348e-05 -213.1180668 -212.7629284
-7.578558348e-05 -66.2612404 109.5679841
-7.578558348e-05 -199.5117566 100.513144
-7.578558348e-05 -109.0743544 -126.1063574
-7.578558348e-05 -236.3155281 -29.5241802
163.1499202 -125.8860966 -250
84.69812021 1.059561328e-10 -201.7416755
102.8526772 1.059561328e-10 42.0655098
-7.578558348e-05 -54.6886475 165.0724137
115.3859412 1.059561328e-10 103.0715106
-7.578558348e-05 -239.1305305 91.8322411
54.64694821 -96.65895 -250
-7.578558348e-05 -136.574096 215.3380889
17.78519721 -160.9897744 -250
203.5514312 -168.7526328 -250
-7.578558348e-05 -41.9900966 -85.2833718
-7.578558348e-05 -82.6993596 -235.3610159
-7.578558348e-05 -185.8161087 -89.4509774
-7.578558348e-05 -77.4514683 -24.8300433
194.2291582 1.059561328e-10 -210.7097082
16.00520021 1.059561328e-10 -178.0547718
8.658524214 1.059561328e-10 -67.4657117
125.3842192 1.059561328e-10 -205.9646604
80.59503021 1.059561328e-10 230.3804386
-7.578558348e-05 -42.516842 -221.6866
-7.578558348e-05 -15.4341895 200.7413874
182.2231512 1.059561328e-10 -107.7842838
-7.578558348e-05 -234.9415029 -134.1888147
60.31544021 -136.4512675 -250
140.3491442 1.059561328e-10 -233.4504859
91.76372321 1.059561328e-10 -234.814348
117.2516752 1.059561328e-10 8.0201732
171.2869172 1.059561328e-10 99.8882684
-7.578558348e-05 -79.6097346 155.522046
169.0896512 1.059561328e-10 130.9503455
44.28990121 1.059561328e-10 -97.8087738
58.79516021 1.059561328e-10 148.5319174
18.79073921 1.059561328e-10 230.6236201
-0.2265127856 1.059561328e-10 88.6208193
-7.578558348e-05 -15.4514187 -172.1507706
191.4826522 1.059561328e-10 107.6674982
26.21844621 1.059561328e-10 -32.8071516
6.879773214 -58.446619 -250
123.6033222 1.059561328e-10 43.3848524
-7.578558348e-05 -121.6049806 174.9954365
-7.578558348e-05 -96.6682895 -205.1701416
-7.578558348e-05 -71.8009141 -207.7402126
-7.578558348e-05 -71.8081459 46.3452328
-7.578558348e-05 -228.86529 244.0470136
121.5425572 1.059561328e-10 193.4386284
243.5263372 -202.3728391 -250
15.44142921 1.059561328e-10 -121.9862992
213.7919842 1.059561328e-10 -101.850699
13.91881921 1.059561328e-10 174.7454038
-7.578558348e-05 -105.6510934 135.5241866
-7.578558348e-05 -51.0401551 78.8645807
130.2448862 1.059561328e-10 -127.8956221
-7.578558348e-05 -173.5021897 -35.0644219
214.7325732 1.059561328e-10 -164.1083885
16.34743921 1.059561328e-10 3.5821629
-7.578558348e-05 -240.3250971 159.1340057
38.66605821 1.059561328e-10 172.356288
229.4316032 1.059561328e-10 100.4117666
225.6395152 -172.2048228 -250
-7.578558348e-05 -15.9136204 223.3233549
-7.578558348e-05 -170.6192712 17.9278961
194.6436502 -0.5475017999 -250
-7.578558348e-05 -18.2420705 94.7533488
15.88459521 -140.7464615 -250
-7.578558348e-05 -201.3368653 18.2731013
-7.578558348e-05 -43.1576837 10.2849003
107.3037422 -166.2497779 -250
216.3055022 1.059561328e-10 33.5306011
88.59431721 1.059561328e-10 108.2964623
-7.578558348e-05 -204.3580091 -34.5521344
195.4865382 -17.2073357 -250
-1.454436786 1.059561328e-10 149.7158624
115.0775612 -145.6047301 -250
236.3662442 1.059561328e-10 130.333964
225.3949422 1.059561328e-10 -45.2596989
-7.578558348e-05 -168.3731812 -77.4288926
126.0035162 -38.8516676 -250
-7.578558348e-05 -56.5648396 202.2009122
45.50258321 -208.4668252 -250
-7.578558348e-05 -251.3936019 53.8951131
-7.578558348e-05 -195.8626223 84.4857377
-7.578558348e-05 -139.9029447 -155.9597011
90.30920721 1.059561328e-10 -86.2017513
182.2964892 1.059561328e-10 36.0152058
-7.578558348e-05 -223.8778758 -241.2993831
247.4032912 1.059561328e-10 -134.9030268
63.35604121 1.059561328e-10 -236.5699746
-7.578558348e-05 -135.9123671 115.0721723
159.2614192 1.059561328e-10 -235.1992912
-7.578558348e-05 -100.720488 -182.2761
54.98779221 -76.0341131 -250
234.7904172 1.059561328e-10 -175.0431125
-7.578558348e-05 -47.8043985 -181.9325841
-7.578558348e-05 -220.2355823 139.4318554
13.09836321 1.059561328e-10 -98.7532454
41.20379521 1.059561328e-10 -125.4414246
-7.578558348e-05 -214.2729105 3.758321
168.1959772 1.059561328e-10 -66.3680726
-7.578558348e-05 -56.9477471 -80.0966671
-7.578558348e-05 -97.7335488 210.6465038
148.2205412 -93.9354768 -250
180.1980432 1.059561328e-10 -234.4747952
60.48947921 -25.5456274 -250
238.2849202 -48.3163352 -250
-7.578558348e-05 -186.6749107 -144.4764217
-7.578558348e-05 -131.2479945 -48.0381916
73.70867921 1.059561328e-10 -120.5299448
-7.578558348e-05 -166.8111377 -112.2258688
-7.578558348e-05 -94.6968736 92.9735994
92.35818121 1.059561328e-10 77.4706295
57.87321621 1.059561328e-10 132.6190164
-7.578558348e-05 -94.9064902 -46.0661046
-7.578558348e-05 -172.8320589 149.4047142
-7.578558348e-05 -48.582716 -135.8164533
43.77522621 1.059561328e-10 18.1058525
219.4347752 1.059561328e-10 84.8454864
238.9830752 1.059561328e-10 26.077171
-7.578558348e-05 -244.2603361 119.4838736
-7.578558348e-05 -202.3918529 57.7014084
165.9932242 -7.9319015 -250
37.48995221 -163.9584745 -250
184.5626712 1.059561328e-10 -4.5830405
148.9344302 1.059561328e-10 -40.9310886
81.69971421 -51.4849296 -250
87.44046521 1.059561328e-10 141.6923455
124.2461832 1.059561328e-10 219.9791204
-7.578558348e-05 -11.4177921 -95.4117075
-7.578558348e-05 -26.6919875 125.4835481
-7.578558348e-05 -85.2229476 248.7585832
65.56730821 1.059561328e-10 -210.9639462
-7.578558348e-05 -99.4589199 158.1152296
168.4379282 1.059561328e-10 16.8001387
158.3512412 1.059561328e-10 49.458453
1.161796214 -89.8642367 -250
-7.578558348e-05 -231.8833227 7.1842619
-7.578558348e-05 -51.1117864 -38.3132311
239.6040412 1.059561328e-10 52.8235041
-7.578558348e-05 -229.4811384 206.8206454
205.7809802 -45.7047538 -250
-7.578558348e-05 -159.0880895 -171.245845
57.55489421 1.059561328e-10 -63.7599131
165.2842932 1.059561328e-10 177.2528034
150.8748012 1.059561328e-10 -9.404503
121.5058032 1.059561328e-10 71.2943252
220.6134532 1.059561328e-10 119.6681222
6.702884214 1.059561328e-10 -204.0339926
-7.578558348e-05 -90.4978813 176.920622
-7.578558348e-05 -133.4160178 -20.1872332
-7.578558348e-05 -68.016718 -188.7554299
142.1599532 -12.4585809 -250
231.9356112 1.059561328e-10 -112.1290044
224.0685562 -123.945264 -250
-7.578558348e-05 -12.6057023 -231.4071314
194.4887342 1.059561328e-10 9.0266531
-7.578558348e-05 -35.5768823 -195.2991807
156.6615612 1.059561328e-10 -76.2171551
-7.578558348e-05 -16.010871 6.8374897
-7.578558348e-05 -107.8061882 57.1018638
206.9884282 1.059561328e-10 54.3567466
-7.578558348e-05 -176.4255048 -235.2814225
-7.578558348e-05 -211.1799323 -181.2859468
48.71677321 1.059561328e-10 183.3861477
-7.578558348e-05 -223.6102401 80.5147198
60.24680321 1.059561328e-10 -152.1653118
33.42068321 1.059561328e-10 116.066193
18.78813721 -192.9900267 -250
223.0070072 1.059561328e-10 -199.3570725
46.99327321 1.059561328e-10 -182.7913864
147.6793412 -127.8100847 -250
183.4008522 1.059561328e-10 -138.1666884
114.5211092 1.059561328e-10 -78.2978038
166.1155572 -234.3537688 -250
247.7555762 1.059561328e-10 151.0352903
177.3779892 1.059561328e-10 236.6623619
58.75490221 1.059561328e-10 58.8499367
11.91692721 1.059561328e-10 -29.0953383
129.1295632 0.1199343001 250
-7.578558348e-05 -185.1657227 140.0651019
228.8632972 -76.2290472 -250
35.14745021 -218.913395 -250
-7.578558348e-05 -243.5399931 -120.7220494
-7.578558348e-05 -136.5655728 -121.820718
165.9126832 1.059561328e-10 -175.6557659
31.85922621 -16.6715868 -250
-7.578558348e-05 -48.0081978 64.4963652
-7.578558348e-05 -29.3588624 -64.6135187
206.7881282 1.059561328e-10 -132.599492
-7.578558348e-05 -22.4252399 63.7621337
236.5821452 1.059561328e-10 -234.2328288
-7.578558348e-05 -71.8858225 94.6309299
132.8351932 -219.6545306 -250
167.8447932 1.059561328e-10 -205.8332523
-7.578558348e-05 -158.2199926 -1.0638452
84.98756721 -237.9790823 -250
-7.578558348e-05 -230.1485123 -50.4042408
-7.578558348e-05 -128.9005195 77.2671397
39.62172621 1.059561328e-10 -143.4876883
138.3162522 1.059561328e-10 88.7002279
-7.578558348e-05 -191.1386 172.1200713
-7.578558348e-05 -122.6382519 -72.8808812
-7.578558348e-05 -99.7492598 -236.6736609
195.5913982 1.059561328e-10 -163.5081564
-7.578558348e-05 -110.6365503 37.8748259
-1.362576786 -202.6640565 -250
-7.578558348e-05 -98.0874525 -109.1774811
103.5670632 1.059561328e-10 165.560849
-7.578558348e-05 -121.9334784 190.766087
-7.578558348e-05 -6.8261758 182.4132112
131.6511422 1.059561328e-10 6.5594422
-7.578558348e-05 -244.7471002 -3.9385854
-7.578558348e-05 -35.3242001 -19.1913569
-7.578558348e-05 -157.0365778 68.6750481
-7.578558348e-05 -184.0078978 -174.0393922
240.1810142 -232.8605041 -250
11.84157121 1.059561328e-10 -136.3700126
122.8293352 1.059561328e-10 124.9088961
-7.578558348e-05 -207.6764023 154.3937092
70.65211521 1.059561328e-10 169.1137961
-7.578558348e-05 -114.1670039 -97.5451311
98.03689121 1.059561328e-10 -194.6276275
30.09322921 1.059561328e-10 -91.3989701
156.1374732 1.059561328e-10 120.9308407
74.66447021 1.059561328e-10 122.9328768
237.0995122 1.059561328e-10 -145.0238574
137.2992022 -68.5371148 -250
-7.578558348e-05 -234.5298855 146.1909574
109.0812432 1.059561328e-10 -230.0410102
-7.578558348e-05 -145.0970529 6.1460159
-0.6774737856 1.059561328e-10 201.7644534
82.33834721 -175.5416634 -250
109.7282952 1.059561328e-10 85.3841808
-7.578558348e-05 -154.2374973 -38.3665003
-7.578558348e-05 -23.5054619 -140.0315757
100.9172942 1.059561328e-10 -144.3254199
-7.578558348e-05 -63.0286207 -10.472982
-7.578558348e-05 -172.6530856 249.6265977
123.9409662 1.059561328e-10 57.446982
-7.578558348e-05 -223.1190419 35.3792356
-7.578558348e-05 -116.0900014 -30.7473024
200.9385762 1.059561328e-10 -48.9068386
113.7003752 1.059561328e-10 -151.5551894
238.7749822 1.059561328e-10 202.403067
38.74450921 -235.0565934 -250
211.7405592 -218.50404 -250
68.45979921 -159.4226439 -250
-7.578558348e-05 -39.8179426 109.0896044
43.77561721 1.059561328e-10 154.4180469
146.5847362 -155.6298855 -250
-7.578558348e-05 -75.3952437 -112.4293284
10.18185621 1.059561328e-10 211.9395042
-7.578558348e-05 -43.2826711 149.0888412
235.4461582 1.059561328e-10 -1.0806961
105.1101862 1.059561328e-10 134.901172
182.7423922 1.059561328e-10 -93.6870809
-7.578558348e-05 -232.7811232 -153.6940907
-7.578558348e-05 -209.1490713 -226.4612016
39.92036021 1.059561328e-10 201.8023326
150.4635122 1.059561328e-10 -120.5968822
247.4324952 1.059561328e-10 75.1187149
147.2970322 1.059561328e-10 164.1452007
-7.578558348e-05 -232.1047307 106.2515196
235.5971502 -93.9045445 -250
177.4202362 1.059561328e-10 68.6470685
65.44668721 -117.7162663 -250
-7.578558348e-05 -246.1015641 -95.7900193
43.74204121 -146.8915579 -250
110.0754772 1.059561328e-10 -181.2714025
164.8387572 1.059561328e-10 -157.9362299
224.8939362 1.059561328e-10 62.8729441
94.75921621 1.059561328e-10 60.2951608
133.9666362 1.059561328e-10 34.3129042
-7.578558348e-05 -107.8045152 -56.3273338
15.34999321 -175.3416937 -250
74.64725821 1.059561328e-10 -189.3904289
-0.9006177856 -251.3952406 -250
33.99005721 -42.338994 -250
89.45400621 -21.0770553 -250
124.9658222 -115.8091095 -250
7.839472214 1.059561328e-10 21.2681006
-7.578558348e-05 -143.2029109 -142.5336371
-7.578558348e-05 -212.0992729 213.8220936
11.94078121 1.059561328e-10 160.5066653
137.2816422 1.059561328e-10 141.229081
-7.578558348e-05 -216.4459534 234.291499
51.19828921 1.059561328e-10 233.9755096
217.8207182 1.059561328e-10 207.7690362
-7.578558348e-05 -22.8428754 -183.6146763
163.6226272 1.059561328e-10 246.6394353
116.5262962 1.059561328e-10 206.1156453
207.7857412 -96.9464268 -250
-7.578558348e-05 -241.0019253 -216.3190265
192.5173922 1.059561328e-10 237.8269908
249.4114322 1.059561328e-10 106.1730837
77.32251721 1.059561328e-10 -170.6183167
24.63778621 1.059561328e-10 133.7740542
116.3050032 -222.2864345 -250
14.03758421 1.059561328e-10 60.1924243
-7.578558348e-05 -31.1059524 4.061923
18.12777821 -75.1189197 -250
69.02259921 1.059561328e-10 34.9289728
141.1110412 1.059561328e-10 -53.9430126
62.52798921 -220.7642269 -250
248.8386622 1.059561328e-10 122.8922372
134.2246642 -103.8591425 -250
-7.578558348e-05 -240.0567506 -233.1629833
79.97070621 -250.5110768 -250
16.96650321 -49.4923634 -250
229.2474312 1.059561328e-10 233.888491
165.6681802 1.059561328e-10 147.4244519
136.1076012 1.059561328e-10 -219.3469577
-7.578558348e-05 -181.7979774 58.3605272
-7.578558348e-05 -173.3728468 234.8196203
28.14464621 1.059561328e-10 -236.5646637
-1.848522786 -171.445004 -250
111.4515002 1.059561328e-10 236.6360406
166.5914192 -63.9101442 -250
93.16825221 1.059561328e-10 -36.1364082
-7.578558348e-05 -177.5146551 164.7272873
-7.578558348e-05 -251.7881714 150.5553965
233.8302342 1.059561328e-10 -190.6883022
-7.578558348e-05 -120.8929642 -59.153383
250.6645102 1.059561328e-10 -89.7622018
186.6292522 1.059561328e-10 158.3098516
143.9422242 1.059561328e-10 -67.4600424
-7.578558348e-05 -59.0218977 -214.7989825
-7.578558348e-05 -12.4383175 -45.6227924
-7.578558348e-05 -168.5140739 91.5647599
189.5288432 -61.7057614 -250
-7.578558348e-05 -29.3559313 -210.5038516
219.1759452 -233.3326965 -250
152.0835472 -183.2354187 -250
-7.578558348e-05 -199.9336869 245.7854477
146.5444102 -29.7955319 -250
203.4040332 1.059561328e-10 -84.7807847
78.43277621 1.059561328e-10 151.4988057
-7.578558348e-05 -75.0196045 59.2571154
-7.578558348e-05 -236.5875355 224.5728567
102.2708042 -153.5182908 -250
115.1727912 -252.4827953 -250
144.9478272 1.059561328e-10 208.9189942
195.4468892 1.059561328e-10 137.5920752
64.50547821 -0.06940149989 -250
38.36827321 1.059561328e-10 -214.4047986
-1.435767786 1.059561328e-10 -125.7781715
59.94092721 1.059561328e-10 -50.7629475
12.41736221 1.059561328e-10 107.6287158
-7.578558348e-05 -245.0199399 -147.7854927
-7.578558348e-05 -93.878237 -138.3859666
124.2118032 -156.3495612 -250
193.2290102 1.059561328e-10 -148.3026834
143.0636022 1.059561328e-10 -154.7990796
128.7932772 -251.1297474 -250
143.8789692 1.059561328e-10 -179.4754371
211.7738172 1.059561328e-10 9.6541941
16.02966721 -104.8972599 -250
67.18555921 1.059561328e-10 -136.9661964
12.55595621 1.059561328e-10 -248.5147353
-7.578558348e-05 -33.999142 43.5120294
248.2593562 1.059561328e-10 236.5706606
-7.578558348e-05 -73.1070608 19.9582393
-7.578558348e-05 -134.9757219 -78.3964709
83.83985121 1.059561328e-10 -0.9907530999
-7.578558348e-05 -155.2006392 -67.0183173
-7.578558348e-05 -249.574977 191.4340001
12.18303721 1.059561328e-10 -83.606221
-7.578558348e-05 -99.6951712 29.2112662
-7.578558348e-05 -89.495844 72.2111775
-7.578558348e-05 -148.0691618 -238.6011029
205.8529042 -154.1393207 -250
31.03190821 -78.0987239 -250
88.73719721 -213.906096 -250
-7.578558348e-05 -82.9856828 33.523586
98.79803921 -124.2451236 -250
181.2184462 1.059561328e-10 -211.1868549
243.6672332 1.059561328e-10 -106.0400652
224.9907832 1.059561328e-10 -140.2720712
91.14571621 -194.5228403 -250
108.4890432 1.059561328e-10 72.451284
241.0279112 -80.7746204 -250
57.21251521 1.059561328e-10 1.6265447
120.9237672 1.059561328e-10 -39.772648
-7.578558348e-05 -119.3432131 220.0050676
-7.578558348e-05 -97.6142647 -78.4411527
-7.578558348e-05 -132.0813968 202.7377286
-7.578558348e-05 -119.7209917 238.6866385
109.5756822 1.059561328e-10 -115.4673574
-7.578558348e-05 -215.5703542 -26.8287548
-7.578558348e-05 -88.0144342 -178.984619
193.6688372 -200.214145 -250
108.3588992 -104.5571654 -250
-7.578558348e-05 -167.5544751 -149.4464696
212.5136032 1.059561328e-10 -57.0536939
-7.578558348e-05 -67.6016808 -72.2809836
148.7857362 1.059561328e-10 66.3424145
114.1137942 -34.1265173 -250
-7.578558348e-05 -26.394569 152.0042275
200.3134402 -181.7892677 -250
-7.578558348e-05 -219.9814964 -107.6283556
61.88178621 1.059561328e-10 -81.0449427
251.6199462 1.059561328e-10 -27.2671992
190.6426972 -32.2020386 -250
-7.578558348e-05 -166.7813299 207.9475575
104.9891802 1.059561328e-10 -49.0674138
178.0982792 -196.8030964 -250
178.0797412 1.059561328e-10 -35.1777263
-7.578558348e-05 -113.7644216 -241.1450427
-7.578558348e-05 -136.868076 151.0854215
111.3410112 1.059561328e-10 -3.2224242
-7.578558348e-05 -237.9348116 -74.6302516
-7.578558348e-05 -116.8063065 -227.2802884
133.7914362 1.059561328e-10 -113.4463313
236.9063052 1.059561328e-10 -23.9794073
-7.578558348e-05 -158.4366188 46.7076993
-7.578558348e-05 -181.0011408 -55.4279616
-7.578558348e-05 -176.1903584 -101.3941106
-7.578558348e-05 -127.6576522 -103.1207884
-7.578558348e-05 -62.64411 125.4993149
86.14479921 1.059561328e-10 -65.3932337
-7.578558348e-05 -176.8285399 35.029122
-7.578558348e-05 -93.9411188 223.263533
-7.578558348e-05 -210.208184 -164.4991762
37.42247821 1.059561328e-10 -79.4313216
125.2117912 1.059561328e-10 -190.7242637
-7.578558348e-05 -19.8940265 -25.1125576
55.66311121 -54.7337956 -250
-7.578558348e-05 -190.697514 228.8737411
-7.578558348e-05 -159.2169985 168.1388495
118.1283382 1.059561328e-10 174.0983982
-0.04013978558 -14.6260511 -250
92.41596621 1.059561328e-10 154.4878773
82.44252421 -102.9111639 -250
217.6495072 1.059561328e-10 183.3693376
-7.578558348e-05 -43.3622943 233.0933901
-7.578558348e-05 -123.0434912 137.4165001
183.9352012 1.059561328e-10 -70.1993952
112.6241962 1.059561328e-10 -210.5536811
-7.578558348e-05 -118.3101929 162.8906907
168.2393752 -152.6877885 -250
174.7564642 -33.926647 -250
-7.578558348e-05 -217.940774 51.0802503
-1.210283786 -126.3302286 250
-7.578558348e-05 -77.6434522 142.5431452
-7.578558348e-05 -117.7187418 112.2906417
220.0293962 -50.6701992 -250
9.495804214 1.059561328e-10 80.7858291
-7.578558348e-05 -92.6456175 -16.4125033
89.94779321 1.059561328e-10 -172.4165304
60.58748921 1.059561328e-10 -179.4138885
-7.578558348e-05 -3.0657812 -176.9068762
94.13699321 1.059561328e-10 248.4289534
55.52574921 1.059561328e-10 -17.6974794
-7.578558348e-05 -134.3351212 128.2779361
137.1462182 1.059561328e-10 -5.3009539
121.9332652 1.059561328e-10 -177.5420973
81.39609221 -67.4530922 -250
-7.578558348e-05 -128.376476 -34.294182
-7.578558348e-05 -13.7741848 -81.3017739
224.0141452 -146.1874283 -250
-7.578558348e-05 -218.3108168 -129.226545
43.01677721 1.059561328e-10 129.6775459
241.8679632 -5.962581 -250
228.7252092 1.059561328e-10 -33.2709537
-7.578558348e-05 -104.0354748 83.4569192
239.2986962 1.059561328e-10 182.763343
206.5547882 1.059561328e-10 114.2744528
60.74434921 -183.1602194 -250
108.3153922 1.059561328e-10 30.996925
-7.578558348e-05 -44.7086024 198.7729955
66.07102921 1.059561328e-10 -110.8525776
147.5656232 -54.8036412 -250
-7.578558348e-05 -10.0888315 19.0343481
-2.295196786 -157.0936063 -250
160.4024762 1.059561328e-10 -130.452497
220.2383992 1.1645601 -250
74.61794221 -191.6100843 -250
-7.578558348e-05 -110.3722995 -109.816942
-7.578558348e-05 -186.4782253 -0.6800859999
191.9585602 1.059561328e-10 -181.1353109
90.28996221 1.059561328e-10 -247.002889
25.26650021 1.059561328e-10 196.6340827
-7.578558348e-05 -148.0813874 221.8557777
-7.578558348e-05 -63.738458 -241.3254697
140.0480302 -41.5766796 -250
-7.578558348e-05 -158.7526696 -197.4957224
34.90907521 -56.1777891 -250
113.2409332 1.059561328e-10 -92.1143281
237.8899352 1.059561328e-10 -221.9287197
198.3597052 1.059561328e-10 -192.6455915
2.529879214 1.059561328e-10 138.1532386
8.158409214 -150.2251432 -250
32.37869821 -136.9123554 -250
211.3426922 1.059561328e-10 -195.7018945
-7.578558348e-05 -81.6767537 219.9455818
-7.578558348e-05 -214.4198279 184.1988651
-7.578558348e-05 -238.7079195 38.6943573
198.7536752 1.059561328e-10 76.856613
-1.084392786 -41.0181855 -250
232.8031922 1.059561328e-10 165.1216633
234.3047872 1.059561328e-10 89.2334781
-7.578558348e-05 -166.7808164 -45.233365
37.56804721 1.059561328e-10 46.7473013
-7.578558348e-05 -160.0387605 142.9081288
159.4204992 1.059561328e-10 218.6972724
219.5859672 -105.8789992 -250
179.5796092 -227.0764859 -250
211.7634522 1.059561328e-10 -235.2680179
-7.578558348e-05 -189.0344626 -162.9826665
-7.578558348e-05 -192.7595985 -30.9702829
66.22656521 1.059561328e-10 93.3625738
-7.578558348e-05 -200.1523352 -212.7176855
-7.578558348e-05 -236.869111 -165.1085597
-7.578558348e-05 -67.9813911 158.9506219
194.7654982 -95.5716086 -250
-7.578558348e-05 -60.5522852 -137.7204588
211.5031882 1.059561328e-10 -73.4436886
110.9658522 1.059561328e-10 -66.7207192
96.57652321 1.059561328e-10 175.4469935
-7.578558348e-05 -32.7322453 218.6535129
-7.578558348e-05 -53.1332057 137.4311566
233.8819682 1.059561328e-10 10.8860925
81.75626921 1.059561328e-10 -48.4734046
115.3805662 -83.5460285 -250
144.0517972 -139.3101528 -250
178.3065782 -129.7446599 -250
29.91588621 1.059561328e-10 -155.54099
-7.578558348e-05 -199.5742796 215.5655974
40.55429721 1.059561328e-10 -29.4091419
216.1752622 1.059561328e-10 155.2421739
28.11995021 1.059561328e-10 238.7089309
238.3896212 -118.8254605 -250
64.00420021 1.059561328e-10 212.5695503
-7.578558348e-05 -96.8911129 14.1739036
81.80028921 -32.562865 -250
140.9686422 1.059561328e-10 237.5686817
-7.578558348e-05 -71.3967111 -156.1766942
-7.578558348e-05 -213.843538 87.4396068
-1.408180786 -214.6167293 -250
137.4102882 1.059561328e-10 -247.0857787
-7.578558348e-05 -73.2956447 249.4179882
96.71486421 1.059561328e-10 -206.4974909
162.8018882 1.059561328e-10 -9.9408571
86.89043521 1.059561328e-10 220.2519415
160.7255582 -33.5605019 -250
-7.578558348e-05 -26.8244417 241.7774816
-7.578558348e-05 -79.841506 -67.9942097
-7.578558348e-05 -206.9555556 28.7774518
181.3602552 1.059561328e-10 -125.9689866
71.36902821 -129.8247681 -250
48.86783221 -192.4795742 -250
-7.578558348e-05 -146.2080455 193.5244851
245.6189952 1.059561328e-10 -198.1308047
21.19812421 1.059561328e-10 -60.6865725
197.5494752 1.059561328e-10 169.3461874
31.85001921 1.059561328e-10 -43.2603158
217.7086732 -205.0737275 -250
-7.578558348e-05 -168.9101886 -10.513669
-7.578558348e-05 -136.4562058 -208.8865356
-7.578558348e-05 -220.2818831 -75.5059979
-7.578558348e-05 -33.9581012 18.2516992
-7.578558348e-05 -234.4458712 193.66195
196.8889402 -242.4585596 -250
-7.578558348e-05 -180.352447 105.2369573
7.455903214 1.7650403 250
-7.578558348e-05 -57.7683866 -49.7255361
152.4060842 -227.3438925 -250
21.83357521 -23.1507367 -250
169.4752812 1.059561328e-10 -109.3666286
-7.578558348e-05 -212.3311978 129.2345699
-7.578558348e-05 -50.3303518 -99.1830246
2.443149214 1.059561328e-10 -1.5185949
192.8413822 1.059561328e-10 -58.6440672
101.9572992 1.059561328e-10 14.0256621
-7.578558348e-05 -193.732876 204.6206635
182.6055512 1.059561328e-10 130.9863671
-7.578558348e-05 -34.8212147 -160.9290521
-7.578558348e-05 -174.1204407 -121.4971287
-7.578558348e-05 -14.6915124 -124.1061317
108.3227932 -180.0109931 -250
23.77319821 1.059561328e-10 181.0922995
-7.578558348e-05 -212.6301857 103.4680481
56.81727921 -171.3702395 -250
-7.578558348e-05 -222.9145055 -181.9172348
-7.578558348e-05 -201.3140823 69.3565844
-7.578558348e-05 -7.8347528 231.7929179
169.6392072 1.059561328e-10 40.1043825
242.7495642 -33.2645667 -250
136.7545002 1.059561328e-10 -203.2619957
73.04141021 1.059561328e-10 -201.1970027
32.36564721 1.059561328e-10 -11.174501
3.692822214 1.059561328e-10 -37.8160283
157.6115912 -248.0542244 -250
-7.578558348e-05 -44.2433184 172.3868675
-7.578558348e-05 -54.6073763 106.0343345
-7.578558348e-05 -67.7552248 -84.3667848
-7.578558348e-05 -110.5722455 -209.6848877
99.31304921 1.059561328e-10 -132.8245871
146.1946232 1.059561328e-10 114.6868375
129.8790172 1.059561328e-10 -56.7902533
-7.578558348e-05 -121.4997305 14.970987
74.23468021 1.059561328e-10 -17.015125
-7.578558348e-05 -123.6130197 87.5651576
81.96884021 1.059561328e-10 -146.9261236
234.8396792 -187.2221232 -250
-7.578558348e-05 -176.835876 -212.5567732
-7.578558348e-05 -157.9731349 193.6205907
112.5068612 -233.9498908 -250
227.7921402 1.059561328e-10 32.4551734
-7.578558348e-05 -27.0217101 74.3367228
100.5619542 -11.7526814 -250
-7.578558348e-05 -194.4686987 -17.9610686
-1.873894786 1.059561328e-10 -100.4680211
192.1862672 -226.0946746 -250
-7.578558348e-05 -121.3821311 49.1464053
58.55301821 -41.3858557 -250
-7.578558348e-05 -181.0793729 186.1356274
68.64693021 1.059561328e-10 197.8613114
-7.578558348e-05 -109.8587055 -163.1997991
-7.578558348e-05 -30.313249 -234.5729368
207.2996812 1.059561328e-10 214.7890965
-7.578558348e-05 -17.8999422 -211.4889266
135.5866022 1.059561328e-10 195.7384637
-7.578558348e-05 -109.2494576 211.1039572
-7.578558348e-05 -191.0583017 -227.7775264
232.7115552 -154.5512493 -250
215.6834932 1.059561328e-10 233.0940261
168.7789902 1.059561328e-10 -242.2167085
230.9370312 1.059561328e-10 -75.432933
42.63229321 1.059561328e-10 242.4204601
-1.909436786 1.059561328e-10 44.1105203
190.2660972 1.059561328e-10 189.6804593
-7.578558348e-05 -157.7700867 -225.6249076
208.0583672 1.059561328e-10 141.3933462
246.5799812 -150.5482179 -250
-7.578558348e-05 -77.924306 -52.6109775
149.2076822 1.059561328e-10 -191.7762266
-7.578558348e-05 -146.1577125 -129.2293187
27.82489821 1.059561328e-10 223.6760502
6.563867214 1.059561328e-10 -153.1278755
186.9513422 1.059561328e-10 53.4784995
28.35526221 -209.7056511 -250
-7.578558348e-05 -212.8433473 -238.5211965
155.2163332 1.059561328e-10 -88.9496046
234.6816862 1.059561328e-10 -56.348133
68.35633321 1.059561328e-10 156.7549535
196.8287902 -70.8777573 -250
-7.578558348e-05 -198.3279039 117.9622527
-7.578558348e-05 -10.1286035 33.3513563
-7.578558348e-05 -64.4176617 178.4238074
159.3089562 -211.9694181 -250
10.19214221 1.059561328e-10 -10.0424673
221.1904362 -250.2286077 -250
86.27232521 -135.9492206 -250
66.01157421 -78.5691881 -250
-7.578558348e-05 -25.5895078 -53.4506681
-7.578558348e-05 -136.3740177 -110.3046256
-7.578558348e-05 -126.226436 -199.6986057
-7.578558348e-05 -197.8578522 -72.3491989
-7.578558348e-05 -139.8525981 27.571584
44.06234121 1.059561328e-10 70.2674923
240.7268322 1.059561328e-10 99.01437
-7.578558348e-05 -32.8620796 -97.9190582
135.1917012 -158.8063749 -250
-7.578558348e-05 -185.1770334 -123.5028216
242.0075752 1.059561328e-10 -166.4397626
-7.578558348e-05 -235.4146287 -194.067184
-7.578558348e-05 -126.6407211 -165.6701834
205.9398052 1.059561328e-10 37.9361488
-7.578558348e-05 -174.0967409 49.6154034
-7.578558348e-05 -27.8476031 168.4362223
135.9429562 1.059561328e-10 -31.7594617
-7.578558348e-05 -152.969654 -99.6648492
235.1637082 1.059561328e-10 -204.882325
115.2821002 1.059561328e-10 -243.5449093
-7.578558348e-05 -91.8160922 131.5308773
119.3492772 -22.7254534 -250
208.4196612 -70.5957176 -250
94.22585921 1.059561328e-10 -24.4127795
-7.578558348e-05 -205.374561 204.9277208
-7.578558348e-05 -244.5445607 232.9723852
-7.578558348e-05 -196.1007907 39.963069
-7.578558348e-05 -173.1367395 121.8619222
172.6403352 1.059561328e-10 27.1008001
136.5283722 1.059561328e-10 169.5859891
12.95836221 1.059561328e-10 -165.1614838
-7.578558348e-05 -211.1236094 -199.9542201
154.1387172 1.059561328e-10 17.1003402
5.401332214 1.059561328e-10 70.4640696
38.65088221 -251.9658918 -250
218.1098902 1.059561328e-10 -148.9797573
74.92017521 1.059561328e-10 44.4331305
42.84520421 1.059561328e-10 -168.553957
68.91387421 1.059561328e-10 64.3601342
168.5703002 -186.7852189 -250
203.3830602 1.059561328e-10 -110.807361
-7.578558348e-05 -145.7704234 71.3028653
232.4609692 -131.1574668 -250
33.09131321 1.059561328e-10 64.1668812
-7.578558348e-05 -79.2547165 -127.4364504
-7.578558348e-05 -72.2317708 78.7437705
188.7832502 -134.6505202 -250
-7.578558348e-05 -106.9764758 -23.5087781
-7.578558348e-05 -220.0205067 166.1299137
4.169421214 1.059561328e-10 -91.1650371
-7.578558348e-05 -244.5924633 22.6787672
-7.578558348e-05 -185.4892436 -190.541144
231.4803132 -206.8518496 -250
162.4921922 1.059561328e-10 81.7316009
43.99291721 -76.1032337 -250
48.20355221 1.059561328e-10 -205.4446982
239.5070962 1.059561328e-10 -121.8014107
-7.578558348e-05 -133.4804652 -221.5396379
63.42245221 -146.9812609 -250
64.50998721 -103.1999448 -250
249.3773082 1.059561328e-10 -221.1475724
-7.578558348e-05 -5.3824285 -62.5762677
98.07290121 -46.8829871 -250
216.6916772 -194.1547283 -250
127.6113212 -229.7294338 -250
201.9285422 1.059561328e-10 -220.1481907
213.9800082 1.059561328e-10 -28.2758162
159.3523092 -55.6967669 -250
-7.578558348e-05 -10.7324948 -113.9102164
187.6951372 1.059561328e-10 -226.1791089
155.1759052 1.059561328e-10 173.1262894
-2.137073786 -33.9102135 250
-7.578558348e-05 -76.0512939 236.7670092
160.7292732 1.059561328e-10 97.1571182
178.0788692 1.059561328e-10 10.6306203
12.77529721 1.059561328e-10 -193.7029922
83.27972221 1.059561328e-10 248.1374486
137.3453492 1.059561328e-10 104.2727741
-7.578558348e-05 -70.9121332 198.8220023
6.259189214 1.059561328e-10 52.6305948
-1.359497786 1.059561328e-10 190.7191158
43.05651121 1.059561328e-10 -110.0194751
148.7834522 1.059561328e-10 -226.650285
200.9572092 -138.5918867 -250
-1.847841786 -52.0406441 -250
13.32819221 1.059561328e-10 130.1493924
-7.578558348e-05 -129.5117208 -242.8482135
-7.578558348e-05 -35.3001751 183.2108714
55.31906821 1.059561328e-10 -243.8138229
-7.578558348e-05 -99.7595877 -193.0387591
115.3936852 1.059561328e-10 -126.9396255
199.3194802 1.059561328e-10 -32.8390505
-7.578558348e-05 -223.8205303 -214.602896
-7.578558348e-05 -236.1441861 -62.5394856
191.0648862 -162.2143898 -250
-7.578558348e-05 -74.2195348 -218.2338265
166.9085992 -97.4447706 -250
-7.578558348e-05 -100.9446736 101.7270879
-7.578558348e-05 -134.3616867 5.9504375
38.66029821 1.059561328e-10 -232.8522487
56.57762821 1.059561328e-10 -124.7288012
-7.578558348e-05 -197.9512929 -84.7847355
-7.578558348e-05 -193.0284032 -114.4956187
-7.578558348e-05 -148.7737237 244.5464325
-7.578558348e-05 -136.3863024 176.6701451
154.0403852 1.059561328e-10 -101.140348
-7.578558348e-05 -11.7294896 66.4522775
204.1393492 1.059561328e-10 -243.9154201
-7.578558348e-05 -99.428324 49.9537275
133.7792352 1.059561328e-10 -138.2240549
161.5642402 1.059561328e-10 -26.0506305
-7.578558348e-05 -155.5073127 -48.9834615
168.0639012 -21.0317745 -250
62.76439221 1.9344775 250
51.46830921 1.059561328e-10 -233.126079
252.1160132 1.059561328e-10 183.0398792
-7.578558348e-05 -247.8038462 85.598926
207.5863642 0.6231204001 250
-7.578558348e-05 -141.7845935 -89.1732374
-7.578558348e-05 -53.0865898 -14.8127039
104.5221802 -66.8304657 -250
219.1477332 1.059561328e-10 103.2068744
-7.578558348e-05 -13.3506885 126.635103
-7.578558348e-05 -53.6742377 40.3715475
103.6277742 -190.2132727 -250
-7.578558348e-05 -64.7727769 -112.9358805
-7.578558348e-05 -128.5841852 -148.2583007
-7.578558348e-05 -152.1800312 38.1138731
241.0618192 1.059561328e-10 -66.5057872
-7.578558348e-05 -168.6999947 -227.998625
-7.578558348e-05 -219.755056 116.7607535
-7.578558348e-05 -26.0996018 -118.3975843
184.1265492 1.059561328e-10 -26.4800633
-7.578558348e-05 -44.2792399 -115.9519224
148.3466112 1.059561328e-10 53.9509028
-7.578558348e-05 -232.6149113 133.8634114
-7.578558348e-05 -145.1200799 126.37097
226.3790882 -10.074882 -250
-7.578558348e-05 -200.1388892 179.5144763
65.79501121 -16.4037536 -250
207.2204192 1.059561328e-10 226.0132979
97.89326521 -27.4222882 -250
36.44196921 1.059561328e-10 162.0112419
-7.578558348e-05 -143.2638258 -44.3399151
65.32744321 1.059561328e-10 -221.7977674
28.86513221 1.059561328e-10 2.4052627
250.1738942 -106.9949225 -250
44.93379921 -10.7559233 -250
-7.578558348e-05 -216.0580938 -155.7411688
-7.578558348e-05 -157.0999763 214.3346476
-7.578558348e-05 -186.7110848 -101.0017215
53.56148321 1.059561328e-10 14.2438636
235.9711672 1.059561328e-10 64.2458545
-7.578558348e-05 -155.1985271 57.7798254
168.7602622 -74.910247 -250
-7.578558348e-05 -206.619205 -5.6025972
156.5238852 1.059561328e-10 -112.0177672
155.6099082 -9.4934988 -250
-7.578558348e-05 -112.6170163 -187.6744192
-7.578558348e-05 -240.7013942 214.9147841
-1.964602786 1.059561328e-10 -26.0703247
173.3635642 1.059561328e-10 208.3766996
-1.880775786 1.059561328e-10 25.180293
-7.578558348e-05 -53.5855065 150.9946334
-7.578558348e-05 -213.9669926 -86.7887792
-7.578558348e-05 -83.9121153 194.5088582
245.1384392 1.059561328e-10 43.9343113
93.55106121 1.059561328e-10 -110.2166857
246.9271232 -126.703511 -250
186.5066482 -175.561902 -250
95.95705421 -98.7465943 -250
114.0080482 -116.1902499 -250
75.59011121 -233.2597455 -250
-7.578558348e-05 -168.5247581 -202.9732978
-7.578558348e-05 -240.4795072 76.8096096
-7.578558348e-05 -42.5402098 -26.7169433
91.94011221 1.059561328e-10 49.5947352
122.8933582 -138.7240106 -250
90.58978221 -168.285561 -250
248.9487892 1.059561328e-10 204.5781404
