# .PCD v0.7 - Point Cloud Data file format
VERSION 0.7
FIELDS x y z
SIZE 4 4 4
TYPE F F F
COUNT 1 1 1
WIDTH 1244
HEIGHT 1
VIEWPOINT 0 0 0 1 0 0 0
POINTS 1244
DATA ascii
46.91721699 -1.552502556e-05 165.5754308
140.478005 103.0029932 3.728928277e-11
-194.179852 51.30855787 73.8659013
211.322464 -1.552502556e-05 0.12414218
194.179889 191.3594877 221.6027439
147.367028 -1.552502556e-05 110.9808658
25.24719799 -1.552502556e-05 155.9117688
194.179889 23.66745517 2.03371423
9.391498989 104.1127866 3.728928277e-11
194.179889 49.27750777 62.910329
182.450123 -1.552502556e-05 197.0936072
194.179889 180.7532321 160.9755699
-95.35930801 -1.552502556e-05 41.80070519
95.14523899 -1.706227825 3.728928277e-11
-204.1401587 -1.552502556e-05 124.612521
-114.388926 -1.552502556e-05 21.65531255
-66.37613001 -1.552502556e-05 128.6160426
-165.021284 -1.552502556e-05 133.2684865
194.179889 149.6062098 228.3041617
-108.406807 81.42246087 3.728928277e-11
-118.113707 37.44397777 3.728928277e-11
217.535776 -1.552502556e-05 221.8408941
104.854372 -1.552502556e-05 118.8038747
-98.10291201 -1.806001825 3.728928277e-11
-192.189367 206.8596564 3.728928277e-11
197.487944 74.10580127 3.728928277e-11
194.179889 105.8494176 227.3201104
-194.179852 88.65154667 193.8096454
-216.6826911 -1.552502556e-05 164.2416009
102.157145 202.8743584 3.728928277e-11
194.179889 217.5674994 190.6535625
-194.179852 221.4330629 151.407618
-37.76116301 -1.552502556e-05 122.1731741
-175.396973 162.2416996 3.728928277e-11
-193.080073 27.11805607 3.728928277e-11
198.982158 -1.552502556e-05 74.5173348
-194.179852 183.3389026 217.1405694
194.179889 76.65244787 228.2642029
-162.475683 112.3821769 3.728928277e-11
-46.83194001 222.431579 3.728928277e-11
92.48923299 -1.552502556e-05 164.8064234
194.179889 190.9569441 194.9808557
-194.179852 116.4431124 158.842676
-99.31342401 -1.552502556e-05 162.5807492
-78.28876901 194.4923681 3.728928277e-11
-115.316561 -1.552502556e-05 194.7760636
207.566514 -1.552502556e-05 40.22690575
-194.179852 1.411673175 206.0623545
32.89968799 -1.552502556e-05 97.9726515
137.750034 199.167568 3.728928277e-11
4.150884989 -1.552502556e-05 199.5548947
194.179889 56.24510537 42.51135906
-194.179852 222.6055765 219.4608646
15.65658399 27.44362987 3.728928277e-11
198.768735 220.441033 3.728928277e-11
-66.63800301 -1.552502556e-05 21.28251586
-194.179852 99.53183657 145.2029853
-194.179852 252.3537701 122.7693996
66.73735499 -1.552502556e-05 223.6499725
-194.179852 249.7344407 55.46852857
164.191129 -1.552502556e-05 133.6574753
-194.179852 76.35377757 103.0381976
162.963944 -1.552502556e-05 58.57962161
194.179889 141.9684922 142.6640951
-194.179852 193.6298603 165.9191474
-80.38806201 38.00140277 3.728928277e-11
48.52329299 85.16489127 3.728928277e-11
83.89111199 103.7947916 3.728928277e-11
-54.69508501 71.44985237 3.728928277e-11
172.85355 -1.552502556e-05 227.1853466
194.179889 84.19398687 41.07439531
-194.179852 111.9365769 22.75816061
198.476853 113.4118928 3.728928277e-11
-194.179852 182.3651461 42.24584074
30.34034399 109.2699527 3.728928277e-11
44.26640699 136.3338825 3.728928277e-11
-194.179852 165.3645132 139.6358
-129.433431 -1.552502556e-05 227.3219987
139.119756 -1.552502556e-05 203.6970799
165.794748 -1.552502556e-05 156.057813
146.515266 20.76811137 3.728928277e-11
-203.518309 133.3010978 3.728928277e-11
67.48448799 -1.552502556e-05 103.2259619
-79.60101801 -1.552502556e-05 111.215951
-194.179852 123.3880795 224.829449
-194.179852 139.701844 137.4033299
-198.179004 55.31026157 3.728928277e-11
194.179889 248.428113 160.1836838
194.179889 42.21686827 137.482703
-123.795903 67.60418257 3.728928277e-11
194.179889 133.878351 51.05098666
-147.259773 226.5760832 3.728928277e-11
-22.42572901 -1.552502556e-05 34.43789515
-170.539502 -1.552502556e-05 178.7218525
194.179889 108.9958326 207.1384081
-194.179852 169.3238957 62.2407711
148.515094 57.44624397 3.728928277e-11
163.504763 82.15968857 3.728928277e-11
22.99986699 -1.552502556e-05 46.22336743
217.100048 183.7244636 3.728928277e-11
-197.8679841 -1.552502556e-05 14.69830958
-194.179852 47.92638617 184.3773676
105.373259 -1.552502556e-05 84.4389006
140.226794 -1.552502556e-05 52.17024113
-144.879583 10.07787277 3.728928277e-11
179.812304 193.555328 3.728928277e-11
81.10778399 144.2367814 3.728928277e-11
-152.867253 -1.552502556e-05 149.4229616
102.10149 231.3518369 3.728928277e-11
-155.025394 189.6405387 3.728928277e-11
-51.10688301 -1.552502556e-05 8.68073991
-218.7336848 -1.552502556e-05 48.22443646
-194.179852 196.1057351 81.7521149
201.794024 249.0049505 3.728928277e-11
-7.821263011 205.5880015 3.728928277e-11
194.179889 229.8218968 58.94531581
194.179889 104.7180795 108.0752778
-115.449733 133.8897526 3.728928277e-11
33.56851199 164.0797415 3.728928277e-11
-22.98582601 -1.552502556e-05 142.5158782
194.179889 193.8815814 80.851908
-194.179852 152.8562245 14.88101119
53.14031799 -1.552502556e-05 184.3058313
194.179889 220.1572371 167.6406828
194.179889 67.62661067 102.3355595
-208.46953 92.11638497 3.728928277e-11
-40.92011101 98.63267287 3.728928277e-11
-43.69911201 -1.552502556e-05 88.763103
-194.179852 19.69346167 44.48791381
-174.433919 -1.552502556e-05 230.3314265
22.80523199 200.1268645 3.728928277e-11
67.25706799 66.57357997 3.728928277e-11
-154.91885 44.61123667 3.728928277e-11
-194.179852 55.77337717 251.9712079
83.56643899 -1.552502556e-05 204.3515903
-176.853026 70.62828387 3.728928277e-11
171.010257 10.95163827 3.728928277e-11
194.179889 167.9312636 88.3301759
194.179889 77.64904337 160.3481614
162.42247 227.4077268 3.728928277e-11
-145.857555 -1.552502556e-05 86.6146863
194.179889 23.97663727 206.011081
124.588673 24.92192197 3.728928277e-11
194.179889 248.3366173 17.68188155
-22.64145601 45.25529087 3.728928277e-11
125.250107 91.32728317 3.728928277e-11
-20.69684501 25.51142797 3.728928277e-11
177.533866 -1.552502556e-05 23.78916888
-144.937755 101.0453308 3.728928277e-11
154.662818 -1.552502556e-05 189.5422086
102.108371 -1.552502556e-05 238.7838282
194.179889 160.5997852 48.96420479
-194.179852 162.3971504 99.9868399
-142.097593 -1.552502556e-05 48.09498093
194.179889 228.6436115 97.7050028
194.179889 26.32430867 54.23203433
194.179889 74.56964237 79.6561678
194.179889 76.54264647 194.4022518
-60.99373601 -1.552502556e-05 148.8597152
-61.48311201 30.19081037 3.728928277e-11
-152.931078 -1.552502556e-05 249.440129
196.095187 135.9242577 3.728928277e-11
194.179889 14.57928877 226.7480168
194.179889 36.54042097 169.7755904
-130.806608 237.5845135 3.728928277e-11
136.192572 237.6285073 3.728928277e-11
-120.56772 18.85076247 3.728928277e-11
-194.179852 187.9338634 103.7933731
115.915729 -1.552502556e-05 181.1748943
201.975555 -1.552502556e-05 137.4251381
-194.179852 208.5544441 128.0734749
121.31396 165.8131356 3.728928277e-11
-182.410429 -1.552502556e-05 141.0969635
194.179889 167.3235886 22.63375064
-162.21032 3.437998975 3.728928277e-11
-186.019038 230.8316214 3.728928277e-11
194.179889 89.14132477 18.90947349
-194.179852 223.9987473 244.2765241
136.588468 -1.552502556e-05 89.5808556
59.14433599 39.90339897 3.728928277e-11
-33.89468901 81.54865417 3.728928277e-11
95.18251899 -1.552502556e-05 99.8122332
-204.2252118 236.4104149 3.728928277e-11
133.078202 -1.552502556e-05 13.98638181
149.666442 162.7527795 3.728928277e-11
-218.6876087 52.69339897 3.728928277e-11
-167.908091 251.8244332 3.728928277e-11
-194.179852 201.5033142 185.7677589
-15.21852301 -1.552502556e-05 3.58912335
-194.179852 19.77175157 85.0818878
-194.179852 94.31991247 251.035414
32.45303799 7.540203575 3.728928277e-11
-34.42977501 -1.552502556e-05 70.8142687
-194.179852 98.70100037 91.3892671
-132.291671 -1.552502556e-05 25.28444669
194.179889 1.235787475 119.0722231
194.179889 46.92976047 101.4589025
-194.179852 133.3623094 43.12249094
171.741139 251.8201438 3.728928277e-11
-194.179852 116.0087351 197.1434691
-160.759588 -1.552502556e-05 66.8698839
29.77335099 217.4215571 3.728928277e-11
-194.179852 35.15762767 148.1939605
-194.179852 37.72104087 109.6592226
-74.48609701 115.8307263 3.728928277e-11
143.230127 -1.552502556e-05 252.4435689
55.85567299 21.29586567 3.728928277e-11
194.179889 205.4440613 121.7013365
-194.179852 201.2585859 44.92615128
194.179889 73.00941917 124.7216444
-92.74661701 -1.552502556e-05 227.22462
-198.2337529 -1.552502556e-05 64.4460376
83.45164199 -1.552502556e-05 47.53725197
194.179889 247.4250479 194.7384686
194.179889 135.6507177 114.5612461
-194.179852 87.11115107 50.0394995
202.991029 -1.552502556e-05 194.5702935
-116.761007 193.422279 3.728928277e-11
-208.2372146 199.0535064 3.728928277e-11
194.179889 181.2606997 117.3070605
-194.179852 70.61600317 13.22385624
37.93450199 -1.552502556e-05 59.99126163
-53.04465501 249.4583148 3.728928277e-11
194.179889 248.6117741 122.0502621
-194.179852 230.761252 88.4636688
25.13235199 42.44896827 3.728928277e-11
-194.179852 99.98957447 127.0769981
-7.560422011 162.993574 3.728928277e-11
40.14297499 -1.552502556e-05 204.7200424
99.62930799 167.4738875 3.728928277e-11
194.179889 113.8612586 55.03805445
109.462566 -1.552502556e-05 24.22175838
194.179889 172.3159339 145.4824564
75.14460699 -1.552502556e-05 13.61659082
-194.179852 232.6858378 60.6338962
-155.474145 -1.552502556e-05 205.2045097
-196.7406756 -1.552502556e-05 157.9242763
194.179889 249.900876 229.0225562
-133.902414 -1.552502556e-05 182.0807423
209.102533 44.04949817 3.728928277e-11
196.591112 -1.552502556e-05 154.4263051
-194.179852 190.2483281 243.003829
-70.13194901 -1.552502556e-05 67.7808706
-101.048004 183.6851538 3.728928277e-11
-197.5007147 -1.552502556e-05 103.3164085
13.49225299 -1.552502556e-05 82.1322523
-41.31948201 194.3459857 3.728928277e-11
-194.179852 61.35070067 88.181524
-67.95365601 216.1861325 3.728928277e-11
-202.2390482 -1.552502556e-05 250.2807935
19.40725699 231.4979913 3.728928277e-11
-180.16394 -1.552502556e-05 93.8054893
-194.179852 86.86532537 229.2703098
194.179889 13.08782707 42.9502922
-43.94895501 21.32161427 3.728928277e-11
-138.642685 -1.552502556e-05 159.3751903
-61.08706901 -1.552502556e-05 179.0260596
63.76252499 142.7646887 3.728928277e-11
-194.179852 250.3930641 17.04609445
194.179889 193.5852731 27.50376102
0.4739639887 234.4105204 3.728928277e-11
208.654886 147.7885817 3.728928277e-11
-84.54784001 157.3081513 3.728928277e-11
-194.179852 34.07755487 233.8036912
194.179889 130.9702791 238.6465366
194.179889 193.0383237 49.81878301
-194.179852 89.17836417 159.2586023
194.179889 135.2659726 87.3823555
-194.179852 223.3798546 106.8035394
-194.179852 16.80858627 168.1698474
-2.591772011 -1.552502556e-05 249.2971885
91.53854099 -1.552502556e-05 137.3850375
194.179889 47.50754537 183.7382169
-72.62984501 250.4124607 3.728928277e-11
4.369333989 -1.552502556e-05 225.7643122
194.179889 57.88698857 225.6882048
194.179889 106.0720357 17.50929952
-143.799014 81.87073197 3.728928277e-11
-108.659775 -1.552502556e-05 134.7996227
0.6242779887 -1.552502556e-05 132.4069674
-85.38685701 9.281340875 3.728928277e-11
-88.53959401 52.77190707 3.728928277e-11
58.40959799 -1.552502556e-05 150.6367864
-194.179852 13.51343377 123.044948
110.226256 36.55435427 3.728928277e-11
-163.923312 59.86199247 3.728928277e-11
152.179302 -1.552502556e-05 172.850784
194.179889 40.41561747 202.4648419
-194.179852 99.22742687 10.81499975
-194.179852 252.3052981 239.2441667
156.186258 36.30573777 3.728928277e-11
-42.50155801 -1.552502556e-05 232.6170037
58.21338699 125.0274044 3.728928277e-11
-104.517993 239.4853046 3.728928277e-11
-194.179852 52.65799497 129.7335396
196.214401 196.8119321 3.728928277e-11
-8.870972011 -1.552502556e-05 98.5865586
-77.53732401 -1.552502556e-05 182.0130599
159.977062 -1.552502556e-05 89.3842616
-10.94129901 -1.552502556e-05 185.5490616
139.193534 -1.552502556e-05 29.46060156
-194.179852 138.8230802 102.7638433
-109.221709 -1.552502556e-05 53.07433609
-212.5613507 -1.552502556e-05 83.9962533
-194.179852 226.3985827 185.7618294
61.50192299 -0.776111725 3.728928277e-11
81.29482499 -1.552502556e-05 178.5930505
23.01128899 -1.552502556e-05 227.3156974
-11.39093301 63.29668027 3.728928277e-11
-78.76128501 -1.552502556e-05 144.0030271
-194.179852 56.85972967 212.7898638
97.78890599 -1.552502556e-05 37.68654503
-22.11573201 193.5860165 3.728928277e-11
-194.179852 105.8613843 230.2991127
184.855901 62.29425527 3.728928277e-11
194.179889 42.08056627 78.1483315
194.179889 112.6514889 85.2544809
194.764825 166.1512168 3.728928277e-11
194.179889 44.10275827 246.3823898
-12.40087401 111.560214 3.728928277e-11
194.179889 37.54599047 119.4212864
121.194372 194.5393259 3.728928277e-11
6.671042989 171.2498868 3.728928277e-11
208.597969 -1.552502556e-05 237.7673169
9.130887989 190.0214832 3.728928277e-11
150.822427 146.3756005 3.728928277e-11
-103.230136 -1.552502556e-05 82.2262967
-127.689708 -1.552502556e-05 60.1409447
214.070881 78.44563787 3.728928277e-11
199.4629 -1.552502556e-05 58.00435448
194.179889 105.5535382 167.3634779
-194.179852 234.9616684 208.2509036
-173.736429 124.2391166 3.728928277e-11
182.272452 111.2875813 3.728928277e-11
119.163053 -1.552502556e-05 230.7755823
194.179889 158.4834863 247.4032625
1.013950989 -1.552502556e-05 5.3568342
-194.179852 166.1153619 40.7856525
-194.179852 170.7071946 182.6752092
-194.179852 80.51816357 179.6789286
59.87237999 -1.552502556e-05 124.2795214
180.504873 44.64694847 3.728928277e-11
180.794704 -1.552502556e-05 162.4028282
102.314197 -1.552502556e-05 202.8136278
77.84618499 241.1101594 3.728928277e-11
194.179889 25.27654717 22.84968434
-55.98782801 -1.552502556e-05 209.9487704
217.836333 252.0433109 3.728928277e-11
-20.24007401 -1.552502556e-05 63.0215909
-150.746342 -1.552502556e-05 31.72378457
67.84385299 -1.552502556e-05 83.2134901
194.179889 12.86949977 143.354986
-194.179852 199.3757796 221.4322035
-132.913889 50.30214147 3.728928277e-11
186.43244 -1.552502556e-05 37.62497519
-194.179852 144.2473043 64.1849799
-75.21286301 -1.552502556e-05 236.7021406
194.179889 111.257651 140.6505067
42.17062199 120.3940877 3.728928277e-11
-27.10300901 -1.552502556e-05 14.40893858
-32.90635801 -1.552502556e-05 158.6734432
75.13027399 207.6772707 3.728928277e-11
-194.179852 113.3928364 73.8378449
33.46058299 -1.552502556e-05 76.9303603
212.511501 -1.552502556e-05 105.0572343
-138.585991 179.0048003 3.728928277e-11
-112.303574 98.85308597 3.728928277e-11
-183.575956 -1.552502556e-05 191.3563919
-168.882361 176.7714473 3.728928277e-11
199.0148 -1.552502556e-05 10.19054749
-2.960324011 32.80359057 3.728928277e-11
-194.179852 236.7285661 147.2213471
30.61946699 144.4036198 3.728928277e-11
208.159 -1.552502556e-05 165.6261478
-194.179852 122.985116 7.55669294
-194.179852 58.13153017 31.20387877
9.714638989 -1.552502556e-05 161.0259434
-194.179852 158.138907 234.1783569
86.34772499 53.72817667 3.728928277e-11
-194.179852 164.6129829 197.3680326
-194.179852 180.4632017 9.68112946
-125.246199 -1.552502556e-05 135.3056395
-168.580499 -1.552502556e-05 105.6928122
-2.663263011 94.07807417 3.728928277e-11
-194.179852 127.2296896 146.90948
-194.179852 92.72608407 30.71785329
-194.179852 136.8522445 121.5059423
180.159142 177.9140708 3.728928277e-11
194.179889 234.2780968 41.03512283
17.45537499 -1.552502556e-05 138.9735939
-151.850012 -1.552502556e-05 189.6512613
-19.75926401 133.8128065 3.728928277e-11
-194.179852 4.382490675 30.62292068
-194.179852 77.78627407 148.6975855
32.14069799 -1.552502556e-05 120.2000281
-11.19742201 -1.552502556e-05 167.2584488
-135.497597 -1.552502556e-05 7.149631
194.179889 210.2697038 233.9801504
-194.179852 210.6168528 87.1543705
-1.284578011 142.3862586 3.728928277e-11
113.350313 -1.552502556e-05 55.76014708
194.179889 250.7428421 144.7278881
87.73222399 177.9859638 3.728928277e-11
194.179889 220.8871652 80.1315736
-103.944745 -1.552502556e-05 112.5047576
-200.6492152 109.4530804 3.728928277e-11
-169.051788 -1.552502556e-05 15.08090243
194.179889 123.3673691 201.5925618
-194.179852 232.4947548 162.4190808
-194.179852 35.07380167 192.8621664
37.06436999 74.88270917 3.728928277e-11
194.179889 216.8102577 132.0851789
138.576603 -1.552502556e-05 165.6793275
53.04218999 -1.552502556e-05 26.34287347
-194.179852 139.4422325 220.5228037
-194.179852 174.7569294 229.8622225
-32.52336501 162.4606969 3.728928277e-11
194.179889 19.24662057 173.0226945
160.595085 119.4899541 3.728928277e-11
-118.836147 208.5759524 3.728928277e-11
-127.309771 -1.552502556e-05 212.1964883
181.127516 -1.552502556e-05 212.9111448
180.59275 211.9802385 3.728928277e-11
144.662937 -1.552502556e-05 219.8998879
-194.179852 130.670962 248.8693633
194.179889 230.5116483 249.8133048
194.179889 156.7531038 209.7048517
-199.1814492 -1.552502556e-05 141.0812745
194.179889 56.52361307 26.7745461
194.179889 198.6765987 108.1271832
194.179889 12.20055727 65.6539371
81.06334099 -1.552502556e-05 69.9597933
-194.179852 68.23035487 234.2494549
10.84023099 -1.552502556e-05 55.56555848
-215.5149045 163.2216381 3.728928277e-11
-107.715612 169.7806001 3.728928277e-11
194.179889 157.7221741 194.0796278
194.179889 144.2293459 62.0608487
-194.179852 41.36156147 247.4950742
138.652145 7.891114075 3.728928277e-11
215.686477 220.8243264 3.728928277e-11
-55.08337601 157.6522968 3.728928277e-11
-194.179852 53.13341377 170.2347666
-78.77738101 -1.552502556e-05 33.6442016
116.800759 -1.552502556e-05 198.6747489
-51.26716501 -1.552502556e-05 128.8295651
-194.179852 117.853551 37.13487635
116.440246 138.3147525 3.728928277e-11
-209.3184994 -1.552502556e-05 200.826798
-194.179852 148.7187595 32.83753107
78.95137299 -1.552502556e-05 232.3050157
119.379632 105.0823204 3.728928277e-11
-194.179852 83.35612937 116.2452417
107.203873 -1.552502556e-05 167.4333791
38.22170699 -1.552502556e-05 189.3830296
-194.179852 14.31113767 238.0489524
-194.179852 108.5579357 56.0490319
147.692294 -1.552502556e-05 125.8863168
68.99740199 104.4665734 3.728928277e-11
-194.179852 207.0307961 58.66074803
194.179889 10.01534607 187.9620182
-195.3604992 7.442320875 3.728928277e-11
194.179889 84.44067597 136.1051514
105.256433 66.62596257 3.728928277e-11
-43.83570501 134.7374754 3.728928277e-11
-138.824401 -1.552502556e-05 103.5079731
-194.179852 16.20428847 207.1138244
60.56402099 195.0551453 3.728928277e-11
201.761874 98.61542327 3.728928277e-11
-107.424833 9.681316375 3.728928277e-11
194.179889 228.8990836 208.7831315
194.179889 25.01908247 237.380542
-194.179852 148.4135851 249.1115501
-81.68421801 -1.552502556e-05 54.93362984
194.179889 227.0629157 154.5738117
196.179477 -1.552502556e-05 229.8033459
62.93074999 -1.552502556e-05 43.61855526
-194.179852 194.6460881 202.3405168
209.591675 -1.552502556e-05 207.7485888
39.57219099 97.80567367 3.728928277e-11
-136.667312 161.7612241 3.728928277e-11
71.28555399 -1.552502556e-05 192.0044577
-100.643644 114.4165679 3.728928277e-11
-183.131234 -1.552502556e-05 47.84612321
-153.696635 21.80793077 3.728928277e-11
-194.179852 31.10531757 75.7689866
89.25746899 90.15481127 3.728928277e-11
-44.50458701 236.885512 3.728928277e-11
-188.96553 156.7559831 3.728928277e-11
194.179889 40.88568137 49.71153616
-194.179852 159.8767072 153.1981137
170.280734 -1.552502556e-05 71.234975
51.84079699 -1.552502556e-05 64.4606024
194.179889 40.30288327 23.66618493
137.843505 117.6804135 3.728928277e-11
194.179889 211.1881305 249.699897
-159.480637 -1.552502556e-05 163.1095662
-170.517366 138.4434927 3.728928277e-11
-194.179852 167.9042434 125.2984781
-218.4190685 -1.552502556e-05 127.558265
-132.03655 221.7791067 3.728928277e-11
125.125627 49.73835777 3.728928277e-11
111.974776 -1.552502556e-05 131.4823523
194.179889 244.6537614 63.3949456
-88.48692301 -1.552502556e-05 82.8352609
-151.404336 -1.552502556e-05 122.3188703
-44.61433801 115.0684877 3.728928277e-11
39.35554299 187.3974914 3.728928277e-11
11.47066699 74.02374187 3.728928277e-11
164.74871 142.318313 3.728928277e-11
-57.64929401 -1.552502556e-05 56.31971592
73.28626399 178.9305288 3.728928277e-11
-194.179852 183.589063 73.572496
-198.4286269 -1.552502556e-05 189.1020666
216.300802 110.6971924 3.728928277e-11
-204.7568236 153.2809158 3.728928277e-11
-194.179852 84.62670337 64.4364361
5.340754989 -1.552502556e-05 114.8535096
194.179889 91.79752497 230.3651104
198.543591 57.89526847 3.728928277e-11
-41.71580601 -1.552502556e-05 108.3703228
46.02738399 -1.552502556e-05 236.0777562
-194.179852 37.05685277 56.01150693
46.34615599 170.563903 3.728928277e-11
126.354189 -1.552502556e-05 139.4780079
-194.179852 141.2927561 175.7194095
201.436013 10.35028367 3.728928277e-11
-133.727527 -1.552502556e-05 78.3792966
194.179889 72.75730667 214.5066971
107.439821 -1.552502556e-05 7.07865851
-73.13009401 -1.552502556e-05 1.69431176
194.179889 83.56872977 115.0767084
-194.179852 30.10268727 34.70835761
194.179889 180.6507415 177.2482104
39.22078299 40.18807677 3.728928277e-11
-102.450887 42.90758447 3.728928277e-11
160.902561 21.84984227 3.728928277e-11
-194.179852 10.47686047 73.7408976
-82.76984001 -1.552502556e-05 195.8471429
194.179889 7.408035475 202.8139797
185.818927 250.328869 3.728928277e-11
34.41061299 244.1483826 3.728928277e-11
-156.675568 72.00904037 3.728928277e-11
194.179889 164.3703164 74.6442146
194.179889 100.8604316 252.3444828
-152.906672 213.61271 3.728928277e-11
-6.775851011 -1.552502556e-05 35.62778002
194.179889 198.5394101 63.0716021
151.785633 206.4351895 3.728928277e-11
194.179889 120.915981 114.8513189
129.035585 210.3740103 3.728928277e-11
54.26149099 72.03970867 3.728928277e-11
-194.179852 226.6952089 29.72409668
-143.550169 138.3451599 3.728928277e-11
194.179889 56.12600507 141.6494002
11.58760999 -1.552502556e-05 186.9888587
81.34337799 0.875171375 3.728928277e-11
2.939437989 62.12345627 3.728928277e-11
68.92540999 230.296469 3.728928277e-11
46.62920499 10.74292137 3.728928277e-11
-215.7711101 126.5098059 3.728928277e-11
-194.179852 139.9655166 88.1910217
-20.71882301 -1.552502556e-05 245.6062293
-72.02079201 171.929377 3.728928277e-11
-184.393281 -1.552502556e-05 215.9344834
-206.7248839 44.06337797 3.728928277e-11
-190.831168 67.18159487 3.728928277e-11
-163.561247 -1.552502556e-05 240.4017325
194.179889 91.64047737 52.87390409
-94.32534101 65.43399947 3.728928277e-11
194.179889 156.3424947 116.4524261
180.861481 154.0838457 3.728928277e-11
194.179889 177.4630606 220.9314393
194.179889 134.6127169 29.45790736
215.148416 13.70900837 3.728928277e-11
-194.179852 187.2993101 29.27941797
-194.179852 39.86070967 5.35360106
185.25966 -1.552502556e-05 72.568531
194.179889 95.76332687 84.118888
25.98411599 -1.552502556e-05 9.91054014
-79.42882201 208.2575057 3.728928277e-11
89.42761499 208.6846735 3.728928277e-11
-208.2969435 -1.552502556e-05 228.5174783
-71.76770501 -1.552502556e-05 99.8504663
43.57066599 217.7917584 3.728928277e-11
194.179889 24.86045737 93.0202516
-194.179852 211.5319707 12.81725989
194.179889 109.4860387 193.3675027
-194.179852 192.2678401 133.2476449
-46.98470701 85.79522257 3.728928277e-11
194.179889 153.5826273 23.25070668
169.425273 -1.552502556e-05 8.16938926
173.31439 -1.552502556e-05 99.7614424
194.179889 201.2445337 158.3279802
-142.607274 -1.552502556e-05 219.220555
183.762711 75.98200017 3.728928277e-11
194.179889 63.79479497 71.1497238
114.174616 83.23731927 3.728928277e-11
194.179889 178.970036 80.2042595
155.094034 71.36423217 3.728928277e-11
-198.630716 221.844835 3.728928277e-11
-72.50852301 129.3620257 3.728928277e-11
120.402495 232.0221965 3.728928277e-11
147.885158 -1.552502556e-05 39.98976439
204.404752 -1.552502556e-05 26.95126377
60.10409399 166.6883748 3.728928277e-11
-6.627389011 219.1698863 3.728928277e-11
7.378429989 -1.552502556e-05 32.01491627
194.179889 188.3002416 149.6409594
-102.677598 -1.552502556e-05 14.70986082
119.068575 -1.552502556e-05 117.4491197
194.179889 224.8611511 13.51829265
194.179889 143.2668179 125.8216419
194.179889 140.5505503 157.9826657
9.424533989 128.6467874 3.728928277e-11
7.831865989 -1.552502556e-05 17.06997983
194.179889 68.73881497 37.26520924
-119.445565 51.75633717 3.728928277e-11
-72.87537701 22.61525427 3.728928277e-11
-20.81281601 250.0557663 3.728928277e-11
-159.309832 130.8900746 3.728928277e-11
94.33101199 -1.552502556e-05 151.4079603
-194.179852 112.3089473 105.1114186
-200.7583882 187.806152 3.728928277e-11
194.179889 207.6074313 30.20073559
98.29748599 189.9530151 3.728928277e-11
65.06515199 53.27659577 3.728928277e-11
-194.179852 57.46639227 50.29929759
194.179889 247.0577147 88.0365853
-149.723435 155.6482965 3.728928277e-11
194.179889 184.8718547 207.0196052
15.51322699 12.04648127 3.728928277e-11
31.28450599 -1.552502556e-05 237.9217455
-40.50318401 -1.404441325 3.728928277e-11
104.641703 116.3699609 3.728928277e-11
-114.486908 -1.552502556e-05 102.7336843
-194.179852 141.4762439 192.3949237
194.179889 249.7900897 31.01580232
-194.179852 65.02604647 124.5566209
-94.95201301 -1.552502556e-05 213.1357407
19.50727599 -1.552502556e-05 252.1052406
191.173834 -1.552502556e-05 87.1235904
-194.179852 213.4304358 140.5014976
11.57632099 90.94263087 3.728928277e-11
-173.615779 94.03718327 3.728928277e-11
-18.94734501 173.8959566 3.728928277e-11
194.179889 135.5507133 189.3884946
194.179889 121.8243576 44.17300406
91.50887999 11.11160237 3.728928277e-11
68.13412399 26.46798977 3.728928277e-11
35.39266999 52.91857227 3.728928277e-11
-194.179852 164.9639922 79.9912342
194.179889 83.73405047 63.651075
18.48614499 165.1938006 3.728928277e-11
194.179889 59.92775357 194.28784
159.941875 -1.552502556e-05 120.7979297
194.179889 234.6159573 191.3095339
-214.047752 -1.552502556e-05 11.65223519
190.028732 -1.552502556e-05 131.6925271
-194.179852 186.1403911 145.6109491
194.179889 197.03713 234.4108174
-37.18225401 -1.552502556e-05 39.08637782
194.179889 231.3625246 221.7855611
194.179889 166.8526701 166.332397
-106.464183 -1.552502556e-05 32.2426356
-194.179852 67.39370317 178.115387
204.564553 -1.552502556e-05 251.1082563
69.44074599 157.0392255 3.728928277e-11
134.745793 -1.552502556e-05 72.2421
-194.179852 157.6821262 167.9594088
172.418232 93.66196537 3.728928277e-11
-194.179852 102.8942635 198.6238554
-194.179852 49.38470747 100.1294093
194.179889 65.11117837 156.3592697
7.718656989 -1.552502556e-05 212.2130369
-27.28348401 -1.552502556e-05 234.0535629
-43.40333801 59.36281647 3.728928277e-11
-194.179852 249.150436 204.7386851
-194.179852 32.53485477 179.1543054
-30.14238301 -1.552502556e-05 204.9982049
-171.625925 193.8591582 3.728928277e-11
-68.29380501 -1.552502556e-05 216.2215667
194.179889 54.56513037 168.8605145
-15.85185501 75.59440847 3.728928277e-11
104.766267 11.36510557 3.728928277e-11
104.601313 217.4892119 3.728928277e-11
-205.9676958 25.09888727 3.728928277e-11
-208.7077966 -1.552502556e-05 151.0114963
194.179889 125.183186 145.2355627
-200.7753709 -1.552502556e-05 217.8701396
196.735617 36.34592367 3.728928277e-11
-194.179852 30.26957157 14.17139784
-201.1779661 79.90241057 3.728928277e-11
97.55856399 -1.552502556e-05 74.070601
150.316805 232.0957693 3.728928277e-11
89.23891999 115.6237388 3.728928277e-11
194.179889 171.0827164 192.5384454
194.179889 140.851521 15.04687934
-69.90376301 99.82549027 3.728928277e-11
-165.716505 -1.552502556e-05 147.8217857
37.16373199 -1.552502556e-05 18.33999774
169.906757 237.943053 3.728928277e-11
-137.814341 191.8986662 3.728928277e-11
-88.84704101 -1.552502556e-05 170.142768
81.16225299 -1.552502556e-05 157.9656292
-26.83580901 106.217726 3.728928277e-11
-19.52275701 -1.552502556e-05 157.4047233
194.179889 121.240065 31.15696559
-59.36492801 -1.552502556e-05 89.2797043
-194.179852 152.7999812 136.7644739
-102.819594 226.7164334 3.728928277e-11
-194.179852 120.2856359 171.7593178
194.179889 173.7208053 106.8836731
118.976047 -1.552502556e-05 150.1092423
194.179889 107.9962343 73.2656983
-194.179852 64.14318727 74.4789141
29.63755799 -1.552502556e-05 143.8409027
-116.682036 -1.552502556e-05 228.8585039
194.179889 78.95656897 173.1209132
-79.08174601 141.2753363 3.728928277e-11
50.22844399 245.6037364 3.728928277e-11
194.179889 96.99620187 138.7574246
194.179889 241.8530913 241.1673145
-194.179852 185.8489392 183.4231621
-159.684732 242.0084797 3.728928277e-11
194.179889 131.6642894 171.9875405
-194.179852 125.9182651 210.3154642
160.856144 -1.552502556e-05 102.6549486
-181.876808 33.27673527 3.728928277e-11
89.99486899 237.1415224 3.728928277e-11
57.98062699 94.52188997 3.728928277e-11
-194.179852 231.5006233 118.1634019
-194.179852 238.9607069 36.98629121
-194.179852 203.2353604 70.8423196
7.221294989 -1.552502556e-05 67.7986869
194.179889 234.4582875 122.56848
129.591554 79.33503377 3.728928277e-11
203.362544 182.9469825 3.728928277e-11
194.179889 112.1497806 125.5071234
132.627692 -1.552502556e-05 224.2270937
-126.995674 -1.552502556e-05 164.674833
111.857916 -1.552502556e-05 41.89310965
-194.179852 84.57590027 21.00112946
21.43652499 100.1749664 3.728928277e-11
154.462269 91.03670387 3.728928277e-11
-194.179852 103.7868789 158.8673759
183.728727 -1.552502556e-05 12.7600662
77.42010699 74.10235087 3.728928277e-11
91.63677999 42.24828257 3.728928277e-11
-99.09143701 -1.552502556e-05 198.5056214
194.179889 13.12877787 155.9801852
194.179889 201.4217529 205.7877799
194.179889 220.0881096 32.65141534
-140.062492 -1.552502556e-05 145.8768303
204.733486 232.2634755 3.728928277e-11
194.179889 203.6463903 135.9070831
123.820941 181.7111895 3.728928277e-11
109.432751 -1.552502556e-05 220.854891
133.88628 165.2720343 3.728928277e-11
-18.40099201 -1.552502556e-05 47.4849326
194.179889 13.62989937 242.7182274
84.55310599 -1.552502556e-05 32.39958191
-194.179852 88.69551687 138.8455381
-88.38607401 83.64905477 3.728928277e-11
80.70479199 -1.552502556e-05 129.5665825
-115.668623 151.8429791 3.728928277e-11
-151.156597 -2.485271425 3.728928277e-11
-26.96063001 -1.552502556e-05 220.0860177
-194.179852 112.2900537 91.8067362
-95.43895601 141.6236537 3.728928277e-11
194.179889 179.7055394 24.53989459
130.974825 65.33344887 3.728928277e-11
164.480503 -1.552502556e-05 238.2938597
-124.751666 -1.552502556e-05 243.5169384
-194.179852 90.07373947 209.6862982
26.37013999 -1.552502556e-05 108.6032011
194.179889 13.01138617 213.9427538
13.96238699 47.96790407 3.728928277e-11
162.390912 47.10830487 3.728928277e-11
-56.25525201 104.1602209 3.728928277e-11
-56.84186701 43.44058577 3.728928277e-11
160.468822 -1.552502556e-05 225.9669469
194.179889 98.54330317 42.21764786
-177.044535 -1.552502556e-05 81.424021
194.179889 111.2165419 178.6287076
194.179889 119.4565737 229.6152941
-194.179852 172.5766404 107.1142211
-166.723378 -1.552502556e-05 120.9704767
-182.68377 173.7173134 3.728928277e-11
-194.179852 224.750987 201.2522183
-98.16452201 -1.552502556e-05 244.9451808
-194.179852 8.947449275 95.4666546
-194.179852 151.4930303 94.1823334
-194.179852 26.38513807 156.8895612
-194.179852 140.0499948 151.2220077
-19.85042201 -1.552502556e-05 80.9031536
-194.179852 71.77153807 203.4506957
194.179889 13.49058607 106.6668695
204.854605 -1.552502556e-05 182.3707328
-194.179852 95.51895427 238.7646481
194.179889 184.4961764 250.4479435
-28.94016301 142.2730591 3.728928277e-11
-184.699407 18.08172247 3.728928277e-11
-163.425957 -1.552502556e-05 32.89154882
194.179889 76.06524297 93.3067957
-24.91126201 221.3348013 3.728928277e-11
194.179889 206.4068878 185.4637386
-166.082106 152.8941991 3.728928277e-11
194.179889 85.17629427 4.79717746
-82.06665301 238.167537 3.728928277e-11
218.628021 -1.552502556e-05 33.92472372
-194.179852 251.6855243 110.5169789
194.179889 145.0260137 213.3140727
-182.81978 -1.552502556e-05 170.9576878
132.377514 -1.552502556e-05 150.1585111
100.997192 243.6415906 3.728928277e-11
-106.034173 125.4148547 3.728928277e-11
-194.179852 243.1063374 90.9630761
56.59781599 -1.552502556e-05 216.8204931
-88.64097001 -1.552502556e-05 156.635576
217.956001 -1.552502556e-05 138.8603931
108.187072 -1.552502556e-05 100.7993814
-70.79144301 82.01134877 3.728928277e-11
-69.92140401 183.9407017 3.728928277e-11
-194.179852 24.76167167 137.4089694
-194.179852 7.510299275 55.43051759
-160.930791 96.84329127 3.728928277e-11
-194.179852 57.24145987 200.6194706
61.50290299 -1.552502556e-05 17.59045226
194.179889 146.7395308 50.15736957
-195.0555547 -1.552502556e-05 115.2312252
194.179889 36.70676067 61.1325961
23.62369599 74.26888907 3.728928277e-11
10.98124199 116.155676 3.728928277e-11
194.179889 75.88337187 240.3820899
174.14226 -1.552502556e-05 126.7053581
20.49002699 -1.552502556e-05 198.7622044
40.38580599 152.5715881 3.728928277e-11
128.949686 125.9197911 3.728928277e-11
-217.5322162 21.49844627 3.728928277e-11
-194.179852 186.8616946 229.7243424
-194.179852 134.5736507 71.4613518
-194.179852 233.5138604 231.2152619
194.179889 105.483096 240.943883
135.857518 -1.552502556e-05 101.6299729
-194.179852 24.38020507 96.9031303
166.26622 -1.552502556e-05 41.48815196
-99.29717101 -1.552502556e-05 176.2488116
-194.179852 58.62959547 62.2735553
-76.28319801 49.39866757 3.728928277e-11
-46.05130901 -1.552502556e-05 251.0741203
-73.87801501 226.9817858 3.728928277e-11
188.119311 -1.552502556e-05 185.291697
-100.465565 214.945869 3.728928277e-11
62.10039699 -1.552502556e-05 70.6862312
184.642448 223.2698965 3.728928277e-11
-184.941705 -1.552502556e-05 239.4472376
80.12894699 -1.552502556e-05 218.9975268
-194.179852 178.0455713 169.8854832
-29.86561601 -1.552502556e-05 132.7028644
-13.92503901 -1.552502556e-05 133.3777448
194.179889 238.7256289 108.5494963
194.179889 43.46359947 214.0393045
147.465881 -1.552502556e-05 94.5414149
1.682076989 -1.552502556e-05 84.25223
-134.013099 249.0922145 3.728928277e-11
-202.3186974 251.3427212 3.728928277e-11
-194.179852 211.7151434 214.5811942
69.95147999 -1.552502556e-05 117.9009199
-122.23798 -1.552502556e-05 12.68406935
102.137548 82.69420577 3.728928277e-11
73.30007499 -1.552502556e-05 242.7765648
207.203657 168.4896294 3.728928277e-11
-194.179852 197.6971858 93.5337982
-32.14373501 -1.552502556e-05 27.59298408
194.179889 153.5053 139.8189389
-194.179852 115.2417934 118.6206838
194.179889 11.10827967 130.5229115
-205.0987497 -1.552502556e-05 170.90097
-59.64649601 -1.552502556e-05 164.3382079
-71.34217201 62.92250587 3.728928277e-11
-133.778051 131.1908439 3.728928277e-11
-194.179852 174.1223121 209.7032104
153.704737 -1.552502556e-05 161.1106128
150.070497 114.0689212 3.728928277e-11
124.838195 -1.552502556e-05 88.2053457
-193.819385 -1.552502556e-05 130.5389694
-194.179852 215.7237437 45.30747382
194.179889 252.2646697 77.4184489
-20.19471901 13.70759677 3.728928277e-11
-88.86428901 113.6452058 3.728928277e-11
-96.69244701 -1.552502556e-05 58.05764233
7.946192989 243.5391376 3.728928277e-11
194.179889 237.2918728 13.55031538
194.179889 252.3753187 205.4308534
194.179889 213.5215448 103.7041749
-194.179852 125.204574 238.451339
-51.70782501 188.8328393 3.728928277e-11
41.46205999 -0.01447772503 3.728928277e-11
207.485107 67.92010507 3.728928277e-11
-129.227699 78.02738827 3.728928277e-11
-194.179852 127.9892392 198.6507234
-194.179852 90.10724967 77.7874835
217.907927 -1.552502556e-05 45.77590887
58.03063699 -1.552502556e-05 90.0356712
-194.179852 69.06862957 113.5497223
146.706466 -1.552502556e-05 9.8895236
93.65089099 -1.552502556e-05 111.4237194
205.579454 25.40545067 3.728928277e-11
19.54995899 -1.552502556e-05 95.7234181
-132.067257 -1.552502556e-05 123.6800913
114.458837 59.43880787 3.728928277e-11
-194.179852 35.91868177 24.58515934
211.323687 -1.552502556e-05 67.4776951
194.179889 173.9239736 48.46635116
-194.179852 232.1793903 174.0681409
-163.422887 -1.552502556e-05 188.3070837
194.179889 224.579682 141.5346418
-38.72874901 -1.552502556e-05 15.07817817
59.94369799 207.0660335 3.728928277e-11
194.179889 157.0055804 173.8902162
49.83542799 -1.552502556e-05 53.00550682
-186.585477 -1.552502556e-05 11.90115366
179.274681 19.11460637 3.728928277e-11
148.644075 195.1550133 3.728928277e-11
-207.8840724 178.1729023 3.728928277e-11
-85.57051401 27.56917037 3.728928277e-11
-142.333089 238.8314559 3.728928277e-11
-194.179852 127.2893198 97.8160119
194.179889 108.0097995 156.043959
218.790259 -1.552502556e-05 173.3879352
145.47163 -1.552502556e-05 65.5272448
-194.179852 62.14230077 161.2047538
7.641607989 -1.552502556e-05 44.46584714
19.58157899 141.0296279 3.728928277e-11
-167.917419 -1.552502556e-05 57.82899567
68.80649399 -1.552502556e-05 180.7446578
-124.134278 164.9823631 3.728928277e-11
194.179889 191.2783616 165.6486408
-107.941265 -1.552502556e-05 185.9355949
113.584593 204.2175335 3.728928277e-11
159.627784 168.5103813 3.728928277e-11
109.840464 21.68729087 3.728928277e-11
57.37826999 -1.552502556e-05 170.3375675
194.179889 45.46542807 38.52517598
32.34819199 -1.552502556e-05 216.4820342
-79.94240401 -1.552502556e-05 226.2337087
-150.300086 -1.552502556e-05 75.6226272
-23.01282201 -1.552502556e-05 184.16011
194.179889 112.8152276 98.1757195
194.179889 182.6619954 56.22199551
-194.179852 111.6453225 9.31711203
-58.30599901 222.5667921 3.728928277e-11
194.179889 219.1365192 179.2941857
194.179889 169.3467058 117.4644893
-2.641549011 -1.552502556e-05 61.9958106
-218.4599132 -1.552502556e-05 1.10095334
-45.73376601 164.2385283 3.728928277e-11
-109.068286 20.99388187 3.728928277e-11
194.179889 205.2662595 81.8159223
128.20805 -1.552502556e-05 199.1125272
172.009569 -1.552502556e-05 206.044511
-62.58397701 -1.552502556e-05 76.3149214
-129.277466 31.25518107 3.728928277e-11
204.629607 -1.552502556e-05 93.215974
-185.764839 98.57866287 3.728928277e-11
-71.40293401 160.1094979 3.728928277e-11
34.11980299 -1.552502556e-05 48.58789977
-37.66354301 215.7108696 3.728928277e-11
195.215771 238.9311816 3.728928277e-11
-50.98888201 -1.552502556e-05 154.2446225
22.96758199 152.8015904 3.728928277e-11
-194.179852 251.7836866 215.7847556
194.179889 84.46609567 29.72608661
202.600159 124.4033633 3.728928277e-11
-11.18204101 -1.552502556e-05 110.2291208
-55.90887201 -1.552502556e-05 237.1503788
194.179889 9.217095775 53.59786585
-194.179852 46.13303147 29.60128735
-194.179852 144.6188097 113.1771954
194.179889 239.9353814 97.1995763
-194.179852 81.55964577 40.19770156
-194.179852 65.09628107 102.0679784
141.521458 139.4588388 3.728928277e-11
-218.883116 79.51414637 3.728928277e-11
194.179889 134.81424 68.2861607
202.114652 -1.552502556e-05 109.4423401
151.204482 -1.552502556e-05 203.3157458
194.179889 237.4704645 162.8070675
-143.07881 45.44674757 3.728928277e-11
194.179889 204.4593499 224.3302933
16.53949899 -1.552502556e-05 176.8783994
-46.45520101 -1.552502556e-05 57.47119986
152.301439 -1.552502556e-05 22.84432646
-194.179852 250.8114482 155.7185552
-69.51355501 -1.552502556e-05 116.1776398
124.788032 -1.552502556e-05 173.4132721
172.448816 -1.552502556e-05 146.2859608
-194.179852 212.8586517 162.5450287
93.25537999 64.71479697 3.728928277e-11
120.581768 -1.552502556e-05 25.78549583
7.964103989 35.61847487 3.728928277e-11
-125.898526 -1.552502556e-05 106.545588
-194.179852 128.658012 132.2946095
-194.179852 59.62595247 11.10473979
117.8122 152.0491952 3.728928277e-11
142.77724 250.0455531 3.728928277e-11
-17.46580301 -1.552502556e-05 22.39987868
-87.91471801 -1.552502556e-05 238.0644033
-142.027469 -1.552502556e-05 19.80482758
131.966064 -1.057729925 3.728928277e-11
190.613404 13.10684567 3.728928277e-11
109.373464 -1.552502556e-05 74.0226601
88.88936799 136.264429 3.728928277e-11
194.179889 160.0420956 60.0756799
59.87008999 81.64800847 3.728928277e-11
194.179889 225.2702305 48.80208839
-194.179852 141.5491867 50.69260417
95.47308999 -1.552502556e-05 124.7591536
187.789617 -1.552502556e-05 110.0687937
-119.761037 236.4214977 3.728928277e-11
35.24337099 206.5092927 3.728928277e-11
-203.5457632 -1.552502556e-05 0.90685789
180.078886 -1.552502556e-05 243.9042038
194.179889 193.245749 92.245212
194.179889 192.4650206 16.47982739
-191.299532 -1.552502556e-05 248.5238262
-194.179852 86.97145607 170.6786317
194.179889 20.84096227 35.04522789
-107.391103 -1.552502556e-05 153.8116402
101.617167 105.7203296 3.728928277e-11
-194.179852 48.16338717 56.28777248
-53.05345401 -1.552502556e-05 19.558934
-202.7480813 -1.552502556e-05 24.61183194
-105.028498 -1.552502556e-05 67.0732434
194.179889 102.8317263 54.73147824
207.541055 193.1575717 3.728928277e-11
7.096365989 20.48668397 3.728928277e-11
-218.9068383 201.8118129 3.728928277e-11
194.179889 231.2971581 84.3930171
194.179889 208.8255556 197.6289819
-194.179852 152.6539468 224.6318945
114.11349 241.6973258 3.728928277e-11
216.210815 -1.552502556e-05 198.9653283
-194.179852 158.9478266 24.03573023
-194.179852 8.865471075 40.65906668
91.00672999 -1.552502556e-05 195.3208952
-194.179852 116.8772124 48.88414844
45.01321999 -1.552502556e-05 154.7646575
88.98192499 -1.552502556e-05 242.0219559
-132.732555 100.7186306 3.728928277e-11
-194.179852 11.07964567 15.87641981
-194.179852 216.965129 191.350035
82.71637499 -1.552502556e-05 95.7376629
164.835024 -1.552502556e-05 22.54091702
43.15138399 -1.552502556e-05 94.1107144
-37.95589501 -1.552502556e-05 179.5650477
-194.179852 238.1333349 3.99212362
131.146127 108.7075874 3.728928277e-11
-216.1240627 241.1284331 3.728928277e-11
-158.355253 -1.552502556e-05 93.5196709
-52.22938301 -1.552502556e-05 80.7939218
194.179889 82.41240737 146.8257556
158.180917 -1.552502556e-05 68.3833689
-194.179852 241.4494121 123.0219267
99.64302899 33.93455027 3.728928277e-11
-194.179852 43.26303047 135.2561262
194.179889 138.9820971 97.6215592
-194.179852 215.7174073 119.8792127
-54.82378101 21.11926837 3.728928277e-11
194.179889 176.3269703 126.9884087
196.135411 207.6749749 3.728928277e-11
-6.217655011 -1.552502556e-05 203.7191302
154.155637 -1.552502556e-05 52.22717172
-181.860137 197.4854089 3.728928277e-11
194.179889 84.83044367 221.1238265
-194.179852 106.9568858 136.1897787
76.19555999 134.5587875 3.728928277e-11
194.179889 35.05000987 96.7521598
-31.83733201 -1.552502556e-05 100.2775572
-194.179852 122.6658086 21.17591376
-93.02426201 166.1259408 3.728928277e-11
-111.453068 -1.552502556e-05 8.35251747
-205.2244266 -1.552502556e-05 95.7172573
-194.179852 194.2855707 122.6159822
165.456809 -1.552502556e-05 188.8009463
-83.71087601 63.33812417 3.728928277e-11
-194.179852 220.2104469 19.27539617
136.340335 89.18333207 3.728928277e-11
-46.51668701 49.01190537 3.728928277e-11
138.183929 -1.552502556e-05 116.6802796
-194.179852 177.0080168 241.8415036
-194.179852 112.0931332 187.0797315
-194.179852 199.566209 156.9000755
-9.340156011 241.5651024 3.728928277e-11
-122.969117 124.417802 3.728928277e-11
-194.179852 76.11548977 224.5853777
-205.7242967 -1.552502556e-05 110.2779119
-20.93674201 -1.552502556e-05 114.8045847
-194.179852 236.0283645 50.30129647
27.77204399 189.8511533 3.728928277e-11
194.179889 125.9245614 250.9642194
-156.30379 -1.552502556e-05 52.03262849
31.00890799 -1.552502556e-05 130.8774213
-51.05053501 -1.552502556e-05 182.8381967
194.179889 126.5913697 7.04805703
194.179889 93.78190057 192.6127266
-194.179852 132.328616 14.98308393
149.260631 174.5064034 3.728928277e-11
-194.179852 29.90348927 208.7220818
56.83273399 -1.552502556e-05 102.1042391
194.179889 12.66564057 94.563319
-183.745956 -1.552502556e-05 151.7169469
-97.61652701 75.61608467 3.728928277e-11
-207.3010074 -1.552502556e-05 181.78081
-140.309795 71.03775357 3.728928277e-11
-192.946539 131.663833 3.728928277e-11
194.179889 152.5921376 86.8266481
194.179889 118.4790161 164.6553178
-194.179852 82.50164177 8.2698233
176.146632 -1.552502556e-05 61.6362473
194.179889 51.03223497 237.0355075
-195.7688146 142.5505805 3.728928277e-11
218.396931 -1.552502556e-05 8.08883861
189.250011 147.5280482 3.728928277e-11
56.83469299 -1.552502556e-05 234.0688923
-194.179852 227.2112796 78.4272077
68.36366999 115.2090054 3.728928277e-11
-84.80285601 -1.552502556e-05 42.93066992
-194.179852 151.1194043 213.3608133
135.036723 29.79393297 3.728928277e-11
-194.179852 63.28553297 139.9456114
194.179889 167.3936111 226.5425546
172.612803 123.1710357 3.728928277e-11
-168.989669 41.59883607 3.728928277e-11
194.179889 41.24361697 151.8727863
-194.179852 238.498204 182.5815354
-194.179852 39.98669527 120.0117839
69.64022599 189.600119 3.728928277e-11
-80.05537901 -1.552502556e-05 129.2727438
-154.534159 121.4533516 3.728928277e-11
-194.179852 132.2511306 170.2366581
13.98297199 -1.552502556e-05 220.7293889
57.20115899 10.71740037 3.728928277e-11
-208.9147637 143.4350103 3.728928277e-11
168.985641 113.0674153 3.728928277e-11
46.74970299 -1.552502556e-05 127.1708009
186.928835 120.764104 3.728928277e-11
-90.58355001 198.2501016 3.728928277e-11
-194.179852 191.6632794 7.28989898
-20.39181501 85.87237927 3.728928277e-11
-194.179852 216.5899302 233.484573
200.145753 -2.471551625 3.728928277e-11
194.179889 237.0055311 150.3298865
23.07729999 19.38153227 3.728928277e-11
-21.12009301 58.98214857 3.728928277e-11
-106.381037 249.8433186 3.728928277e-11
-105.36723 30.93212957 3.728928277e-11
158.633552 198.4357856 3.728928277e-11
-200.1465504 98.51650607 3.728928277e-11
-148.866504 -1.552502556e-05 98.0106046
-194.179852 40.15586667 66.0352434
-65.57576301 110.3036598 3.728928277e-11
33.81844399 -1.552502556e-05 87.4064737
-218.7071368 -1.552502556e-05 227.3932719
194.179889 208.8865223 172.650621
-194.179852 49.41392627 221.5358878
-0.8353330113 -1.552502556e-05 165.8610648
-194.179852 100.9032651 186.3367115
-53.76831201 147.2921634 3.728928277e-11
-188.34779 220.0454929 3.728928277e-11
84.99803299 -1.552502556e-05 9.73614541
-165.428334 14.54216437 3.728928277e-11
-11.73066301 192.6699446 3.728928277e-11
60.69664499 -1.552502556e-05 191.4783335
141.006973 49.58854367 3.728928277e-11
194.179889 20.20540677 185.8453556
196.550653 -1.552502556e-05 40.00997626
194.179889 64.92802677 48.22126404
-166.93073 -1.552502556e-05 223.1619779
51.31899499 -1.552502556e-05 201.8071211
194.179889 95.22242577 171.6785469
-22.49743301 239.0446725 3.728928277e-11
-184.688838 -1.552502556e-05 201.6545913
-199.2813174 -1.552502556e-05 74.7482928
150.647116 101.0844917 3.728928277e-11
-194.179852 79.72889137 240.2945821
156.67965 -1.552502556e-05 151.1675699
-129.797065 -1.552502556e-05 144.6133443
-33.14584001 200.681241 3.728928277e-11
-151.186819 -1.552502556e-05 132.7402715
-45.93361601 -1.552502556e-05 207.5533883
-194.179852 238.1987027 72.0343582
175.440155 168.0065367 3.728928277e-11
194.179889 249.889439 134.4442822
-64.33484901 135.6590681 3.728928277e-11
109.651457 -1.552502556e-05 210.5404031
-99.42131501 -1.552502556e-05 127.3717477
-194.179852 56.58030667 241.6922931
174.404181 146.0458379 3.728928277e-11
194.179889 144.8992967 106.051632
16.09891799 -1.552502556e-05 109.2848731
-194.179852 157.5240307 204.8310119
-194.179852 19.48919037 6.81817986
-155.756392 199.9013708 3.728928277e-11
-194.179852 133.9868879 61.103428
-7.168974011 -1.552502556e-05 141.1185745
-180.673295 80.16606897 3.728928277e-11
-48.84702401 -1.552502556e-05 217.8845563
-79.22136501 -1.552502556e-05 16.40406201
2.292033989 207.3685571 3.728928277e-11
131.646407 220.3037127 3.728928277e-11
-194.179852 95.07258927 220.7398155
118.664765 16.45702977 3.728928277e-11
-118.89519 -1.552502556e-05 84.6520414
176.164887 69.09846217 3.728928277e-11
210.018358 56.62301547 3.728928277e-11
218.320706 195.8946836 3.728928277e-11
79.55045599 -1.552502556e-05 22.86621364
194.179889 252.0927472 185.622394
204.35647 88.72899297 3.728928277e-11
194.179889 27.34471897 120.0020548
198.25678 154.7686677 3.728928277e-11
-122.491102 -1.552502556e-05 28.1580461
-2.605467011 -1.552502556e-05 191.4453866
-25.63992001 71.91304067 3.728928277e-11
-194.179852 198.6544955 174.8048931
4.527929989 223.6307617 3.728928277e-11
116.818821 -1.552502556e-05 11.0998295
-194.179852 201.5050797 9.98479978
-194.179852 176.5882929 50.65305446
194.179889 87.71171257 77.8567832
214.768008 138.2505351 3.728928277e-11
-194.179852 237.5479545 242.0729794
-194.179852 65.16716087 247.5883717
105.33113 126.5351263 3.728928277e-11
-86.67501401 188.7082944 3.728928277e-11
94.61609899 224.4463297 3.728928277e-11
-216.2951784 -1.552502556e-05 117.6048398
9.587052989 139.1182104 3.728928277e-11
-66.09182801 -1.552502556e-05 242.2487837
-194.179852 161.8447008 110.1430524
-21.39851801 -1.552502556e-05 126.4794687
-154.706341 -1.552502556e-05 215.4809866
