# .PCD v0.7 - Point Cloud Data file format
VERSION 0.7
FIELDS x y z
SIZE 4 4 4
TYPE F F F
COUNT 1 1 1
WIDTH 1263
HEIGHT 1
VIEWPOINT 0 0 0 1 0 0 0
POINTS 1263
DATA ascii
-174.2818652 250 72.1533967
-246.1747081 274.5663113 2.978595148e-11
5.156304348e-05 -7.5045173 6.91837896
-60.25444984 -250 -1.06756019
5.156304348e-05 39.0327112 180.154224
5.156304348e-05 187.2032825 175.8195522
-72.96285154 116.2727972 2.978595148e-11
-109.3278271 -106.2164492 2.978595148e-11
-8.931917637 -201.203891 2.978595148e-11
-37.44788844 250 63.1892883
-212.5377653 250 194.9500451
5.156304348e-05 -165.1366205 189.2393931
5.156304348e-05 64.3226866 25.39086852
5.156304348e-05 -182.5174605 94.0079396
5.156304348e-05 -90.7775115 203.1724851
-63.40862064 250 244.3115612
-178.3750243 209.5990285 2.978595148e-11
-120.1240418 -227.9832972 2.978595148e-11
-118.2566703 15.319379 2.978595148e-11
-249.1107013 -250 -0.62804395
-98.03885874 250 164.5409129
-249.5214147 250 63.2322831
-42.79283984 -123.0913943 2.978595148e-11
-236.7715669 -129.7197762 2.978595148e-11
5.156304348e-05 60.6081144 124.1774306
-192.1806429 -82.2548236 2.978595148e-11
0.02243476304 250 117.6986474
2.177512563 -78.9513488 2.978595148e-11
-180.9415032 10.1796372 2.978595148e-11
-178.8299933 250 246.6285209
5.156304348e-05 159.1924471 49.79471677
-135.7495655 117.1586111 2.978595148e-11
5.156304348e-05 150.6884338 125.3869335
-130.9194545 250 35.97783447
5.156304348e-05 -66.8950802 115.7581165
5.156304348e-05 -190.5996925 249.8374693
5.156304348e-05 212.9765741 40.08451212
-134.1334187 -175.0529051 2.978595148e-11
-188.9903596 -191.697572 2.978595148e-11
5.156304348e-05 -219.5627041 202.0221081
5.156304348e-05 -245.468048 102.3881797
5.156304348e-05 240.8758578 200.1928455
-66.68034204 -10.3122642 2.978595148e-11
-105.2297067 66.1898084 2.978595148e-11
5.156304348e-05 -108.6770626 78.8113085
-211.213394 250 29.99951609
5.156304348e-05 110.2175144 219.2903775
-209.8556938 69.5669425 2.978595148e-11
-213.6268029 -33.2269388 2.978595148e-11
5.156304348e-05 17.6826057 225.7624321
5.156304348e-05 -84.1545098 252.4099306
-234.7407468 151.4922641 2.978595148e-11
-103.332137 -57.3031471 2.978595148e-11
-11.57194254 -250 -1.96051476
-48.41049324 250 116.7680588
-32.17248844 90.6556907 2.978595148e-11
5.156304348e-05 -168.4672928 141.4068028
5.156304348e-05 204.8374425 231.5979033
-84.83490624 250 47.35693492
5.156304348e-05 13.1022977 140.5290658
5.156304348e-05 -201.4738552 51.75739205
5.156304348e-05 14.032836 47.82824209
-127.9029236 221.2595615 2.978595148e-11
-69.91769524 161.6480568 2.978595148e-11
-43.26136764 247.8714398 2.978595148e-11
-70.69453734 250 200.2676349
-166.2170042 250 194.7308664
5.156304348e-05 227.7167215 155.691277
5.156304348e-05 54.3780165 68.1420064
-140.1037416 250 111.6299176
-148.9338088 -82.1941478 2.978595148e-11
-190.2608327 250 115.8213678
5.156304348e-05 150.8560136 204.8186405
5.156304348e-05 -43.0912287 212.0873548
1.518884163 -121.5672476 2.978595148e-11
-79.88263924 204.140261 2.978595148e-11
-250.1699697 250 160.72962
0.576523463 226.3160841 2.978595148e-11
5.156304348e-05 -122.33982 175.1400819
5.156304348e-05 106.2782034 127.2265525
-36.02831454 -164.1958084 2.978595148e-11
5.156304348e-05 236.0413944 78.8093138
5.156304348e-05 177.9753588 4.69735622
5.156304348e-05 104.0085639 36.50061031
-219.7621617 -221.4473419 2.978595148e-11
-17.65236914 28.7040061 2.978595148e-11
5.156304348e-05 -26.9184487 123.0731894
5.156304348e-05 73.3504661 201.7526458
5.156304348e-05 -100.5650497 34.9486566
-175.8117067 101.7338721 2.978595148e-11
-251.9115743 250 204.2908877
-208.9495172 250 154.6635483
-48.63499914 -203.7182446 2.978595148e-11
5.156304348e-05 -74.1853104 159.4379823
-14.48013944 250 30.20794124
5.156304348e-05 -28.7259665 81.3069224
-124.8007474 267.7587116 2.978595148e-11
-37.13600744 139.5984278 2.978595148e-11
-79.19472634 -138.2986732 2.978595148e-11
-138.3761198 -135.7989204 2.978595148e-11
-150.0120873 163.7531058 2.978595148e-11
5.156304348e-05 188.9632524 133.922159
-34.26272314 250 218.0886001
5.156304348e-05 -2.9279593 188.9382927
-234.7403607 235.5050249 2.978595148e-11
5.156304348e-05 -142.1953365 101.0430908
-155.4969643 -210.9760323 2.978595148e-11
-214.3437186 250 78.9568832
5.156304348e-05 -134.8199641 212.984668
-212.4768821 118.956176 2.978595148e-11
-72.50044814 -97.0300505 2.978595148e-11
-22.52257174 -37.0069166 2.978595148e-11
-218.5433497 250 234.4396979
5.156304348e-05 -31.93119 36.00295041
1.090818663 -161.2641572 2.978595148e-11
-130.0056572 250 73.053291
5.156304348e-05 -246.5367642 176.9199095
-84.61893474 250 130.4724001
-207.5810749 187.7775071 2.978595148e-11
-218.5098079 -170.5159462 2.978595148e-11
5.156304348e-05 158.9911974 86.0666526
-245.6802421 64.0323053 2.978595148e-11
-83.19874474 -214.4921114 2.978595148e-11
-174.1120372 250 25.71906984
-226.8539078 -92.6380492 2.978595148e-11
5.156304348e-05 73.5585455 157.5750614
-70.91351594 76.0585337 2.978595148e-11
-202.6901781 268.0583254 2.978595148e-11
5.156304348e-05 -226.2781423 23.0654852
-115.0867851 -19.70363 2.978595148e-11
5.156304348e-05 122.1403294 252.3391144
5.156304348e-05 153.8034685 165.2866271
-248.906685 -15.4984956 2.978595148e-11
-135.3454113 250 175.3923377
-102.8751746 133.6024198 2.978595148e-11
5.156304348e-05 -160.2738302 68.1368424
-98.36355734 250 241.7179858
1.752315863 90.494929 2.978595148e-11
-94.82436334 -250 -1.29190405
-150.4071237 -5.4984023 2.978595148e-11
-145.6857944 34.25604 2.978595148e-11
5.156304348e-05 -222.6571831 77.482851
5.156304348e-05 -171.0481071 222.86873
-65.56497134 250 81.0102615
5.156304348e-05 -213.7156326 112.3661897
5.156304348e-05 -249.7967218 215.1712627
-155.286371 241.641218 2.978595148e-11
-202.0219005 234.9112728 2.978595148e-11
-47.86850164 250 32.34734193
-203.607408 -120.2937012 2.978595148e-11
-103.4893383 250 200.1917032
-143.7329033 250 250.3563873
5.156304348e-05 -191.4899943 163.8909392
-108.069481 -152.3528462 2.978595148e-11
-251.1534909 250 23.44753011
5.156304348e-05 128.4384897 58.52595739
-172.8288381 -108.1656271 2.978595148e-11
-30.58417754 250 249.6990628
5.156304348e-05 218.3279263 122.3826178
-197.1255652 40.742293 2.978595148e-11
-119.5076049 250 141.4881071
5.156304348e-05 -107.9278757 231.7646298
-36.31822074 -1.9813186 2.978595148e-11
-180.4763682 -53.033068 2.978595148e-11
-129.5633766 86.0593426 2.978595148e-11
5.156304348e-05 74.0039127 92.6694439
-146.6781945 -244.7101886 2.978595148e-11
-86.28536794 23.3280027 2.978595148e-11
5.156304348e-05 -62.0821894 26.30047702
5.156304348e-05 40.0438169 99.3087745
2.356523263 -250 137.5688197
5.156304348e-05 49.3593484 221.1321988
-95.98865344 233.0595679 2.978595148e-11
-41.34130174 -88.6790645 2.978595148e-11
-107.0608623 -195.3178697 2.978595148e-11
5.156304348e-05 -174.8287877 36.94401794
-23.18669024 250 97.9942162
5.156304348e-05 185.8406653 206.2184608
5.156304348e-05 187.651507 60.0531481
-28.65720104 56.8717923 2.978595148e-11
-25.05439624 250 135.9376701
5.156304348e-05 33.0967879 23.94836282
-251.5427005 250 98.0497166
-251.3591127 -218.258455 2.978595148e-11
5.156304348e-05 -11.5273562 219.7675647
5.156304348e-05 131.3313322 97.1397596
5.156304348e-05 -56.8795433 241.2817805
-31.82078264 -228.7286637 2.978595148e-11
-63.20409234 250 151.5539457
5.156304348e-05 -96.0706747 115.8062765
-7.383330237 250 173.5961019
-145.942872 192.5335859 2.978595148e-11
-174.9470696 178.6626038 2.978595148e-11
5.156304348e-05 213.402687 190.9313116
-182.9778781 250 167.858731
5.156304348e-05 45.5767275 150.6822836
-53.21606554 274.7902035 2.978595148e-11
-29.72937444 168.4097154 2.978595148e-11
-216.6973351 -249.9247878 2.978595148e-11
-103.2984811 104.9789712 2.978595148e-11
-180.5197089 -18.3429949 2.978595148e-11
-101.8039035 250 24.60217308
-251.9904023 128.8098268 2.978595148e-11
5.156304348e-05 31.9814228 250.1063515
-67.92405584 229.6299489 2.978595148e-11
5.156304348e-05 -214.1574675 229.6509785
-165.9440422 -165.2966621 2.978595148e-11
5.156304348e-05 -81.4229126 85.402854
-195.223611 250 219.0776806
-214.3737481 -61.1134239 2.978595148e-11
5.156304348e-05 -192.7400935 194.3688665
-251.7856938 -106.2389481 2.978595148e-11
-83.75906914 -32.2988498 2.978595148e-11
-206.9990883 0.5626672001 2.978595148e-11
5.156304348e-05 -65.5252309 191.6977362
5.156304348e-05 -11.7458897 59.50819376
-160.4843377 129.4587868 2.978595148e-11
-26.14364544 -65.6854713 2.978595148e-11
5.156304348e-05 134.9254095 26.87172923
5.156304348e-05 -8.6244213 157.3084759
5.156304348e-05 -133.0460829 65.2501533
-20.22403954 -138.4306443 2.978595148e-11
-160.5210614 250 226.466815
-78.41781304 -70.3257844 2.978595148e-11
-133.4519094 -59.9189056 2.978595148e-11
-124.8164939 149.5166258 2.978595148e-11
5.156304348e-05 95.314253 241.9084136
5.156304348e-05 82.3888797 64.3699689
-239.3027905 -41.2322306 2.978595148e-11
-22.78866974 116.8774407 2.978595148e-11
5.156304348e-05 1.4861355 251.5189737
-3.799640137 250 56.31656731
-245.8421758 -162.043759 2.978595148e-11
1.574327463 47.2653325 2.978595148e-11
5.156304348e-05 -95.7086706 175.9320692
-227.3146838 90.6003016 2.978595148e-11
5.156304348e-05 171.9038138 109.4358775
-201.0106266 250 54.35456962
-202.3192608 -148.5592876 2.978595148e-11
5.156304348e-05 -195.6425844 131.5064383
-75.32710844 250 20.93323759
-206.804026 159.8538046 2.978595148e-11
-13.32471444 248.9147042 2.978595148e-11
-137.783212 -105.945711 2.978595148e-11
5.156304348e-05 -137.7525601 151.7902787
-180.1140214 250.0445386 2.978595148e-11
-46.80887164 -27.3057867 2.978595148e-11
-155.5301661 250 90.3371911
5.156304348e-05 -55.4444936 87.8702611
5.156304348e-05 103.0756571 193.3643973
5.156304348e-05 -46.658034 140.005796
-5.680879937 250 223.8716152
-120.3823236 41.1898286 2.978595148e-11
5.156304348e-05 134.1475534 229.283458
0.272488363 -49.371539 2.978595148e-11
5.156304348e-05 28.7832223 71.8227254
5.156304348e-05 178.2857172 30.51945659
-155.6662881 250 43.69785123
-29.04069434 250 192.8861328
-110.2981568 250 51.29455227
-225.4792255 -196.5536452 2.978595148e-11
-93.95038634 -0.9795269999 2.978595148e-11
5.156304348e-05 -0.4399526999 118.9375077
-8.373753537 154.4045758 2.978595148e-11
-108.1783472 205.250348 2.978595148e-11
-235.595488 250 184.3905546
5.156304348e-05 -89.4824953 61.3679193
-250.4797133 171.2706325 2.978595148e-11
-60.84844484 -155.6618381 2.978595148e-11
-21.64188854 -109.289919 2.978595148e-11
5.156304348e-05 -71.9030161 221.0173489
-243.4825367 250 228.5925298
-233.6873274 250 41.55389932
-222.2501659 40.8214022 2.978595148e-11
-185.3088981 250 140.3780877
5.156304348e-05 136.23021 147.4607355
-114.4770691 -79.7158726 2.978595148e-11
5.156304348e-05 33.0761194 125.462254
-181.7276279 -219.7772832 2.978595148e-11
5.156304348e-05 202.9697286 156.2949805
-64.11602324 250 176.270439
5.156304348e-05 -94.8025454 140.4625424
5.156304348e-05 133.9900611 186.8076003
-203.2569908 95.7393436 2.978595148e-11
-61.07652634 188.3338919 2.978595148e-11
5.156304348e-05 -28.2096527 192.7188744
5.156304348e-05 230.3670243 237.1720455
5.156304348e-05 -173.5685608 117.6168885
5.156304348e-05 -181.9275935 13.67329867
-129.579852 -204.3590471 2.978595148e-11
5.156304348e-05 202.0992696 0.30024383
-216.156125 210.4345188 2.978595148e-11
5.156304348e-05 210.8101364 72.8749638
-152.8759086 94.3256706 2.978595148e-11
5.156304348e-05 44.3260998 45.24599419
-59.36732244 12.5776221 2.978595148e-11
0.925997463 -250 74.4123166
5.156304348e-05 15.7216036 173.811322
5.156304348e-05 -142.8012518 125.6522057
1.164622563 250 147.1175895
5.156304348e-05 33.1910263 203.3269326
-169.3929149 37.2405244 2.978595148e-11
-189.2396349 250 91.9608274
5.156304348e-05 -166.8214924 248.5154588
5.156304348e-05 165.3903973 223.6637155
-107.189036 250 118.5318768
5.156304348e-05 -118.794221 108.7682287
5.156304348e-05 174.3898073 152.6946488
-252.2966729 250 135.6607112
-136.4027714 58.680299 2.978595148e-11
-5.096777837 -225.0021767 2.978595148e-11
5.156304348e-05 82.2574788 179.4668128
-84.05573704 46.7555878 2.978595148e-11
-127.5210969 250 199.3829977
5.156304348e-05 -226.5595417 49.11758928
-96.52131494 250 72.7383329
-225.6243099 263.1287345 2.978595148e-11
5.156304348e-05 -249.8179314 18.40270998
5.156304348e-05 -159.5204993 166.5067771
-80.35138554 250 221.5756944
-221.9036054 250 101.0531419
-30.73220974 268.5216421 2.978595148e-11
-61.86209834 -226.7458732 2.978595148e-11
-51.36970814 103.8131097 2.978595148e-11
-45.29563254 217.8492356 2.978595148e-11
-162.8151593 250 127.780789
5.156304348e-05 233.0907475 101.6948008
5.156304348e-05 -17.6628658 102.0683896
-43.08021364 250 86.7209155
5.156304348e-05 92.1046792 109.332855
-89.25601734 173.761548 2.978595148e-11
-152.847952 218.9531409 2.978595148e-11
-182.5360998 62.2660125 2.978595148e-11
-190.4543497 -167.9931057 2.978595148e-11
5.156304348e-05 -189.6464564 71.208844
-129.0678662 245.4071403 2.978595148e-11
-7.711017737 67.9625771 2.978595148e-11
-210.7832108 250 132.0666466
5.156304348e-05 182.6913679 248.2839102
5.156304348e-05 -221.7892786 179.4698117
-118.4471356 250 252.1326943
-244.8325831 40.8123297 2.978595148e-11
-157.8318031 -186.2803652 2.978595148e-11
-170.285912 -75.4713047 2.978595148e-11
5.156304348e-05 -200.9807512 29.39628994
5.156304348e-05 83.6400938 137.6376585
-232.4071256 250 145.8321856
5.156304348e-05 -146.2468103 16.42795724
5.156304348e-05 -143.025908 186.4839276
-177.4893387 250 48.15002586
5.156304348e-05 107.5498318 13.98578424
-49.51519294 70.4327841 2.978595148e-11
5.156304348e-05 -31.5716329 13.10734011
-230.8958475 181.5177023 2.978595148e-11
-87.39242714 -113.3348537 2.978595148e-11
5.156304348e-05 233.3906695 29.66565801
-121.0369796 250 100.6960578
5.156304348e-05 -97.0870905 13.25729132
5.156304348e-05 88.2749134 218.9944179
-15.94125114 6.8526161 2.978595148e-11
-48.90284884 250 201.9297886
-145.7302702 261.68182 2.978595148e-11
5.156304348e-05 -114.3468349 205.6420739
-64.25534974 -119.7085369 2.978595148e-11
-110.5828225 -127.9056984 2.978595148e-11
5.156304348e-05 220.443828 211.4409973
-226.9613663 -150.5469906 2.978595148e-11
-226.0098076 -15.5089514 2.978595148e-11
-147.5382915 250 209.255047
5.156304348e-05 -71.715168 138.0297477
5.156304348e-05 -151.6626035 233.3691913
5.156304348e-05 -40.4864829 62.4561991
5.156304348e-05 59.7649732 185.0613161
-108.7843571 251.8452168 2.978595148e-11
-164.7340712 -233.4597907 2.978595148e-11
-90.83787914 152.5469229 2.978595148e-11
-38.63922594 25.3067054 2.978595148e-11
-86.41963304 250 185.9825575
-145.7305729 250 20.79367027
-172.08828 250 104.8888538
-191.3022251 119.6402952 2.978595148e-11
-21.27964444 229.356255 2.978595148e-11
-65.32079884 256.3783609 2.978595148e-11
-136.7059564 -21.5306437 2.978595148e-11
5.156304348e-05 213.4970307 18.03043621
5.156304348e-05 -113.5868761 57.1659469
-82.10804174 93.8963952 2.978595148e-11
-57.57212904 250 56.99205989
-231.1316163 250 17.07157654
5.156304348e-05 -203.0763105 87.3261947
5.156304348e-05 157.5439794 27.68634836
-76.53946174 250 111.2109157
5.156304348e-05 204.8614404 252.4802638
-55.81061854 128.1798192 2.978595148e-11
-18.40454104 -16.5470212 2.978595148e-11
-29.00835524 250 15.22942446
5.156304348e-05 -198.6561213 215.6989933
-53.56393894 250 225.9307192
-100.4870234 -175.0842761 2.978595148e-11
5.156304348e-05 146.5145049 68.7225223
-231.9910886 250 209.9938827
5.156304348e-05 -6.7810859 39.43943079
5.156304348e-05 165.0304467 189.7902384
-156.2547568 -120.479642 2.978595148e-11
-124.4399498 -248.1704144 2.978595148e-11
5.156304348e-05 126.1469217 121.6716114
5.156304348e-05 126.9756999 207.2788777
-45.88595874 -182.2947626 2.978595148e-11
-184.4339809 82.7768844 2.978595148e-11
5.156304348e-05 81.2488969 37.09003836
-29.54655074 250 44.20500958
5.156304348e-05 -237.1142267 121.7501912
5.156304348e-05 12.2138574 206.0114276
5.156304348e-05 -7.2999121 82.1700149
5.156304348e-05 -235.8510413 232.9295923
5.156304348e-05 227.2834024 60.3767803
5.156304348e-05 -75.4136005 41.71434006
-215.8775416 21.4702411 2.978595148e-11
-16.77076204 190.5369554 2.978595148e-11
5.156304348e-05 -113.5648172 251.2586745
-203.4983702 250 247.9901865
5.156304348e-05 -10.0647772 136.7371697
-152.0526571 250 63.6078079
-99.95238294 -225.8200828 2.978595148e-11
-140.7857847 -225.3995676 2.978595148e-11
5.156304348e-05 -241.6784129 155.8104954
5.156304348e-05 -39.0496838 106.9445588
5.156304348e-05 169.3921972 68.7891631
-99.53225004 250 144.121797
-195.1282791 250 183.9306589
-19.23637894 250 155.7394055
-139.8171301 250 147.2197696
-179.9237406 229.6444273 2.978595148e-11
-60.57043184 -80.8525766 2.978595148e-11
-50.27985104 165.9279518 2.978595148e-11
-154.5212936 -147.7626664 2.978595148e-11
-63.78407744 -43.3141305 2.978595148e-11
5.156304348e-05 102.0892544 60.6878636
-164.7081098 150.1337003 2.978595148e-11
-213.3533587 250 174.9867279
5.156304348e-05 108.6734334 149.2530174
-40.31685154 -249.9870497 2.978595148e-11
5.156304348e-05 -157.8077949 87.913262
-207.2033496 -205.9818309 2.978595148e-11
-227.3899746 250 63.9612707
5.156304348e-05 -240.272987 195.7784775
-120.6995675 250 161.9638779
-154.6250177 250 170.7780539
-132.4209134 -154.6959044 2.978595148e-11
-126.2054741 193.3027141 2.978595148e-11
-120.1261012 250 17.22944013
5.156304348e-05 -128.1703312 233.6389075
5.156304348e-05 199.5105388 116.4715857
-90.17179634 -88.3549193 2.978595148e-11
-19.24837664 -174.39603 2.978595148e-11
-186.3458749 250 201.5625996
5.156304348e-05 -152.6707191 204.8133906
-252.3805261 -141.6222352 2.978595148e-11
-127.1082724 -2.1812883 2.978595148e-11
5.156304348e-05 112.6105344 102.848886
5.156304348e-05 -216.2167157 249.0742815
5.156304348e-05 -122.0591262 19.4574333
-215.8145297 138.1780015 2.978595148e-11
-78.27000434 -239.9225648 2.978595148e-11
5.156304348e-05 -99.1689304 96.6914516
-78.25036254 250 65.548719
-112.0215782 -38.8019655 2.978595148e-11
-19.46525364 210.1319928 2.978595148e-11
-158.3009112 12.0904776 2.978595148e-11
5.156304348e-05 -16.7403236 174.7594344
5.156304348e-05 149.6258959 103.0969899
5.156304348e-05 -49.7442761 43.23025116
-61.06508634 250 131.231702
-39.34123684 -46.9616036 2.978595148e-11
-45.81995054 250 182.9657949
-250.0951357 255.7764981 2.978595148e-11
5.156304348e-05 -45.6135832 184.6846236
-234.0301944 -234.2477007 2.978595148e-11
0.139004063 17.2004508 2.978595148e-11
-104.531791 29.024617 2.978595148e-11
-44.84556364 -142.0437935 2.978595148e-11
-130.966916 -40.9109118 2.978595148e-11
-50.88894084 -105.1110156 2.978595148e-11
-226.3056128 -113.8863779 2.978595148e-11
5.156304348e-05 22.410567 107.5950465
5.156304348e-05 -81.2993161 23.63838846
-202.1300363 -17.6795699 2.978595148e-11
5.156304348e-05 192.4291544 18.03844961
-19.32479444 250 68.3887939
-198.9691402 -45.0718706 2.978595148e-11
5.156304348e-05 24.4275667 155.5532424
5.156304348e-05 -27.6857189 229.3897184
-213.9360177 250 6.60409966
-200.226696 -232.6449916 2.978595148e-11
-209.5259826 -186.8826765 2.978595148e-11
-233.0068957 -61.6433879 2.978595148e-11
-230.391009 123.9978154 2.978595148e-11
-240.4469964 217.8145888 2.978595148e-11
5.156304348e-05 -89.6649789 228.3668572
-189.879294 167.4383958 2.978595148e-11
-29.91816024 250 117.926455
5.156304348e-05 50.805642 245.3872991
-231.2837142 250 247.8048597
5.156304348e-05 122.4500552 40.47932133
-252.3619799 250 44.99612046
5.156304348e-05 234.3818744 131.4525846
5.156304348e-05 53.7478883 203.2385979
-193.2176893 250 37.70663996
-12.94931624 -89.3884732 2.978595148e-11
-152.3619506 -64.1386203 2.978595148e-11
5.156304348e-05 216.2779322 90.3887536
5.156304348e-05 -108.9472457 162.6430634
-83.80695424 -160.2217275 2.978595148e-11
5.156304348e-05 -202.262799 149.1729356
5.156304348e-05 -127.2830645 82.5441194
-106.826263 250 225.5859362
-17.23892554 250 209.8032095
5.156304348e-05 9.890884 75.6301314
-198.7287592 250 16.78002677
5.156304348e-05 -109.2847962 188.017378
5.156304348e-05 54.7646916 166.3610446
5.156304348e-05 131.1885068 78.973479
-248.3662443 81.9619932 2.978595148e-11
-191.3792801 -106.9601807 2.978595148e-11
5.156304348e-05 219.1566214 171.5812557
-66.99133504 -190.6978155 2.978595148e-11
-31.91903704 -193.7195556 2.978595148e-11
5.156304348e-05 241.4051171 9.87842089
-189.6610034 189.841399 2.978595148e-11
5.156304348e-05 -164.4860474 18.22651939
5.156304348e-05 179.6192281 83.631286
5.156304348e-05 -220.5821988 129.0085887
5.156304348e-05 15.1819394 25.45690244
-115.288076 250 186.2303214
5.156304348e-05 -56.4257889 156.7742059
-62.13745514 250 98.6380078
-227.6727894 71.4791226 2.978595148e-11
-105.3501201 84.019775 2.978595148e-11
5.156304348e-05 0.5906286001 233.7253438
-82.29102434 250 156.2171474
-101.2998022 270.4730409 2.978595148e-11
-124.8287278 250 120.7409099
-119.9918603 125.3749916 2.978595148e-11
5.156304348e-05 90.979451 20.21184106
-64.55693174 59.5701565 2.978595148e-11
5.156304348e-05 -31.3113555 148.7648324
5.156304348e-05 -117.6243391 39.33715979
-76.22609134 4.4590861 2.978595148e-11
-171.2475833 250 212.5590331
5.156304348e-05 74.6829903 111.3709448
5.156304348e-05 -180.6750993 207.0895158
-83.04333894 130.6055329 2.978595148e-11
-0.327681637 -140.2324824 2.978595148e-11
5.156304348e-05 -240.4259401 35.76677088
-133.7130853 170.0786647 2.978595148e-11
5.156304348e-05 -196.9946847 233.1011146
5.156304348e-05 -50.2145168 120.9411542
-93.52401454 193.2331278 2.978595148e-11
-85.83361184 -197.232373 2.978595148e-11
5.156304348e-05 -182.2613674 180.4083196
-17.50766714 139.5302747 2.978595148e-11
-131.0655713 -85.1407749 2.978595148e-11
5.156304348e-05 -172.0876544 54.15793811
-0.467239837 250 97.5183688
5.156304348e-05 57.8435981 99.1639205
-249.6743805 4.6563573 2.978595148e-11
5.156304348e-05 164.2619401 138.5662287
5.156304348e-05 -193.3696571 107.5779956
-183.6524531 267.4815558 2.978595148e-11
-70.63536054 272.9142522 2.978595148e-11
-85.66784324 -49.559762 2.978595148e-11
5.156304348e-05 -226.970947 94.2246256
-101.2667538 47.4558612 2.978595148e-11
-14.76241884 85.6728418 2.978595148e-11
-42.22863784 250 134.9810237
5.156304348e-05 188.4930019 226.3102162
-174.4008191 -36.9695283 2.978595148e-11
-248.5792803 250 80.3564389
-58.51054084 250 17.71224773
-14.06206644 250 245.2640582
5.156304348e-05 196.3156077 190.9932969
5.156304348e-05 60.3970568 51.01071662
-156.9951231 -22.8934926 2.978595148e-11
-210.0566753 -89.7724449 2.978595148e-11
-141.6872169 15.8071636 2.978595148e-11
-230.8473879 250 83.0280712
5.156304348e-05 189.7606066 43.05866019
-186.0767 -123.102557 2.978595148e-11
5.156304348e-05 -157.5436554 42.2787797
-130.9239297 250 56.1112942
-250.8015725 146.0409537 2.978595148e-11
-149.2949588 250 192.4166408
5.156304348e-05 -228.6119022 216.2858903
-162.1468891 111.5966318 2.978595148e-11
5.156304348e-05 72.0229109 223.4375431
5.156304348e-05 -79.6262204 180.7636122
5.156304348e-05 43.9469698 82.9824552
5.156304348e-05 145.5050334 39.88777124
-212.2636116 250 114.7782053
5.156304348e-05 128.7910756 168.5006583
5.156304348e-05 -157.6948594 107.3471062
-88.14857374 78.293916 2.978595148e-11
-251.7744702 250 180.2244827
-105.196824 162.4839023 2.978595148e-11
5.156304348e-05 -211.0573793 16.09632334
-225.1095095 165.0675999 2.978595148e-11
-198.6444928 24.2083487 2.978595148e-11
5.156304348e-05 148.2776442 13.91574334
-46.13381404 -220.1266872 2.978595148e-11
-183.3245079 250 230.5964191
-114.432026 236.2854186 2.978595148e-11
-53.25077024 86.5575979 2.978595148e-11
-6.356193137 113.7087554 2.978595148e-11
-67.06547124 -27.0944477 2.978595148e-11
-221.0431808 -77.1655032 2.978595148e-11
-161.7120525 257.6846217 2.978595148e-11
-79.30418684 250 238.004591
-177.3254799 130.8723639 2.978595148e-11
-114.581367 -211.1351562 2.978595148e-11
5.156304348e-05 -152.1664525 139.1864952
5.156304348e-05 -41.6608867 247.4720065
5.156304348e-05 219.8685078 139.1146953
-223.3989795 1.0608958 2.978595148e-11
-123.8496952 69.2432543 2.978595148e-11
-139.4399678 -190.5720622 2.978595148e-11
-157.1120371 48.3449279 2.978595148e-11
-122.2461125 -189.1407744 2.978595148e-11
-85.32811784 250 87.8467207
-230.3443441 250 162.0923764
5.156304348e-05 91.3584872 165.8742832
-90.88608564 115.6014251 2.978595148e-11
-251.055637 235.7909964 2.978595148e-11
5.156304348e-05 204.1728864 212.594782
-129.2480348 -119.8391068 2.978595148e-11
-177.4944973 -180.1714975 2.978595148e-11
5.156304348e-05 -15.751976 25.86457168
1.534789963 250 27.34741761
5.156304348e-05 -67.9716615 98.2397921
5.156304348e-05 47.8188345 113.5914242
-160.7062733 -97.3393298 2.978595148e-11
5.156304348e-05 151.0992842 181.4225727
-68.68185074 -207.1987243 2.978595148e-11
-242.4567597 -79.9808756 2.978595148e-11
-157.0617764 250 112.6188935
-181.9692007 26.3484985 2.978595148e-11
-7.613632737 250 81.9121091
-92.11490884 217.332032 2.978595148e-11
-136.4447448 100.7184551 2.978595148e-11
-80.73296014 239.4912207 2.978595148e-11
-140.1514394 208.9724925 2.978595148e-11
-211.292459 250 217.5264326
5.156304348e-05 -55.8408125 225.1750246
5.156304348e-05 15.7133209 189.9402259
-190.0424076 250 75.8672974
5.156304348e-05 -58.1475959 206.3930162
5.156304348e-05 144.0628263 245.8261498
5.156304348e-05 119.6064267 236.4489446
-169.9345498 -248.6589347 2.978595148e-11
-46.39740004 250 252.4729367
-36.85998574 41.2399737 2.978595148e-11
5.156304348e-05 76.7856713 10.93423242
-62.42690944 250 41.74696953
5.156304348e-05 231.2101233 187.5096297
5.156304348e-05 90.8860322 93.442571
-161.7288325 250 15.68933428
-188.7610354 -66.6388979 2.978595148e-11
5.156304348e-05 -177.1193772 154.7818849
-137.93768 250 86.8508213
-173.0331053 194.6124731 2.978595148e-11
-252.4774854 -234.0648575 2.978595148e-11
-14.77306834 250 111.374172
-39.49549344 250 102.1118774
5.156304348e-05 32.0533904 141.7122215
-19.59397894 -218.7163819 2.978595148e-11
5.156304348e-05 48.7193177 27.7708806
-144.1752348 80.2122078 2.978595148e-11
-12.14864324 -152.7599743 2.978595148e-11
-26.94568394 250 176.7552146
-99.67527094 -15.600133 2.978595148e-11
5.156304348e-05 -113.1347252 147.512851
5.156304348e-05 -91.2368297 160.8913237
-85.23419394 250 206.1591338
1.055433063 255.1587444 2.978595148e-11
5.156304348e-05 -213.4256277 40.59694487
-130.2155647 250 238.0908464
-218.9408269 -127.6491988 2.978595148e-11
-225.1079429 223.2228701 2.978595148e-11
-159.3074039 250 251.154745
-168.9159533 83.4253215 2.978595148e-11
5.156304348e-05 204.893952 58.51774687
-58.83915764 -134.2445076 2.978595148e-11
5.156304348e-05 226.0028753 252.0403145
-148.5244031 250 133.7471651
-86.85333824 250 31.26506696
-29.07927424 250 234.3011479
-150.5567504 -166.8123894 2.978595148e-11
-44.49667064 250 48.1240134
-37.15075834 111.1717726 2.978595148e-11
5.156304348e-05 34.2453825 224.3477079
5.156304348e-05 218.134587 105.7244153
-7.308932037 -66.7810427 2.978595148e-11
5.156304348e-05 73.1775715 76.7281616
-217.1692942 56.0141627 2.978595148e-11
-176.7027962 250 153.1470469
-118.6654205 105.9083152 2.978595148e-11
-245.229219 250 112.2563837
-202.2182108 216.9592854 2.978595148e-11
5.156304348e-05 -172.1343759 82.2974288
5.156304348e-05 -71.5688384 73.5850865
-30.09286634 72.1883249 2.978595148e-11
-89.65819564 250 15.18325734
-112.558504 220.7007435 2.978595148e-11
5.156304348e-05 -232.1521475 65.4167436
-10.06691634 250 193.044429
5.156304348e-05 116.0009617 67.5028866
5.156304348e-05 -6.6973209 205.2158126
5.156304348e-05 -63.5536769 170.4806221
-221.9310822 104.9403012 2.978595148e-11
5.156304348e-05 200.6681058 30.98185816
-145.3005225 250 225.1418295
5.156304348e-05 15.5883676 240.8955245
-187.6464145 -152.782125 2.978595148e-11
-193.0082721 250 156.3646507
-48.35435504 232.7837911 2.978595148e-11
5.156304348e-05 177.1915671 124.2473599
5.156304348e-05 64.3341954 138.9407053
5.156304348e-05 167.1272206 204.8508438
5.156304348e-05 237.4916387 169.1149987
-6.512089237 -107.8919954 2.978595148e-11
-119.2528811 -140.3672621 2.978595148e-11
5.156304348e-05 118.8275149 187.4638835
-131.1614353 135.6498906 2.978595148e-11
-46.73932974 250 149.4607729
5.156304348e-05 -102.892986 215.5827347
-79.42251234 62.5686201 2.978595148e-11
5.156304348e-05 172.8418444 170.9896019
-229.7846193 203.8271038 2.978595148e-11
5.156304348e-05 203.9403725 136.122093
-98.74339244 250 40.61189423
-56.10804174 143.2993324 2.978595148e-11
-232.400902 52.0303525 2.978595148e-11
-106.1744894 -239.5704346 2.978595148e-11
-180.1530846 -204.7754476 2.978595148e-11
-53.14304844 204.9754447 2.978595148e-11
5.156304348e-05 17.9759691 121.987862
-175.4696214 160.6572684 2.978595148e-11
5.156304348e-05 -215.9673337 64.0177157
5.156304348e-05 182.8592126 98.3848099
5.156304348e-05 -133.1687258 114.1318008
-150.6986666 144.7745743 2.978595148e-11
-244.8477311 -202.3149592 2.978595148e-11
5.156304348e-05 -81.4794149 112.2811222
5.156304348e-05 -25.1016404 213.4287096
-52.12050864 250 165.9157023
5.156304348e-05 -1.9012634 172.9035481
5.156304348e-05 -145.6752256 57.24348807
-17.63576814 -233.5301367 2.978595148e-11
-118.8287089 -52.1001805 2.978595148e-11
5.156304348e-05 121.0030265 20.47648599
-9.748531737 -185.9189881 2.978595148e-11
-195.1595355 -134.9514599 2.978595148e-11
5.156304348e-05 -49.8893481 17.69929117
-93.88626074 -140.8888978 2.978595148e-11
5.156304348e-05 -129.8077653 198.9390053
5.156304348e-05 -43.6962508 77.0165197
-92.35560414 250 117.0315416
5.156304348e-05 -242.6603086 5.32979273
-66.34536434 250 216.4867882
5.156304348e-05 30.4117231 6.88279912
5.156304348e-05 120.3233731 135.3757684
5.156304348e-05 -89.5326195 46.38891806
5.156304348e-05 231.1390725 221.7708826
-198.9838717 201.4035483 2.978595148e-11
5.156304348e-05 53.3047271 13.47071487
-168.8970544 250 174.8663005
-39.11617264 154.3076435 2.978595148e-11
5.156304348e-05 119.0196468 87.4470021
5.156304348e-05 31.0311602 38.61008961
-215.2581098 250 44.23120411
5.156304348e-05 -162.1177128 126.9428757
-110.4403802 250 77.6104638
-69.07406294 -57.0683652 2.978595148e-11
-14.22888894 54.0087039 2.978595148e-11
-176.672968 250 122.8941911
-100.7005966 250 182.6207027
-76.44037484 143.7051199 2.978595148e-11
-165.9259644 -51.206664 2.978595148e-11
-250.598337 27.3410452 2.978595148e-11
-28.56949214 -151.5905429 2.978595148e-11
-98.13089284 -206.9170473 2.978595148e-11
5.156304348e-05 -226.8472215 163.3086369
5.156304348e-05 33.5552442 55.12140993
-218.307155 237.724563 2.978595148e-11
-44.92183694 10.4190425 2.978595148e-11
-236.1410003 -26.0296014 2.978595148e-11
5.156304348e-05 248.8265253 237.2570898
-20.91066784 -123.853047 2.978595148e-11
-31.98519264 -25.9151547 2.978595148e-11
5.156304348e-05 168.2162928 15.52030269
5.156304348e-05 239.5288178 46.93161223
-41.62935644 177.6367975 2.978595148e-11
-14.08110954 -51.663593 2.978595148e-11
5.156304348e-05 7.112255 10.46032632
-207.5860731 250 98.665049
-69.89017804 -166.9876993 2.978595148e-11
-201.0566718 250.226358 2.978595148e-11
-24.76629904 250 81.7830555
-123.1904743 -102.1863746 2.978595148e-11
-28.90331844 246.9576448 2.978595148e-11
-174.1667892 250 90.6715202
5.156304348e-05 148.4881076 232.1654689
-62.30917774 250 113.1308215
5.156304348e-05 87.1133696 50.82221989
-72.46782024 27.1442998 2.978595148e-11
-169.5355155 250 140.4214108
-241.0126897 -96.8182848 2.978595148e-11
-192.9851862 -2.2918427 2.978595148e-11
5.156304348e-05 -71.5854813 12.03293603
5.156304348e-05 174.3882737 54.78930965
-117.1149593 -163.3823585 2.978595148e-11
5.156304348e-05 85.8080009 193.2670673
-15.66645974 170.6817808 2.978595148e-11
-203.7318588 250 233.7469436
-44.41455624 -236.3482274 2.978595148e-11
5.156304348e-05 -239.9549267 88.4040997
5.156304348e-05 -186.2168645 55.32317154
5.156304348e-05 114.2523143 52.04329641
-4.749423237 -29.0629651 2.978595148e-11
-101.8128009 10.794035 2.978595148e-11
-14.50625344 264.3112325 2.978595148e-11
-206.4863676 -72.8620823 2.978595148e-11
-203.1935099 144.5132889 2.978595148e-11
-164.194858 -199.8524955 2.978595148e-11
5.156304348e-05 99.081615 177.6929781
5.156304348e-05 246.9775441 69.5711922
5.156304348e-05 -27.6279696 56.65642504
5.156304348e-05 181.2984399 192.8651112
5.156304348e-05 150.5188189 141.7380002
-107.5307416 118.7860146 2.978595148e-11
5.156304348e-05 97.5715417 208.4147961
-135.8981885 44.6109582 2.978595148e-11
-195.9814852 -30.3382996 2.978595148e-11
-161.8531001 -135.7532584 2.978595148e-11
5.156304348e-05 145.8825492 54.33288055
-110.1359774 250 171.705414
5.156304348e-05 205.1172506 172.310414
5.156304348e-05 -117.7167377 221.692007
-211.5592037 84.4115897 2.978595148e-11
5.156304348e-05 -183.1419125 230.7977092
-18.12685324 99.2991432 2.978595148e-11
5.156304348e-05 -4.0100238 105.3642611
5.156304348e-05 -43.7531281 232.303354
-219.2765329 -46.0721492 2.978595148e-11
-188.6140676 250 61.9096434
-128.2914887 25.1247968 2.978595148e-11
-114.3081499 250 37.86116774
-113.4845671 250 210.0005288
-227.0814256 250 223.1039538
-177.7548542 49.1129514 2.978595148e-11
-140.6850699 250 46.08548746
-211.8098731 250 63.2177604
-201.3756767 250 167.5510138
5.156304348e-05 188.7860018 161.9557431
-172.0681241 -152.7657133 2.978595148e-11
-163.7823886 -1.5490052 2.978595148e-11
-162.8968047 228.6166224 2.978595148e-11
5.156304348e-05 -41.2247655 90.7300461
5.156304348e-05 -207.9371772 178.009465
-232.7092793 -184.6515533 2.978595148e-11
5.156304348e-05 61.3123583 236.2874413
5.156304348e-05 100.0745595 228.8504592
-201.3374578 250 143.0508393
-202.8644533 -246.2711119 2.978595148e-11
-193.0631361 -211.7764449 2.978595148e-11
5.156304348e-05 134.2149834 133.7377357
-107.0319012 190.0994615 2.978595148e-11
-216.0262124 -102.2398962 2.978595148e-11
-143.167696 250 163.074495
-49.03698374 48.8723958 2.978595148e-11
-140.7058715 250 5.8150259
-111.1690032 147.4947974 2.978595148e-11
-159.7074604 198.1344086 2.978595148e-11
5.156304348e-05 -181.5758421 137.2060891
-91.67563714 250 229.3756975
-149.6993046 177.487957 2.978595148e-11
-110.8552178 250 152.1506695
-151.7798456 274.0082371 2.978595148e-11
5.156304348e-05 3.3704189 216.5004857
5.156304348e-05 -40.9744494 197.7467174
5.156304348e-05 -150.1858133 247.0044395
5.156304348e-05 75.9703653 125.0152726
-227.2405572 250 195.2410912
-38.81669544 126.023091 2.978595148e-11
-37.29841344 -103.5692178 2.978595148e-11
-229.5010295 -209.6222069 2.978595148e-11
-204.4793058 -174.1754935 2.978595148e-11
-76.37829824 250 251.3580746
5.156304348e-05 147.219898 217.9698359
-54.37752264 250 73.210007
5.156304348e-05 88.3124558 76.6518286
5.156304348e-05 -210.6453656 159.9202785
5.156304348e-05 -212.9849811 96.6493547
-31.69453864 218.0299907 2.978595148e-11
5.156304348e-05 166.6094442 37.82689994
5.156304348e-05 68.0585119 64.127628
5.156304348e-05 -82.522377 129.8369751
-84.01822964 250 169.6625388
-11.80258204 250 13.42402255
5.156304348e-05 -136.3927787 174.6670124
5.156304348e-05 217.0452351 224.5537998
-216.2285331 272.8780995 2.978595148e-11
-5.450949337 250 40.29041072
5.156304348e-05 97.1712319 137.5921888
-61.05679754 174.8028479 2.978595148e-11
5.156304348e-05 -140.6912026 84.2591775
-26.76779544 14.8938401 2.978595148e-11
-216.6583044 -141.8608604 2.978595148e-11
5.156304348e-05 -154.1910152 27.30278771
5.156304348e-05 170.0629056 236.2820953
-217.8226501 178.3373623 2.978595148e-11
-239.5735756 -145.712852 2.978595148e-11
5.156304348e-05 -70.4547864 234.3692992
5.156304348e-05 -160.6094129 152.2790306
5.156304348e-05 -95.8847152 74.7862757
5.156304348e-05 136.9510315 113.764263
-183.4593132 -96.1886925 2.978595148e-11
5.156304348e-05 163.781986 98.5475173
1.208458463 -95.8636393 2.978595148e-11
5.156304348e-05 -10.6009857 240.9824023
-239.004985 250 55.0371501
5.156304348e-05 -154.3381805 220.3112629
-190.4268259 133.1678862 2.978595148e-11
-120.6539994 250 86.1070895
5.156304348e-05 139.8397541 161.1254246
-191.0860899 101.0534222 2.978595148e-11
5.156304348e-05 30.9205455 85.4772782
-124.2579141 -29.2775391 2.978595148e-11
-239.9896862 250 6.33179112
5.156304348e-05 245.5951508 185.6776542
-58.51148264 218.4382206 2.978595148e-11
-22.09146454 250 55.10896337
-93.04749734 -101.2215276 2.978595148e-11
-251.9562705 -37.5354157 2.978595148e-11
5.156304348e-05 -203.829616 201.4601931
5.156304348e-05 -128.1993104 53.02492952
5.156304348e-05 35.3195424 162.9117376
-136.3427032 231.302636 2.978595148e-11
-80.14527724 224.8751099 2.978595148e-11
-2.120316337 250 209.368794
5.156304348e-05 -62.403089 128.8022451
-131.4895046 250 136.1774719
5.156304348e-05 111.7732257 203.1634265
-234.8384129 30.1495222 2.978595148e-11
1.776181763 -250 114.5424782
-95.56793584 -76.4355312 2.978595148e-11
-48.12875654 262.7436972 2.978595148e-11
5.156304348e-05 45.2762041 130.1683235
5.156304348e-05 106.5380117 248.6038607
-237.9321584 -172.6716049 2.978595148e-11
5.156304348e-05 -116.9218512 95.8392833
-162.6406525 250 31.88548666
-203.5359282 -219.5079087 2.978595148e-11
-113.9437553 -93.0290218 2.978595148e-11
-95.95692214 250 59.73837525
-234.8614291 250 100.006276
5.156304348e-05 215.2771301 244.6971281
-17.66338254 -75.5368121 2.978595148e-11
-217.9285293 195.6118768 2.978595148e-11
5.156304348e-05 -110.4956659 10.91087205
5.156304348e-05 144.7479941 91.0822651
5.156304348e-05 1.9595003 131.9570968
5.156304348e-05 -67.7285248 248.3276224
5.156304348e-05 1.1189181 60.4885958
5.156304348e-05 -21.3804636 43.42767793
5.156304348e-05 72.5226121 171.0012489
5.156304348e-05 227.8903356 200.9099306
-172.4361098 -88.1777311 2.978595148e-11
-77.29888654 250 97.924174
-153.0835529 -107.9952753 2.978595148e-11
-76.95006834 -227.1126319 2.978595148e-11
-73.65491364 -84.2128445 2.978595148e-11
5.156304348e-05 -202.2778309 64.5956563
-220.5285407 250 140.4503481
-96.17135784 250 1.59508126
5.156304348e-05 -82.2198376 149.4232539
-145.1915995 250 76.2603442
-9.618270737 218.5246824 2.978595148e-11
-98.68229954 -123.1391283 2.978595148e-11
-58.71847584 -93.5285784 2.978595148e-11
-238.4003622 -222.2096931 2.978595148e-11
5.156304348e-05 -39.0018131 127.2945389
5.156304348e-05 -194.3292498 18.46374594
5.156304348e-05 -112.9044192 120.0954051
-114.5042054 -64.1060271 2.978595148e-11
5.156304348e-05 -59.7585314 144.4568059
-34.66617994 230.4264466 2.978595148e-11
5.156304348e-05 -128.2180825 142.2321055
-108.1070659 250 134.7077606
-177.4430071 -234.1758786 2.978595148e-11
5.156304348e-05 163.5084403 3.70082057
-6.631003537 -172.7924146 2.978595148e-11
5.156304348e-05 -169.4935974 102.6010942
-141.599641 -122.7707624 2.978595148e-11
-130.6174443 -217.8380193 2.978595148e-11
-142.2582196 129.5397624 2.978595148e-11
-189.9282774 250 128.5898794
-105.6423871 250 12.12301389
-240.4721922 -111.9027639 2.978595148e-11
-200.3440486 250 85.9129108
-152.9144122 -228.9700895 2.978595148e-11
5.156304348e-05 -175.0174852 170.0538785
-240.0693204 162.949177 2.978595148e-11
-165.835384 211.0666533 2.978595148e-11
-157.6160773 24.6951306 2.978595148e-11
-191.8418171 225.4909397 2.978595148e-11
5.156304348e-05 12.8028256 160.4629404
-235.9947421 0.4653713001 2.978595148e-11
5.156304348e-05 84.1830519 150.2345236
5.156304348e-05 219.5224198 29.09406775
-50.01564364 -40.3003841 2.978595148e-11
-48.62300804 -158.629007 2.978595148e-11
-239.4559428 99.1208653 2.978595148e-11
5.156304348e-05 -12.9957583 119.5027904
5.156304348e-05 -226.9516001 241.8029024
5.156304348e-05 -132.5165727 29.39965652
5.156304348e-05 28.9540749 187.63643
-98.40728264 250 211.6621488
5.156304348e-05 61.5975372 111.6733946
-161.7470582 250 72.5388205
-238.7200753 250 30.09594751
5.156304348e-05 -186.2561247 218.681845
0.702123463 250 134.6339936
-95.47212044 -155.7529589 2.978595148e-11
-223.4497241 250 34.41738969
5.156304348e-05 -44.0382231 155.2752546
-95.29791984 -27.2847333 2.978595148e-11
5.156304348e-05 70.5973233 43.57822929
-70.43860824 88.5203464 2.978595148e-11
-226.2806856 250 4.87140698
5.156304348e-05 -70.4407388 208.4315354
5.156304348e-05 -211.9101489 211.8545841
-28.75976214 -240.8023367 2.978595148e-11
-201.5344576 250 208.3529335
-172.2786281 -63.20006 2.978595148e-11
5.156304348e-05 -102.9941442 200.5800829
5.156304348e-05 -27.320472 137.011547
-93.82155674 -187.7367084 2.978595148e-11
-148.6395625 -198.8962285 2.978595148e-11
5.156304348e-05 186.7899568 110.1386023
-205.1642606 175.6331847 2.978595148e-11
-13.19036714 250 139.3882833
-132.0140538 250 20.59454818
-178.6438744 -6.1322378 2.978595148e-11
-47.29143264 188.5941222 2.978595148e-11
-77.69083574 250 78.1708075
-151.8318454 250 241.0651673
5.156304348e-05 62.6882817 151.7679836
-11.33255304 128.8725958 2.978595148e-11
5.156304348e-05 -58.2106891 107.0237168
5.156304348e-05 -98.5330038 128.7253938
-77.39228534 -16.381494 2.978595148e-11
-71.41777994 46.7606834 2.978595148e-11
5.156304348e-05 222.9711504 74.7163703
-50.58145134 28.2500254 2.978595148e-11
-123.0663803 250 174.8938545
5.156304348e-05 -37.4953602 25.04602447
-213.8738516 -13.647414 2.978595148e-11
5.156304348e-05 -18.6341046 12.06056715
5.156304348e-05 -143.9412883 70.8620462
-20.57998434 155.4489196 2.978595148e-11
5.156304348e-05 222.5994548 49.05964033
5.156304348e-05 22.1927079 95.3532488
5.156304348e-05 -243.9079895 62.0036608
5.156304348e-05 123.8094557 219.1016814
-71.34769224 250 161.6983516
-191.5894632 242.4802049 2.978595148e-11
5.156304348e-05 -86.3607942 214.5742856
-70.71384014 128.2901915 2.978595148e-11
-115.7674103 -178.7795954 2.978595148e-11
-41.62061024 -64.3113709 2.978595148e-11
-139.6115841 273.0707943 2.978595148e-11
-165.0668933 250 240.3956731
-46.37638544 -8.8825748 2.978595148e-11
-172.6384124 250 60.0718224
-73.12742974 214.2779758 2.978595148e-11
-71.32431044 250 137.7753944
5.156304348e-05 -235.148457 181.1885114
-122.5006007 53.1605912 2.978595148e-11
-35.49793674 257.3392336 2.978595148e-11
-185.1666561 250 20.6933748
5.156304348e-05 -123.9121927 163.0991614
-52.31690304 250 239.3780782
5.156304348e-05 -133.2963091 14.87754648
-1.277651037 140.9754511 2.978595148e-11
2.285812663 -184.5257883 2.978595148e-11
-26.29325694 250 27.55058872
-228.6528995 -250 -1.86032527
-238.4774732 250 172.6427983
5.156304348e-05 -82.3993092 192.5183449
-75.91109404 250 36.37267087
-244.4327552 250 192.6191381
-59.81313234 -0.3828078999 2.978595148e-11
0.03197596304 -250 188.4740946
-218.5554994 -238.0110568 2.978595148e-11
-221.695522 250 126.9791236
-83.45500494 186.6414504 2.978595148e-11
-240.4561352 263.9925618 2.978595148e-11
-251.1552269 -129.6718037 2.978595148e-11
-202.16949 250 70.3743275
-50.38061114 250 213.8426845
-190.646993 256.1897355 2.978595148e-11
5.156304348e-05 84.1541861 246.2718912
5.156304348e-05 115.6270832 115.9427352
-227.8719495 -163.0519616 2.978595148e-11
-175.9688125 250 187.7849821
-116.7427348 28.279414 2.978595148e-11
-130.6702733 257.2680864 2.978595148e-11
5.156304348e-05 100.1378185 48.89710792
-141.1675479 -47.125866 2.978595148e-11
-157.9642385 250 203.4355706
-20.29214644 65.3853731 2.978595148e-11
-114.7062379 250 234.5388561
-19.37207114 -162.2499525 2.978595148e-11
5.156304348e-05 -190.4764758 152.0120015
5.156304348e-05 -83.1399271 238.3288695
-139.3777803 250 126.1313105
-225.1800331 250 176.2511642
-234.9920648 81.5324068 2.978595148e-11
-208.8974809 39.1792029 2.978595148e-11
-135.7679946 250 215.2801235
-79.55468414 250 5.37054111
5.156304348e-05 -18.4420355 199.4424858
-48.37885434 -170.4772442 2.978595148e-11
5.156304348e-05 239.2980306 244.9505569
-170.1628302 121.4414178 2.978595148e-11
5.156304348e-05 -77.8336805 59.26491179
5.156304348e-05 27.2338234 238.7891522
5.156304348e-05 162.069702 122.1524547
5.156304348e-05 -203.4924143 242.9871298
5.156304348e-05 -15.7334415 147.1178521
-20.55023274 250 226.1068616
5.156304348e-05 138.7755817 208.0360313
-224.846934 -29.5214828 2.978595148e-11
1.410415863 -206.9008356 2.978595148e-11
5.156304348e-05 -66.9348808 85.1557406
5.156304348e-05 -225.5047757 111.7727196
-166.1606376 246.1654006 2.978595148e-11
5.156304348e-05 -130.4179514 100.9999616
5.156304348e-05 36.1968841 111.7058112
5.156304348e-05 -25.8299737 93.5965384
-26.72793814 132.2233791 2.978595148e-11
-62.06396144 98.9258252 2.978595148e-11
5.156304348e-05 189.1702878 71.7119548
-243.4521245 250 212.5704838
-38.12755404 250 25.78174853
-132.6790104 8.1602544 2.978595148e-11
5.156304348e-05 -206.8804729 128.0976873
5.156304348e-05 -20.9493155 72.5165941
5.156304348e-05 -119.5044712 73.7929921
-128.8355125 250 153.5458474
-99.48909884 179.4435831 2.978595148e-11
5.156304348e-05 189.9771195 145.5815463
5.156304348e-05 -106.1328138 106.0938474
-74.88180484 250 123.9938246
5.156304348e-05 -61.3776762 44.43060074
-22.52731454 180.1472607 2.978595148e-11
5.156304348e-05 -2.2802273 147.4996212
-18.50025334 40.3514501 2.978595148e-11
5.156304348e-05 -58.1205551 7.68348308
-58.33988684 -237.844832 2.978595148e-11
-22.88112314 -5.8352375 2.978595148e-11
0.06546516304 250 158.6740654
-100.2388873 -37.7801728 2.978595148e-11
5.156304348e-05 0.8391964001 48.89224167
5.156304348e-05 -229.9784278 141.7785965
-226.2347396 143.6278034 2.978595148e-11
-77.77793574 172.3583142 2.978595148e-11
5.156304348e-05 101.9367958 96.8356518
-137.1563737 185.045587 2.978595148e-11
-126.867647 204.823367 2.978595148e-11
-88.48514154 -227.3438112 2.978595148e-11
-75.26157504 -152.4762839 2.978595148e-11
5.156304348e-05 -186.1259732 124.9955712
5.156304348e-05 99.0043005 157.2467488
5.156304348e-05 -94.277021 246.8938998
5.156304348e-05 -156.1980791 181.9604585
-235.9852425 250 134.8742559
5.156304348e-05 -118.6760564 240.1697123
-107.0944283 250 250.1863161
5.156304348e-05 -180.731496 243.9076443
5.156304348e-05 41.8790442 14.6858906
-193.075218 250 104.6919265
-173.0161906 259.657081 2.978595148e-11
-107.2567363 -28.08893 2.978595148e-11
5.156304348e-05 86.5519273 205.2469614
5.156304348e-05 -244.8753214 225.5254981
5.156304348e-05 132.6187266 245.4160126
-79.93372374 156.1006382 2.978595148e-11
5.156304348e-05 60.7517018 220.0751549
-200.4508467 127.6689038 2.978595148e-11
5.156304348e-05 134.1429339 41.15031673
-101.0971261 -91.6991571 2.978595148e-11
5.156304348e-05 48.8283462 188.3649792
-63.32197214 -108.324395 2.978595148e-11
-193.3777219 58.6984645 2.978595148e-11
5.156304348e-05 60.7137419 77.6347387
5.156304348e-05 -193.0008454 44.11641002
5.156304348e-05 189.2659908 3.05568159
-51.63056774 -73.7689198 2.978595148e-11
-251.1908428 214.016852 2.978595148e-11
-158.9981934 75.8734299 2.978595148e-11
-184.4078135 250 215.5163168
-192.1243913 -55.761645 2.978595148e-11
-138.8453637 250 100.3161088
5.156304348e-05 -172.6718062 197.7644988
-206.2651496 -108.06843 2.978595148e-11
-247.8142993 250 241.7135511
-124.9800021 -14.1370214 2.978595148e-11
-169.9385183 12.9533856 2.978595148e-11
-247.2097029 250 123.4270373
-240.9277087 190.5073899 2.978595148e-11
-214.907302 96.0662841 2.978595148e-11
5.156304348e-05 19.4879904 14.99642988
-35.13976994 -175.469488 2.978595148e-11
5.156304348e-05 -54.8609253 178.178275
-59.61960854 75.5295466 2.978595148e-11
5.156304348e-05 -87.2456264 7.70458359
-123.7153438 164.8316363 2.978595148e-11
-232.2201905 -103.8982536 2.978595148e-11
-175.0223215 -125.361459 2.978595148e-11
-200.981865 250 126.3286704
5.156304348e-05 153.4797599 113.7007952
-158.8752746 250 181.2211607
-58.34146314 250 185.9456624
-107.2246367 -7.2390332 2.978595148e-11
-33.97872394 250 206.8299907
-147.6157787 250 181.2896371
-143.9787677 -151.6937107 2.978595148e-11
5.156304348e-05 1.7107452 32.06222786
5.156304348e-05 204.337912 47.29153836
5.156304348e-05 -14.1577812 188.9572402
5.156304348e-05 -111.9430862 24.32794168
-215.2440416 149.3907269 2.978595148e-11
5.156304348e-05 238.3034523 151.9570954
-220.7776621 250 23.51417469
5.156304348e-05 -27.8038569 176.6072244
-21.67536654 250 166.6808645
5.156304348e-05 21.0424858 212.9173179
5.156304348e-05 177.47516 182.3309578
5.156304348e-05 -2.1308063 94.3177163
-88.77321414 -170.2554388 2.978595148e-11
5.156304348e-05 186.5809529 237.8021385
-236.3677058 250 237.8492541
5.156304348e-05 -3.5685288 17.36791369
-162.936652 -13.4430754 2.978595148e-11
-98.45112894 -111.8296833 2.978595148e-11
-121.3509891 -153.0609958 2.978595148e-11
-81.71143364 274.165626 2.978595148e-11
-221.9865704 250 151.4934893
-209.9936775 227.1331534 2.978595148e-11
-58.38796794 158.3032518 2.978595148e-11
-94.22064504 206.4178963 2.978595148e-11
5.156304348e-05 154.9571515 194.4738147
