# .PCD v0.7 - Point Cloud Data file format
VERSION 0.7
FIELDS x y z
SIZE 4 4 4
TYPE F F F
COUNT 1 1 1
WIDTH 1199
HEIGHT 1
VIEWPOINT 0 0 0 1 0 0 0
POINTS 1199
DATA ascii
120.2937792 -116.8539844 3.882405508e-11
66.94707221 -29.81846876 3.882405508e-11
131.0126282 -208.3945311 3.882405508e-11
-7.578558188e-05 72.19980294 124.7551138
-7.578558188e-05 -185.9052205 144.3527049
-7.578558188e-05 85.13265764 229.0771939
-7.578558188e-05 -190.2070159 245.6122935
26.37504121 60.14457964 3.882405508e-11
-7.578558188e-05 -112.1391886 91.9183224
139.9554842 21.71023734 3.882405508e-11
27.03739221 -132.6777915 3.882405508e-11
-7.578558188e-05 171.4610036 73.259699
-7.578558188e-05 -78.32705276 40.88752306
-1.327811786 107.9310314 3.882405508e-11
-7.578558188e-05 -9.450024662 216.2389529
-7.578558188e-05 -81.59868716 139.2720528
80.98123421 71.77085484 3.882405508e-11
207.1434892 21.83524614 3.882405508e-11
-7.578558188e-05 -15.88363076 132.6263128
-7.578558188e-05 179.1079497 221.6660703
-7.578558188e-05 215.9090045 30.4777364
-7.578558188e-05 -177.4538851 46.964406
203.0017292 -225.2819597 139.8989894
218.0734062 -225.2819597 214.1297445
-7.578558188e-05 31.18388664 49.27515613
48.24971721 -204.9619988 3.882405508e-11
-7.578558188e-05 45.33566284 201.9961821
-7.578558188e-05 124.0939558 144.4023756
184.9344912 -202.8947657 3.882405508e-11
-7.578558188e-05 -91.89213356 247.3491435
114.8038352 -15.68005976 3.882405508e-11
109.2879182 -225.2819597 35.78102235
24.77496421 -225.2819597 38.01204232
202.6396992 -127.5597375 3.882405508e-11
212.4292222 94.48546554 3.882405508e-11
103.5944852 144.7141351 3.882405508e-11
250.5882782 -225.2819597 121.1278534
44.78633521 21.89418114 3.882405508e-11
-7.578558188e-05 -100.1536453 2.75448993
114.3369832 -161.4857106 3.882405508e-11
22.36350421 -18.47550486 3.882405508e-11
-7.578558188e-05 134.0023917 54.29295459
106.6162662 -225.2819597 78.6617051
121.3078212 60.40737374 3.882405508e-11
243.2954082 -225.2819597 62.6543458
32.47545121 149.4994692 3.882405508e-11
31.54755621 -225.2819597 207.9724504
-7.578558188e-05 63.27560904 81.1557991
-7.578558188e-05 120.9483513 210.0205965
211.9691562 -244.6751018 3.882405508e-11
152.1818052 -52.53723446 3.882405508e-11
137.6172832 -225.2819597 211.6026626
36.11439821 -225.2819597 168.46531
-7.578558188e-05 217.1348078 206.9422509
-7.578558188e-05 225.1446522 125.251378
-7.578558188e-05 -66.55978216 215.787405
14.29099521 190.2691153 3.882405508e-11
-7.578558188e-05 -213.6709555 114.796914
166.9282812 -225.2819597 32.35518594
-7.578558188e-05 -159.7683247 9.04790894
60.07935521 -225.2819597 96.6774593
82.20148521 -225.2819597 226.5141372
-2.464372786 -225.2819597 229.9612397
188.1867682 -225.2819597 67.6461939
142.9397592 213.717851 3.882405508e-11
180.9721442 160.6379904 3.882405508e-11
-7.578558188e-05 -19.88400086 95.1290181
93.47633321 -204.9598134 3.882405508e-11
129.4415642 -248.5472921 3.882405508e-11
79.07674821 -225.2819597 152.5479244
216.0445762 136.6292922 3.882405508e-11
251.5701712 186.5029137 3.882405508e-11
143.6820052 132.3515738 3.882405508e-11
195.6978252 -164.3480635 3.882405508e-11
-7.578558188e-05 -8.136970362 252.3031552
247.1978512 -208.870939 3.882405508e-11
-7.578558188e-05 -43.12569206 27.24080536
101.6544252 183.3346361 3.882405508e-11
210.8464452 -225.2819597 251.621776
-7.578558188e-05 98.75234784 74.097874
61.08069021 -64.94135826 3.882405508e-11
213.9012392 214.5027779 3.882405508e-11
-7.578558188e-05 189.1188051 172.3306226
-7.578558188e-05 -133.2664554 210.3683547
153.9479472 97.57468184 3.882405508e-11
212.3472042 -94.09225446 3.882405508e-11
161.0879502 -127.4965113 3.882405508e-11
-0.2307577856 -225.2819597 148.8135152
70.08488321 217.2589226 3.882405508e-11
-7.578558188e-05 -135.4200776 175.5270848
62.12578621 -225.2819597 24.11482194
250.1257652 -225.2819597 198.4304242
85.75835121 109.9308389 3.882405508e-11
209.7358662 -17.95517476 3.882405508e-11
-7.578558188e-05 45.66454494 18.54143943
251.1393842 -48.96788926 3.882405508e-11
37.04891021 -166.7881665 3.882405508e-11
247.7367972 -225.2819597 29.27197897
87.56434321 -128.6807882 3.882405508e-11
33.12572521 -97.29611696 3.882405508e-11
-7.578558188e-05 -74.05862126 171.6688276
-7.578558188e-05 -7.280503062 178.0281749
-7.578558188e-05 -49.62644516 125.4889424
-7.578558188e-05 -198.0678257 211.2201524
-7.578558188e-05 -52.07341896 60.9389543
-7.578558188e-05 161.7805857 148.9095079
220.6636152 -225.2819597 177.4131377
167.4884232 190.6430373 3.882405508e-11
143.7793592 -86.96313776 3.882405508e-11
-7.578558188e-05 55.01623774 152.6664833
172.7934682 17.21722364 3.882405508e-11
-7.578558188e-05 156.1890434 106.3557281
246.4518602 24.06931094 3.882405508e-11
180.0516672 -225.2819597 99.3940635
244.1114442 155.1931171 3.882405508e-11
250.5846052 -137.1200872 3.882405508e-11
-7.578558188e-05 -193.6077092 178.8887183
183.5020712 -61.43804846 3.882405508e-11
28.37827421 -225.2819597 92.3025696
-7.578558188e-05 -103.9753933 61.190656
-7.578558188e-05 114.8947521 176.3839777
-0.1335827856 140.93231 3.882405508e-11
104.7192122 -225.2819597 192.0621631
207.4973792 59.55944404 3.882405508e-11
-7.578558188e-05 -140.0424202 106.4933084
-7.578558188e-05 198.1337125 93.9432518
127.8419872 -225.2819597 132.2116667
174.7449272 -225.2819597 212.0574926
-0.7669487856 225.2819441 0.70822487
-7.578558188e-05 7.634694938 71.1407488
98.39928221 -91.89818636 3.882405508e-11
-7.578558188e-05 -146.2419466 70.2179881
-7.578558188e-05 107.3024346 36.57651505
4.840906214 -225.2819597 14.19744974
-7.578558188e-05 75.87217454 3.87662206
-7.578558188e-05 -160.5262872 228.1237099
-7.578558188e-05 163.8310233 250.1506707
55.55993121 50.76429814 3.882405508e-11
-7.578558188e-05 -108.3494402 159.8236257
-7.578558188e-05 29.43922754 132.5186695
-7.578558188e-05 -5.825320462 23.19825074
-7.578558188e-05 -208.0905747 40.7541724
215.0735942 -202.7795846 3.882405508e-11
145.6994782 -19.29720986 3.882405508e-11
65.93097821 141.267819 3.882405508e-11
24.82593321 91.90922344 3.882405508e-11
-7.578558188e-05 -38.19215846 206.1129678
-7.578558188e-05 147.7132916 225.0953887
241.8588332 91.57846164 3.882405508e-11
-7.578558188e-05 199.8638013 55.28602875
-7.578558188e-05 -192.7999996 72.0419389
-7.578558188e-05 103.1349303 252.2929607
142.0635792 -225.2819597 95.5449817
-7.578558188e-05 204.5613078 146.2031743
59.54532421 -241.7418755 3.882405508e-11
159.3108932 -217.119051 3.882405508e-11
136.0253162 -225.2819597 23.91456805
50.09471021 195.9192185 3.882405508e-11
-7.578558188e-05 91.86152644 102.501726
145.2489042 -225.2819597 244.8543049
150.4893702 -225.2819597 150.7432642
240.7444382 -76.12471136 3.882405508e-11
-7.578558188e-05 92.29985154 148.8705731
57.58266421 -134.4206224 3.882405508e-11
-7.578558188e-05 -157.6960248 157.1556422
89.27980621 -48.15246516 3.882405508e-11
83.92856821 -7.024726662 3.882405508e-11
-2.397905786 -50.11843456 3.882405508e-11
220.9390792 -148.9577636 3.882405508e-11
-7.578558188e-05 -97.10614116 115.7128413
-7.578558188e-05 -166.2283264 124.3240527
-7.578558188e-05 -104.9702212 31.6135438
62.14482121 -225.2819597 125.2434794
184.6665242 92.63669924 3.882405508e-11
-7.578558188e-05 55.11580004 228.0098172
245.3100862 -225.2819597 90.2750768
136.7789532 -140.6886103 3.882405508e-11
190.0600082 -225.2819597 15.23336369
-7.578558188e-05 -132.4733522 5.71592113
149.7999582 -188.500086 3.882405508e-11
230.4530112 -225.2819597 139.4028583
194.4362802 194.1802391 3.882405508e-11
112.0208812 -227.6934558 3.882405508e-11
111.1361322 34.76573604 3.882405508e-11
-7.578558188e-05 134.6878692 27.31585508
-7.578558188e-05 17.24433104 219.9987279
176.2505772 -225.2819597 142.1320287
54.78602221 -225.2819597 225.3596819
25.42031221 -225.2819597 64.8253848
149.5523972 -225.2819597 182.4852162
0.7021272144 -247.4360786 3.882405508e-11
47.88309921 -11.09050246 3.882405508e-11
-7.578558188e-05 -112.5857546 230.7577743
147.6247172 59.35832474 3.882405508e-11
-7.578558188e-05 -86.61227466 86.0550783
-7.578558188e-05 176.9460901 195.5799278
-7.578558188e-05 52.27903294 104.8372926
-7.578558188e-05 13.63203654 193.6404895
48.95944021 82.33308474 3.882405508e-11
-7.578558188e-05 175.4823347 45.55488446
-7.578558188e-05 3.028184238 114.1977686
-7.578558188e-05 191.4164315 251.7711654
95.01309921 -178.4856398 3.882405508e-11
-7.578558188e-05 112.3170023 121.4570727
-7.578558188e-05 33.86819554 74.8060259
226.4315672 -225.2819597 8.50773979
111.8521942 -225.2819597 216.685704
117.2989102 -225.2819597 104.1319781
15.43579021 -225.2819597 250.7796996
124.4772712 -40.57796736 3.882405508e-11
21.33922821 119.3205035 3.882405508e-11
-7.578558188e-05 88.21023114 201.2999573
107.6842842 81.81386874 3.882405508e-11
65.26247721 -186.4296559 3.882405508e-11
-7.578558188e-05 -71.14713236 13.59177349
22.52756921 9.925265638 3.882405508e-11
103.3154852 -225.2819597 158.7967941
82.14769121 46.45179294 3.882405508e-11
228.8657892 5.805470238 3.882405508e-11
27.32480521 -218.5943958 3.882405508e-11
89.63819221 -225.2819597 250.3165226
-7.578558188e-05 49.25829614 176.8923753
18.55799821 36.55443774 3.882405508e-11
79.30144921 -225.2819597 5.37314279
-7.578558188e-05 -186.6771309 23.93116475
-7.578558188e-05 143.6669737 76.8882369
195.4369482 -225.2819597 225.0651782
232.6069612 -26.48918306 3.882405508e-11
175.9838932 -178.7402898 3.882405508e-11
-7.578558188e-05 -26.47672806 233.7264905
-7.578558188e-05 205.3787484 228.3101497
-7.578558188e-05 -58.20116166 148.3023674
-7.578558188e-05 186.8308322 22.40510792
85.22879321 -225.2819597 39.27420982
215.3643752 -225.2819597 59.83092157
65.10943021 -225.2819597 247.916027
-7.578558188e-05 56.17176344 55.50764821
-7.578558188e-05 -187.8027571 110.394804
22.31692321 -192.9885766 3.882405508e-11
135.6835042 81.87716004 3.882405508e-11
183.7920002 -143.4160085 3.882405508e-11
-7.578558188e-05 7.424418538 45.4563782
185.5625072 -37.48863226 3.882405508e-11
226.6329172 -120.4276538 3.882405508e-11
199.3715942 -225.2819597 163.5838927
192.0637382 2.031392038 3.882405508e-11
84.09101521 -225.2819597 86.6870576
161.8080172 40.15893494 3.882405508e-11
-7.578558188e-05 68.63855614 247.6219172
-7.578558188e-05 139.1778767 123.0323984
-0.6605457856 -12.60481506 3.882405508e-11
-7.578558188e-05 22.83397024 24.75823333
-7.578558188e-05 220.3404484 102.1384372
5.152215214 163.9361811 3.882405508e-11
86.18739221 -71.53422846 3.882405508e-11
-7.578558188e-05 -22.80892036 155.079825
124.1049732 190.121682 3.882405508e-11
-7.578558188e-05 -206.1876793 92.6978081
32.03218221 175.1474204 3.882405508e-11
-7.578558188e-05 -154.6057407 42.4944073
-7.578558188e-05 6.869136538 144.6299785
58.90520321 -225.2819597 164.09106
-7.578558188e-05 -77.06856916 64.9946688
187.5180882 -225.2819597 44.5568033
211.7389832 -225.2819597 117.0495222
47.97872921 -225.2819597 45.0867654
-7.578558188e-05 207.7523321 185.8964671
-7.578558188e-05 -76.80883116 194.5169927
134.7613962 -225.2819597 49.22226756
223.8542862 37.42144734 3.882405508e-11
121.2020262 -90.80181036 3.882405508e-11
24.67330621 -225.2819597 229.9886195
65.80036421 30.49018114 3.882405508e-11
30.79963421 -39.55250666 3.882405508e-11
188.5376682 -225.2819597 120.4028809
-7.578558188e-05 -106.6943912 136.1748302
155.1578122 3.104310438 3.882405508e-11
120.0255922 129.255348 3.882405508e-11
245.0562002 -225.2819597 220.3648951
24.68031321 -225.2819597 149.1121453
126.5080052 3.726812738 3.882405508e-11
86.18962721 199.5929458 3.882405508e-11
-7.578558188e-05 -171.4696645 175.5011355
198.7062232 -225.2819597 197.6939883
118.4606292 -190.0004252 3.882405508e-11
164.6383342 139.8618561 3.882405508e-11
227.1216912 111.2010654 3.882405508e-11
200.3692892 114.7643201 3.882405508e-11
189.2834292 42.09645304 3.882405508e-11
203.4297082 156.0941412 3.882405508e-11
252.2055422 -159.213775 3.882405508e-11
16.22263121 -83.01668886 3.882405508e-11
-7.578558188e-05 140.5359799 163.3213246
-7.578558188e-05 -67.44651476 246.8871891
-7.578558188e-05 151.4578021 203.3353685
-7.578558188e-05 -220.6570927 208.618942
46.76016821 -225.2819597 8.17918361
228.2600162 197.9152937 3.882405508e-11
141.2559232 -230.0913616 3.882405508e-11
-7.578558188e-05 152.8181475 42.84764987
193.1922022 -106.260497 3.882405508e-11
67.98223521 97.22654834 3.882405508e-11
-7.578558188e-05 68.07713274 192.8910681
-7.578558188e-05 -76.03689336 110.0635396
-7.578558188e-05 -87.77949626 220.7811678
167.1716332 -225.2819597 54.11582099
156.9332542 -225.2819597 224.5317387
-7.578558188e-05 86.75839514 22.68180279
208.3062332 -72.82751056 3.882405508e-11
44.39696821 -225.2819597 77.80623
228.2305442 -225.2819597 238.7993719
-7.578558188e-05 51.45580104 130.7206152
162.7042542 77.86535814 3.882405508e-11
18.57026321 -225.2819597 188.8925431
161.3496662 169.4652472 3.882405508e-11
50.82221321 -225.2819597 184.159436
113.6447342 165.4934171 3.882405508e-11
-7.578558188e-05 -19.26803946 195.9556343
-7.578558188e-05 -32.49884066 77.7497452
129.5038932 -225.2819597 75.4347634
149.3276262 -107.679286 3.882405508e-11
207.9228662 -181.9492008 3.882405508e-11
161.7678312 -225.2819597 84.4588238
-7.578558188e-05 124.0750617 231.1801886
-7.578558188e-05 182.964302 151.8620377
-7.578558188e-05 -207.3923838 162.5982938
164.5868272 -225.2819597 166.6330619
103.3188272 -143.4322708 3.882405508e-11
-7.578558188e-05 1.781988838 93.1024759
-7.578558188e-05 -124.3165216 66.6635055
109.8798252 -225.2819597 57.85214304
-7.578558188e-05 159.8364366 127.1307048
-7.578558188e-05 -204.8470083 133.9072108
-7.578558188e-05 -118.0973762 115.5858716
-7.578558188e-05 203.4057683 7.86572265
223.7430962 72.65682434 3.882405508e-11
150.5629232 -248.9528378 3.882405508e-11
98.02568821 -27.94752076 3.882405508e-11
132.2633332 -171.896806 3.882405508e-11
251.0246652 -225.2819597 143.3225743
-7.578558188e-05 -178.0187637 216.3889815
16.95673921 -173.0030367 3.882405508e-11
129.0419322 147.8090432 3.882405508e-11
99.57004321 57.40601024 3.882405508e-11
-7.578558188e-05 3.135970038 235.119905
136.6568712 -67.69405626 3.882405508e-11
53.53941721 -225.2819597 204.9383001
203.3963032 -222.4873171 3.882405508e-11
90.81336021 -225.2819597 207.0285604
44.27921921 -76.46804646 3.882405508e-11
41.80392021 -225.2819597 109.5533509
-7.578558188e-05 -31.29254866 10.7166485
191.6566102 -244.767509 3.882405508e-11
100.3570462 4.818709738 3.882405508e-11
16.56571321 -115.3666754 3.882405508e-11
51.20885821 -225.2819597 145.3843659
-7.578558188e-05 113.3247232 60.077656
124.0365172 224.8276604 3.882405508e-11
-7.578558188e-05 -136.3112525 230.3483354
51.31716721 -115.2166213 3.882405508e-11
61.36209021 3.948389138 3.882405508e-11
10.05705821 -225.2819597 51.78078713
-7.578558188e-05 75.36440614 65.071986
251.5528002 -179.2976586 3.882405508e-11
-0.5488057856 53.31866034 3.882405508e-11
235.5301802 -225.2819597 107.9103874
-7.578558188e-05 179.9612839 102.3441772
-7.578558188e-05 -34.07584216 109.2351132
-1.777792786 -225.2819597 98.1937709
13.60185921 -225.2819597 123.6291262
29.14993221 203.5726906 3.882405508e-11
167.7365832 -73.56717096 3.882405508e-11
165.4997642 -225.2819597 194.3711352
-7.578558188e-05 -146.496119 195.583732
93.83870521 -225.2819597 139.2972597
-7.578558188e-05 -54.51422916 190.3349604
-7.578558188e-05 68.22662424 213.1793758
-7.578558188e-05 -169.614047 74.1883592
226.5109972 -225.2819597 76.0552372
42.46556521 -147.9237945 3.882405508e-11
194.8925372 -225.2819597 86.0900502
89.69799721 -225.2819597 179.4420931
-7.578558188e-05 -209.7529739 245.9650171
26.83324721 -225.2819597 18.34075249
38.69746221 40.93492694 3.882405508e-11
-7.578558188e-05 74.67312614 157.2090872
217.7579172 -225.2819597 154.1854146
83.67907321 159.8639471 3.882405508e-11
246.4300672 205.9827714 3.882405508e-11
-7.578558188e-05 194.9058479 203.089416
196.1552602 138.0860714 3.882405508e-11
-7.578558188e-05 -123.0099913 24.44762157
100.5728222 122.4493047 3.882405508e-11
46.28885321 -52.40381746 3.882405508e-11
-7.578558188e-05 202.7308525 112.7753079
-7.578558188e-05 104.5009223 228.7441115
101.6475552 -111.6123048 3.882405508e-11
54.16478521 157.6447467 3.882405508e-11
-7.578558188e-05 120.4195245 79.9651413
-7.578558188e-05 -53.11308676 229.5754431
67.98751321 117.2589954 3.882405508e-11
85.20516421 139.1685451 3.882405508e-11
181.2186422 -121.256448 3.882405508e-11
237.0654582 137.3597566 3.882405508e-11
-7.578558188e-05 -39.02682596 46.94017925
110.0288662 203.0480008 3.882405508e-11
142.6111162 112.9327542 3.882405508e-11
230.5384232 -225.2819597 48.33987339
-7.578558188e-05 36.23980084 225.722523
191.2534162 71.10673334 3.882405508e-11
167.6950562 209.8487244 3.882405508e-11
150.7971072 153.7092754 3.882405508e-11
-7.578558188e-05 29.28276664 179.7173469
-7.578558188e-05 -121.4952 188.3717828
104.0021982 -225.2819597 16.97663093
-7.578558188e-05 -110.5281708 250.6665924
40.32779021 -187.1814877 3.882405508e-11
101.3316102 -225.2819597 233.4587404
-7.578558188e-05 -155.8375698 249.1551399
176.8955752 -225.2819597 1.70631578
-7.578558188e-05 67.89753524 22.06867557
-7.578558188e-05 206.0388563 73.0826514
-7.578558188e-05 169.7566027 170.9020209
-7.578558188e-05 -11.14373646 71.5363156
-7.578558188e-05 -135.9303417 85.7781555
10.78923721 -225.2819597 170.3148461
110.4624222 -246.6014095 3.882405508e-11
129.6395682 -225.2819597 232.5495367
228.9893692 225.2819441 -1.42012194
135.6534422 39.76311624 3.882405508e-11
63.81235521 -225.2819597 78.5182291
123.1320042 -225.2819597 150.7801132
71.23931421 -119.9421771 3.882405508e-11
232.2992122 -240.6387187 3.882405508e-11
-7.578558188e-05 198.528797 36.82319109
38.94031921 125.007959 3.882405508e-11
72.83215821 -208.8644421 3.882405508e-11
-7.578558188e-05 158.0728192 60.5762358
218.6329872 -225.2819597 195.7259338
91.60591621 92.48774124 3.882405508e-11
-7.578558188e-05 14.77546394 250.7776178
140.9320962 -225.2819597 114.6038844
61.12936221 68.62714574 3.882405508e-11
247.3588572 -225.2819597 8.06707191
199.2274992 225.2819441 -1.6184967
13.35405921 -234.3335814 3.882405508e-11
-7.578558188e-05 -143.3182652 124.406194
-7.578558188e-05 -199.6478149 229.3246748
-7.578558188e-05 132.9342241 196.3630017
-7.578558188e-05 -178.1787998 3.43422734
126.6710412 -225.2819597 187.0635257
-7.578558188e-05 222.5527122 233.8192931
23.62855221 -150.3766104 3.882405508e-11
-0.1501927856 -225.2819597 35.37876196
-7.578558188e-05 111.531986 19.07599155
-7.578558188e-05 -204.3193011 194.3407325
231.1836232 -194.4001534 3.882405508e-11
43.96802021 -225.2819597 25.95065032
156.0496802 -225.2819597 18.03511589
46.47473521 -29.00791426 3.882405508e-11
-7.578558188e-05 70.12094584 102.6932146
-7.578558188e-05 91.25452414 53.45751754
192.9017152 -225.2819597 252.0398872
-7.578558188e-05 -60.94529586 29.09755612
-7.578558188e-05 -204.1547131 20.04581826
171.1371082 104.3555837 3.882405508e-11
199.6558202 -48.50012686 3.882405508e-11
-7.578558188e-05 53.64690244 37.81691227
150.0950972 194.6835438 3.882405508e-11
235.6250432 -225.2819597 188.0118092
68.43368821 197.9739661 3.882405508e-11
-7.578558188e-05 -148.3985543 22.72739642
-7.578558188e-05 -172.7955981 240.9973097
-1.234581786 225.2819441 188.5784682
87.70063821 -158.1888369 3.882405508e-11
-7.578558188e-05 -210.6475037 58.26761067
-7.578558188e-05 4.318205838 164.6708014
194.1285532 -83.40642806 3.882405508e-11
-7.578558188e-05 -188.5226072 92.2720696
11.87682621 -210.0347435 3.882405508e-11
164.5714642 -39.99148956 3.882405508e-11
-7.578558188e-05 -90.76662606 158.8314397
-7.578558188e-05 28.05325884 205.2213201
96.51337521 -225.2819597 99.0980837
-7.578558188e-05 -184.907576 161.824114
-7.578558188e-05 -33.22469046 134.6640398
71.54101321 -225.2819597 212.7122668
245.8140342 74.53796924 3.882405508e-11
-7.578558188e-05 -50.29395046 78.2649981
181.9905552 -225.2819597 162.7557237
86.47325121 225.2819441 -1.07697655
-7.578558188e-05 107.1072179 94.1390009
228.6325222 -100.1290052 3.882405508e-11
-7.578558188e-05 -127.1299825 160.2921138
209.4683582 -0.6210303625 3.882405508e-11
77.98473921 -225.2819597 118.2291756
106.5723522 -47.19168236 3.882405508e-11
86.21444121 -225.2819597 21.22983744
-7.578558188e-05 -98.65719436 174.2232747
81.04955921 182.4611071 3.882405508e-11
212.0690092 -225.2819597 232.9292212
73.51125721 -143.7069448 3.882405508e-11
-7.578558188e-05 106.3219646 201.0136125
-7.578558188e-05 166.528224 89.6927712
53.21130021 -172.5063723 3.882405508e-11
15.97858021 -225.2819597 215.1422949
230.6804482 -225.2819597 30.23206271
50.19407821 -97.06336416 3.882405508e-11
-7.578558188e-05 -116.8730565 205.7348438
60.15552821 -82.62325776 3.882405508e-11
83.57829021 -225.2819597 60.7488015
-7.578558188e-05 -39.79519456 155.7690738
151.5628872 -225.2819597 39.60975653
112.0771042 -205.7472695 3.882405508e-11
-7.578558188e-05 47.23154474 86.7163877
236.0105322 170.0794543 3.882405508e-11
-1.243127786 225.2819441 59.9775246
-7.578558188e-05 86.10077164 86.5896698
109.3889912 -225.2819597 130.6225299
-0.5949017856 -81.20463766 3.882405508e-11
-7.578558188e-05 39.56505064 118.6950089
234.6292402 -158.8761223 3.882405508e-11
-7.578558188e-05 147.6556337 138.8500257
-7.578558188e-05 -153.0998794 173.4145013
-1.252933786 225.2819441 142.0503985
83.93621821 -108.8796735 3.882405508e-11
224.3458292 -79.95361966 3.882405508e-11
-7.578558188e-05 49.32709884 244.284724
-7.578558188e-05 96.03155054 165.6985164
-7.578558188e-05 -14.43376556 110.995362
-7.578558188e-05 -169.1505855 144.4551258
114.4248142 18.34875964 3.882405508e-11
79.89486421 -88.80828686 3.882405508e-11
225.5359132 -10.57193666 3.882405508e-11
75.00136421 -248.0631542 3.882405508e-11
-1.433711786 -225.2819597 251.8871593
211.9059622 194.9067781 3.882405508e-11
187.8826812 209.4502639 3.882405508e-11
-7.578558188e-05 -152.3764212 213.6695502
54.04023321 221.4296567 3.882405508e-11
7.809322214 -65.77085636 3.882405508e-11
147.7558342 -35.73819106 3.882405508e-11
204.5460102 -146.5587896 3.882405508e-11
178.7786262 -225.2819597 82.2800358
201.8162342 -225.2819597 181.4628677
44.75335921 5.368353538 3.882405508e-11
126.9100902 -225.2819597 6.72543819
25.31140921 -225.2819597 109.3468899
-7.578558188e-05 204.6622723 166.9108227
165.6162432 -105.3015187 3.882405508e-11
-7.578558188e-05 -26.69135866 26.89610627
240.2731172 39.27979474 3.882405508e-11
-7.578558188e-05 -89.59818986 15.30872113
171.9317362 -156.1499665 3.882405508e-11
137.0502922 -124.2942639 3.882405508e-11
126.0189692 206.6110197 3.882405508e-11
204.9008332 -225.2819597 72.4289643
-7.578558188e-05 96.05614324 186.4930993
208.4822712 78.61266364 3.882405508e-11
-7.578558188e-05 18.29911824 120.0059791
-7.578558188e-05 184.0067145 59.40274729
200.4198872 176.6401803 3.882405508e-11
164.6923322 -225.2819597 104.6302777
229.2950522 -210.5304424 3.882405508e-11
-7.578558188e-05 -61.36487506 45.28802772
44.10509121 -225.2819597 61.6249104
154.0490542 225.2819441 -1.6190479
-7.578558188e-05 17.88667064 58.70731938
76.73322721 8.698436538 3.882405508e-11
-7.578558188e-05 2.470208038 205.2086339
209.9331982 -34.01772826 3.882405508e-11
220.9978842 151.9074954 3.882405508e-11
-7.578558188e-05 32.08211664 0.7696484
-7.578558188e-05 -223.7625068 131.9683476
107.5725702 -225.2819597 176.2926602
-7.578558188e-05 190.4490417 234.0382495
-7.578558188e-05 94.65585424 133.0559397
152.6768622 -142.325928 3.882405508e-11
-7.578558188e-05 183.9237468 3.29110932
-7.578558188e-05 109.9117578 151.7284231
161.5407042 -24.33193546 3.882405508e-11
-7.578558188e-05 -76.93839566 234.0916911
249.0325592 105.8025546 3.882405508e-11
195.3461882 -225.2819597 30.23466183
233.8074612 -134.6118906 3.882405508e-11
-7.578558188e-05 40.53062984 146.146547
31.61502321 -5.583901162 3.882405508e-11
179.7234892 -225.2819597 227.2405199
160.2417842 -225.2819597 138.0361226
251.6923632 -119.950729 3.882405508e-11
-7.578558188e-05 -66.45649576 134.656494
211.8944952 -225.2819597 14.67148831
199.0075072 -225.2819597 101.3289809
160.9830562 -88.21074246 3.882405508e-11
167.9062672 -55.39102316 3.882405508e-11
60.47707121 -226.0135778 3.882405508e-11
-7.578558188e-05 -33.22908096 62.0166622
79.37528321 -176.7441811 3.882405508e-11
18.48599921 77.51800594 3.882405508e-11
-7.578558188e-05 -159.2594641 61.4148865
180.5016522 139.3498476 3.882405508e-11
-7.578558188e-05 -45.18521476 96.0757585
133.9660032 -187.5841985 3.882405508e-11
174.7832582 -225.2819597 18.79803087
58.19223021 -150.068466 3.882405508e-11
142.0169522 -225.2819597 167.7161057
103.3714492 -127.1280917 3.882405508e-11
-7.578558188e-05 -110.0600048 46.814289
69.64897721 -225.2819597 38.35209751
-7.578558188e-05 -110.5978152 76.3914723
-7.578558188e-05 -191.5852566 125.5317163
-7.578558188e-05 209.3678549 126.8942007
152.3388302 -71.07044406 3.882405508e-11
-7.578558188e-05 -83.62726806 123.8261713
-7.578558188e-05 -72.06513496 80.507729
-7.578558188e-05 169.711003 234.0774716
-7.578558188e-05 16.44538394 86.7928175
172.4617912 -225.2819597 118.179699
230.2051692 21.28139924 3.882405508e-11
-7.578558188e-05 145.6612961 16.32405335
-7.578558188e-05 219.5403466 45.63357926
-7.578558188e-05 90.88663854 7.63258778
67.52498121 -10.24221166 3.882405508e-11
-7.578558188e-05 -191.5225475 53.35923122
-7.578558188e-05 183.035443 87.2029531
4.222114214 -147.9883454 3.882405508e-11
-7.578558188e-05 -170.985863 109.3701516
95.87863921 -220.2058401 3.882405508e-11
-7.578558188e-05 62.14554244 166.3332572
-7.578558188e-05 137.1217806 107.7597479
121.6513872 -225.2819597 204.8072165
-7.578558188e-05 -154.1856358 140.8326616
-7.578558188e-05 -118.6150432 147.4507488
-7.578558188e-05 91.19173354 117.8447609
-7.578558188e-05 189.0863444 137.7371499
139.8234042 -3.861060862 3.882405508e-11
217.3304882 -225.2819597 131.3145227
139.8895192 -225.2819597 194.8075792
14.08171221 -225.2819597 97.8053529
44.08100221 -225.2819597 93.11994
130.4006172 -19.64771496 3.882405508e-11
93.46419921 36.15645714 3.882405508e-11
-7.578558188e-05 -55.65354266 174.7134275
50.72073121 142.2532178 3.882405508e-11
237.5291682 -42.13237806 3.882405508e-11
-7.578558188e-05 130.3418554 10.89996417
61.78264921 -44.10482586 3.882405508e-11
68.17754521 -225.2819597 141.9723812
43.06437521 59.38447894 3.882405508e-11
-7.578558188e-05 40.63176464 61.1406577
-7.578558188e-05 148.8300929 252.2060545
-7.578558188e-05 218.5656275 14.25246549
-7.578558188e-05 164.4913513 217.7972464
-7.578558188e-05 212.8722768 88.9937773
-7.578558188e-05 125.6740089 160.6008538
-7.578558188e-05 -117.8315515 172.1991581
1.657690214 -221.2646368 3.882405508e-11
74.05270321 -225.2819597 103.6592392
70.94143021 57.17545784 3.882405508e-11
-7.578558188e-05 -25.38870046 176.010035
-7.578558188e-05 5.176844938 129.1086815
-7.578558188e-05 191.2905783 187.2176471
36.38231521 -225.2819597 188.3179856
12.65345821 131.5599921 3.882405508e-11
43.06403821 211.2042624 3.882405508e-11
40.34624421 -225.2819597 229.353205
70.03341821 81.99546294 3.882405508e-11
191.7633842 -12.94269386 3.882405508e-11
208.1541552 36.76920714 3.882405508e-11
247.9769822 -225.2819597 48.44698567
200.5804882 -206.4503187 3.882405508e-11
38.33734721 -234.8505435 3.882405508e-11
159.6797082 -177.2885838 3.882405508e-11
135.6307682 -155.5527716 3.882405508e-11
229.8428392 -225.2819597 165.6781964
-7.578558188e-05 69.38378044 232.2309523
16.91376721 173.049668 3.882405508e-11
-7.578558188e-05 134.4120299 176.8813684
100.9098242 -73.61602596 3.882405508e-11
139.0892502 97.97478184 3.882405508e-11
189.9099292 -225.2819597 147.9722377
-7.578558188e-05 -40.38044596 221.9341463
-7.578558188e-05 -5.996723162 38.03493557
-7.578558188e-05 171.6575515 114.6315527
190.2012782 -225.2819597 209.8073883
195.4670552 -192.4995091 3.882405508e-11
232.5894502 -63.79173446 3.882405508e-11
17.89421021 -46.72840346 3.882405508e-11
136.8623512 -225.2819597 145.0637996
164.8487162 120.9877072 3.882405508e-11
236.2083762 -225.2819597 203.2680891
84.56576321 -193.2324482 3.882405508e-11
210.7425642 -108.7091595 3.882405508e-11
-7.578558188e-05 -107.660591 15.3685951
13.12539121 220.7522658 3.882405508e-11
-7.578558188e-05 -24.04994776 215.532838
-7.578558188e-05 154.9373005 165.7963071
-7.578558188e-05 -213.24159 222.1043677
-7.578558188e-05 -211.9767621 178.1317442
-7.578558188e-05 -181.9978702 187.6183097
5.747911214 -225.2819597 196.1657264
125.4112342 -55.55276186 3.882405508e-11
-7.578558188e-05 -22.41049256 247.6088582
246.7606922 -91.04345316 3.882405508e-11
31.93533821 104.4853452 3.882405508e-11
-7.578558188e-05 13.47196324 175.800187
231.2230342 -225.2819597 93.3046954
135.4792752 -103.7350088 3.882405508e-11
-7.578558188e-05 149.046294 90.2325392
124.3779162 -225.2819597 32.29685447
-7.578558188e-05 -156.052098 96.6944677
97.90256321 169.5140486 3.882405508e-11
168.3701712 -139.8148716 3.882405508e-11
198.3324252 100.6104721 3.882405508e-11
-7.578558188e-05 85.84500624 243.3557862
222.0939292 51.60530434 3.882405508e-11
-7.578558188e-05 -91.33925146 99.5398666
-7.578558188e-05 132.4624986 218.4784807
42.60598121 -133.6401593 3.882405508e-11
158.9226352 20.62557914 3.882405508e-11
-7.578558188e-05 -173.4154897 29.22807049
-7.578558188e-05 -74.21467916 151.4830616
197.4673992 -225.2819597 54.77939655
52.52057221 -225.2819597 239.4256204
32.49809921 189.7343151 3.882405508e-11
189.8396002 -218.1449058 3.882405508e-11
-7.578558188e-05 40.26858484 32.99620633
104.8192522 97.66166244 3.882405508e-11
-7.578558188e-05 -17.86537116 15.2399604
16.45857221 155.4018601 3.882405508e-11
-7.578558188e-05 -201.4604204 106.0349177
7.187414214 -225.2819597 111.0246053
-7.578558188e-05 -35.89019506 192.1657056
18.61806921 -32.40276046 3.882405508e-11
98.60262721 -225.2819597 49.3601542
-7.578558188e-05 8.154523338 21.27618726
-7.578558188e-05 217.7939191 155.3599176
11.36790221 -225.2819597 66.064961
-7.578558188e-05 173.4870933 14.39652247
130.9969002 -80.57457606 3.882405508e-11
-7.578558188e-05 173.3271485 140.8733678
-7.578558188e-05 43.91145694 161.2601481
202.7513432 205.9750025 3.882405508e-11
-7.578558188e-05 -141.164214 160.0825286
214.2612412 -135.4258913 3.882405508e-11
229.1223332 182.3009017 3.882405508e-11
71.94922021 -73.76723936 3.882405508e-11
214.0499312 117.6299107 3.882405508e-11
-7.578558188e-05 -96.79548106 74.3467815
-7.578558188e-05 103.8969543 214.7300701
40.98775221 162.12313 3.882405508e-11
231.6178292 124.5536801 3.882405508e-11
-7.578558188e-05 87.02867584 215.1636086
76.97627521 -41.67159116 3.882405508e-11
-7.578558188e-05 119.9593819 30.84805052
-7.578558188e-05 -89.31682816 29.19424043
209.0366202 -160.5250926 3.882405508e-11
38.61777021 -225.2819597 151.1999245
153.3986872 -225.2819597 201.1387389
-7.578558188e-05 -0.2720786625 56.94934518
34.43988821 -205.7134301 3.882405508e-11
147.8141492 -225.2819597 80.8240498
85.31089921 -225.2819597 194.3464069
-7.578558188e-05 -96.22841856 145.1685244
-7.578558188e-05 -97.20532386 210.7046552
19.61812721 -100.051589 3.882405508e-11
-7.578558188e-05 -89.86226026 184.8317978
-7.578558188e-05 157.9626589 78.9237448
-7.578558188e-05 197.8480079 216.7968645
-7.578558188e-05 191.2253545 71.0954738
-7.578558188e-05 51.14374414 214.8549586
175.5501472 30.65950814 3.882405508e-11
162.7827042 63.74275684 3.882405508e-11
110.3243412 -225.2819597 145.8796297
158.1280662 -10.27375326 3.882405508e-11
29.87907721 -83.73095256 3.882405508e-11
101.1602942 21.66601494 3.882405508e-11
166.4242522 -225.2819597 180.1762206
-7.578558188e-05 120.1877032 246.2351263
67.98963821 157.6040374 3.882405508e-11
-7.578558188e-05 -12.82493516 233.5228552
148.7138762 -225.2819597 53.48649529
225.7126982 91.61099364 3.882405508e-11
91.79270221 -225.2819597 75.4897047
12.28347021 1.004705338 3.882405508e-11
44.21092321 181.1359746 3.882405508e-11
194.8741452 -178.2224881 3.882405508e-11
-7.578558188e-05 22.96387404 148.6466549
72.11248521 -225.2819597 166.9994489
-7.578558188e-05 -188.3172697 37.34920722
144.3725262 -216.9477534 3.882405508e-11
-7.578558188e-05 -159.0932288 82.6588403
179.6838262 78.05197464 3.882405508e-11
216.8053462 -229.3779007 3.882405508e-11
22.14385321 -225.2819597 134.0226284
11.75203421 -135.6334198 3.882405508e-11
-7.578558188e-05 -58.52185516 205.0148035
114.8958972 -225.2819597 229.7671516
-7.578558188e-05 102.5915138 110.5760908
-7.578558188e-05 120.5119927 191.2711275
-7.578558188e-05 -94.95691436 234.2792379
144.2164122 -225.2819597 231.4838591
10.09130221 207.6994387 3.882405508e-11
-7.578558188e-05 -128.3743199 99.9033798
-7.578558188e-05 -61.80631386 71.4305584
-7.578558188e-05 36.71496694 191.7533156
232.7446902 -225.2819597 225.5836317
193.6642132 54.72777924 3.882405508e-11
56.07237821 -225.2819597 67.5611472
10.91610521 20.45835024 3.882405508e-11
-7.578558188e-05 -123.7523419 248.9345369
236.8203222 -225.2819597 249.3255037
-7.578558188e-05 118.2077811 44.25105856
170.5849432 4.082997338 3.882405508e-11
194.2514332 29.74469034 3.882405508e-11
101.4324632 -8.451159662 3.882405508e-11
70.15789321 -225.2819597 232.1340113
110.5477502 -225.2819597 117.3925893
-7.578558188e-05 -124.5206998 130.5800427
-7.578558188e-05 125.1595821 124.7886636
-7.578558188e-05 133.4633199 67.5365428
-7.578558188e-05 75.11869784 143.979605
63.61281421 185.6518674 3.882405508e-11
166.3134172 -233.0358652 3.882405508e-11
122.1775582 -225.2819597 86.4496534
-7.578558188e-05 -9.805644862 152.7227782
-7.578558188e-05 -198.9426629 146.4248076
-7.578558188e-05 10.35132234 103.1395049
128.2374062 118.9275919 3.882405508e-11
96.65811821 -225.2819597 62.4514136
238.5378042 -225.2819597 149.8167681
-7.578558188e-05 -182.6853254 63.6015635
100.4497532 -236.0607593 3.882405508e-11
182.4046462 -77.40692536 3.882405508e-11
121.0703072 -225.2819597 65.3386164
-7.578558188e-05 17.35151894 36.82717307
-7.578558188e-05 -107.9034263 218.3503387
-7.578558188e-05 158.2675187 10.68145376
21.87887521 -225.2819597 163.2588338
245.7201672 -225.2819597 176.1744761
237.5859132 -225.2819597 122.9416744
28.30109221 -181.3076334 3.882405508e-11
147.1646462 33.46056084 3.882405508e-11
200.9062232 -225.2819597 124.7726829
-7.578558188e-05 -114.0089026 3.88938864
-7.578558188e-05 -58.60745896 107.1695753
-7.578558188e-05 62.90917054 137.0772532
-1.450282786 -225.2819597 62.1382667
123.8288982 -129.4504341 3.882405508e-11
53.47300721 34.79172494 3.882405508e-11
76.38144421 -225.2819597 74.9975489
-7.578558188e-05 -137.0813384 60.951384
87.69118521 124.2906178 3.882405508e-11
-7.578558188e-05 -148.0439103 238.7357199
27.29482421 -225.2819597 179.0062372
139.2212552 -53.60850136 3.882405508e-11
-7.578558188e-05 145.5410308 191.7564503
11.80185421 49.26009464 3.882405508e-11
19.15852921 -225.2819597 83.1385772
-7.578558188e-05 -72.15725946 52.97086657
-7.578558188e-05 137.1434811 146.4623279
35.31655121 -225.2819597 47.92139217
-7.578558188e-05 -20.13308626 39.11665274
64.11183021 -225.2819597 112.4287959
222.7060992 -225.2819597 109.8149073
-7.578558188e-05 138.6209337 239.1545012
-7.578558188e-05 -177.9953005 129.7254744
241.1032832 10.01636674 3.882405508e-11
120.4960622 -238.428287 3.882405508e-11
87.52357021 -20.38840796 3.882405508e-11
-7.578558188e-05 149.1077328 28.7881669
187.9847672 171.5028506 3.882405508e-11
163.7451572 -225.2819597 150.4827937
187.5343462 -232.4252429 3.882405508e-11
126.0919522 176.1343021 3.882405508e-11
56.07221621 207.3740931 3.882405508e-11
90.40957621 -225.2819597 159.0636472
-7.578558188e-05 -78.70203456 211.406951
102.3771022 -225.2819597 248.2347393
252.1160412 -20.68742016 3.882405508e-11
26.09856621 131.3052505 3.882405508e-11
-7.578558188e-05 159.8709631 193.5711636
-7.578558188e-05 65.76539144 178.6981196
47.78397821 -246.9561629 3.882405508e-11
107.8723722 -178.2235858 3.882405508e-11
244.1909232 -225.2819597 75.4825501
186.1855312 -225.2819597 194.7735615
5.476421214 120.8991809 3.882405508e-11
-7.578558188e-05 -135.8070626 25.45426529
49.35201321 -225.2819597 126.2398228
236.0330412 -225.3754829 3.882405508e-11
137.4184202 225.2819441 -0.46585479
-7.578558188e-05 -94.88174756 129.9624783
147.8007792 46.55766184 3.882405508e-11
252.4353882 145.4762011 3.882405508e-11
-7.578558188e-05 -59.45707846 8.41989279
148.3138542 -225.2819597 133.4690578
-7.578558188e-05 45.56776934 48.38855741
-7.578558188e-05 -211.75229 9.7873198
-7.578558188e-05 165.9989505 37.01874979
127.3594132 92.98556834 3.882405508e-11
5.146961214 -225.2819597 240.1803636
40.32242721 -63.65930616 3.882405508e-11
201.9113992 10.24920614 3.882405508e-11
-7.578558188e-05 -126.9044594 221.3664377
65.95513621 43.47133054 3.882405508e-11
148.7854572 182.0529725 3.882405508e-11
177.0785362 201.30222 3.882405508e-11
7.280942214 97.92122324 3.882405508e-11
245.1952702 -60.16610326 3.882405508e-11
136.7259222 188.9588312 3.882405508e-11
78.16442521 -225.2819597 244.9413677
27.90319721 -225.2819597 242.2315489
111.3156722 -225.2819597 92.9800729
5.407061214 -166.7711258 3.882405508e-11
179.0929932 -225.2819597 128.9537823
106.0873462 46.56356304 3.882405508e-11
34.95516121 -19.60838566 3.882405508e-11
193.0055002 -70.52959386 3.882405508e-11
244.2021712 -225.2819597 232.9644505
179.0133802 -225.2819597 58.48095498
82.63873821 -225.2819597 129.9600433
-7.578558188e-05 -212.3815697 73.7915308
174.8536632 -225.2819597 42.13896196
94.44478721 215.5995735 3.882405508e-11
102.5791862 157.2526169 3.882405508e-11
29.16271721 29.79195824 3.882405508e-11
-7.578558188e-05 108.3034628 133.3718939
232.3077932 213.2464524 3.882405508e-11
-7.578558188e-05 182.2591549 34.09989715
41.77976021 -217.1821637 3.882405508e-11
-7.578558188e-05 -214.6937577 28.68120891
30.17187221 -109.4685273 3.882405508e-11
76.31791121 148.2727284 3.882405508e-11
155.5539092 -225.2819597 251.9396251
114.2583482 -28.17041466 3.882405508e-11
-7.578558188e-05 -188.783065 222.742311
-7.578558188e-05 58.08587234 11.5361209
111.5268902 -98.70418096 3.882405508e-11
-7.578558188e-05 130.5699065 39.10608228
184.8246662 111.2313913 3.882405508e-11
-7.578558188e-05 -222.1540387 160.8743848
108.5194112 -84.63318466 3.882405508e-11
-7.578558188e-05 163.5190788 49.2239834
-7.578558188e-05 108.847507 241.1664805
84.41786121 -236.1022979 3.882405508e-11
45.25725821 94.15192884 3.882405508e-11
67.59484821 17.03389774 3.882405508e-11
150.0535892 -121.9160337 3.882405508e-11
169.5405102 -210.1894468 3.882405508e-11
206.2192082 -58.96287206 3.882405508e-11
-7.578558188e-05 -64.76810276 122.4256892
16.87140621 -225.2819597 7.61428969
-7.578558188e-05 -190.2533497 9.91472927
143.7667162 -199.2413675 3.882405508e-11
-7.578558188e-05 214.9162984 114.3320833
-7.578558188e-05 -53.01347736 217.2938841
116.1450442 116.7919094 3.882405508e-11
-0.2926587856 3.963154338 3.882405508e-11
-7.578558188e-05 178.9973064 179.259903
96.75314321 -225.2819597 27.50140589
238.1098112 -12.04534806 3.882405508e-11
26.47548921 216.3887967 3.882405508e-11
6.514566214 -123.803813 3.882405508e-11
26.75521821 162.0405025 3.882405508e-11
-7.578558188e-05 -174.7023689 17.05277253
30.60186521 79.11394164 3.882405508e-11
116.9910152 73.91182534 3.882405508e-11
63.59033721 -225.2819597 11.99585642
163.1685512 151.9524097 3.882405508e-11
-7.578558188e-05 -98.74636666 42.31028961
56.01486821 -214.6903258 3.882405508e-11
155.2076482 113.5651462 3.882405508e-11
205.8491492 -225.2819597 151.7227151
73.73265421 -225.2819597 20.49566468
206.4436912 -225.2819597 219.9101831
122.9888412 -225.2819597 46.29376496
141.9345702 70.06432824 3.882405508e-11
162.3729492 -225.2819597 235.3630691
116.9401452 -3.696803562 3.882405508e-11
134.5902672 -33.92123676 3.882405508e-11
179.7649182 -225.2819597 29.82633261
-2.250085786 153.0487287 3.882405508e-11
181.7346462 9.093872138 3.882405508e-11
57.17932221 -22.71697726 3.882405508e-11
-7.578558188e-05 -9.464145362 203.4282705
-7.578558188e-05 -181.5074145 76.2695413
139.8523092 158.7477779 3.882405508e-11
66.00248721 -225.2819597 153.8178906
-7.578558188e-05 -44.36297446 15.26306519
177.8467602 45.85919144 3.882405508e-11
225.5202352 -42.78367766 3.882405508e-11
122.0793092 39.74514584 3.882405508e-11
-7.578558188e-05 87.08946924 67.7121575
-7.578558188e-05 20.67677914 75.5465817
86.91342421 -225.2819597 106.303373
181.5176812 -109.0339642 3.882405508e-11
146.5959422 11.71923804 3.882405508e-11
-7.578558188e-05 -1.781508662 188.6882094
39.29612421 138.6282727 3.882405508e-11
-7.578558188e-05 -33.40134456 252.3192793
115.3384982 182.0024904 3.882405508e-11
244.8685842 -169.3985844 3.882405508e-11
50.90340921 169.1308465 3.882405508e-11
102.4243162 -160.7634328 3.882405508e-11
6.877121214 -187.296639 3.882405508e-11
-7.578558188e-05 129.6841994 87.4637084
10.79911421 -21.36035726 3.882405508e-11
-7.578558188e-05 -8.040926562 121.0485328
22.93007021 -225.2819597 53.17641789
-7.578558188e-05 -121.3204708 55.1357477
-7.578558188e-05 76.58732654 30.21189976
176.6331332 -45.35277726 3.882405508e-11
-7.578558188e-05 -89.02818896 199.4592465
147.0483472 -225.2819597 28.37971685
-7.578558188e-05 56.28190224 191.3853335
57.57657421 -225.2819597 38.09767235
183.8510442 -163.9730083 3.882405508e-11
152.0076852 -235.073862 3.882405508e-11
-7.578558188e-05 20.69276464 240.5130626
10.25149221 86.45622744 3.882405508e-11
48.42843021 -158.1557175 3.882405508e-11
237.7777522 -116.4330552 3.882405508e-11
-7.578558188e-05 181.5492554 241.844631
-7.578558188e-05 208.7510557 20.84452942
117.1121462 214.3530183 3.882405508e-11
-7.578558188e-05 -42.93849766 239.6159067
-7.578558188e-05 -6.511021462 82.388198
-7.578558188e-05 -20.62897586 62.7353023
-7.578558188e-05 -163.3551768 209.1198035
-7.578558188e-05 60.75867024 66.3670907
89.25957421 63.37958744 3.882405508e-11
-7.578558188e-05 145.3867709 213.4294113
-7.578558188e-05 35.14490804 94.8034247
78.65829721 -28.67637146 3.882405508e-11
128.6606792 -225.2819597 219.2122485
-7.578558188e-05 205.9641973 199.1173136
216.5681912 -225.2819597 166.417326
119.5143662 -78.21197546 3.882405508e-11
35.11748021 15.26757774 3.882405508e-11
217.9821142 27.27686404 3.882405508e-11
109.6072942 -225.2819597 202.71411
-7.578558188e-05 -143.1150826 95.0256681
-7.578558188e-05 -65.12633106 195.2789963
34.60725421 -53.07918626 3.882405508e-11
-7.578558188e-05 13.65131344 208.6476132
198.5748712 -22.44571396 3.882405508e-11
123.3821792 158.0287051 3.882405508e-11
-7.578558188e-05 34.10017964 16.91156648
-7.578558188e-05 -32.38085256 120.7630161
-7.578558188e-05 -79.60354916 98.9969642
216.0746692 8.937221138 3.882405508e-11
142.5543752 -164.8673555 3.882405508e-11
106.7214612 -189.7708622 3.882405508e-11
-7.578558188e-05 146.7216513 65.6977714
201.9109972 -225.2819597 238.5291075
-7.578558188e-05 174.5784486 125.8525391
129.0000422 25.50536804 3.882405508e-11
24.88783321 -233.2339985 3.882405508e-11
61.67621421 -225.2819597 196.6909942
152.6382502 -225.2819597 163.089263
215.3622032 -123.0959015 3.882405508e-11
-7.578558188e-05 188.7917485 111.566926
47.79384821 -40.92840266 3.882405508e-11
-7.578558188e-05 -109.4181678 180.1396091
123.6297182 -225.2819597 113.8121346
-7.578558188e-05 -158.528814 190.9075866
-7.578558188e-05 -221.579562 47.46533477
34.94755121 -225.2819597 140.2453765
-7.578558188e-05 216.8896318 178.8361046
-7.578558188e-05 148.4048425 54.27617263
-7.578558188e-05 218.7206007 218.3529353
-7.578558188e-05 -127.1756474 237.3600886
17.05743921 -225.2819597 29.50368423
9.932018214 -225.2819597 229.7457549
154.6721042 -225.2819597 6.63903314
247.7983362 -37.02977846 3.882405508e-11
108.0244322 134.1395287 3.882405508e-11
-7.578558188e-05 79.86235274 108.7272071
-7.578558188e-05 -148.5599771 52.22272882
153.3267132 141.6357881 3.882405508e-11
-7.578558188e-05 -215.6012165 192.401131
146.8759542 -153.4121725 3.882405508e-11
-7.578558188e-05 -45.67538386 145.9557143
64.51275221 -170.7746696 3.882405508e-11
192.1943672 -225.2819597 175.2718859
96.78296121 -225.2819597 85.7485838
43.82542321 -225.2819597 218.4929598
-7.578558188e-05 77.01171504 76.3521159
-7.578558188e-05 -36.73869546 88.3308962
14.95492921 109.878398 3.882405508e-11
33.36511421 -123.1991698 3.882405508e-11
58.14514621 -225.2819597 50.2354426
242.5759752 -194.6539813 3.882405508e-11
-7.578558188e-05 -200.9992617 82.5706379
150.7451462 -225.2819597 102.9007254
-7.578558188e-05 -121.1030229 80.7588018
135.3067882 -225.2819597 156.3257245
117.9282532 -150.717645 3.882405508e-11
-7.578558188e-05 -129.3540242 114.1693806
145.3977282 -225.2819597 219.8549375
219.2666842 -225.2819597 142.944502
-7.578558188e-05 -196.4935292 165.7191911
-7.578558188e-05 -169.7685949 57.17961958
-7.578558188e-05 -143.2516677 33.99546459
160.4120122 -225.2819597 69.0363616
-7.578558188e-05 -80.08790886 22.63426241
244.5768482 -236.2917711 3.882405508e-11
96.63055621 -225.2819597 168.5205091
-7.578558188e-05 55.98658554 94.1517051
195.8551782 125.1303558 3.882405508e-11
-7.578558188e-05 193.5669363 155.7649262
-7.578558188e-05 104.8015692 47.59372322
-7.578558188e-05 196.2180209 128.9795439
130.6084842 107.8881046 3.882405508e-11
137.3386552 -225.2819597 60.2139422
-7.578558188e-05 -155.6263035 128.1887979
215.7228682 -190.1016015 3.882405508e-11
-7.578558188e-05 32.31942144 157.3015585
9.311916214 -225.2819597 154.8173346
204.8559032 -235.9327062 3.882405508e-11
-7.578558188e-05 35.50267764 168.764151
56.37280721 18.07073644 3.882405508e-11
-7.578558188e-05 64.90935644 37.64237856
-7.578558188e-05 -159.2353235 25.79349445
207.4259572 167.3157194 3.882405508e-11
33.03578021 -72.21132856 3.882405508e-11
-7.578558188e-05 -168.301012 40.4525801
-7.578558188e-05 -129.8069979 199.6935462
219.6028742 -28.33990216 3.882405508e-11
78.79973721 -63.10789136 3.882405508e-11
192.6755862 152.9472457 3.882405508e-11
-7.578558188e-05 164.7365103 160.3703862
6.383015214 67.53154174 3.882405508e-11
-7.578558188e-05 -102.3692827 86.4529382
85.28835621 -216.5859529 3.882405508e-11
-7.578558188e-05 76.28719254 91.9695027
95.06972721 81.85809004 3.882405508e-11
7.703982214 -92.53782436 3.882405508e-11
71.48669121 -231.1969099 3.882405508e-11
-7.578558188e-05 -78.58279486 247.7293995
213.8139192 -225.2819597 48.79350673
-7.578558188e-05 -223.4211992 172.3724156
176.1867302 -225.2819597 201.0185212
231.1662072 -225.2819597 59.45351906
221.1749682 -225.2819597 247.4798516
-7.578558188e-05 -207.6647176 205.6248355
144.7853972 88.22703994 3.882405508e-11
-7.578558188e-05 14.51548304 230.7541085
-7.578558188e-05 -167.4200213 162.4948577
-7.578558188e-05 211.5411991 242.5460603
207.9547792 -225.2819597 25.35801417
-7.578558188e-05 196.250354 16.3137971
201.1010712 -225.2819597 10.45800041
124.7977482 -180.9309602 3.882405508e-11
-7.578558188e-05 47.95618574 75.6794324
-7.578558188e-05 -8.060033462 140.4432246
-7.578558188e-05 -146.2834344 222.8950183
153.5338882 124.4919336 3.882405508e-11
125.7312512 -140.5774086 3.882405508e-11
186.2871792 -97.65345706 3.882405508e-11
222.4087052 -68.04354066 3.882405508e-11
116.9003672 50.29444814 3.882405508e-11
78.21168521 -225.2819597 202.7803509
111.5550122 -136.1119608 3.882405508e-11
-7.578558188e-05 34.18665564 105.7788179
53.31852521 -225.2819597 110.2252856
186.3875032 -185.2441455 3.882405508e-11
-7.578558188e-05 -216.4999699 88.8351657
125.4104612 -225.2819597 21.00843254
-7.578558188e-05 31.90406674 215.6072058
219.9238752 -171.8804818 3.882405508e-11
216.2739972 106.859312 3.882405508e-11
-7.578558188e-05 27.75232284 65.6666789
106.2405502 -225.2819597 104.2044472
-7.578558188e-05 -111.6053275 124.4406465
-7.578558188e-05 -103.310157 242.3934132
-7.578558188e-05 -212.308791 235.2971261
-7.578558188e-05 40.63863154 7.61457358
-7.578558188e-05 57.44443454 251.6430755
35.56753821 67.37376604 3.882405508e-11
26.95015721 43.57864734 3.882405508e-11
105.5838832 -215.1549073 3.882405508e-11
79.36527321 87.68771104 3.882405508e-11
-7.578558188e-05 201.0228656 238.335055
131.4134822 13.48290654 3.882405508e-11
-7.578558188e-05 -75.16258646 182.5209228
211.8633562 -225.2819597 187.2055459
-7.578558188e-05 96.85548874 243.4270239
-7.578558188e-05 -20.11449256 142.6248454
173.1269412 -225.2819597 73.0122249
211.0422302 -214.7857639 3.882405508e-11
19.49542021 -243.6233298 3.882405508e-11
167.4845972 -225.2819597 252.2101145
2.634260214 -235.9523519 3.882405508e-11
49.27908821 121.7477497 3.882405508e-11
139.5388202 -244.6184103 3.882405508e-11
-7.578558188e-05 6.410069838 34.68472995
89.34762221 150.6484896 3.882405508e-11
