# .PCD v0.7 - Point Cloud Data file format
VERSION 0.7
FIELDS x y z
SIZE 4 4 4
TYPE F F F
COUNT 1 1 1
WIDTH 1210
HEIGHT 1
VIEWPOINT 0 0 0 1 0 0 0
POINTS 1210
DATA ascii
167.4531138 -101.6727278 2.593480986e-11
-150.7812342 -76.4547636 2.593480986e-11
237.8218648 6.832578947e-11 227.6934134
-57.33652339 -111.4789199 2.593480986e-11
-214.3327547 1.3736827 180.7465019
214.3327421 -127.8310669 157.5601083
24.87418151 -198.9681689 2.593480986e-11
51.38121741 -111.7727885 2.593480986e-11
214.3327421 -246.8200565 62.7145556
-144.174872 -198.4576207 2.593480986e-11
214.3327421 -51.8784068 240.7069955
214.3327421 -55.0852081 51.48164568
214.3327421 -33.2800525 124.6986852
129.1425397 6.832578947e-11 223.4857311
-90.09224229 6.832578947e-11 0.72924091
79.48719371 6.832578947e-11 181.8567011
-114.903977 6.832578947e-11 135.1517122
26.37124021 6.832578947e-11 207.4060994
107.2986496 6.832578947e-11 27.95619159
-206.9735678 6.832578947e-11 52.81676883
-66.13111749 6.832578947e-11 224.8107518
123.8921538 -137.386341 2.593480986e-11
144.28896 -51.1071373 2.593480986e-11
181.6631244 6.832578947e-11 195.2899351
57.89454641 -59.7620992 2.593480986e-11
-32.25423729 6.832578947e-11 58.51549807
-165.9599826 6.832578947e-11 226.6986515
214.3327421 -148.1276491 103.0094939
-18.81795119 6.832578947e-11 181.1724986
187.6716594 6.832578947e-11 43.42597769
-53.27055119 -244.2609564 2.593480986e-11
129.248546 -191.2456273 2.593480986e-11
50.76165421 -243.1886539 2.593480986e-11
225.6943167 -131.0936629 2.593480986e-11
56.63524161 6.832578947e-11 108.2174408
214.3327421 -186.8533357 44.91325224
-42.32518879 -49.073353 2.593480986e-11
214.3327421 -238.5496164 201.6232812
186.5508079 6.832578947e-11 146.0810149
64.26805591 6.832578947e-11 51.67158144
9.564606409 -18.6949085 2.593480986e-11
-174.5929798 -35.195846 2.593480986e-11
-113.4246779 6.832578947e-11 199.8183679
100.6414674 6.832578947e-11 135.4651078
-162.7505003 6.832578947e-11 128.4062115
99.14606171 -37.4428977 2.593480986e-11
214.3327421 -205.0344294 146.4327848
214.3327421 -136.4368686 204.2831131
190.1399442 -45.8261381 2.593480986e-11
-112.4069253 6.832578947e-11 45.17061612
-214.3327547 -249.4639055 -0.07656383997
140.5032657 6.832578947e-11 60.4658814
214.3327421 -29.1318304 199.0897647
-71.72161739 6.832578947e-11 122.6875236
200.8504883 -205.8071634 2.593480986e-11
76.00348681 -207.8184344 2.593480986e-11
-23.46438809 -213.332424 2.593480986e-11
26.52076691 6.832578947e-11 250.8800115
214.3327421 -240.8200552 111.0996122
-128.3378402 -38.9014146 2.593480986e-11
141.1805877 6.832578947e-11 123.8817988
-101.2311478 -203.5998175 2.593480986e-11
-109.8905955 -97.4596714 2.593480986e-11
33.69056081 -158.5534952 2.593480986e-11
227.0864444 6.832578947e-11 103.1011819
-72.28940189 6.832578947e-11 37.49887883
214.3327421 -211.8771653 234.0471348
12.00879021 6.832578947e-11 110.9490817
214.3327421 -96.8843806 36.18804087
-13.65198359 -102.8578003 2.593480986e-11
214.3327421 -231.6282561 25.79894028
-41.45964199 -153.4692116 2.593480986e-11
214.3327421 -53.1601472 89.7689564
87.71369971 -125.3642246 2.593480986e-11
-185.0767827 6.832578947e-11 21.87043183
-150.0885983 -161.0951159 2.593480986e-11
-83.40522769 -150.4776153 2.593480986e-11
-214.3327547 -47.0465879 -0.70303746
-180.1129604 -183.3637054 2.593480986e-11
214.3327421 -89.7014488 150.0201334
214.3327421 -83.760718 221.3647942
-6.207432891 6.832578947e-11 146.2311491
214.3327421 -105.9669124 72.1735713
-5.754993791 6.832578947e-11 27.97520663
214.3327421 -158.8846424 138.2632046
-198.2177583 6.832578947e-11 148.0609937
-152.6964363 -124.1971922 2.593480986e-11
214.3327421 -33.9713636 163.3267632
189.5193777 -133.9343427 2.593480986e-11
-120.3834731 6.832578947e-11 96.5309984
214.3327421 -157.7881208 20.84462175
126.2239269 -12.0390474 2.593480986e-11
-185.6559846 -104.3087271 2.593480986e-11
136.6293869 -225.3330533 2.593480986e-11
238.634136 -47.2017575 2.593480986e-11
214.3327421 -23.7997883 71.3827853
-11.26148959 -180.950306 2.593480986e-11
-52.03390559 6.832578947e-11 91.320979
220.5524268 6.832578947e-11 31.94770061
-115.3647952 -171.9414662 2.593480986e-11
66.10561041 6.832578947e-11 148.7342594
214.3327421 -32.7663622 25.41086845
-213.0284853 -160.163327 2.593480986e-11
-214.2911666 -122.3373425 2.593480986e-11
19.78620571 -97.0382813 2.593480986e-11
-134.2492938 -233.093243 2.593480986e-11
-206.8013617 6.832578947e-11 215.8866641
-185.6798845 -67.3218139 2.593480986e-11
-10.49795329 6.832578947e-11 86.3118466
-156.5815387 6.832578947e-11 46.16465348
194.5819605 -2.3140764 2.593480986e-11
193.3086759 -80.0660244 2.593480986e-11
-185.0198507 6.832578947e-11 77.7272521
36.80524681 6.832578947e-11 23.94180388
99.38737721 6.832578947e-11 208.3216508
-66.63547209 -26.6202499 2.593480986e-11
160.8325839 -202.8131626 2.593480986e-11
201.8790847 6.832578947e-11 223.5626643
-33.67629619 6.832578947e-11 210.3184146
214.3327421 -143.4938289 240.705287
214.3327421 -119.2342066 122.929104
214.3327421 -213.6326429 68.6771822
-172.4841814 -218.4791084 2.593480986e-11
-103.6360695 6.832578947e-11 165.5083361
-37.68319859 6.832578947e-11 153.8045372
216.5508888 6.832578947e-11 134.0260826
145.1545521 6.832578947e-11 251.5722773
58.82896001 6.832578947e-11 206.6907447
198.7238102 -251.3259664 2.593480986e-11
157.6840839 -138.272693 2.593480986e-11
214.3327421 -157.4210545 72.3663141
214.3327421 -223.5802494 173.3668891
235.3870891 -219.7334774 2.593480986e-11
136.6104904 -87.8753297 2.593480986e-11
205.6136016 6.832578947e-11 173.8601595
93.73515081 0.9902316001 2.593480986e-11
214.3327421 -101.5763623 195.9378535
-79.26803299 -227.3538048 2.593480986e-11
107.1506754 6.832578947e-11 244.8044122
-72.81049669 -84.2192544 2.593480986e-11
23.71487641 -129.6551725 2.593480986e-11
73.61329401 -85.93963 2.593480986e-11
230.6634813 6.832578947e-11 196.4004149
149.1407071 6.832578947e-11 28.39981009
-135.0683693 6.832578947e-11 224.8487924
214.3327421 -63.1770158 129.93813
13.27812321 6.832578947e-11 176.2816892
-175.1560132 6.832578947e-11 197.858333
158.1668438 6.832578947e-11 214.2988874
-19.75702489 -29.0461755 2.593480986e-11
-83.34198449 6.832578947e-11 199.9517048
-79.63431999 6.832578947e-11 251.6762472
22.62698021 -228.9004501 2.593480986e-11
-25.99417739 -74.2530096 2.593480986e-11
48.04175321 6.832578947e-11 79.6109669
87.18614181 6.832578947e-11 108.8618488
214.3327421 -173.5321051 220.6669841
39.33066651 -29.8101315 2.593480986e-11
210.8525624 -104.9383609 2.593480986e-11
-119.4655257 -68.4527344 2.593480986e-11
214.3327421 -155.3006115 170.5115918
111.1319918 -167.7419557 2.593480986e-11
214.3327421 -206.7001541 199.4215346
214.3327421 -62.7246895 20.62377173
135.83063 6.832578947e-11 89.4023635
-140.9959942 6.832578947e-11 148.4345121
199.230873 6.832578947e-11 81.5691174
59.57340041 -143.1871918 2.593480986e-11
112.6949104 6.832578947e-11 182.5403291
214.3327421 -24.3377225 249.3429193
-100.954576 6.832578947e-11 225.7264983
143.6890113 -166.5067464 2.593480986e-11
-94.41100239 -123.2065778 2.593480986e-11
69.40222681 -33.7947705 2.593480986e-11
167.0606717 -69.4453106 2.593480986e-11
-63.06638929 6.832578947e-11 9.16645402
-118.1919429 6.832578947e-11 5.9130247
214.3327421 -57.5796928 210.9553111
-214.3327547 1.8106387 25.6859499
172.7898503 6.832578947e-11 67.3405753
214.3327421 -186.1530685 15.74193661
-56.26238849 6.832578947e-11 193.0737171
-169.2633032 -6.3109695 2.593480986e-11
115.4709194 6.832578947e-11 112.1029674
-212.4647091 6.832578947e-11 81.2031621
-2.159136591 6.832578947e-11 221.7379371
162.4863571 -28.211912 2.593480986e-11
214.3327421 -186.4416698 126.399565
-180.8710434 6.832578947e-11 104.6191483
97.86171431 -191.4267599 2.593480986e-11
77.32176071 6.832578947e-11 27.88841969
-181.9973202 6.832578947e-11 248.5654233
127.1235891 -251.5929464 2.593480986e-11
159.5004198 6.832578947e-11 145.8158487
110.5082018 -216.9749589 2.593480986e-11
116.4563437 -58.0250534 2.593480986e-11
119.6179676 -110.8601795 2.593480986e-11
214.3327421 -131.3023075 82.1072465
112.6653363 6.832578947e-11 54.22045939
163.3073221 6.832578947e-11 175.760819
-64.34163989 6.832578947e-11 63.0805311
-155.3725677 6.832578947e-11 251.4345895
35.77832601 -75.5879528 2.593480986e-11
214.3327421 -80.009307 61.1879715
76.11045211 -251.6301215 2.593480986e-11
-92.64169299 -32.5469834 2.593480986e-11
-56.77164199 -210.7512516 2.593480986e-11
-202.1497112 -225.7636983 2.593480986e-11
214.3327421 -183.9533585 73.9186972
-27.70162659 -125.3997482 2.593480986e-11
214.3327421 -179.3401843 155.1900483
-137.1581649 -99.1540796 2.593480986e-11
139.8382162 6.832578947e-11 195.2519526
-42.14786009 6.832578947e-11 249.5313138
46.81014321 6.832578947e-11 174.4849216
85.34975761 -62.3027116 2.593480986e-11
77.70903651 6.832578947e-11 74.3687868
-88.91443709 -177.0716676 2.593480986e-11
-124.267632 6.832578947e-11 70.5150522
47.59517881 6.832578947e-11 230.4335672
-178.403448 6.832578947e-11 165.4803287
49.30516431 -217.0012662 2.593480986e-11
214.3327421 -26.0747733 97.3375528
-7.290660591 1.151412 2.593480986e-11
214.3327421 -229.6965324 138.2240231
231.242287 -156.36548 2.593480986e-11
202.2077596 6.832578947e-11 110.0630889
214.3327421 -127.2364223 24.85097217
-144.7747223 6.832578947e-11 110.1824035
-38.24355229 -184.0284885 2.593480986e-11
214.3327421 -173.4645636 99.5817466
212.9731664 -34.4423497 2.593480986e-11
214.3327421 -231.9267565 86.2351274
218.581576 6.832578947e-11 244.5631144
214.3327421 -104.6877141 171.0120046
-199.139463 -27.0428957 2.593480986e-11
173.9185874 6.832578947e-11 124.4871393
-42.36026409 6.832578947e-11 28.84359231
-26.33557999 -244.6353039 2.593480986e-11
52.55751311 -174.8601505 2.593480986e-11
30.07025371 -1.709011 2.593480986e-11
175.5103853 6.832578947e-11 19.55056632
31.38455101 6.832578947e-11 126.517958
214.3327421 -31.9091883 223.7477921
13.87120981 -176.7738379 2.593480986e-11
-93.95791769 6.832578947e-11 25.54158978
235.2999328 -106.9047619 2.593480986e-11
214.3327421 -215.4197222 117.1276906
214.3327421 -244.6304361 225.2376028
-99.80957999 6.832578947e-11 116.0290638
214.3327421 -117.6055059 219.7009372
-155.2544111 -49.960984 2.593480986e-11
-129.6940604 6.832578947e-11 176.9219728
213.1452346 -229.4012422 2.593480986e-11
214.3327421 -57.8392952 159.7293395
123.1719386 6.832578947e-11 144.1154755
202.4140432 -155.7905749 2.593480986e-11
183.0535573 -189.587408 2.593480986e-11
143.6754976 -111.2384944 2.593480986e-11
29.34287991 -52.4509149 2.593480986e-11
-143.750941 -20.5304375 2.593480986e-11
-85.98245819 6.832578947e-11 149.3606925
-36.84065239 -97.0957993 2.593480986e-11
214.3327421 -82.4873439 245.2067595
214.3327421 -209.1544272 36.5905989
214.3327421 -197.6232005 170.4262419
-61.20552329 6.832578947e-11 145.3727883
-0.2037696914 6.832578947e-11 198.0588413
214.3327421 -6.1134582 55.54607891
33.43140841 6.832578947e-11 50.07810195
-162.8477325 -98.408975 2.593480986e-11
-8.633353791 6.832578947e-11 51.32013562
-134.4459873 6.832578947e-11 37.013348
-0.7635400914 -207.7530612 2.593480986e-11
238.6576094 6.832578947e-11 141.2719874
-12.76550739 -52.4074577 2.593480986e-11
-141.8402738 6.832578947e-11 202.6589608
-68.00086699 -57.9917731 2.593480986e-11
2.914323409 -118.9945564 2.593480986e-11
94.90677131 -148.1851033 2.593480986e-11
-63.80294029 -133.6490818 2.593480986e-11
87.50703161 6.832578947e-11 157.3144882
26.08375241 -251.6966936 2.593480986e-11
214.3327421 -252.0263038 131.4188854
-122.6185687 -211.7933819 2.593480986e-11
214.3327421 -9.6801437 154.6391724
-185.1575996 6.832578947e-11 44.70393464
214.3327421 -123.4047856 184.0903132
-87.84276509 6.832578947e-11 54.21323783
-42.27103699 -25.7752886 2.593480986e-11
31.84082111 6.832578947e-11 95.5816818
-191.2961093 0.2784137001 2.593480986e-11
188.1291529 -224.9011352 2.593480986e-11
214.3327421 -159.0623404 203.102122
198.9453433 6.832578947e-11 21.99362254
91.65231011 6.832578947e-11 46.07861697
237.4364366 6.832578947e-11 16.02718715
52.54831861 6.832578947e-11 252.3351087
214.3327421 -88.5116177 86.1945262
223.0118632 -199.4725038 2.593480986e-11
-202.3207959 -180.8007256 2.593480986e-11
-175.7411261 -161.5141918 2.593480986e-11
224.3122919 6.832578947e-11 80.5264987
13.66543421 6.832578947e-11 38.80147291
-112.4094072 -20.6154819 2.593480986e-11
214.3327421 -250.2419027 37.90748851
-42.43506399 6.832578947e-11 175.4894201
214.3327421 -163.8797646 51.13424743
130.512214 6.832578947e-11 40.68426015
-78.49682999 -249.3811572 2.593480986e-11
-192.6268674 -247.2697683 2.593480986e-11
-196.7548472 6.832578947e-11 195.1932552
214.3327421 -66.4669975 108.4723107
-64.91138819 -161.7171153 2.593480986e-11
-163.0123244 -143.8204434 2.593480986e-11
-211.3175136 6.832578947e-11 130.9618612
-162.3877232 6.832578947e-11 150.5391066
-75.18237839 6.832578947e-11 100.0689501
209.1591801 -55.7376053 2.593480986e-11
214.3327421 -251.003238 14.64574992
-102.4319601 -227.6016057 2.593480986e-11
-53.74657559 -73.9128709 2.593480986e-11
71.91101251 -228.7482 2.593480986e-11
214.3327421 -107.737644 95.3407083
156.2507604 6.832578947e-11 107.8679935
-108.882209 -48.2310402 2.593480986e-11
78.28283061 6.832578947e-11 214.8377355
205.3411428 6.832578947e-11 202.8110779
-88.98535559 -99.7391668 2.593480986e-11
214.3327421 -139.0265695 131.6394723
183.1624442 -24.9664188 2.593480986e-11
214.3327421 -188.9489106 234.7747323
-11.16915039 -230.4569339 2.593480986e-11
214.3327421 -248.2731737 174.9191647
-5.684575091 6.832578947e-11 121.706889
84.14973221 -105.0243558 2.593480986e-11
11.77511311 -156.2485389 2.593480986e-11
-31.11534609 6.832578947e-11 85.7911576
190.8965807 -113.378808 2.593480986e-11
-185.6938821 6.832578947e-11 220.8360275
131.9071979 -34.8039048 2.593480986e-11
7.259790609 6.832578947e-11 243.9585493
106.0560777 -15.50318 2.593480986e-11
71.83262391 6.832578947e-11 93.9683711
11.14932631 6.832578947e-11 8.71590484
-146.0162897 -249.6974203 2.593480986e-11
214.3327421 -26.1912449 44.66793783
-52.64302039 6.832578947e-11 115.6305218
-168.1978787 6.832578947e-11 62.7978128
-7.859547591 -83.3371774 2.593480986e-11
237.4785066 6.832578947e-11 251.8939405
-105.6960578 6.832578947e-11 82.5759066
-214.2129858 6.832578947e-11 160.5521974
214.3327421 -223.1865898 250.8328432
-137.2547349 -176.7329476 2.593480986e-11
165.9837973 -49.2503475 2.593480986e-11
-179.6740268 6.832578947e-11 140.0673304
-44.26174149 6.832578947e-11 227.5037662
58.56023271 6.832578947e-11 20.4669704
-139.0344386 6.832578947e-11 56.76749635
167.6268161 6.832578947e-11 45.70842672
63.57936711 6.832578947e-11 127.1221578
-98.75928619 -78.2763517 2.593480986e-11
-153.1203951 -223.884626 2.593480986e-11
-136.8491073 -58.3590265 2.593480986e-11
52.76229131 -91.7199381 2.593480986e-11
238.4305102 6.832578947e-11 121.1811084
214.3327421 -83.8630587 130.8015965
214.3327421 -43.8473192 70.6817042
211.3349001 -174.0954548 2.593480986e-11
-121.0890756 -117.9787015 2.593480986e-11
181.1174404 6.832578947e-11 215.305507
-122.2619584 6.832578947e-11 158.2087809
13.04788621 6.832578947e-11 140.9795058
-138.6660835 -140.6563503 2.593480986e-11
214.3327421 -148.6406467 220.100201
-98.87144689 6.832578947e-11 184.8495727
181.799081 6.832578947e-11 168.4649663
-37.77717459 -228.3882126 2.593480986e-11
237.4155981 6.832578947e-11 43.5245081
70.61517451 -188.7094145 2.593480986e-11
214.3327421 -113.6691629 46.76340953
122.5756273 6.832578947e-11 15.3278061
214.3327421 -84.4538449 20.81610519
-205.3317762 -102.7734455 2.593480986e-11
-51.45241299 6.832578947e-11 48.15104814
92.44548041 6.832578947e-11 230.6577322
160.8711242 6.832578947e-11 84.4815831
214.3327421 -20.0385769 181.6070918
42.51887641 6.832578947e-11 193.7056281
-194.6846697 -47.9172749 2.593480986e-11
-172.2239674 -121.800805 2.593480986e-11
-22.21177679 -157.520715 2.593480986e-11
214.3327421 -199.0023916 217.9700227
150.3054257 -241.6406341 2.593480986e-11
214.3327421 -45.578077 139.9186021
154.6042206 6.832578947e-11 234.4966273
192.9128836 6.832578947e-11 62.2115171
-107.4449646 -154.1326561 2.593480986e-11
161.4036723 6.832578947e-11 195.1304601
-25.71610129 6.832578947e-11 40.22020295
214.3327421 -213.6930889 17.77088939
-205.1616244 -139.3796794 2.593480986e-11
214.3327421 -251.2561843 86.1044554
-21.40438109 6.832578947e-11 225.2463801
219.6193081 6.832578947e-11 215.8086837
-162.9657619 6.832578947e-11 97.5331408
-130.5077185 6.832578947e-11 123.1152397
214.3327421 -51.7804976 177.9786599
-185.7938945 -204.6538759 2.593480986e-11
113.3996839 6.832578947e-11 160.6290105
214.3327421 -25.661673 142.2552606
146.4155143 -14.2431072 2.593480986e-11
145.1674464 -70.7957918 2.593480986e-11
214.3327421 -74.027191 36.77422985
-32.91099019 6.832578947e-11 135.4277075
-171.9767385 -80.4331139 2.593480986e-11
215.2769292 6.832578947e-11 12.45479731
-162.2104514 -192.9004557 2.593480986e-11
-197.6443107 6.832578947e-11 169.4583024
214.3327421 -142.5831321 9.80478588
68.63576711 -119.1589483 2.593480986e-11
-123.1528682 -248.647617 2.593480986e-11
152.58687 -182.9278613 2.593480986e-11
23.67315251 6.832578947e-11 225.8305771
35.16966371 -183.4969456 2.593480986e-11
139.7000412 -148.3811618 2.593480986e-11
43.52284821 -133.8956649 2.593480986e-11
197.8655917 6.832578947e-11 243.6594336
172.3400836 -126.9365867 2.593480986e-11
7.242111709 6.832578947e-11 91.6485719
-190.116032 6.832578947e-11 120.6209676
214.3327421 -19.0438017 13.07431993
-105.2568141 6.832578947e-11 62.1676836
61.77029761 6.832578947e-11 186.915752
106.0629701 -127.0230911 2.593480986e-11
214.3327421 -110.3272104 151.887591
214.3327421 -69.6261356 81.6373798
-77.16422269 -113.779039 2.593480986e-11
44.91155611 6.832578947e-11 139.3426858
214.3327421 -16.0530142 232.9341507
140.7163428 -207.5106765 2.593480986e-11
18.36639081 -37.8975407 2.593480986e-11
231.4349535 -28.9334518 2.593480986e-11
214.3327421 -123.1411238 65.8812745
214.3327421 -101.3610707 126.0727053
214.3327421 -50.1156894 116.2690699
214.3327421 -170.5723724 34.30857643
159.2051901 -220.8405057 2.593480986e-11
214.3327421 -200.5158772 248.6815571
-190.5722163 -123.5244277 2.593480986e-11
-63.37761449 6.832578947e-11 243.8196506
118.742221 6.832578947e-11 199.5083034
-20.37565829 6.832578947e-11 163.2370253
48.56333981 -199.0311372 2.593480986e-11
214.3327421 -66.9477599 227.7076659
92.24992481 6.832578947e-11 17.96669275
-167.2106141 6.832578947e-11 23.16719663
48.90722051 6.832578947e-11 60.8602653
-182.971659 -17.7794273 2.593480986e-11
214.3327421 -221.0529165 218.7136973
76.98554621 -147.1285012 2.593480986e-11
191.6044831 6.832578947e-11 128.9665903
214.3327421 -228.454061 156.0192722
214.3327421 -150.0626244 36.87083956
214.3327421 -162.9347853 237.0603379
98.25148611 6.832578947e-11 172.1854225
123.4622037 6.832578947e-11 76.6413203
209.7436076 -122.6724609 2.593480986e-11
-85.54191609 6.832578947e-11 234.5499592
95.08484121 6.832578947e-11 190.3461057
182.2321514 -207.2956351 2.593480986e-11
142.0137648 6.832578947e-11 148.646577
-203.3074309 -69.0148022 2.593480986e-11
214.3327421 -224.3541973 45.66574593
214.3327421 -162.3226745 113.5711864
48.27815121 6.832578947e-11 37.37620055
177.1092642 -146.5055124 2.593480986e-11
-113.8232661 -191.2984701 2.593480986e-11
-123.8792905 -86.7907647 2.593480986e-11
133.7534657 6.832578947e-11 106.847216
-102.3739192 6.832578947e-11 251.0463376
98.11356171 6.832578947e-11 65.9716421
-96.49477609 6.832578947e-11 97.5164481
94.96557101 -208.8408768 2.593480986e-11
-170.9720188 -57.6917561 2.593480986e-11
200.9057841 -188.1631113 2.593480986e-11
-73.84009059 -206.9971066 2.593480986e-11
-51.38098319 6.832578947e-11 209.8451538
-21.45935549 6.832578947e-11 16.86064387
214.3327421 -87.7101215 176.8199898
-136.6562903 6.832578947e-11 246.4786061
-181.7578711 -233.7867805 2.593480986e-11
214.3327421 -100.7573714 224.6718629
118.883564 -236.3835938 2.593480986e-11
-117.2219683 6.832578947e-11 219.870244
179.7590114 -251.7614564 2.593480986e-11
214.3327421 -129.1898132 250.3198462
-195.076967 6.832578947e-11 237.3699878
-124.5789251 6.832578947e-11 21.90028158
-134.0936537 -2.8518246 2.593480986e-11
-17.30005529 6.832578947e-11 199.6420128
77.29420171 -3.8899616 2.593480986e-11
214.3327421 -80.8590054 196.53907
139.5352386 6.832578947e-11 13.16732163
228.4573425 -236.9798282 2.593480986e-11
214.3327421 -200.3445626 81.1201797
214.3327421 -8.5356538 95.7596075
-83.62615089 6.832578947e-11 176.184648
123.1949108 6.832578947e-11 250.3885523
8.402983609 -193.5763502 2.593480986e-11
74.17150931 6.832578947e-11 198.3609294
214.3327421 -69.9475012 145.3869615
214.3327421 -127.8986336 233.0589586
89.67289791 6.832578947e-11 251.6290516
6.604233209 -223.6749859 2.593480986e-11
214.3327421 -205.1380871 54.12470501
26.59376881 6.832578947e-11 188.2819834
211.3726544 -72.3678815 2.593480986e-11
10.84036201 -241.3737046 2.593480986e-11
203.2980688 6.832578947e-11 145.9758978
-62.65397759 -230.4334062 2.593480986e-11
-157.0490398 -177.0367932 2.593480986e-11
-41.04094809 -114.9439697 2.593480986e-11
-3.026632791 -166.4804179 2.593480986e-11
214.3327421 -136.1110261 173.3331768
32.81398051 -214.7704652 2.593480986e-11
-214.3327547 1.6384798 201.1399347
126.4619307 -74.6991238 2.593480986e-11
180.7613914 -59.522386 2.593480986e-11
-93.96736519 6.832578947e-11 134.8145154
214.3327421 -222.3433461 193.9227981
214.3327421 -111.5193405 19.59242187
119.8871392 -153.6910202 2.593480986e-11
214.3327421 -132.2432527 112.6905128
-47.73008999 -8.3369191 2.593480986e-11
225.4354493 -58.6239092 2.593480986e-11
84.15204791 -44.3410371 2.593480986e-11
-10.71158169 -14.9809497 2.593480986e-11
171.2865751 -13.5420783 2.593480986e-11
214.3327421 -47.607958 13.33560028
-3.087684491 6.832578947e-11 174.6168516
153.9720682 -92.2627968 2.593480986e-11
214.3327421 -120.888672 139.2987698
182.8467379 6.832578947e-11 80.5628735
142.2084936 -127.5767068 2.593480986e-11
237.9349974 6.832578947e-11 90.8005252
-157.8997192 6.832578947e-11 205.9376757
-81.29599049 -46.5342214 2.593480986e-11
214.3327421 -224.03396 100.5788214
67.64320591 6.832578947e-11 227.2634513
-161.2769365 -20.5836019 2.593480986e-11
-3.798884991 -32.4955683 2.593480986e-11
219.9719346 6.832578947e-11 181.625232
54.24119731 -23.2408884 2.593480986e-11
214.3327421 -141.7482616 188.6194702
2.757012009 6.832578947e-11 62.946249
15.82040951 6.832578947e-11 160.2162548
-42.15844999 -203.6345191 2.593480986e-11
100.4212496 6.832578947e-11 118.2626459
214.3327421 -49.9113798 36.09535298
-99.94591329 -138.4651553 2.593480986e-11
84.14325051 6.832578947e-11 141.4448797
-155.1018376 1.5632492 2.593480986e-11
41.29726181 -13.3498474 2.593480986e-11
169.5540186 6.832578947e-11 228.3516587
-168.9651708 6.832578947e-11 79.2842528
-88.70088249 -214.2922978 2.593480986e-11
214.3327421 -229.1368506 64.4645667
214.3327421 -36.0920472 181.8586244
-199.6054105 6.832578947e-11 13.73147052
-20.33062829 6.832578947e-11 73.627369
214.3327421 -140.0601219 68.672602
124.7923982 -209.3596049 2.593480986e-11
214.3327421 -161.1666132 89.3070668
47.89707741 -47.2462829 2.593480986e-11
216.592173 6.832578947e-11 118.0366624
-81.12959359 -134.6573012 2.593480986e-11
-54.67001069 -95.7354831 2.593480986e-11
214.3327421 -34.1374848 83.5370868
214.3327421 -75.7859227 166.2379346
-26.75922139 -141.2988348 2.593480986e-11
2.539553509 -47.0919385 2.593480986e-11
156.2115373 6.832578947e-11 129.0282942
116.3259084 -27.6137036 2.593480986e-11
214.3327421 -153.6104391 153.2010966
214.3327421 -209.8051341 181.1887989
-65.88823399 6.832578947e-11 78.8439857
95.48017911 -227.8927828 2.593480986e-11
-103.7969212 6.832578947e-11 12.47396094
238.625821 -201.9957652 2.593480986e-11
-147.8058818 6.832578947e-11 234.1884403
190.8332292 6.832578947e-11 98.8798109
214.3327421 -19.9127616 213.5525618
-129.5069477 -192.5130502 2.593480986e-11
126.8798256 -175.696398 2.593480986e-11
214.3327421 -120.7134666 203.9367023
214.3327421 -205.3611926 130.7111515
-61.90532639 6.832578947e-11 24.8315444
-197.1465272 -165.9722744 2.593480986e-11
-12.05121749 -124.2343387 2.593480986e-11
19.72327551 6.832578947e-11 24.33017986
214.3327421 -33.4823053 58.55312764
-32.64473449 6.832578947e-11 188.5487939
116.8234022 6.832578947e-11 96.4927896
214.3327421 -195.4853393 188.3323752
236.5426515 0.6476051001 2.593480986e-11
-17.57960009 6.832578947e-11 131.8812658
172.7692319 6.832578947e-11 155.6845371
-152.2356648 -33.667951 2.593480986e-11
-56.96956539 -147.7029833 2.593480986e-11
27.18907751 -110.7997414 2.593480986e-11
45.09247551 6.832578947e-11 118.7367784
50.08819551 -159.4475232 2.593480986e-11
69.77633061 6.832578947e-11 169.6446573
-159.0519165 -209.4653354 2.593480986e-11
146.7657415 6.832578947e-11 74.7397071
-62.58598029 -41.669845 2.593480986e-11
-88.10950109 6.832578947e-11 214.7763935
30.14698821 6.832578947e-11 173.1222341
-144.2145427 6.832578947e-11 92.6912419
-191.3416272 6.832578947e-11 63.5181521
214.3327421 -210.2783845 161.3900373
-69.72608839 -99.4844271 2.593480986e-11
-51.60999609 6.832578947e-11 71.8620876
-6.275820291 6.832578947e-11 106.2686352
214.3327421 -164.4354238 187.9257998
214.3327421 -64.437549 63.7575029
99.30705921 -107.8388814 2.593480986e-11
198.6709657 -94.5104492 2.593480986e-11
238.1407007 6.832578947e-11 181.7014069
237.6151303 -90.4299122 2.593480986e-11
-214.3327547 -216.5562337 -1.90599363
88.55439701 6.832578947e-11 93.5375634
55.01500911 -76.5116027 2.593480986e-11
4.910146209 -93.2042305 2.593480986e-11
-197.6876565 6.832578947e-11 97.9298588
220.9330584 6.832578947e-11 165.6110943
214.3327421 -251.0020382 192.702708
-78.75001919 6.832578947e-11 11.018763
-163.4337209 6.832578947e-11 188.0175912
138.3875526 6.832578947e-11 237.8556411
78.81189991 6.832578947e-11 125.8521608
-148.5367839 -109.5480041 2.593480986e-11
-118.9619146 6.832578947e-11 234.9974432
214.3327421 -13.9089593 199.2348753
-96.99732249 6.832578947e-11 40.45224055
174.4339086 -88.1602426 2.593480986e-11
44.63362371 6.832578947e-11 215.5201971
206.150311 6.832578947e-11 36.79703979
214.3327421 -213.3157984 89.0197234
145.5977795 6.832578947e-11 178.2715158
-149.9369581 6.832578947e-11 218.8181438
113.4283931 -43.1958396 2.593480986e-11
198.5091985 -30.0506184 2.593480986e-11
82.80834491 6.832578947e-11 58.31369408
97.18666621 -176.349321 2.593480986e-11
214.9557942 -212.2207789 2.593480986e-11
102.9194648 -64.6316829 2.593480986e-11
155.2416489 6.832578947e-11 57.36392369
20.81089951 -68.2079711 2.593480986e-11
89.80381401 -86.3008016 2.593480986e-11
-48.65118299 6.832578947e-11 13.44396044
214.3327421 -170.4637528 64.9058014
106.4209771 6.832578947e-11 221.5977381
-32.48751429 -60.4242941 2.593480986e-11
214.3327421 -12.4563574 38.5938779
214.3327421 -90.4933131 1.86483041
214.3327421 -15.769085 131.0147549
24.89150881 -24.4220835 2.593480986e-11
36.77375591 6.832578947e-11 69.7563151
-109.1193755 6.832578947e-11 26.45660421
214.3327421 -184.8479925 89.8768093
115.27238 -185.9323244 2.593480986e-11
150.2377621 -37.411144 2.593480986e-11
-31.87385809 -37.7509041 2.593480986e-11
-47.17642479 -167.2424806 2.593480986e-11
84.58811121 -29.4349958 2.593480986e-11
189.1409949 -239.9020555 2.593480986e-11
-68.89605679 -10.1825995 2.593480986e-11
211.7210465 -10.3598039 2.593480986e-11
-49.39885189 -129.9264052 2.593480986e-11
12.36288411 6.832578947e-11 212.4042189
175.5100587 6.832578947e-11 4.38958026
213.5229591 -248.7324535 2.593480986e-11
162.8069765 -152.1991649 2.593480986e-11
214.3327421 -120.8995604 102.1261001
237.9481879 6.832578947e-11 209.2849834
-71.05455979 6.832578947e-11 191.7012047
222.3886448 -183.928207 2.593480986e-11
214.3327421 -17.2607508 109.2158577
214.3327421 -85.3999954 46.20414979
182.0295168 6.832578947e-11 111.1617201
238.25807 -138.8037023 2.593480986e-11
-20.98213219 6.832578947e-11 146.2117599
-153.4980805 6.832578947e-11 62.3839536
214.3327421 -43.7688592 197.9314325
64.74906621 -161.0983126 2.593480986e-11
214.3327421 -235.1802979 242.4025057
175.3034126 -37.3396746 2.593480986e-11
214.3327421 -185.851144 111.7558027
-12.81051489 -67.8578244 2.593480986e-11
-122.967991 -52.5311549 2.593480986e-11
-102.4630437 6.832578947e-11 209.5105146
214.3327421 -170.806571 13.93293531
214.3327421 -238.8461914 47.53167256
159.7476087 6.832578947e-11 252.295337
-34.28920269 6.832578947e-11 103.3055829
-90.24114689 -193.9933644 2.593480986e-11
-129.100246 -164.6397913 2.593480986e-11
64.15826281 -104.7427408 2.593480986e-11
-170.2213752 6.832578947e-11 115.895607
211.3597493 6.832578947e-11 68.4279251
-100.440812 6.832578947e-11 151.1122343
-214.3327547 1.2552046 228.2847183
-130.6698093 6.832578947e-11 138.1741925
214.3327421 -183.8798245 59.14689849
214.3327421 -187.0147284 140.9236475
214.3327421 -18.1968625 166.3958291
74.50668071 -132.4161956 2.593480986e-11
-47.68225519 6.832578947e-11 140.1479178
123.8028552 6.832578947e-11 172.0709553
-104.1268589 -8.7489476 2.593480986e-11
-72.56861459 6.832578947e-11 209.5626589
-113.3844787 6.832578947e-11 111.1173257
-126.6275823 -18.1873745 2.593480986e-11
151.0106658 6.832578947e-11 42.69503485
193.9050445 6.832578947e-11 182.2128972
-200.439879 6.832578947e-11 251.8687062
214.3327421 -74.718268 95.0533839
-116.6174174 6.832578947e-11 185.8338938
-131.0106419 -128.5259472 2.593480986e-11
214.3327421 -38.6651191 249.6103155
214.3327421 -145.4266171 84.4885293
139.4064637 6.832578947e-11 209.5576303
-124.9071695 -150.9033156 2.593480986e-11
-146.0957837 6.832578947e-11 161.8018728
47.16012561 6.832578947e-11 11.83306766
214.3327421 -115.8287575 83.581726
100.0600583 6.832578947e-11 149.7081096
112.0530608 -2.573736 2.593480986e-11
227.1074629 6.832578947e-11 54.03446625
-212.736145 -32.9226748 2.593480986e-11
-25.74852479 -16.1403379 2.593480986e-11
13.23180231 6.832578947e-11 53.3300674
61.79897131 -208.3704644 2.593480986e-11
167.2831749 -178.9966411 2.593480986e-11
-55.80715639 6.832578947e-11 162.1393819
-158.327752 -242.6552692 2.593480986e-11
160.0390142 -251.9354558 2.593480986e-11
40.50740751 -233.4133296 2.593480986e-11
214.3327421 -67.6371839 241.8346532
-213.0213637 6.832578947e-11 95.3268582
91.96147661 -14.4924899 2.593480986e-11
-77.15353669 6.832578947e-11 69.2020084
201.4718125 -220.2692863 2.593480986e-11
-81.34834629 -165.1493444 2.593480986e-11
10.00899501 6.832578947e-11 229.3693854
-27.03004269 -199.6788441 2.593480986e-11
-52.81573819 -58.4979492 2.593480986e-11
-76.24580899 -191.6529198 2.593480986e-11
145.362726 6.832578947e-11 0.34988342
46.36418101 6.832578947e-11 98.5913457
-149.0672378 6.832578947e-11 34.2649071
-106.4829744 -115.975247 2.593480986e-11
149.3387673 6.832578947e-11 93.3315463
214.3327421 -118.7162769 169.9677707
214.3327421 -237.1182666 12.39479426
-128.0026632 6.832578947e-11 200.1606659
214.3327421 -178.0367489 207.3485276
222.316525 -113.0736536 2.593480986e-11
67.41033931 6.832578947e-11 9.20533259
-24.19346909 -175.4628156 2.593480986e-11
214.3327421 -197.6291868 65.9971935
214.3327421 -52.9790853 226.3767016
-75.86296969 -69.6032708 2.593480986e-11
131.1002043 -61.4947843 2.593480986e-11
-152.4840397 6.832578947e-11 137.913878
214.3327421 -94.065071 207.7426864
219.5040419 6.832578947e-11 230.6477709
58.20636191 6.832578947e-11 239.5908362
9.525667909 -140.8885395 2.593480986e-11
163.9431405 -115.1662857 2.593480986e-11
-165.9969749 6.832578947e-11 240.6345272
103.2471261 6.832578947e-11 104.6468895
39.22858661 -94.8674568 2.593480986e-11
-176.7524793 6.832578947e-11 9.8425022
-190.346433 6.832578947e-11 181.2637931
-135.4752935 -216.9962314 2.593480986e-11
-191.2186574 6.832578947e-11 208.1220989
93.29955731 -161.944659 2.593480986e-11
-116.9360933 6.832578947e-11 170.9883255
15.50840921 -52.752387 2.593480986e-11
56.76590411 -126.2155123 2.593480986e-11
214.3327421 -66.1830622 200.1588757
-104.4265078 -180.3489909 2.593480986e-11
214.3327421 -153.702356 249.9496935
214.3327421 -142.1694157 145.5579595
116.4069107 -97.4862988 2.593480986e-11
214.3327421 -199.4761137 26.81834324
214.3327421 -131.6955729 219.8455546
62.35058241 -250.5709246 2.593480986e-11
59.08449851 6.832578947e-11 70.0681454
226.0472933 -41.5552942 2.593480986e-11
-205.071212 6.832578947e-11 39.22747052
214.3327421 -102.6232888 140.5355772
228.4679242 6.832578947e-11 154.1540843
46.89815941 6.832578947e-11 160.7814334
214.3327421 -183.453444 29.66116581
-87.13711419 6.832578947e-11 110.8451664
214.3327421 -156.0478578 6.72425281
-113.6831708 -235.3746647 2.593480986e-11
127.7033248 1.5542675 2.593480986e-11
214.3327421 -251.5869288 213.4989617
-143.7963079 6.832578947e-11 126.1861359
-95.41282909 -160.5533105 2.593480986e-11
214.3327421 -229.8794093 119.2299683
-138.6981005 -85.6146818 2.593480986e-11
175.0982395 -218.9042581 2.593480986e-11
-12.80443369 -201.3872985 2.593480986e-11
-174.7239453 6.832578947e-11 34.51474673
-206.3464115 6.832578947e-11 69.0531492
214.3327421 -93.463971 59.19067116
136.7429233 -240.9521958 2.593480986e-11
214.3327421 -239.3807239 74.8841538
193.1981234 -177.0131493 2.593480986e-11
135.0540581 6.832578947e-11 135.9587664
85.02648081 -195.6941261 2.593480986e-11
-2.496382291 6.832578947e-11 14.85496178
162.690506 6.832578947e-11 23.75381429
-22.61289289 -112.9122748 2.593480986e-11
-180.6462182 -47.2071499 2.593480986e-11
6.607392209 6.832578947e-11 78.22083
5.040061509 6.832578947e-11 130.1940043
-103.3014841 -65.1988463 2.593480986e-11
214.3327421 -233.9041341 187.1435418
-150.1414081 6.832578947e-11 189.6855713
129.7527471 -102.1134664 2.593480986e-11
70.04137911 -73.0432452 2.593480986e-11
-192.1060039 -152.2074815 2.593480986e-11
-44.97544639 -86.4884719 2.593480986e-11
221.9739523 -165.9959113 2.593480986e-11
8.161861309 -80.2628159 2.593480986e-11
149.6617839 6.832578947e-11 162.0487033
235.6961703 6.832578947e-11 29.23756424
-214.3327547 -60.357444 -1.17203529
-42.91402129 6.832578947e-11 197.0262793
125.930115 6.832578947e-11 63.5830329
214.3327421 -152.7164289 122.7524996
-87.98904799 -20.1016456 2.593480986e-11
126.2314126 6.832578947e-11 157.1909204
-175.2647696 -196.5636527 2.593480986e-11
67.04051811 -19.7272378 2.593480986e-11
119.5206943 6.832578947e-11 33.12437549
204.1916256 6.832578947e-11 95.6841187
-30.62406729 6.832578947e-11 234.7690289
214.3327421 -94.2178737 162.8887534
84.46289011 -220.554996 2.593480986e-11
11.27113431 -108.7546129 2.593480986e-11
214.3327421 -244.6216126 142.9621965
121.3351772 6.832578947e-11 131.0620787
214.3327421 -235.4009654 167.5579536
-131.2098715 -74.7805745 2.593480986e-11
104.416179 6.832578947e-11 12.93596983
112.9030553 -203.708895 2.593480986e-11
178.4699192 -109.065928 2.593480986e-11
19.42564261 6.832578947e-11 239.0136532
-49.74873939 -38.2610992 2.593480986e-11
162.755688 -82.1983578 2.593480986e-11
-61.93867819 -198.7003218 2.593480986e-11
126.315114 6.832578947e-11 210.2083572
214.3327421 -200.9214834 118.3912099
-71.11912559 -145.9729821 2.593480986e-11
214.3327421 -106.4366399 57.65049063
-202.5640067 -116.5834258 2.593480986e-11
-121.5283213 6.832578947e-11 83.2855522
-19.86769559 6.832578947e-11 3.32401841
214.3327421 -228.5968261 231.1241912
-79.70776459 -30.1735454 2.593480986e-11
70.70916761 6.832578947e-11 39.12367891
40.46847901 -170.0185203 2.593480986e-11
-71.00679249 6.832578947e-11 153.9471927
87.22348981 6.832578947e-11 203.7003948
3.339472609 6.832578947e-11 156.5457608
-95.03240549 -238.2966553 2.593480986e-11
-194.3194561 6.832578947e-11 135.6626753
-121.6198361 6.832578947e-11 34.94959297
214.3327421 -109.369931 32.60171027
18.48862901 6.832578947e-11 129.1934751
-177.7315641 6.832578947e-11 126.4754864
58.81029811 -233.0427675 2.593480986e-11
-81.07485849 6.832578947e-11 26.75137373
214.3327421 -108.6004859 210.4159456
-21.15646979 -86.2345929 2.593480986e-11
69.19400831 6.832578947e-11 115.5010724
21.59423981 -11.94863 2.593480986e-11
183.7341284 -10.1820415 2.593480986e-11
-19.21371639 6.832578947e-11 60.7933
-177.9500299 6.832578947e-11 185.2880243
214.3327421 -41.1865807 106.9909418
214.3327421 -178.1907273 168.0110727
123.8793979 -222.1944105 2.593480986e-11
35.02087311 6.832578947e-11 110.7494771
-19.77597839 6.832578947e-11 212.5030532
-159.4145319 -66.9453452 2.593480986e-11
-86.65676279 6.832578947e-11 162.1808929
214.3327421 -103.1924399 113.3716246
214.3327421 -137.894574 31.99500217
85.10706011 -242.4852829 2.593480986e-11
189.5133076 6.832578947e-11 233.9330143
198.1397187 -14.6273068 2.593480986e-11
-69.32254169 6.832578947e-11 49.95944264
214.3327421 -140.8003387 158.2874244
-139.2183339 6.832578947e-11 77.0687831
214.3327421 -100.5008524 13.09555914
2.624703409 -7.9611187 2.593480986e-11
67.37279861 6.832578947e-11 251.0051794
113.8446193 -72.7534605 2.593480986e-11
215.8823727 6.832578947e-11 195.6106522
-196.7514937 6.832578947e-11 27.02503678
214.3327421 -192.8321308 152.2654394
-66.22485199 -242.6626398 2.593480986e-11
224.0020292 -98.5745267 2.593480986e-11
214.3327421 -194.3077901 202.2691567
41.55448511 -121.3337875 2.593480986e-11
-154.4825755 6.832578947e-11 22.82242348
214.3327421 -37.7878268 149.8935645
-177.9048535 6.832578947e-11 230.8549429
222.213431 -143.6337205 2.593480986e-11
130.0532208 -124.1782373 2.593480986e-11
-212.9462983 -20.304192 2.593480986e-11
181.1414397 6.832578947e-11 57.66387441
214.3327421 -70.6407911 52.73378678
214.3327421 -125.5446134 12.36380623
214.3327421 -125.1677027 37.25952829
91.43960051 6.832578947e-11 77.2534028
138.9652409 -179.1226008 2.593480986e-11
-61.94133959 6.832578947e-11 181.8768544
214.3327421 -55.3062811 75.7974262
-43.32315109 -66.9360618 2.593480986e-11
207.1838504 6.832578947e-11 158.1518597
96.42878091 -135.7475933 2.593480986e-11
214.3327421 -98.0633122 183.9124938
215.7870484 -22.2076847 2.593480986e-11
199.0692928 -143.7257157 2.593480986e-11
-182.6663791 6.832578947e-11 153.7089606
-50.28125099 -227.8329918 2.593480986e-11
-174.044205 -92.7771785 2.593480986e-11
-19.52107669 6.832578947e-11 107.0728
-183.3960184 6.832578947e-11 90.1278164
75.25467401 -53.1271459 2.593480986e-11
213.9170615 6.832578947e-11 105.737714
7.255845509 6.832578947e-11 24.70192225
192.1670016 6.832578947e-11 202.0060362
78.83123741 6.832578947e-11 14.16484625
132.7464773 -158.6806731 2.593480986e-11
-8.617030091 -218.2988599 2.593480986e-11
214.3327421 -29.9069655 112.7496685
-57.72645399 6.832578947e-11 37.46182164
214.3327421 -219.0401324 57.29984651
-68.91575419 -173.4227594 2.593480986e-11
214.3327421 -73.2813528 214.791673
215.9809016 1.250639 2.593480986e-11
238.9106099 -12.0027144 2.593480986e-11
179.4348161 -71.794569 2.593480986e-11
214.3327421 -50.8985148 128.6739879
147.544864 6.832578947e-11 220.5353406
229.1251472 6.832578947e-11 133.4720673
214.3327421 -233.155517 216.6137948
-168.9099745 -230.229385 2.593480986e-11
-196.8952201 -14.9689187 2.593480986e-11
-204.8711196 6.832578947e-11 2.02013619
-214.3327547 -178.9707425 -1.59426485
-3.964444491 -154.2629315 2.593480986e-11
-65.08643629 -120.9692112 2.593480986e-11
163.7932957 -190.7401658 2.593480986e-11
214.3327421 -238.4333681 129.649958
-28.09620979 6.832578947e-11 172.733351
-57.21759169 6.832578947e-11 102.3937124
30.89105171 -146.6541318 2.593480986e-11
-207.2251366 -239.5235142 2.593480986e-11
214.3327421 -166.379704 128.6120078
-171.3635996 6.832578947e-11 215.7391971
-35.21434029 -164.7729262 2.593480986e-11
-109.0252768 -85.2930929 2.593480986e-11
33.82541611 6.832578947e-11 81.5901943
-84.45570679 6.832578947e-11 38.46641312
-119.0195752 -224.4135169 2.593480986e-11
214.3327421 -115.9748109 235.5880015
36.18451551 6.832578947e-11 224.3035061
-174.9392007 6.832578947e-11 52.649586
214.3327421 -149.6649743 61.1831632
-113.5783129 -37.001496 2.593480986e-11
108.4873971 6.832578947e-11 42.81234456
29.71139091 6.832578947e-11 12.02012213
214.3327421 -136.4300579 99.748651
-166.1798197 -44.6689325 2.593480986e-11
-60.68410969 -84.7695878 2.593480986e-11
180.1545576 6.832578947e-11 134.8960144
-73.50598709 6.832578947e-11 235.8692496
149.2790761 -229.577365 2.593480986e-11
-52.22768559 -188.578993 2.593480986e-11
110.8526793 6.832578947e-11 74.0011798
55.40663031 6.832578947e-11 221.1857975
214.3327421 -36.6092362 36.88640155
21.98767501 6.832578947e-11 102.5947473
-170.7591086 -175.7005989 2.593480986e-11
-117.8590621 6.832578947e-11 146.9607697
-162.1629035 -115.1225489 2.593480986e-11
113.3060529 -247.0807978 2.593480986e-11
214.3327421 -223.0289375 206.8471611
214.3327421 -220.4262725 32.38821613
97.42482001 -25.5425134 2.593480986e-11
153.4485048 -62.0802482 2.593480986e-11
58.17907931 -38.0878956 2.593480986e-11
-14.12314739 -249.2670115 2.593480986e-11
-27.67619919 -49.4402175 2.593480986e-11
-137.5564893 -31.2339029 2.593480986e-11
-85.01962119 6.832578947e-11 92.9417513
-67.11954699 6.832578947e-11 109.1472229
-9.524823491 6.832578947e-11 231.1582293
214.3327421 -187.6680709 222.8857311
186.0656653 6.832578947e-11 13.9472978
214.3327421 -215.8891844 141.4415512
-7.945521291 6.832578947e-11 210.8457609
-163.8148091 -162.1358566 2.593480986e-11
-194.3940282 -96.1736421 2.593480986e-11
-132.2793682 6.832578947e-11 92.7631817
125.6411986 6.832578947e-11 118.3379678
214.3327421 -250.4515464 235.6459969
18.10799831 6.832578947e-11 81.3565312
214.3327421 -110.7223482 188.3085561
-44.24555119 -140.6607484 2.593480986e-11
51.10429931 6.832578947e-11 149.5073703
197.8152699 6.832578947e-11 49.64137891
11.09537651 -208.6113717 2.593480986e-11
-132.7505469 -115.7172472 2.593480986e-11
192.4790272 6.832578947e-11 163.2809338
14.98897691 -120.02748 2.593480986e-11
-165.741884 6.832578947e-11 174.6486855
-40.19222309 6.832578947e-11 68.7347687
203.4405099 6.832578947e-11 128.7541637
41.22818641 -250.202797 2.593480986e-11
214.3327421 -58.3394059 147.6505671
149.7144575 6.832578947e-11 138.9098391
-124.1384238 6.832578947e-11 58.69025095
214.3327421 -130.5743351 194.0273287
214.3327421 -192.6800709 4.23601392
158.1031722 -171.5756911 2.593480986e-11
0.02535620865 6.832578947e-11 185.9810752
-93.38349749 6.832578947e-11 243.339053
37.04411071 -63.8776527 2.593480986e-11
-83.18685829 6.832578947e-11 125.3528198
238.3598574 -118.2662386 2.593480986e-11
-30.47489569 6.832578947e-11 248.0731521
199.4760177 6.832578947e-11 192.5691287
-145.8086524 -235.1715791 2.593480986e-11
191.0087819 -158.5296187 2.593480986e-11
214.3327421 -225.4487485 13.47487608
-18.41346559 6.832578947e-11 95.4134081
-214.3327547 -146.5949045 -0.98255964
73.31852891 -177.3428751 2.593480986e-11
214.3327421 -53.4696583 105.0808048
200.1074362 -63.1179941 2.593480986e-11
-66.38381979 6.832578947e-11 92.4070475
-24.44231959 6.832578947e-11 28.1265911
214.3327421 -9.4461223 176.7509339
214.3327421 -60.7207822 9.15572874
226.3681061 6.832578947e-11 65.6395327
25.90695591 -176.4676711 2.593480986e-11
181.6730838 -97.2576953 2.593480986e-11
236.406346 -62.4515142 2.593480986e-11
159.7006942 6.832578947e-11 72.933905
152.660604 6.832578947e-11 187.4999423
-112.4200727 -125.9445243 2.593480986e-11
132.2142727 6.832578947e-11 52.3773982
-84.37492769 -84.1268593 2.593480986e-11
-108.4755562 1.9655307 2.593480986e-11
214.3327421 -177.5243407 233.1484303
-13.33267519 6.832578947e-11 36.67820528
214.3327421 -3.2930297 85.283006
-53.81254759 1.4620201 2.593480986e-11
-48.76086879 6.832578947e-11 240.0838668
-0.7914999914 -185.7795471 2.593480986e-11
214.3327421 -174.657174 80.7323021
-143.0974021 6.832578947e-11 180.5718743
-180.9686518 -130.0580668 2.593480986e-11
-145.5531471 -184.702284 2.593480986e-11
235.4297678 6.832578947e-11 77.6342812
152.1255119 -119.0063019 2.593480986e-11
214.3327421 -239.8785181 94.5085141
214.3327421 -62.5903944 35.86673281
-160.0217688 6.832578947e-11 110.6447307
214.3327421 -150.1136236 180.7870344
226.1522507 -248.8007047 2.593480986e-11
-103.6488915 6.832578947e-11 128.7264246
-131.8412339 6.832578947e-11 164.4533982
-104.2411938 -30.413372 2.593480986e-11
37.42009431 -201.5571979 2.593480986e-11
174.6122069 6.832578947e-11 204.2758036
53.12080061 6.832578947e-11 47.71746094
214.3327421 -6.5933078 143.6475321
214.3327421 -164.3520469 163.5731047
60.48319021 6.832578947e-11 158.6370869
-172.506847 -24.0020523 2.593480986e-11
167.6311522 6.832578947e-11 107.5427127
-16.57815959 -146.3673107 2.593480986e-11
204.508967 6.832578947e-11 8.80134648
-39.00518439 6.832578947e-11 114.2789629
227.2054915 6.832578947e-11 20.9715596
-70.57503069 1.044927 2.593480986e-11
21.09654541 6.832578947e-11 149.965399
214.3327421 -209.7251275 214.263022
0.3342856086 6.832578947e-11 44.37057533
-178.8317444 6.832578947e-11 66.7500769
172.1324928 6.832578947e-11 35.29806561
-91.55920849 6.832578947e-11 11.97329087
231.0051644 6.832578947e-11 218.6493275
110.2478813 -147.7518088 2.593480986e-11
-76.28515459 -18.7515231 2.593480986e-11
214.3327421 -148.3020504 206.5945967
-106.7239688 6.832578947e-11 176.7127092
223.1068481 -224.0569293 2.593480986e-11
169.1882418 -137.7926354 2.593480986e-11
214.3327421 -63.4499724 95.9547629
97.59395211 -119.5397291 2.593480986e-11
214.3327421 -134.6702759 1.73936288
-174.6550049 -144.833462 2.593480986e-11
25.91531111 6.832578947e-11 33.75765817
113.0146628 6.832578947e-11 212.452163
-214.3327547 -227.7815534 -0.86268677
214.3327421 -77.1593717 12.22528772
214.3327421 -22.5582562 30.16691266
214.3327421 -9.2106519 219.5458046
143.5237425 -189.6046639 2.593480986e-11
28.26185741 -89.6395092 2.593480986e-11
-204.0929626 -212.3036864 2.593480986e-11
207.2023846 -44.661659 2.593480986e-11
-90.17551229 6.832578947e-11 70.9708376
80.25016041 6.832578947e-11 45.05307093
211.2220131 -147.6066214 2.593480986e-11
-155.0531109 -135.9253484 2.593480986e-11
-40.05805179 6.832578947e-11 126.8016522
-148.2017223 -10.2561317 2.593480986e-11
86.57651821 -75.5808118 2.593480986e-11
214.3327421 -95.5457727 98.9681073
217.5989524 6.832578947e-11 42.74621955
190.2161815 6.832578947e-11 251.8307129
167.3283153 6.832578947e-11 239.2963842
232.3148814 6.832578947e-11 237.4044737
152.320521 -148.3813244 2.593480986e-11
-107.6317767 6.832578947e-11 96.8083062
214.3327421 -28.9760162 234.5097288
-136.4635928 6.832578947e-11 192.9061266
214.3327421 -174.9165 52.53679972
214.3327421 -234.4537901 36.55545856
109.5093403 6.832578947e-11 232.2669915
-140.4273926 -47.8495574 2.593480986e-11
129.759318 -22.5578814 2.593480986e-11
214.3327421 -249.5498764 25.64500749
-75.54824079 6.832578947e-11 133.3863293
133.8166539 -45.7231713 2.593480986e-11
210.8881512 6.832578947e-11 22.62494567
-53.73806229 6.832578947e-11 58.98413277
120.4479214 6.832578947e-11 45.28903674
-186.6556708 -169.4890152 2.593480986e-11
109.9543407 6.832578947e-11 123.8639875
214.3327421 -81.027676 232.0682347
66.33278771 6.832578947e-11 28.98048769
214.3327421 -93.509857 244.7070614
-206.5763411 6.832578947e-11 121.0032746
87.27350071 6.832578947e-11 171.3721926
206.1475029 6.832578947e-11 236.4093592
36.87096781 6.832578947e-11 34.94344584
-64.96366249 -218.0878855 2.593480986e-11
112.5538978 6.832578947e-11 149.6760499
20.38359201 -188.9469589 2.593480986e-11
214.3327421 -63.3306689 169.2380453
-60.84658289 -252.2322147 2.593480986e-11
-191.5362931 -182.7716839 2.593480986e-11
131.4000957 6.832578947e-11 179.9644527
12.56175071 6.832578947e-11 187.2134242
175.5798708 -198.5948196 2.593480986e-11
214.3327421 -141.7618162 228.6216726
214.3327421 -42.4447288 220.7652707
-76.52389579 6.832578947e-11 58.20325083
214.3327421 -19.0250915 88.9749095
214.3327421 -131.6152663 142.7378443
214.3327421 -46.2172503 25.8239947
214.3327421 -20.8859431 60.8639245
214.3327421 -111.5128708 8.67841136
104.5368289 -98.2625265 2.593480986e-11
201.7981917 -112.9405299 2.593480986e-11
214.3327421 -90.2878241 69.6237081
-54.73180339 6.832578947e-11 250.4638632
224.7064863 6.832578947e-11 6.41356898
214.3327421 -96.5731657 48.7432793
214.3327421 -172.3057398 179.3213618
214.3327421 -140.453943 119.8452121
-141.4728443 6.832578947e-11 137.0221504
-202.4461676 -155.5376909 2.593480986e-11
-76.37609359 -238.7279656 2.593480986e-11
-192.620474 -35.7197904 2.593480986e-11
-41.15518059 -218.0779214 2.593480986e-11
62.50412921 -222.8452639 2.593480986e-11
-51.15473359 6.832578947e-11 182.9710157
-178.1234712 -112.7088761 2.593480986e-11
-209.2788456 6.832578947e-11 191.6975381
113.7119958 6.832578947e-11 84.4480129
-80.13272519 -4.183847 2.593480986e-11
