# .PCD v0.7 - Point Cloud Data file format
VERSION 0.7
FIELDS x y z
SIZE 4 4 4
TYPE F F F
COUNT 1 1 1
WIDTH 1274
HEIGHT 1
VIEWPOINT 0 0 0 1 0 0 0
POINTS 1274
DATA ascii
-183.270986 250 246.5687289
3.697746456e-05 39.0428148 83.7123274
3.697746456e-05 -116.6322223 199.0854355
3.697746456e-05 174.2468518 45.26485269
-190.39983 203.3644956 6.247091733e-11
-38.93881702 -194.3923403 6.247091733e-11
-72.60619302 140.0531914 6.247091733e-11
-94.15364302 250 167.3466273
-248.648861 250 55.76864837
-191.06051 -88.5103212 6.247091733e-11
3.697746456e-05 -25.443552 39.86381585
-143.936316 -210.2074605 6.247091733e-11
-248.405125 -125.269681 6.247091733e-11
-56.08296802 -121.1554227 6.247091733e-11
3.697746456e-05 206.803514 181.7919332
3.697746456e-05 130.0478279 126.558366
0.2446859775 250 120.3225525
-249.85659 -249.6234345 6.247091733e-11
-128.179567 250 37.84060711
-148.243051 10.8314735 6.247091733e-11
-1.700351023 -95.2702348 6.247091733e-11
-129.740158 115.0320148 6.247091733e-11
3.697746456e-05 79.8143168 205.8503768
3.697746456e-05 83.0366388 27.89036223
-98.55149102 -47.6963741 6.247091733e-11
3.697746456e-05 224.7302799 22.63608808
-9.734317023 250 211.1007243
-57.20776802 250 117.2267036
-202.410518 70.9663971 6.247091733e-11
-209.260285 -38.0675344 6.247091733e-11
3.697746456e-05 -77.82904 122.6072853
3.697746456e-05 156.2236302 236.39773
3.697746456e-05 -237.1097614 167.2425918
3.697746456e-05 -232.1813224 61.8550123
-35.57314202 -5.1301007 6.247091733e-11
-75.61345302 250 48.20014467
-142.400915 -151.7145253 6.247091733e-11
-187.782326 250 197.1453998
3.697746456e-05 -20.0096422 205.1649447
3.697746456e-05 -201.5920294 229.9134991
3.697746456e-05 -181.4496926 129.3467673
-207.423801 250 29.50166591
3.697746456e-05 -133.2570777 64.1742748
3.697746456e-05 -101.2746655 250.4464662
-201.851352 -195.6023541 6.247091733e-11
-236.056572 137.5523837 6.247091733e-11
-86.77487402 209.1861813 6.247091733e-11
-43.99273802 250 11.91115226
-152.357188 228.5773745 6.247091733e-11
-1.243130023 -47.5873444 6.247091733e-11
3.697746456e-05 -191.365785 25.25205229
-102.004699 49.8390273 6.247091733e-11
0.2241309775 173.2445313 6.247091733e-11
-59.70111502 250 200.9689035
-145.815121 250 107.3168327
3.697746456e-05 215.2615654 65.7709686
3.697746456e-05 147.3714124 85.9405914
-44.72624302 41.2530841 6.247091733e-11
3.697746456e-05 -105.1694665 156.8755515
-206.950976 250 150.5278558
3.697746456e-05 -73.9322871 211.3648381
-132.433141 269.6934506 6.247091733e-11
-251.446716 37.0623717 6.247091733e-11
-251.816448 -9.7138343 6.247091733e-11
3.697746456e-05 168.1759563 144.7468771
3.697746456e-05 36.1976751 129.6073231
3.697746456e-05 57.5392976 250.757925
-119.202835 -246.4264133 6.247091733e-11
-152.249925 -111.3035626 6.247091733e-11
3.697746456e-05 42.6880058 180.5253901
-39.93459402 109.9755864 6.247091733e-11
3.697746456e-05 -29.945969 141.2360795
3.697746456e-05 247.3794516 250.6014716
3.697746456e-05 84.6294864 112.302091
-179.179093 37.7076102 6.247091733e-11
-77.58936002 -207.6504418 6.247091733e-11
-34.87823602 -243.800796 6.247091733e-11
3.697746456e-05 121.5769288 211.0156223
3.697746456e-05 211.0733344 141.9063898
-131.323006 250 183.4814527
-211.861806 169.2648481 6.247091733e-11
-228.969855 234.0392897 6.247091733e-11
3.697746456e-05 134.6197777 42.5589512
-35.03800902 152.8465389 6.247091733e-11
-213.425154 250 75.3728914
3.697746456e-05 109.292201 169.8886864
3.697746456e-05 1.6019285 70.2803074
-58.19409702 -160.5216798 6.247091733e-11
-218.323639 250 228.0963405
-123.370054 250 141.7535689
-164.21848 171.1687417 6.247091733e-11
-171.250564 99.7520645 6.247091733e-11
3.697746456e-05 -1.4748968 251.0431852
3.697746456e-05 -143.6131614 158.6538398
-180.570605 -12.7675232 6.247091733e-11
3.697746456e-05 -100.0658198 91.5937687
3.697746456e-05 -152.6726009 211.3833276
3.697746456e-05 -60.1999343 84.1127245
2.240110977 -8.7341715 6.247091733e-11
-24.24028702 75.1316918 6.247091733e-11
-76.83522002 -84.5023581 6.247091733e-11
-67.97813202 -26.5268243 6.247091733e-11
-196.236436 250 112.2223818
-122.002255 -15.1904952 6.247091733e-11
0.7983219775 250 49.56296314
-90.57383002 -134.1532201 6.247091733e-11
-212.353649 270.748126 6.247091733e-11
3.697746456e-05 70.6522108 63.6664745
-91.53975402 250 241.3515991
-235.489081 -161.8801375 6.247091733e-11
-90.12243902 106.4800221 6.247091733e-11
-252.431287 250 145.998444
0.4140029775 -216.5752262 6.247091733e-11
-226.145009 -95.0058888 6.247091733e-11
-157.404898 250 215.7516578
-84.65319102 173.6436339 6.247091733e-11
1.177785977 250 173.0348097
3.697746456e-05 -211.1500706 90.3792122
-132.723053 -75.3777242 6.247091733e-11
-170.16407 -174.0744543 6.247091733e-11
-88.31289002 250 132.6397381
3.697746456e-05 -236.5024992 251.9676856
-217.168597 108.5375691 6.247091733e-11
-251.061806 250 215.7990786
-219.256477 -225.3897385 6.247091733e-11
-131.949214 250 74.599289
3.697746456e-05 -117.7743588 29.50392332
-173.178596 250 23.34754507
3.697746456e-05 221.1786095 99.1712603
3.697746456e-05 12.2448622 105.6295811
-119.254834 235.8338253 6.247091733e-11
-134.906931 148.4069929 6.247091733e-11
-35.83439502 -93.6973881 6.247091733e-11
-152.625713 -242.8730497 6.247091733e-11
3.697746456e-05 176.1882974 209.4206324
-150.255864 250 252.4070118
3.697746456e-05 -224.2336749 198.6585423
3.697746456e-05 -69.7471872 26.42341854
-113.400744 81.2832793 6.247091733e-11
3.697746456e-05 33.8813919 46.83734613
3.697746456e-05 -207.9482868 150.9420807
-70.88296602 250 87.0324156
3.697746456e-05 -163.2491197 100.014481
-110.794753 -200.7866814 6.247091733e-11
-23.92627502 -126.4540661 6.247091733e-11
-196.510617 236.9381108 6.247091733e-11
-97.54707202 250 199.7477911
-63.09894002 250 152.8685214
-244.051337 250 23.36601966
3.697746456e-05 -22.8543009 172.5030291
-13.24760502 -173.5900773 6.247091733e-11
-117.785099 19.6226712 6.247091733e-11
3.697746456e-05 -128.7711241 233.6665611
-7.849496023 204.2389499 6.247091733e-11
3.697746456e-05 180.1539023 76.2220927
3.697746456e-05 -164.4191514 45.61319159
-176.616008 -214.081968 6.247091733e-11
3.697746456e-05 -89.1437221 183.6577571
-17.74554902 236.4760136 6.247091733e-11
-211.225277 -122.7901673 6.247091733e-11
-30.01695802 250 39.5707991
-104.587511 142.4400217 6.247091733e-11
0.2239579775 56.315684 6.247091733e-11
-184.348987 -56.1142811 6.247091733e-11
1.591104977 250 88.9634622
3.697746456e-05 -53.2573362 52.15621175
-236.80909 63.654359 6.247091733e-11
-27.48803702 250 237.2298842
-56.51882402 274.4891675 6.247091733e-11
-57.70235502 226.1891812 6.247091733e-11
3.697746456e-05 14.3529642 190.0244879
-161.688485 -82.1072189 6.247091733e-11
-221.915999 -65.7912004 6.247091733e-11
-60.61520202 15.0650333 6.247091733e-11
3.697746456e-05 211.3126054 210.807521
-28.85410502 250 124.6569705
-154.013055 198.4588633 6.247091733e-11
3.697746456e-05 54.8679678 221.1042451
-222.36634 197.0260977 6.247091733e-11
-123.300254 -128.0152931 6.247091733e-11
-211.950991 41.8490424 6.247091733e-11
3.697746456e-05 -227.3016647 33.57436858
2.417536977 98.7373177 6.247091733e-11
-102.428588 250 64.8936297
-97.35187202 250 25.73830416
3.697746456e-05 158.0480715 118.1597289
-75.18927602 40.4030177 6.247091733e-11
-132.438535 -178.2819162 6.247091733e-11
-242.948095 168.2156075 6.247091733e-11
3.697746456e-05 -43.9275304 220.2910271
-240.558564 250 88.721324
3.697746456e-05 120.6450595 99.6244926
-181.21432 -123.6148691 6.247091733e-11
-158.704485 133.8255642 6.247091733e-11
-155.015103 250 46.89984361
-39.38108302 -32.69269 6.247091733e-11
3.697746456e-05 84.8564948 233.2095318
3.697746456e-05 -181.0341748 205.8788435
-159.068906 250 182.0707023
3.697746456e-05 29.2955711 251.1177894
-103.286624 -74.9830436 6.247091733e-11
3.697746456e-05 141.7839076 152.9846289
3.697746456e-05 65.6931611 90.9173825
-171.012033 250 123.3652862
-144.481422 38.3158606 6.247091733e-11
-251.658585 -221.9858886 6.247091733e-11
-122.968058 250 249.6384683
3.697746456e-05 -203.2287277 56.78663839
-72.63101002 -56.060102 6.247091733e-11
3.697746456e-05 148.4173535 17.06413317
-246.047652 -40.1345632 6.247091733e-11
3.697746456e-05 182.1274371 170.509891
-224.389105 -12.6661632 6.247091733e-11
-70.70746102 250 20.92743254
3.697746456e-05 -170.8202582 155.6454419
3.697746456e-05 97.3872445 137.4488349
3.697746456e-05 -205.9531156 117.9801583
3.697746456e-05 83.4701709 177.7129266
-113.986696 205.1947821 6.247091733e-11
3.697746456e-05 -33.8187333 70.7676065
-20.06895002 -69.7796888 6.247091733e-11
3.697746456e-05 -153.0292835 183.8398103
3.697746456e-05 -101.3518576 221.1755233
3.697746456e-05 231.3830963 192.4678831
-37.81952202 250 98.3664021
3.697746456e-05 244.6715144 146.9359877
-33.07090702 250 198.2527628
3.697746456e-05 129.6855356 238.3447946
3.697746456e-05 -56.3826491 138.6261394
3.697746456e-05 51.6499916 26.1958592
-117.277993 250 115.9380425
3.697746456e-05 -103.9385356 126.8854341
3.697746456e-05 203.4225933 38.2110944
3.697746456e-05 -4.1601724 126.2703388
-147.890487 250 14.68294299
3.697746456e-05 107.9975808 36.31997041
-30.78642402 269.3119409 6.247091733e-11
3.697746456e-05 -126.2074591 90.8188001
-183.970597 250 171.3133377
-57.73902102 -231.2714669 6.247091733e-11
-101.994829 -225.318332 6.247091733e-11
3.697746456e-05 44.4132612 154.3334331
-25.60732602 -217.5407704 6.247091733e-11
1.632420977 -250 144.6898458
-19.58955802 18.1826815 6.247091733e-11
3.697746456e-05 -25.3152118 240.6548237
0.9800029775 -250 80.7596573
3.697746456e-05 0.1405199001 44.23195521
-33.28261802 -153.3056239 6.247091733e-11
-52.45658202 250 59.71464149
-2.606012023 250 18.54519261
-72.71391202 -182.4210416 6.247091733e-11
-123.393667 -41.4935861 6.247091733e-11
1.566612977 -125.0805442 6.247091733e-11
-80.17397702 250 218.5768746
-58.26201702 162.8815965 6.247091733e-11
-225.425744 -186.5672642 6.247091733e-11
-209.774937 250 175.5921348
3.697746456e-05 -49.1343835 193.8351986
-173.380429 73.2435153 6.247091733e-11
-251.183084 117.4304382 6.247091733e-11
-80.63734202 -109.3730953 6.247091733e-11
-251.037197 -92.3297663 6.247091733e-11
-215.806948 250 203.1882305
-191.577268 16.0332163 6.247091733e-11
-169.1876 -145.9264594 6.247091733e-11
-201.166501 250 53.81260527
-164.062342 250 90.649211
3.697746456e-05 183.5878425 246.7489098
3.697746456e-05 -81.3100199 150.6104595
-240.994827 12.5585441 6.247091733e-11
-83.56969002 250 108.4543896
3.697746456e-05 60.7062889 128.4045899
-83.53958602 233.4823445 6.247091733e-11
-113.502065 -150.4479772 6.247091733e-11
-141.984114 88.658749 6.247091733e-11
3.697746456e-05 -140.2914746 38.8997596
-33.81903902 216.4209594 6.247091733e-11
3.697746456e-05 -108.0653738 65.5166963
-74.31942902 250 181.4383028
3.697746456e-05 227.1529777 163.7404731
-91.23140502 -19.5583637 6.247091733e-11
3.697746456e-05 -181.9739002 244.1371459
3.697746456e-05 -226.5788649 225.807616
3.697746456e-05 -155.5343078 124.6731773
-108.592202 273.2637239 6.247091733e-11
3.697746456e-05 -77.4124296 247.2119999
0.7568359775 -250 41.54386197
3.697746456e-05 -214.2328244 174.717673
-189.727259 250 223.4048158
3.697746456e-05 -29.0455761 15.18544818
-24.97998802 177.3933551 6.247091733e-11
-66.43738502 102.963998 6.247091733e-11
-46.19022602 65.1176456 6.247091733e-11
-210.715142 -165.448804 6.247091733e-11
-175.716221 224.1835981 6.247091733e-11
-166.824033 247.4245873 6.247091733e-11
3.697746456e-05 182.4846492 21.75655333
3.697746456e-05 227.3896513 228.3730625
-65.64842302 189.5951636 6.247091733e-11
-188.407678 250 85.4451231
-145.381263 -15.5912828 6.247091733e-11
3.697746456e-05 -53.9556566 106.6125117
-88.82013102 69.0907528 6.247091733e-11
-229.087546 250 143.1764483
3.697746456e-05 -94.6694105 32.69305349
-227.293367 86.6077738 6.247091733e-11
3.697746456e-05 189.4034515 133.5383842
3.697746456e-05 -125.01137 144.7425698
3.697746456e-05 5.4654525 211.4219955
-191.428557 180.2505255 6.247091733e-11
-28.26156102 129.909466 6.247091733e-11
-220.614125 -143.8356542 6.247091733e-11
-173.892412 -34.81491 6.247091733e-11
3.697746456e-05 150.2305513 214.1806218
-196.304597 98.8378118 6.247091733e-11
3.697746456e-05 -122.7780104 171.5565613
-213.465092 141.4200167 6.247091733e-11
3.697746456e-05 124.6126094 188.3225779
-246.691171 250 0.4945207301
-80.30165602 -155.0447258 6.247091733e-11
3.697746456e-05 92.383562 56.89925708
-135.012626 213.8548733 6.247091733e-11
-17.59621402 42.2275678 6.247091733e-11
3.697746456e-05 151.7685602 63.7692437
3.697746456e-05 63.3047654 189.741413
-191.291692 259.0318634 6.247091733e-11
-117.396734 250 163.4833461
-131.983614 -98.2284564 6.247091733e-11
-10.32213502 -238.0140334 6.247091733e-11
-42.87416502 250 143.0773301
-213.458067 250 126.8378899
-124.090003 -220.6278884 6.247091733e-11
3.697746456e-05 38.2034077 106.0399515
3.697746456e-05 -155.3289199 67.5346234
3.697746456e-05 100.2535279 197.1909151
-127.405512 62.9720682 6.247091733e-11
-191.47508 250 134.6356609
3.697746456e-05 33.3472652 202.713165
3.697746456e-05 -167.3552521 23.72905923
-95.91747702 25.5544882 6.247091733e-11
-63.97138402 251.6500075 6.247091733e-11
3.697746456e-05 240.0636812 69.1946826
-15.41416402 111.6285606 6.247091733e-11
-4.599753023 -193.7619709 6.247091733e-11
3.697746456e-05 15.6569322 137.155513
3.697746456e-05 -79.1327991 97.9071507
3.697746456e-05 -202.5391582 199.7785823
3.697746456e-05 -166.189004 228.359847
-55.60675502 250 225.4742141
3.697746456e-05 229.1325438 130.0667732
-20.03212502 -20.0560725 6.247091733e-11
-109.087629 163.3806005 6.247091733e-11
3.697746456e-05 120.7975378 148.9958066
-203.269028 -9.7282098 6.247091733e-11
-155.004915 267.1941515 6.247091733e-11
3.697746456e-05 123.0658818 60.4480711
-207.831944 250 246.6213305
-230.224487 250 45.21522749
-218.224924 250 11.33194728
-2.043807023 78.1143873 6.247091733e-11
3.697746456e-05 208.82833 120.9811409
3.697746456e-05 -84.4761718 76.9025882
-13.94097002 157.7047734 6.247091733e-11
-211.185581 -250 -2.3182032
-151.589759 -190.6608048 6.247091733e-11
3.697746456e-05 -33.20576 120.5255784
-142.546494 250 160.7354485
-191.083338 -173.2605688 6.247091733e-11
-53.72635802 131.0372925 6.247091733e-11
3.697746456e-05 -215.0232339 245.8917447
-123.854779 42.4261637 6.247091733e-11
2.331054977 250 228.085204
-139.475277 250 128.5557311
-152.526766 113.9589331 6.247091733e-11
3.697746456e-05 225.6329169 0.1294869901
-109.353035 119.0815879 6.247091733e-11
-152.417055 -133.5058373 6.247091733e-11
3.697746456e-05 104.4877571 226.4763687
3.697746456e-05 126.1437625 23.63320015
3.697746456e-05 -74.1557457 2.83313107
3.697746456e-05 199.3852019 83.9585742
-138.168625 250 208.0498534
-56.11259602 -7.8448421 6.247091733e-11
-228.58073 250 251.7284203
-55.54864702 -87.3294838 6.247091733e-11
3.697746456e-05 -12.2671518 152.145073
-102.967339 187.7973463 6.247091733e-11
3.697746456e-05 -247.5045255 199.6760288
-143.832948 250 231.1794415
3.697746456e-05 -185.9826502 45.63174733
3.697746456e-05 -137.0881361 197.2644751
-171.736777 -104.839912 6.247091733e-11
-49.57391202 -140.8139846 6.247091733e-11
3.697746456e-05 223.6318105 47.04276358
-164.155753 -59.7205483 6.247091733e-11
-238.905589 250 161.3910452
-175.446508 150.1155231 6.247091733e-11
-213.056454 250 95.8386094
3.697746456e-05 -115.0861249 107.9958206
-197.612198 -227.7404507 6.247091733e-11
3.697746456e-05 59.3789694 168.2270185
-41.96571902 -174.2538511 6.247091733e-11
-208.277111 213.0807667 6.247091733e-11
3.697746456e-05 8.2737968 17.87007447
-168.645323 20.3707616 6.247091733e-11
-125.080785 250 93.6458601
3.697746456e-05 -218.8403803 133.880393
-172.331379 -238.0894485 6.247091733e-11
-81.89848502 -230.2185199 6.247091733e-11
-19.43995902 250 106.6564492
3.697746456e-05 -63.0496109 228.3317151
3.697746456e-05 171.4027705 94.3770112
-24.31927902 -46.0819273 6.247091733e-11
-49.66430302 250 35.18250276
-230.129688 -115.9777103 6.247091733e-11
3.697746456e-05 -15.9178164 60.4416867
-65.39117902 57.9445953 6.247091733e-11
-43.11552002 90.3342775 6.247091733e-11
-128.197704 250 17.40778895
-108.561014 -0.5547664999 6.247091733e-11
3.697746456e-05 -185.8974689 110.011702
3.697746456e-05 197.3064448 157.7355503
3.697746456e-05 17.0862025 57.36480657
3.697746456e-05 194.4111169 226.1157922
-107.683896 253.4738143 6.247091733e-11
3.697746456e-05 196.0217468 61.1067408
-50.24986202 250 174.9572865
-184.297116 115.1070288 6.247091733e-11
-251.319183 250 108.3122485
-80.21811602 250 67.3448658
-6.400506023 250 191.7019739
3.697746456e-05 170.2825653 186.2230995
3.697746456e-05 -2.5749782 92.6855555
-109.987085 250 45.31485403
-165.422835 -0.2278571999 6.247091733e-11
-69.11701402 -138.6311899 6.247091733e-11
3.697746456e-05 87.9973533 87.6718615
-176.818396 -192.5658006 6.247091733e-11
3.697746456e-05 -10.7696763 22.71002138
-171.198518 250 229.8894992
3.697746456e-05 158.9544977 162.4948035
3.697746456e-05 9.345523 234.1522917
-99.66959002 -248.1060016 6.247091733e-11
-174.782529 191.5221683 6.247091733e-11
3.697746456e-05 -229.2443974 97.843144
3.697746456e-05 -144.4297958 105.387198
-18.52513902 250 141.2227003
3.697746456e-05 189.5127693 190.7465012
3.697746456e-05 56.9946595 49.80192553
3.697746456e-05 128.5176133 81.1481404
3.697746456e-05 -4.6099094 185.7988871
3.697746456e-05 23.8666435 173.0886113
3.697746456e-05 158.1288958 33.81839458
-230.2848 260.2628729 6.247091733e-11
-13.06562302 -153.0758901 6.247091733e-11
-160.773605 48.583557 6.247091733e-11
-250.418261 -149.7474827 6.247091733e-11
-143.13522 171.3520332 6.247091733e-11
-149.23696 250 66.2984776
3.697746456e-05 -9.528614 229.8210052
3.697746456e-05 128.2082701 166.9356422
1.840212977 248.4503666 6.247091733e-11
-120.121735 -60.3424152 6.247091733e-11
-66.69973802 250 134.1009335
3.697746456e-05 102.3642089 105.238602
-118.590016 250 197.6654678
-46.63676902 -211.816653 6.247091733e-11
-22.49534202 250 180.4166224
-229.709154 250 64.2136766
-247.485415 229.7543012 6.247091733e-11
-159.578452 -224.0012427 6.247091733e-11
-0.8731770225 14.9696201 6.247091733e-11
3.697746456e-05 -50.7736731 26.3544957
-227.564359 -33.0842633 6.247091733e-11
-168.86409 250 198.3727693
3.697746456e-05 -42.6950088 155.2469957
-199.593356 -105.3583265 6.247091733e-11
-33.75227502 250 219.4678464
-38.23230602 20.6689715 6.247091733e-11
-230.510706 38.8254628 6.247091733e-11
-98.80504102 250 220.9663982
-56.30944102 -41.1802651 6.247091733e-11
3.697746456e-05 85.3566486 251.8890998
-68.09126202 209.4997997 6.247091733e-11
-179.702165 250 101.965514
-241.045687 210.7869332 6.247091733e-11
-79.42847702 121.7449264 6.247091733e-11
-235.108976 250 202.5697396
3.697746456e-05 -212.3590693 22.53051071
3.697746456e-05 -131.6727449 215.3307905
-83.66316602 -36.611247 6.247091733e-11
-237.366766 250 235.3869528
3.697746456e-05 -190.1442267 145.8251547
-71.20408302 250 235.3603152
3.697746456e-05 20.820728 86.5095554
-189.055149 250 39.94494963
-106.682481 250 180.8270259
-52.14112102 -250 -1.42486266
-112.340569 -180.1078143 6.247091733e-11
3.697746456e-05 223.7424928 249.6512672
-102.237404 250 144.6081325
3.697746456e-05 109.2435986 16.51441745
3.697746456e-05 -192.5490924 92.9297587
-15.84340802 -106.7919356 6.247091733e-11
-98.45315602 -117.7073213 6.247091733e-11
-155.666099 151.8056991 6.247091733e-11
3.697746456e-05 -249.079062 238.1454085
-94.77066902 86.3092565 6.247091733e-11
-18.34538102 93.6534455 6.247091733e-11
-107.236001 100.2816887 6.247091733e-11
3.697746456e-05 137.1747425 201.5137884
-206.939423 -76.0408686 6.247091733e-11
-40.99495602 -111.1026927 6.247091733e-11
-234.479043 -203.2178513 6.247091733e-11
-227.181064 -241.8475159 6.247091733e-11
3.697746456e-05 238.7940362 103.3054365
3.697746456e-05 -16.0169837 78.5323298
3.697746456e-05 -226.3328341 78.9655815
3.697746456e-05 59.2978069 110.4054043
-237.846948 -77.2528721 6.247091733e-11
-84.45577702 155.6519173 6.247091733e-11
-42.69261102 174.3300517 6.247091733e-11
3.697746456e-05 -152.7629998 85.3178892
-197.837239 250 14.07226623
3.697746456e-05 136.7976448 107.423307
-135.400883 243.6081119 6.247091733e-11
3.697746456e-05 -92.9733372 109.2428551
-246.988045 250 127.1521161
-74.02998002 271.0106439 6.247091733e-11
-227.701325 158.9631957 6.247091733e-11
3.697746456e-05 146.6406119 251.3967545
-105.345645 -30.4023269 6.247091733e-11
3.697746456e-05 -148.613307 141.0373443
3.697746456e-05 39.6354495 236.6695353
1.033188977 -250 63.03168
-22.04275802 250 55.40042405
-235.90204 102.0864561 6.247091733e-11
3.697746456e-05 -76.9993296 170.8015209
-158.705456 -160.1456955 6.247091733e-11
3.697746456e-05 -184.0651761 226.6358161
-207.451288 -55.7247081 6.247091733e-11
1.532756977 -164.0420969 6.247091733e-11
-29.66840902 250 1.70439596
3.697746456e-05 66.5391962 235.662882
3.697746456e-05 232.2269216 84.9213152
-227.80489 177.1170413 6.247091733e-11
-137.61234 -55.507734 6.247091733e-11
-85.81034702 191.6543113 6.247091733e-11
-222.507997 125.2562045 6.247091733e-11
3.697746456e-05 235.4922821 209.6332815
3.697746456e-05 80.242135 133.9579881
-188.62316 250 151.8182098
-172.41368 250 46.32012733
-85.45712302 -67.8300985 6.247091733e-11
3.697746456e-05 56.9023373 75.9330575
3.697746456e-05 30.4711137 68.4222636
3.697746456e-05 -169.5471824 189.1007981
3.697746456e-05 174.561223 123.2895474
-97.66380102 -189.2244116 6.247091733e-11
3.697746456e-05 -99.8297023 203.0453925
-31.02414102 57.0390019 6.247091733e-11
-78.92774702 19.2969332 6.247091733e-11
3.697746456e-05 -89.8316487 235.3437008
-204.120798 127.0104667 6.247091733e-11
-190.692378 -31.2504953 6.247091733e-11
3.697746456e-05 204.5839774 21.07774276
3.697746456e-05 -197.8794231 73.6470119
3.697746456e-05 21.4430969 120.8837963
3.697746456e-05 -149.153933 230.2289821
-73.46080402 -3.6078284 6.247091733e-11
3.697746456e-05 -69.8574371 62.185672
-63.44005802 -198.1387062 6.247091733e-11
-98.36918502 250 118.8744677
-185.894039 85.3417792 6.247091733e-11
3.697746456e-05 -192.5767646 162.6795952
-190.344155 58.9788803 6.247091733e-11
3.697746456e-05 204.3406156 101.5573856
-134.25629 131.4052829 6.247091733e-11
3.697746456e-05 90.5256955 156.8136387
-225.283851 250 29.01201625
-101.058549 218.2754619 6.247091733e-11
-149.399197 -70.4750476 6.247091733e-11
3.697746456e-05 -113.3622367 45.83482911
-129.077251 250 54.70800786
-117.832895 -83.5180283 6.247091733e-11
-221.975169 55.409013 6.247091733e-11
-148.093528 250 85.2872603
3.697746456e-05 -107.7455661 179.1548873
-246.115783 250 72.4125588
3.697746456e-05 -7.4761369 108.7789535
3.697746456e-05 -111.7189676 234.4076246
-125.357068 93.0955966 6.247091733e-11
-94.83580502 128.7920864 6.247091733e-11
-237.756268 -138.777332 6.247091733e-11
-121.8593 -165.2942274 6.247091733e-11
-56.42668802 -104.4091629 6.247091733e-11
-239.435024 -55.8864709 6.247091733e-11
-13.88597502 250 165.7603473
-7.994566023 -31.6648913 6.247091733e-11
-51.80963002 250 89.2163161
3.697746456e-05 164.7195395 250.7476323
3.697746456e-05 160.3253362 199.5789112
-138.850142 -122.1033284 6.247091733e-11
3.697746456e-05 30.9657067 30.29955409
-209.815371 85.831355 6.247091733e-11
1.817040977 152.4756211 6.247091733e-11
3.697746456e-05 -204.2201873 40.22770451
3.697746456e-05 -108.4501669 9.92615615
3.697746456e-05 -53.3483417 69.0381454
-193.331862 -211.775717 6.247091733e-11
3.697746456e-05 64.5492446 15.88048289
-146.415408 -90.238669 6.247091733e-11
3.697746456e-05 -72.5686281 194.9368899
3.697746456e-05 -234.8257157 137.9053959
3.697746456e-05 -24.3218643 221.0690765
3.697746456e-05 -133.9792875 22.37381389
-128.151401 6.8321158 6.247091733e-11
-18.88722102 250 16.14698254
-99.24161002 238.3951358 6.247091733e-11
3.697746456e-05 193.2745475 209.707472
-211.355967 229.1984765 6.247091733e-11
-181.111249 -75.4826261 6.247091733e-11
3.697746456e-05 -89.6707986 134.9357473
-38.73240402 232.0185795 6.247091733e-11
-193.555134 220.181639 6.247091733e-11
3.697746456e-05 236.3684724 36.86134552
-107.708271 250 234.6264174
-127.415116 -193.7880785 6.247091733e-11
-96.45518202 -92.9704698 6.247091733e-11
-82.12181502 250 147.6700753
-146.384319 250 143.2409092
-202.520103 192.083516 6.247091733e-11
3.697746456e-05 -31.7015347 193.92526
-15.55029002 -85.3555753 6.247091733e-11
3.697746456e-05 -181.7453238 12.20339476
3.697746456e-05 -231.0884762 17.82648662
-7.199613023 188.0626379 6.247091733e-11
-233.631477 250 219.6810312
3.697746456e-05 -133.5199132 249.073779
3.697746456e-05 -48.9761492 123.7396923
-105.770828 65.4762706 6.247091733e-11
-168.891828 209.6442703 6.247091733e-11
-181.808226 3.2223741 6.247091733e-11
-156.202192 250 129.5159369
-137.89308 -249.1097586 6.247091733e-11
-35.64355302 250 250.9811201
3.697746456e-05 -41.8276673 40.9975463
-148.362525 250 30.64091258
3.697746456e-05 -40.4312238 180.4748095
-51.11935102 148.6295763 6.247091733e-11
3.697746456e-05 114.1307312 126.0446254
3.697746456e-05 73.8019493 220.587415
3.697746456e-05 -236.4112255 212.0147247
-84.01834602 250 34.35219279
-61.84964002 31.8164287 6.247091733e-11
3.697746456e-05 168.216582 226.0554671
-65.22863402 250 103.597655
3.697746456e-05 -169.6172156 117.4941266
3.697746456e-05 49.2840106 197.037409
3.697746456e-05 179.4735957 60.441098
3.697746456e-05 108.7867761 53.7930849
-181.254932 250 8.0977858
-97.89994102 -152.4928549 6.247091733e-11
3.697746456e-05 150.2252447 139.7051514
-24.50481302 203.7562687 6.247091733e-11
3.697746456e-05 91.5492271 216.2255538
3.697746456e-05 -112.4168866 81.9923329
3.697746456e-05 226.1561663 146.0248388
-182.462572 -160.22219 6.247091733e-11
3.697746456e-05 -172.6908746 87.5587682
-159.625217 -208.3721158 6.247091733e-11
-10.17478902 250 237.4315693
-204.929749 24.0725117 6.247091733e-11
3.697746456e-05 -40.6634512 98.4839042
-18.62631302 -203.6331758 6.247091733e-11
-195.714079 250 71.7585608
-48.46588802 258.8779749 6.247091733e-11
-56.08452502 -180.6717289 6.247091733e-11
-150.657621 -175.1944688 6.247091733e-11
3.697746456e-05 -218.9641379 109.6108564
-197.441775 250 209.2194748
-175.241447 250 214.9770572
-82.73934602 53.8834492 6.247091733e-11
-129.93703 196.5429552 6.247091733e-11
3.697746456e-05 -165.0367718 141.3283417
-190.842454 151.2339523 6.247091733e-11
3.697746456e-05 166.5103343 69.0247444
-82.16680402 250 200.9126613
-52.75274502 240.7821347 6.247091733e-11
3.697746456e-05 -62.3665742 12.75439247
3.697746456e-05 -249.3959314 125.2506498
-91.69145502 250 184.3452601
3.697746456e-05 -214.9158113 68.6504058
3.697746456e-05 182.9407909 149.0636702
-111.522241 250 19.81720198
3.697746456e-05 -78.9838995 38.66832241
3.697746456e-05 45.4934375 10.86577721
-161.086631 -14.9322409 6.247091733e-11
3.697746456e-05 157.619913 49.12198472
-169.251146 117.7914961 6.247091733e-11
-161.75668 250 75.5718727
-202.312262 250 188.8761489
-39.76022702 -75.4750226 6.247091733e-11
-132.985863 28.3297001 6.247091733e-11
-18.77732402 218.6569454 6.247091733e-11
-11.43343202 255.8696634 6.247091733e-11
-225.101177 211.9822223 6.247091733e-11
3.697746456e-05 -71.4658014 136.7376538
-18.80723202 3.0239612 6.247091733e-11
3.697746456e-05 58.528804 148.7665323
-138.58406 52.2958735 6.247091733e-11
3.697746456e-05 133.0673307 223.5554217
3.697746456e-05 136.7221845 68.4119761
-239.477698 -233.0025715 6.247091733e-11
-34.66941002 250 23.82481088
3.697746456e-05 -63.9465688 156.3856339
-241.177719 -105.6494798 6.247091733e-11
3.697746456e-05 91.505695 40.41562075
3.697746456e-05 -201.1425615 12.39861939
-7.184350023 -137.393442 6.247091733e-11
3.697746456e-05 -207.7313038 216.1243291
-236.205463 -1.7432002 6.247091733e-11
-120.159101 145.3259326 6.247091733e-11
-218.836132 250 187.6161003
-45.80192402 250 210.4807539
-3.751454023 32.4987948 6.247091733e-11
3.697746456e-05 -221.4576741 157.5136266
-228.089428 250 97.0796602
-222.696938 250 167.9857554
-144.88691 250 189.863956
-89.36371902 250 88.0528652
-91.42645602 -213.386088 6.247091733e-11
-65.49250302 -74.7429261 6.247091733e-11
3.697746456e-05 191.01724 46.56989628
-220.937587 -47.4060104 6.247091733e-11
3.697746456e-05 150.7450896 100.5001916
-250.380668 69.910687 6.247091733e-11
-73.45607202 250 166.5208773
-242.531925 -182.0247089 6.247091733e-11
-166.379861 -121.9849785 6.247091733e-11
-248.558311 51.6995678 6.247091733e-11
3.697746456e-05 -235.9126422 189.3812809
3.697746456e-05 -145.2947929 55.41275392
3.697746456e-05 -150.8584169 28.4244812
3.697746456e-05 -105.9264061 142.0218582
3.697746456e-05 -114.9784948 213.8471013
-235.68847 250 11.10717082
-13.94281202 250 124.624856
-214.656657 250 110.5726268
-13.68115702 142.8874558 6.247091733e-11
-91.76853802 250 11.78311157
-72.39001702 223.7722614 6.247091733e-11
3.697746456e-05 -35.4884547 251.360756
3.697746456e-05 -118.4637164 129.5135229
-147.624974 251.869384 6.247091733e-11
-151.853264 25.5357913 6.247091733e-11
-50.08713302 213.5567596 6.247091733e-11
3.697746456e-05 185.9164659 89.9145965
-62.00017502 117.0044993 6.247091733e-11
-202.857904 112.3467242 6.247091733e-11
-174.544483 -90.3973068 6.247091733e-11
3.697746456e-05 -40.7049219 83.7392028
3.697746456e-05 237.598296 11.15969775
-248.807564 250 174.944462
-233.107263 -217.8108226 6.247091733e-11
-39.31643302 -47.3385674 6.247091733e-11
-190.136482 273.6255073 6.247091733e-11
-108.535798 250 251.967206
-198.347961 250 96.1549848
-139.269663 104.0186457 6.247091733e-11
3.697746456e-05 46.0608797 59.41726442
-198.106914 46.3398741 6.247091733e-11
-72.36700602 -167.9018003 6.247091733e-11
-214.144213 -103.157624 6.247091733e-11
3.697746456e-05 -96.4782382 168.4879753
3.697746456e-05 215.8751571 10.83920674
3.697746456e-05 -175.0090383 55.50085632
-243.20647 183.3051883 6.247091733e-11
3.697746456e-05 23.9724295 158.6124148
3.697746456e-05 40.4371437 220.3472502
3.697746456e-05 209.7529537 195.9248787
3.697746456e-05 28.7768207 186.6514732
3.697746456e-05 -87.2513027 218.1389742
-15.75101002 63.473656 6.247091733e-11
-131.658461 250 115.0997418
3.697746456e-05 1.6582447 140.50403
3.697746456e-05 -2.3425444 170.4550341
-250.402368 138.474645 6.247091733e-11
3.697746456e-05 -199.7330552 179.925046
3.697746456e-05 -25.2968491 158.2059861
-110.084403 250 77.0482674
3.697746456e-05 221.1597829 181.6914469
-178.198833 250 140.0296297
3.697746456e-05 19.2318153 207.4808549
-161.697673 250 112.4930672
-64.82624702 -214.1243739 6.247091733e-11
-39.64640202 139.3073931 6.247091733e-11
3.697746456e-05 -196.9957086 129.1169336
3.697746456e-05 115.5488651 236.2937348
3.697746456e-05 -224.7510599 49.65846526
3.697746456e-05 97.5180414 24.66622513
-149.619511 184.0713118 6.247091733e-11
-155.470204 84.0061013 6.247091733e-11
3.697746456e-05 -59.7299639 210.0923214
-138.743637 -165.4996091 6.247091733e-11
-149.242259 213.2330193 6.247091733e-11
3.697746456e-05 74.6813508 166.5058832
3.697746456e-05 214.2252379 157.7937819
-132.076782 -141.9412213 6.247091733e-11
3.697746456e-05 -249.3177233 174.5131858
3.697746456e-05 61.7515583 203.8540535
-123.238465 164.5060805 6.247091733e-11
3.697746456e-05 -68.1572065 106.9077148
3.697746456e-05 -245.5102938 94.1687236
3.697746456e-05 120.7374517 45.41398743
3.697746456e-05 210.9531734 224.9705508
-251.477128 22.0786472 6.247091733e-11
-203.880388 250 223.5842523
0.5832539775 250 33.10350972
-126.532919 254.6204911 6.247091733e-11
3.697746456e-05 -39.5568554 55.64670417
3.697746456e-05 216.1826212 85.951852
3.697746456e-05 24.170118 237.9480603
3.697746456e-05 132.3305327 140.8899757
-131.290916 250 238.3204065
3.697746456e-05 -132.9333852 181.2598202
-22.03885102 250 84.9936978
-49.29610802 250 73.3874301
3.697746456e-05 236.1596649 117.0856557
3.697746456e-05 111.1628201 184.4121596
3.697746456e-05 -19.6004085 115.7845836
3.697746456e-05 162.6963753 9.39688451
-41.24584502 -129.5668276 6.247091733e-11
-42.32433802 250 120.8899786
3.697746456e-05 239.6408615 237.1681044
3.697746456e-05 -155.2205599 170.0475373
-123.972998 -109.6567277 6.247091733e-11
-90.19222602 142.9318087 6.247091733e-11
-187.214667 250 53.78758078
-206.340418 258.1802817 6.247091733e-11
-114.312759 222.5105289 6.247091733e-11
3.697746456e-05 47.1702338 121.0532809
3.697746456e-05 51.0000815 90.8109171
-176.374773 164.4219277 6.247091733e-11
-232.220448 274.0160235 6.247091733e-11
3.697746456e-05 12.9071496 38.79205176
3.697746456e-05 34.884238 143.4113199
-232.215616 25.075868 6.247091733e-11
-52.55921102 100.4347078 6.247091733e-11
-207.452701 153.8694444 6.247091733e-11
-70.72824702 238.6539041 6.247091733e-11
-99.69736102 201.2171671 6.247091733e-11
-18.84141902 -248.8862063 6.247091733e-11
-240.836517 81.1861236 6.247091733e-11
-12.49402502 250 28.69115517
-46.56301202 9.6653445 6.247091733e-11
-38.77707502 250 61.5264141
-70.73963702 250 119.9235127
-191.175608 -135.0646157 6.247091733e-11
-203.366195 8.5759028 6.247091733e-11
-53.20472002 250 188.4187063
-147.13484 250 173.7252717
3.697746456e-05 -34.5301288 27.81375494
3.697746456e-05 -98.6639616 51.26867549
-160.035691 -95.7517498 6.247091733e-11
3.697746456e-05 82.595261 12.8162845
-241.051696 154.6280598 6.247091733e-11
-216.666955 -1.3331867 6.247091733e-11
3.697746456e-05 -211.8290693 189.7004679
3.697746456e-05 -189.6956649 58.95172676
3.697746456e-05 -202.3753585 102.4360499
-31.14749102 -61.7809555 6.247091733e-11
-208.234055 -207.6839115 6.247091733e-11
3.697746456e-05 -42.685326 14.39941117
3.697746456e-05 61.6066327 35.52289258
-65.46483202 250 63.8237721
-141.516967 250 44.98829085
-33.17994402 33.3256043 6.247091733e-11
-195.176295 -64.3793851 6.247091733e-11
-68.32497402 -115.211404 6.247091733e-11
-221.741698 -173.4056218 6.247091733e-11
-131.617325 -237.0580321 6.247091733e-11
3.697746456e-05 -139.3144474 83.3779626
-109.221751 250 132.9569731
-108.298168 -164.8235436 6.247091733e-11
-207.673578 -147.8920668 6.247091733e-11
-103.87444 14.5737837 6.247091733e-11
-194.546781 -121.1871064 6.247091733e-11
-160.751529 250 168.6266355
-60.37313602 -61.818054 6.247091733e-11
0.9563409775 -250 252.3906559
-39.40289102 -19.1602407 6.247091733e-11
-100.678904 -61.7042472 6.247091733e-11
-218.636546 250 52.1874234
-129.625681 250 169.2218195
-224.853947 -81.5758773 6.247091733e-11
-70.19331902 -238.8309584 6.247091733e-11
3.697746456e-05 -246.6003252 1.26003306
-103.96781 -132.7361294 6.247091733e-11
-49.90037102 250 105.9152838
-15.84386702 250 72.803531
3.697746456e-05 71.0431823 119.790459
-45.48035702 250 159.059574
3.697746456e-05 113.3064854 200.4103207
-80.05508902 -193.6803623 6.247091733e-11
-170.435672 261.9983367 6.247091733e-11
-117.030868 250 60.6236386
-248.546293 250 191.4776222
-167.505373 250 242.7750353
3.697746456e-05 166.5835142 23.41964103
-57.68529402 250 24.0608582
-71.59338402 -96.8155866 6.247091733e-11
-82.55026902 250 251.2542875
-54.79138502 -24.3716742 6.247091733e-11
-26.43600602 -175.6755318 6.247091733e-11
3.697746456e-05 74.5221743 103.5805597
3.697746456e-05 -21.1393299 185.7621639
3.697746456e-05 76.9264337 192.8175477
-67.55392702 152.39849 6.247091733e-11
-152.868737 -30.5729431 6.247091733e-11
-166.467151 61.859121 6.247091733e-11
3.697746456e-05 -94.0457521 66.262879
3.697746456e-05 -165.4602735 76.3948343
-180.267087 250 186.1725432
-77.04568502 250 9.26468967
-137.023884 -223.5852294 6.247091733e-11
-111.560347 -50.1999433 6.247091733e-11
3.697746456e-05 228.2611868 63.2017653
3.697746456e-05 142.9100064 237.8600551
-129.023116 226.9231558 6.247091733e-11
3.697746456e-05 -129.0673226 45.87960031
3.697746456e-05 -106.2321562 23.0733081
-230.566966 250 130.050742
-171.143576 -47.7330419 6.247091733e-11
-134.011881 250 150.663821
3.697746456e-05 138.6953365 8.13715056
-6.411612023 250 99.4479361
3.697746456e-05 160.0459634 82.3127932
3.697746456e-05 -37.3903219 167.3127567
-117.16209 54.6779872 6.247091733e-11
-112.153133 -215.0473033 6.247091733e-11
-179.981335 -227.3638963 6.247091733e-11
3.697746456e-05 -130.1730685 160.6577036
-112.593768 31.7133945 6.247091733e-11
-82.42717002 -123.834573 6.247091733e-11
3.697746456e-05 197.9728494 8.48017135
3.697746456e-05 24.8819512 99.0082891
-198.674816 250 168.5685126
-13.90227702 250 223.5492403
-90.15187702 271.237938 6.247091733e-11
3.697746456e-05 -47.121704 239.5355401
3.697746456e-05 237.3428407 52.80499072
-19.12487202 250 247.2940938
3.697746456e-05 -11.6038084 139.0778944
3.697746456e-05 1.5228612 198.948147
3.697746456e-05 -180.2506222 98.2118408
-205.509476 -238.4886623 6.247091733e-11
-97.70446602 250 49.63989059
-94.08866702 -6.8551494 6.247091733e-11
-28.08435002 -112.787985 6.247091733e-11
-205.449616 250 137.6003282
-205.985005 -93.030348 6.247091733e-11
3.697746456e-05 -61.8662046 125.3165794
3.697746456e-05 -69.7603748 181.5651072
-115.15386 250 101.9936746
-62.37851302 177.0528637 6.247091733e-11
-28.12581002 -82.2457352 6.247091733e-11
3.697746456e-05 117.1590291 74.9247274
3.697746456e-05 96.4634438 171.648979
-22.59647302 250 212.5668371
3.697746456e-05 8.3349944 177.7567591
-2.682018023 114.6181448 6.247091733e-11
-16.80103102 -189.516089 6.247091733e-11
-10.65916302 -9.3465638 6.247091733e-11
3.697746456e-05 0.5959536001 57.13588006
-112.246547 250 214.1021358
-241.784258 250 39.53329031
-215.159153 72.7611972 6.247091733e-11
-27.53224602 -141.7896984 6.247091733e-11
3.697746456e-05 -44.0548374 142.3253927
3.697746456e-05 -142.4502328 172.5963414
3.697746456e-05 -10.6608603 217.0021504
-229.096406 -129.2735513 6.247091733e-11
3.697746456e-05 -131.4548665 102.5525399
3.697746456e-05 -84.9125188 198.5177698
3.697746456e-05 -34.0348934 231.2127431
-225.292625 246.3498534 6.247091733e-11
3.697746456e-05 -12.4024171 46.9648083
-34.95361702 250 183.5054268
3.697746456e-05 -170.1172277 168.454564
3.697746456e-05 -81.8770719 13.07084264
-110.483211 176.1234215 6.247091733e-11
-69.04816602 -39.7598739 6.247091733e-11
-154.993327 250 197.7102278
-183.504458 -99.8270861 6.247091733e-11
3.697746456e-05 163.0773665 133.0285183
-98.01174802 157.0494031 6.247091733e-11
-119.037293 250 177.6597679
-215.879048 181.6166965 6.247091733e-11
3.697746456e-05 194.9500269 118.3831895
3.697746456e-05 81.3536098 76.8080535
-16.52456002 268.0982139 6.247091733e-11
-90.92380902 250 210.9800846
-166.16164 -249.1982312 6.247091733e-11
-67.28374302 250 220.4777761
3.697746456e-05 235.1448773 180.3513447
3.697746456e-05 133.9780067 250.6702315
-192.318427 250 180.8596677
3.697746456e-05 142.5570979 28.29419043
-75.34038302 93.9758377 6.247091733e-11
-94.58638602 -235.5722959 6.247091733e-11
-37.31278502 250 85.7332763
-150.672377 -1.5599212 6.247091733e-11
3.697746456e-05 -195.1356081 216.7698556
-70.23721102 250 207.8845888
-249.035585 -27.8930256 6.247091733e-11
3.697746456e-05 3.9688484 116.6589845
3.697746456e-05 209.150567 49.41274835
-209.06814 250 44.0252755
-123.73148 250 126.7294866
3.697746456e-05 105.8448879 157.7993963
-45.19652502 162.0110575 6.247091733e-11
3.697746456e-05 43.6623827 35.90120396
3.697746456e-05 171.6553641 240.2692873
-40.02445402 250 49.02728589
-247.246298 -170.3844122 6.247091733e-11
-244.77798 -210.4023605 6.247091733e-11
3.697746456e-05 -158.520587 195.1316656
-19.06916402 -228.2418273 6.247091733e-11
3.697746456e-05 -219.4264862 211.6125739
-57.64201002 250 164.1502413
-221.42538 250 215.9579131
-27.02847102 116.3182561 6.247091733e-11
3.697746456e-05 222.2773755 204.7676704
3.697746456e-05 136.0326956 176.70444
-160.040105 250 26.14383338
-36.21387902 79.9024281 6.247091733e-11
-221.107229 250 155.5811558
3.697746456e-05 -175.081491 216.8526521
-164.061501 -190.4570651 6.247091733e-11
-176.929356 240.1129674 6.247091733e-11
3.697746456e-05 -141.4700399 129.2350002
-46.69160602 -237.0348576 6.247091733e-11
3.697746456e-05 -228.6893629 5.61750322
-8.386364023 -57.7736881 6.247091733e-11
-134.500607 -3.8665093 6.247091733e-11
3.697746456e-05 90.996189 126.7778031
3.697746456e-05 96.8724254 185.2241002
-187.451324 -198.981622 6.247091733e-11
-118.889055 109.0019008 6.247091733e-11
-200.838044 138.9699082 6.247091733e-11
3.697746456e-05 -90.1648922 121.3418427
3.697746456e-05 246.3459817 201.6742094
3.697746456e-05 -21.5987063 252.4848685
-186.531216 250 119.9309402
-229.060368 73.3173319 6.247091733e-11
-31.17933002 101.2231258 6.247091733e-11
3.697746456e-05 161.8996848 106.4014504
-194.980038 -49.8039061 6.247091733e-11
3.697746456e-05 239.4168604 166.7600446
1.590439977 -182.8743747 6.247091733e-11
-135.496813 250 86.4337383
3.697746456e-05 -11.8254119 195.8249081
0.4480859775 -22.6742736 6.247091733e-11
3.697746456e-05 -74.2218289 233.549858
3.697746456e-05 -73.064228 81.568732
3.697746456e-05 113.4828815 89.5948826
-116.864435 262.249392 6.247091733e-11
-33.48263002 -205.4317209 6.247091733e-11
3.697746456e-05 -21.6547327 131.9868999
-74.94141702 197.6472492 6.247091733e-11
-234.047169 193.2059947 6.247091733e-11
-201.170355 -183.3390063 6.247091733e-11
-45.03817102 -156.8338245 6.247091733e-11
3.697746456e-05 -46.3483745 205.7595704
3.697746456e-05 109.7790469 214.2820814
-57.40491802 48.695021 6.247091733e-11
-95.53731602 250 102.7897469
-144.929353 274.1004805 6.247091733e-11
-62.47130702 250 178.467954
0.9439739775 250 76.2131652
3.697746456e-05 121.6028356 116.3984797
3.697746456e-05 79.1818738 39.45554679
3.697746456e-05 -52.9247212 182.2589545
3.697746456e-05 -193.2401975 248.7564446
-6.680912023 250 134.3655523
3.697746456e-05 13.7502138 70.0993434
-57.83260102 250 10.34929144
-13.19468102 -214.4922071 6.247091733e-11
3.697746456e-05 -93.3391229 146.5072134
3.697746456e-05 213.5115123 29.30093514
-115.331884 -118.865312 6.247091733e-11
-157.217153 36.9872893 6.247091733e-11
3.697746456e-05 -245.4044525 155.7921931
-139.523846 -38.8381267 6.247091733e-11
-136.313157 77.9422143 6.247091733e-11
3.697746456e-05 120.5932337 223.0943089
-183.376784 -44.0360937 6.247091733e-11
-247.8017 1.6969862 6.247091733e-11
-163.196821 250 11.24337868
3.697746456e-05 219.8623302 238.216841
-79.20110702 -14.2072679 6.247091733e-11
-171.316057 250 174.4218906
-27.16728802 250 149.608744
3.697746456e-05 154.4504139 150.9795605
3.697746456e-05 -135.9145393 10.27979197
-234.859997 250 76.6806988
-13.35226802 169.7272261 6.247091733e-11
-11.18719902 250 154.0360144
3.697746456e-05 170.4542863 173.4184642
3.697746456e-05 -98.0290412 79.7399804
-157.256189 -144.543901 6.247091733e-11
3.697746456e-05 -117.553301 57.08355795
-90.49709802 -199.5918231 6.247091733e-11
3.697746456e-05 -247.6247557 25.55380848
3.697746456e-05 -88.3358934 89.1166433
-180.417202 25.7939564 6.247091733e-11
3.697746456e-05 -238.1336452 38.63638337
-130.473449 -23.6264462 6.247091733e-11
-239.815223 250 148.4486164
3.697746456e-05 246.0392218 216.7910248
1.881644977 250 108.4872236
3.697746456e-05 -233.7804441 240.3417365
-88.75931802 -54.5171833 6.247091733e-11
-19.97760002 -31.9616919 6.247091733e-11
-49.05558602 250 235.4056311
-107.379216 250 157.066033
-183.839586 250 234.6898572
3.697746456e-05 -222.1430586 122.4572889
-96.18947002 -104.856742 6.247091733e-11
3.697746456e-05 -230.295489 178.9049658
-207.886677 250 63.5957068
-238.090765 241.8440362 6.247091733e-11
3.697746456e-05 147.2661763 164.4884725
-184.248428 -183.32774 6.247091733e-11
-60.51350202 68.7411617 6.247091733e-11
3.697746456e-05 36.8590617 170.214047
-134.466904 250 27.80709193
-247.528007 104.3169705 6.247091733e-11
-122.882058 213.0018592 6.247091733e-11
-205.471032 -26.8607616 6.247091733e-11
-96.04568102 250 37.47587383
-208.133265 -221.4738507 6.247091733e-11
3.697746456e-05 199.1497444 140.1671845
3.697746456e-05 141.8203972 127.0334564
-72.81639202 171.5923505 6.247091733e-11
-153.161613 250 240.9947624
-106.749881 250 169.0551539
-196.715646 250 232.914599
-5.090102023 44.1696545 6.247091733e-11
-84.91406702 -175.2479416 6.247091733e-11
3.697746456e-05 -27.9104013 57.15422532
-175.575179 250 88.3446085
-115.051188 -228.1199154 6.247091733e-11
3.697746456e-05 54.825154 236.3477563
-120.520572 250 28.95199345
3.697746456e-05 -215.5829008 34.12438318
3.697746456e-05 -204.5211755 0.8284176501
3.697746456e-05 -169.5462025 203.533167
3.697746456e-05 -65.653631 37.38986853
3.697746456e-05 179.4490813 10.45735534
-124.951966 -154.0114904 6.247091733e-11
3.697746456e-05 -143.0228468 242.2668643
3.697746456e-05 -99.937386 188.1419035
-83.85292302 250 161.1881137
3.697746456e-05 48.2537588 143.2119678
-140.639752 -110.2037767 6.247091733e-11
3.697746456e-05 146.2280092 43.4467168
-177.967764 -134.795026 6.247091733e-11
-96.02109302 171.1483326 6.247091733e-11
3.697746456e-05 83.7359651 65.4176927
3.697746456e-05 176.7670331 110.8335464
-46.92447802 119.273013 6.247091733e-11
3.697746456e-05 75.8673853 242.6064928
3.697746456e-05 68.5154323 76.5282075
-84.14269802 32.9909215 6.247091733e-11
-4.401648023 3.8972487 6.247091733e-11
-30.54246702 -164.8089027 6.247091733e-11
-137.974234 258.3352671 6.247091733e-11
-52.23603602 -70.9798438 6.247091733e-11
0.9238759775 -145.7073009 6.247091733e-11
3.697746456e-05 -48.8663975 165.0820408
3.697746456e-05 -66.4983119 251.1561725
3.697746456e-05 -153.6895712 152.9092238
3.697746456e-05 144.2285155 54.96137469
3.697746456e-05 -124.4926498 190.5764911
-184.179277 250 29.43920821
3.697746456e-05 -119.7977008 12.23076922
-92.81170802 226.5497484 6.247091733e-11
-0.07687802254 250 63.257908
-102.604252 37.5535057 6.247091733e-11
-118.226436 -71.9582011 6.247091733e-11
3.697746456e-05 134.0238686 91.3149104
-62.21108102 250 52.72953089
-33.78125902 10.0004935 6.247091733e-11
-165.240923 250 37.26855631
3.697746456e-05 207.6165372 75.8594183
-148.397278 128.6222177 6.247091733e-11
3.697746456e-05 14.5675932 221.4370153
3.697746456e-05 -212.6740477 226.7560237
3.697746456e-05 -115.8165697 161.2682692
-232.278545 -150.8239355 6.247091733e-11
-190.336357 -18.8457878 6.247091733e-11
-140.377501 250 56.81150709
-224.168364 250 241.1246753
-183.589232 250 73.9052413
-151.98391 250 118.601164
-237.731492 -246.3568101 6.247091733e-11
3.697746456e-05 -204.034189 162.6168808
-8.275275023 250 180.4021888
-247.46471 250 11.92149849
-134.779856 250 99.7355908
3.697746456e-05 -138.5518495 225.9023066
-40.82209502 248.0657345 6.247091733e-11
-109.738441 -11.9342182 6.247091733e-11
3.697746456e-05 -143.9855998 116.8001912
3.697746456e-05 -22.8592175 88.632337
-118.533944 71.1015983 6.247091733e-11
3.697746456e-05 99.1466933 243.0900188
-168.042065 33.4192953 6.247091733e-11
-88.47810802 -146.0811723 6.247091733e-11
-177.393192 132.3841705 6.247091733e-11
-66.27618602 -12.9647888 6.247091733e-11
-240.232857 -88.7760916 6.247091733e-11
-179.997035 63.9944264 6.247091733e-11
-66.70987002 -127.5182258 6.247091733e-11
-220.507937 250 84.2662681
3.697746456e-05 -202.8904326 28.81871077
-14.83152102 82.8455009 6.247091733e-11
3.697746456e-05 236.6343221 22.45747865
3.697746456e-05 26.9445802 110.979909
3.697746456e-05 38.6610445 192.7278145
-85.78409002 -96.7197652 6.247091733e-11
-120.580712 -94.4884249 6.247091733e-11
-12.18726102 250 60.9471658
3.697746456e-05 -241.1869957 226.8962345
-163.660446 228.7197074 6.247091733e-11
-145.03562 237.180623 6.247091733e-11
-157.412772 241.1775949 6.247091733e-11
-234.054444 -42.3241561 6.247091733e-11
3.697746456e-05 -239.4586936 104.7562776
3.697746456e-05 189.6354347 178.9258462
3.697746456e-05 92.5535162 75.599867
3.697746456e-05 -238.6168683 85.2639527
3.697746456e-05 173.9779912 155.8794076
-38.17359802 250 232.5165737
-118.017531 250 239.5318961
-30.56913002 250 108.2987673
3.697746456e-05 93.7615726 97.3310458
-207.510632 98.1547193 6.247091733e-11
-25.41341202 228.2790548 6.247091733e-11
3.697746456e-05 -29.7560675 109.8566013
-68.34124302 250 246.2014812
-215.683423 250 143.499266
-158.171785 16.2777975 6.247091733e-11
3.697746456e-05 52.4689624 185.9898273
-49.43468602 -223.7524669 6.247091733e-11
3.697746456e-05 -171.1327682 246.9313993
-132.133951 -203.9368579 6.247091733e-11
3.697746456e-05 -157.485332 237.6947917
3.697746456e-05 -162.5235797 34.59894974
3.697746456e-05 -66.3738084 51.57431463
-76.75730702 260.1806937 6.247091733e-11
3.697746456e-05 -106.1114259 34.23971924
-17.41217702 250 193.5452198
-220.887426 149.7602127 6.247091733e-11
3.697746456e-05 121.7777353 13.3585105
-82.96593002 250 174.3818183
-31.42092802 193.6299273 6.247091733e-11
-231.699678 220.981432 6.247091733e-11
3.697746456e-05 43.9223289 206.8230049
-162.073291 -70.6815768 6.247091733e-11
3.697746456e-05 -225.1172355 143.4008553
