# .PCD v0.7 - Point Cloud Data file format
VERSION 0.7
FIELDS x y z
SIZE 4 4 4
TYPE F F F
COUNT 1 1 1
WIDTH 1217
HEIGHT 1
VIEWPOINT 0 0 0 1 0 0 0
POINTS 1217
DATA ascii
-201.10826 187.4864659 2.643218977e-11
-193.9778155 -1.55250184e-05 222.469786
214.3327421 77.67152807 237.8106824
170.7969105 85.13013387 2.643218977e-11
221.8389252 -1.55250184e-05 172.6731698
95.09730291 131.170624 2.643218977e-11
-154.1615308 44.33679227 2.643218977e-11
-26.16354629 87.79896087 2.643218977e-11
200.5802567 -1.55250184e-05 11.67465664
-196.8864916 35.06852517 2.643218977e-11
223.7896439 238.6032682 2.643218977e-11
-2.018245691 120.9004999 2.643218977e-11
214.3327421 164.6818555 38.69550364
-134.2863184 114.5178267 2.643218977e-11
-106.9883223 -1.55250184e-05 10.32107158
-214.3327547 97.34729247 -1.00201758
-141.4764734 -1.55250184e-05 241.8087815
94.01737691 11.02336807 2.643218977e-11
182.4153608 55.68246797 2.643218977e-11
-88.80404649 -1.55250184e-05 152.4669824
26.59181041 -1.55250184e-05 61.9770931
46.39026021 -1.55250184e-05 251.2232084
-57.50338169 -1.55250184e-05 80.7304592
72.99223551 -1.55250184e-05 37.04920739
-82.42782189 -1.55250184e-05 104.0926426
121.7420121 154.2223866 2.643218977e-11
-199.3510279 -1.55250184e-05 248.3542526
11.80791871 28.01775507 2.643218977e-11
214.3327421 10.67778087 237.1182788
62.85154911 117.5963385 2.643218977e-11
-170.585962 135.8882512 2.643218977e-11
194.2490217 160.1147633 2.643218977e-11
50.91495581 64.46001597 2.643218977e-11
214.3327421 0.434582475 44.25590427
-166.4440449 -1.55250184e-05 81.7858807
-178.6999575 -1.55250184e-05 114.5381824
-201.5068476 221.2803499 2.643218977e-11
11.68049721 206.3887639 2.643218977e-11
169.3118678 -1.55250184e-05 251.3740402
237.1123782 209.5661274 2.643218977e-11
-82.65027519 237.7979701 2.643218977e-11
214.3327421 219.8822375 101.5669635
144.6872227 -1.55250184e-05 233.7011449
214.3327421 145.4519074 111.685297
-41.13108979 -1.55250184e-05 52.8872617
-143.8813639 -1.55250184e-05 91.8176532
194.4356868 17.91772427 2.643218977e-11
214.3327421 232.6644657 123.8078819
4.972988009 -1.55250184e-05 189.5358431
42.37009941 126.7216963 2.643218977e-11
214.3327421 214.6497453 12.70887308
112.2931572 103.1590594 2.643218977e-11
-83.21976139 17.33763417 2.643218977e-11
-103.2993822 -1.55250184e-05 251.9619471
214.3327421 224.0289772 154.7718946
-107.2212993 123.7235899 2.643218977e-11
214.3327421 147.2110189 188.1198761
96.05736471 -1.55250184e-05 13.2525827
214.3327421 115.2875392 109.730436
-157.9454378 79.97210437 2.643218977e-11
95.63927941 111.5773321 2.643218977e-11
216.2511434 -1.55250184e-05 152.9444365
4.185190509 -2.134797725 2.643218977e-11
-25.87238269 233.8848711 2.643218977e-11
-71.61944879 -1.55250184e-05 179.7959215
-52.69059239 175.7963024 2.643218977e-11
214.3327421 148.0041532 243.7983377
-56.26505619 230.2515726 2.643218977e-11
110.9845639 -1.55250184e-05 106.8330071
89.87885841 -1.55250184e-05 234.180171
-101.2494801 61.41097757 2.643218977e-11
214.3327421 210.4124872 50.02151496
17.97004011 -1.55250184e-05 24.11144368
109.4909601 -1.55250184e-05 78.0993654
223.4362031 -1.55250184e-05 201.4780812
-24.58256159 181.7528799 2.643218977e-11
214.3327421 209.0072997 226.4153913
-211.2353357 -1.55250184e-05 131.1399329
115.4874405 -1.55250184e-05 239.2388288
100.7100679 -1.55250184e-05 207.3515559
177.3744532 -1.55250184e-05 233.4452804
214.3327421 239.6239607 180.038932
214.3327421 78.17074487 36.00463348
-176.5478769 -1.55250184e-05 175.7382503
-27.69284529 4.574746175 2.643218977e-11
-214.3327547 -1.111552625 190.9658981
214.3327421 28.66408857 216.8116206
-53.00861949 84.27281977 2.643218977e-11
-181.4604143 187.0100281 2.643218977e-11
214.3327421 114.8366186 150.8898455
-109.7610739 -1.55250184e-05 167.9429134
214.3327421 54.10584317 237.8807664
114.911055 199.9407959 2.643218977e-11
110.8276945 -1.55250184e-05 49.4580475
214.3327421 119.2762678 11.13110869
214.3327421 86.72388497 67.6229596
-37.65297629 -1.55250184e-05 181.3277367
214.3327421 129.1825641 34.46382988
-106.0038685 171.4784634 2.643218977e-11
-177.3963965 72.20837197 2.643218977e-11
-132.0692055 84.98298917 2.643218977e-11
-28.66629159 -1.55250184e-05 103.7227319
180.0940622 -1.55250184e-05 54.99180894
-150.1441537 -1.55250184e-05 17.97199167
-196.374978 124.6767402 2.643218977e-11
-162.860357 168.72782 2.643218977e-11
6.354884909 -1.55250184e-05 111.7239109
205.1900076 86.15756817 2.643218977e-11
59.63986161 177.8106623 2.643218977e-11
214.3327421 178.7003244 251.8122655
214.3327421 98.53743497 113.9968983
214.3327421 142.7993639 172.7945925
121.466259 -0.873993825 2.643218977e-11
161.9444873 -1.55250184e-05 80.9769328
-115.9425867 -1.55250184e-05 34.81697194
-144.4633977 250.8628777 2.643218977e-11
7.469052009 -1.55250184e-05 156.7770636
-56.31412239 -1.55250184e-05 252.0577111
13.82099951 122.7940501 2.643218977e-11
59.92501661 -1.55250184e-05 238.0070422
-84.05593069 176.5449002 2.643218977e-11
-39.06437569 -1.55250184e-05 236.3868372
-183.2956622 -1.55250184e-05 65.1867322
81.59686261 -1.55250184e-05 196.9012815
9.120659509 72.14643537 2.643218977e-11
-158.8673165 -1.55250184e-05 166.0161458
-28.82773639 -1.55250184e-05 131.7830906
193.4882501 -1.55250184e-05 204.1693112
-93.66556999 76.07291777 2.643218977e-11
-16.36758769 -1.55250184e-05 188.0607948
-52.31569849 -1.55250184e-05 18.69241475
214.3327421 100.4137175 18.23406638
214.3327421 234.8522016 34.19469945
72.30599141 -1.55250184e-05 69.4991385
-24.45935409 36.92224157 2.643218977e-11
214.3327421 193.9770122 57.00662559
-65.07241179 -1.55250184e-05 224.8521491
-176.422736 -1.55250184e-05 31.39809181
126.4956346 112.1468778 2.643218977e-11
220.6637796 185.6088087 2.643218977e-11
214.5804933 36.40048157 2.643218977e-11
148.4664723 233.0320009 2.643218977e-11
43.61664691 167.5886869 2.643218977e-11
-82.86855299 -1.55250184e-05 208.0394746
-77.08653469 -1.55250184e-05 41.59872319
214.3327421 249.7628997 150.0173913
222.9432754 -1.55250184e-05 230.5261801
-38.74848679 125.1496662 2.643218977e-11
-9.970038991 -1.55250184e-05 40.67131251
139.1218716 11.55383177 2.643218977e-11
-207.9410344 8.244847475 2.643218977e-11
214.3327421 31.67990817 107.9506775
143.0939054 150.057151 2.643218977e-11
-110.0688411 -1.55250184e-05 196.4378786
122.4400192 34.50432207 2.643218977e-11
214.3327421 93.20365677 236.136333
-73.44178019 69.17265617 2.643218977e-11
-210.4179497 151.5023993 2.643218977e-11
38.43937231 73.08972267 2.643218977e-11
-8.323549691 151.3086301 2.643218977e-11
214.3327421 179.7329862 121.3682271
109.3582145 163.2313459 2.643218977e-11
216.1721931 -1.55250184e-05 123.6352264
-104.1532068 -1.55250184e-05 135.4382681
176.847397 210.5581626 2.643218977e-11
201.6719213 -1.55250184e-05 156.3549312
-11.64774509 84.14395347 2.643218977e-11
-188.9549318 84.86938667 2.643218977e-11
-175.4408116 247.6456893 2.643218977e-11
-190.6050921 103.495436 2.643218977e-11
-2.641341591 210.6896794 2.643218977e-11
-46.52581729 -1.55250184e-05 70.0812062
214.3327421 160.1187137 205.4826147
200.5512806 192.7220325 2.643218977e-11
90.06536441 210.7508842 2.643218977e-11
214.3327421 203.0675497 122.6393074
-6.323761391 -1.55250184e-05 219.19305
167.2433188 -1.55250184e-05 133.0770934
-159.85706 -1.55250184e-05 5.94098613
211.6842224 226.6638229 2.643218977e-11
231.1350909 -1.55250184e-05 67.8773001
214.3327421 54.61700777 145.8308085
101.5899136 -1.55250184e-05 133.1078778
-100.3905599 -1.55250184e-05 70.2025546
165.7549876 -1.55250184e-05 109.4146254
214.3327421 243.8122623 105.7066335
-182.6550282 -1.55250184e-05 16.16562328
111.8439806 11.95383847 2.643218977e-11
-208.6201637 -1.55250184e-05 223.4262557
35.22715311 -1.55250184e-05 49.88437522
-210.7722181 -1.55250184e-05 100.1964749
169.574597 -0.429101425 2.643218977e-11
-79.74463299 191.182955 2.643218977e-11
218.4323147 -1.55250184e-05 109.0354114
214.3327421 51.60982077 86.4386328
157.487348 144.615916 2.643218977e-11
152.0401728 -1.55250184e-05 204.1841778
134.7900319 57.15619367 2.643218977e-11
-5.003315391 -1.55250184e-05 129.3721962
204.8499861 -1.55250184e-05 245.0019209
-69.28414379 176.8298087 2.643218977e-11
23.36776311 18.89718197 2.643218977e-11
-96.62739399 -1.55250184e-05 52.33406088
0.9915694086 55.04209927 2.643218977e-11
-214.3327547 -1.776786525 161.4132042
139.3687106 -1.55250184e-05 88.8215002
227.7356729 14.43362967 2.643218977e-11
4.896452209 -1.55250184e-05 90.2955786
167.0899713 49.68290957 2.643218977e-11
196.6868114 232.0723057 2.643218977e-11
-195.6643891 250.4761294 2.643218977e-11
214.3327421 12.05599427 177.8604262
-112.4386513 -1.55250184e-05 215.8165567
62.34906271 -1.55250184e-05 122.6889801
-107.3808182 88.98944547 2.643218977e-11
83.37171721 -1.55250184e-05 157.1517221
31.64810821 -1.55250184e-05 195.9134246
214.3327421 93.28029307 99.124316
157.3716953 79.92812407 2.643218977e-11
-193.7812063 49.11622117 2.643218977e-11
214.3327421 88.25896337 183.0653075
-134.1143186 239.9436483 2.643218977e-11
178.8832587 161.1119252 2.643218977e-11
-112.8663384 -1.55250184e-05 110.9592727
-89.74818979 224.037604 2.643218977e-11
214.3327421 34.83891817 38.91001653
-139.6466897 -1.55250184e-05 125.2524625
-126.7824828 -1.55250184e-05 114.449408
-13.00804889 130.0956298 2.643218977e-11
123.0310502 -1.55250184e-05 211.3640713
142.4346994 177.0680107 2.643218977e-11
186.69711 -1.55250184e-05 40.97508069
214.3327421 241.8355658 69.1023222
-117.3179158 -1.55250184e-05 140.9658872
227.6150759 -1.55250184e-05 215.8934764
214.3327421 18.17874577 194.9424114
-173.0085878 -1.55250184e-05 248.8656126
182.8149073 -1.55250184e-05 83.6313662
-179.5229089 -1.55250184e-05 46.6535483
39.02863951 199.2863382 2.643218977e-11
199.8533044 129.7045136 2.643218977e-11
139.4264204 -1.55250184e-05 125.8149418
108.1231247 78.08738137 2.643218977e-11
179.3771344 -1.55250184e-05 157.6646234
-199.8913654 -1.55250184e-05 118.1864432
238.1573045 -1.55250184e-05 42.32037454
-137.5071444 131.8177283 2.643218977e-11
214.3327421 76.47643257 55.53303762
214.3327421 27.88747207 162.2212189
-132.0406748 -1.55250184e-05 43.89590402
85.64798891 181.2162724 2.643218977e-11
214.3327421 133.2018668 13.37830434
214.3327421 47.69908177 205.7296198
214.3327421 163.2423197 234.727051
-136.1985273 18.65008907 2.643218977e-11
214.3327421 50.17800987 34.47638091
-64.34680319 204.8444433 2.643218977e-11
37.02062741 98.13380737 2.643218977e-11
-171.5887266 216.1834045 2.643218977e-11
163.9804284 -1.55250184e-05 61.3562432
-74.90314749 157.1840756 2.643218977e-11
-154.7567746 -1.55250184e-05 200.6313264
214.3327421 62.98941467 202.7669645
-125.1201046 -2.393490825 2.643218977e-11
23.79177371 -1.55250184e-05 217.2499487
-55.69210549 -2.210247125 2.643218977e-11
25.51780791 231.2281052 2.643218977e-11
140.7990488 -1.55250184e-05 216.8521832
33.96138551 -1.55250184e-05 244.1204966
63.15790961 3.463511375 2.643218977e-11
237.9368333 -1.55250184e-05 14.66400699
214.3327421 197.6781897 75.3500469
214.3327421 192.9799228 200.1499728
31.86798141 -1.55250184e-05 167.5062543
214.3327421 220.2326088 235.8658248
-202.3614265 -1.55250184e-05 42.92942318
171.0889351 248.2855611 2.643218977e-11
52.83719411 235.6121166 2.643218977e-11
-80.55149939 3.751845375 2.643218977e-11
126.7875364 -1.55250184e-05 82.6574357
-3.735829891 -1.55250184e-05 11.14168954
214.3327421 40.85652547 181.9199726
237.9526587 93.74555197 2.643218977e-11
214.3327421 12.98371707 16.91416926
-144.072288 207.6064121 2.643218977e-11
214.3327421 64.36199757 116.7359808
-69.60115299 22.81687417 2.643218977e-11
-95.51988809 -1.55250184e-05 222.7983838
225.5811964 252.4557449 2.643218977e-11
214.3327421 13.17100687 49.84093119
10.98792321 -1.55250184e-05 143.0003571
214.3327421 204.4340229 31.3265781
21.45450971 -1.55250184e-05 186.7697652
157.6283879 39.78550007 2.643218977e-11
13.65706101 145.8500386 2.643218977e-11
214.3327421 121.8642405 121.9414584
-214.3327547 190.0992647 -2.2875344
-188.1728777 224.9826291 2.643218977e-11
214.3327421 138.7687036 55.84733867
214.3327421 148.8666947 13.5246317
-192.6387336 -1.55250184e-05 175.7808073
-40.98571869 23.59274537 2.643218977e-11
214.3327421 149.4076815 39.90554228
-13.90919429 22.87499357 2.643218977e-11
-150.1861954 -1.55250184e-05 44.612409
214.3327421 225.8614685 170.523421
131.1121516 -1.55250184e-05 57.47921195
31.35763741 -1.55250184e-05 91.0803186
208.9511759 -1.55250184e-05 200.6334938
-209.9252875 67.16830007 2.643218977e-11
125.915547 127.0320078 2.643218977e-11
-201.9750967 237.5005436 2.643218977e-11
125.7160934 -1.55250184e-05 134.202134
-129.6898173 -1.55250184e-05 233.6490628
-196.361678 174.8267924 2.643218977e-11
214.3327421 212.1994675 177.5000279
238.6226633 79.24219357 2.643218977e-11
214.3327421 250.802886 231.7155019
212.5658304 166.8392275 2.643218977e-11
171.0825274 120.6381256 2.643218977e-11
-50.89064099 47.52603047 2.643218977e-11
-78.67253749 81.99706367 2.643218977e-11
214.3327421 190.7821854 226.5032673
-101.2717719 -1.55250184e-05 28.5972314
130.9324375 77.14275117 2.643218977e-11
-149.0562924 -1.55250184e-05 178.3538811
-136.7877834 -1.55250184e-05 17.03537938
-154.4131968 -1.55250184e-05 75.9236659
-165.5671356 -1.55250184e-05 136.6958939
-23.30658819 195.5859704 2.643218977e-11
-127.0521456 -1.55250184e-05 175.0507466
-62.28500529 -1.55250184e-05 192.229296
-190.0013228 -1.55250184e-05 206.9826896
-56.28381539 -1.55250184e-05 47.39366503
184.3552452 225.1927863 2.643218977e-11
167.2856729 -1.55250184e-05 175.8103287
137.7039772 24.76107427 2.643218977e-11
214.3327421 108.9393894 48.69180973
-152.9981629 -1.55250184e-05 110.7393957
46.32442671 -1.55250184e-05 193.1131609
-19.97495369 167.9537652 2.643218977e-11
184.2321631 -1.55250184e-05 130.1945288
49.67341191 207.0914662 2.643218977e-11
214.3327421 101.1578658 83.7997332
39.03925091 -1.55250184e-05 124.2918814
-165.0725497 118.3091302 2.643218977e-11
-41.75144859 235.5407021 2.643218977e-11
234.9172432 230.9679441 2.643218977e-11
214.3327421 145.2886489 204.0759145
208.6670572 -1.55250184e-05 231.9054038
193.6610941 48.10591457 2.643218977e-11
67.84710391 25.85476317 2.643218977e-11
-109.0975114 35.53803027 2.643218977e-11
-21.53484749 -1.55250184e-05 210.5199066
214.3327421 138.2068471 86.3804823
35.24914341 244.1830479 2.643218977e-11
141.4096602 244.9362741 2.643218977e-11
-201.7365508 93.76123977 2.643218977e-11
111.6781197 59.45989027 2.643218977e-11
64.13418851 150.0553548 2.643218977e-11
-176.0724761 13.65971117 2.643218977e-11
185.8379939 31.25738837 2.643218977e-11
-91.79930579 32.37765997 2.643218977e-11
132.8505007 -1.55250184e-05 30.36886317
214.3327421 73.27571157 250.1302801
136.1137475 102.5717862 2.643218977e-11
214.3327421 153.2302822 123.6790966
223.2677942 145.4540497 2.643218977e-11
-197.1368882 -1.55250184e-05 82.0903281
215.0082507 -1.55250184e-05 57.23389748
84.47036311 60.46335997 2.643218977e-11
214.3327421 177.0154748 34.62914407
200.0985485 -1.55250184e-05 39.73163782
214.3327421 56.95284337 160.2402682
113.6874848 -1.55250184e-05 128.4626609
214.3327421 90.98488177 34.09503458
214.3327421 177.748199 8.12081527
72.38628291 -1.55250184e-05 97.2984784
151.8471437 -1.55250184e-05 16.70506815
124.6753009 49.07183907 2.643218977e-11
-103.7270987 152.7983229 2.643218977e-11
-29.98522729 -1.55250184e-05 117.056802
69.67846841 87.50351507 2.643218977e-11
49.36943721 143.006306 2.643218977e-11
108.9457131 -1.55250184e-05 12.42278321
189.9841808 -1.55250184e-05 114.7441516
-197.4834694 -1.55250184e-05 234.884563
214.3327421 236.5919225 251.1151288
214.3327421 136.3797481 238.2312346
153.535545 -1.55250184e-05 113.5099204
116.5897477 173.8873877 2.643218977e-11
214.3327421 47.38512237 48.93463775
214.3327421 97.06669087 131.234274
155.5496438 190.9196338 2.643218977e-11
214.3327421 78.89052617 225.0424144
-108.7251951 -1.55250184e-05 87.877744
-103.1860338 -1.55250184e-05 182.6766081
198.2312285 75.41575367 2.643218977e-11
-84.65936079 -1.55250184e-05 242.2931503
-114.8970097 219.8097829 2.643218977e-11
221.3959912 -0.826203425 2.643218977e-11
111.9657637 -1.55250184e-05 62.9849199
-106.1541567 231.590074 2.643218977e-11
214.3327421 220.3895935 60.114659
234.6458009 -1.55250184e-05 123.1724077
208.219741 214.0806788 2.643218977e-11
227.1199293 120.5173376 2.643218977e-11
189.7439562 185.0045551 2.643218977e-11
-125.0485703 170.0291818 2.643218977e-11
40.37605481 -1.55250184e-05 145.4406946
72.13798391 128.4639251 2.643218977e-11
208.1731839 20.99670047 2.643218977e-11
-141.2885258 -1.55250184e-05 152.7654034
237.9550655 172.2587749 2.643218977e-11
-36.82119009 109.2000477 2.643218977e-11
-53.59502149 251.3902154 2.643218977e-11
-63.63880079 -1.55250184e-05 128.5428177
128.4406499 -1.55250184e-05 150.6178545
214.3327421 13.53753727 132.7702118
-125.2721395 145.1671295 2.643218977e-11
191.4958411 -1.55250184e-05 163.7818817
238.1899216 -1.55250184e-05 237.4826292
-182.7978038 38.34735247 2.643218977e-11
104.5972833 -1.55250184e-05 181.369385
214.3327421 203.1097728 17.57251113
-37.46382359 209.027309 2.643218977e-11
-125.2528944 -1.55250184e-05 193.2773135
-18.75955379 67.90987457 2.643218977e-11
-88.49411529 -1.55250184e-05 115.4514073
214.3327421 223.5204833 88.6128321
214.3327421 80.83215547 100.1158649
-145.436004 87.22098247 2.643218977e-11
91.56574941 -1.202282825 2.643218977e-11
96.42160721 82.68732357 2.643218977e-11
229.3334439 -1.55250184e-05 148.2190272
214.3327421 180.0322794 103.7971987
-200.8467869 -1.55250184e-05 139.756646
-28.37386329 -1.55250184e-05 12.89145148
180.6685856 142.0895659 2.643218977e-11
-27.18758429 -1.55250184e-05 52.20422214
51.93229871 33.61390797 2.643218977e-11
-199.4931796 -1.55250184e-05 11.74830179
112.4313255 -1.55250184e-05 33.87791265
142.6963278 -1.55250184e-05 40.14957672
214.3327421 40.47144987 232.6721606
-54.09530289 -1.55250184e-05 166.1430181
54.96212901 99.09721147 2.643218977e-11
214.3327421 92.76586617 207.7809588
152.0553051 -1.55250184e-05 243.6214495
145.1632406 -1.55250184e-05 170.9592923
226.6776569 197.3815781 2.643218977e-11
129.3803984 173.9087521 2.643218977e-11
237.7717448 -1.55250184e-05 99.1534052
-92.21012179 141.3835923 2.643218977e-11
84.17350601 -1.55250184e-05 62.8336082
214.3327421 193.6655585 92.4709298
225.4882664 -1.55250184e-05 39.08809672
-37.95715049 -1.55250184e-05 168.4198215
214.3327421 169.6766961 179.0252747
150.5230142 -1.55250184e-05 156.2047724
110.5584412 186.7427966 2.643218977e-11
214.3327421 37.20770937 128.8212372
214.3327421 139.4541947 147.3384072
-65.07755129 118.2515706 2.643218977e-11
214.3327421 120.3569738 163.8473956
-153.6091512 196.9833591 2.643218977e-11
72.33777941 11.57040607 2.643218977e-11
203.5722882 -2.115964125 2.643218977e-11
-176.2985986 -1.55250184e-05 193.4791536
46.28095091 -1.55250184e-05 25.31406493
-152.6836454 138.7384891 2.643218977e-11
9.462849109 -1.55250184e-05 209.403657
-123.3767704 -1.55250184e-05 80.248177
216.0813365 -1.55250184e-05 84.439307
-200.2443706 -1.55250184e-05 166.2595041
159.2710584 -1.55250184e-05 27.14525012
92.31745851 167.3177354 2.643218977e-11
-153.5572665 157.918433 2.643218977e-11
222.6476978 159.1732882 2.643218977e-11
-67.12996999 -1.55250184e-05 104.5100103
214.3327421 244.754813 48.648644
214.3327421 125.9658227 210.8571049
49.00331051 -1.55250184e-05 91.5049459
-74.90313909 -1.55250184e-05 136.9116625
-77.50659709 -1.55250184e-05 159.3741982
-41.46190249 -1.55250184e-05 102.4288248
-23.92067219 103.3241639 2.643218977e-11
-109.9537826 192.9400553 2.643218977e-11
20.32795841 96.33490727 2.643218977e-11
236.2303147 -1.55250184e-05 182.0025358
-125.3005305 41.64753877 2.643218977e-11
-155.1304958 -1.55250184e-05 216.2358948
103.2079978 142.662403 2.643218977e-11
28.40041831 153.5415159 2.643218977e-11
198.6946295 -1.55250184e-05 100.409898
76.36047851 70.11412597 2.643218977e-11
177.8313852 44.15022357 2.643218977e-11
214.3327421 107.4652543 215.4431359
214.3327421 190.9942994 116.694248
214.3327421 180.7190859 157.5810424
214.3327421 12.44746347 28.96578246
214.3327421 8.852106175 144.9870565
84.97738441 -1.55250184e-05 35.98755177
-39.06631839 178.284034 2.643218977e-11
214.3327421 100.1888812 195.4169236
214.3327421 115.0115199 37.93243635
214.3327421 79.40717227 9.39172815
-53.83676869 -1.55250184e-05 232.9509429
-85.43459009 249.4589171 2.643218977e-11
214.3327421 167.0227816 221.3877245
170.8123732 170.0713241 2.643218977e-11
-129.2744482 156.4306183 2.643218977e-11
214.3327421 217.0165624 77.8362738
214.3327421 165.5046328 81.5844227
162.1827859 17.82835127 2.643218977e-11
-28.43784059 -1.55250184e-05 241.8237413
-153.2177688 -1.55250184e-05 29.94380548
-17.92657219 -1.55250184e-05 66.2447027
-106.5895036 12.92659917 2.643218977e-11
-184.7631507 -1.55250184e-05 143.8538592
214.3327421 248.7471949 6.30670387
123.4710303 -1.55250184e-05 166.955192
140.2634092 -1.55250184e-05 2.84611902
-127.6086811 56.20652427 2.643218977e-11
214.3327421 235.9526108 226.2425898
214.3327421 30.55443737 249.2499984
214.3327421 8.983666975 225.3777888
-200.0663915 -1.55250184e-05 187.3204693
214.3327421 204.7996282 248.1390582
214.3327421 61.18744027 135.9723543
98.38527921 -1.55250184e-05 82.2074667
223.7065447 -1.55250184e-05 187.5460391
1.905783509 225.6035077 2.643218977e-11
-194.5032993 208.8687809 2.643218977e-11
214.3327421 184.1322189 63.5469675
-130.0364523 202.3658114 2.643218977e-11
-78.84449119 -1.55250184e-05 122.2528708
153.3683256 115.5719761 2.643218977e-11
214.3327421 60.67957807 78.8915378
-84.19826349 -1.55250184e-05 90.0385224
-60.58720309 137.3524576 2.643218977e-11
134.5503648 186.0375183 2.643218977e-11
-190.9121275 194.0093706 2.643218977e-11
-188.6404045 -1.55250184e-05 161.834572
214.3327421 130.6045765 224.4489742
214.3327421 83.36766187 148.2293271
-126.6149321 71.25616687 2.643218977e-11
114.5053499 -1.55250184e-05 219.4256699
168.6621489 148.1900333 2.643218977e-11
55.71040001 -1.55250184e-05 104.5512954
86.07559701 104.8061007 2.643218977e-11
214.3327421 122.8086197 239.5931556
49.64123631 -1.55250184e-05 71.1540927
72.36765241 -1.55250184e-05 9.99254527
-214.3327547 220.3519012 -1.83557867
65.65426921 187.8307375 2.643218977e-11
-30.93286959 57.25388327 2.643218977e-11
-183.9636433 5.060411075 2.643218977e-11
21.73168131 -1.55250184e-05 74.7624349
10.53966691 174.1669687 2.643218977e-11
142.2661511 -1.55250184e-05 249.9055851
48.62652111 -1.55250184e-05 171.0596701
225.7195917 -1.55250184e-05 159.6914954
72.94803311 -1.55250184e-05 162.2982646
-169.402258 -1.55250184e-05 237.0827841
186.3736182 -1.55250184e-05 12.42110707
-134.379533 -1.55250184e-05 64.4485793
96.20874921 54.15566227 2.643218977e-11
-45.55359859 64.61870017 2.643218977e-11
-169.4389726 62.64843657 2.643218977e-11
-147.9709317 111.6722011 2.643218977e-11
-174.9217263 -1.55250184e-05 127.9487038
158.4621792 98.99432127 2.643218977e-11
194.1913812 -1.55250184e-05 87.5945057
83.59600671 153.5259859 2.643218977e-11
-203.1199943 135.5253037 2.643218977e-11
-3.381615291 -1.55250184e-05 160.7635977
166.6450985 -1.55250184e-05 157.5915116
-34.06824709 -1.55250184e-05 144.9816136
214.3327421 127.0202526 151.0605299
171.4493543 -1.55250184e-05 98.3005103
198.9342631 -1.55250184e-05 193.9973345
149.063447 -1.55250184e-05 141.716346
96.59902651 -1.55250184e-05 152.6482006
209.4548458 136.8261415 2.643218977e-11
-201.247505 -1.55250184e-05 93.7191889
197.1964935 -1.55250184e-05 218.8313863
214.3327421 209.3572788 106.2410898
110.312271 91.82058147 2.643218977e-11
214.3327421 218.0478988 129.520975
-176.6162559 98.90166447 2.643218977e-11
214.3327421 35.26913707 152.3331498
214.3327421 151.2395103 101.758253
-128.0620307 -1.55250184e-05 222.2765207
214.3327421 235.8629365 57.9508798
214.3327421 112.2752121 138.0573782
-139.1541691 -1.55250184e-05 225.2603139
217.6348846 -1.55250184e-05 135.0080295
-80.15528869 98.25369477 2.643218977e-11
-82.07959079 -1.55250184e-05 12.78294699
-72.98388959 228.5629775 2.643218977e-11
-151.6848482 223.5952651 2.643218977e-11
-118.0172221 62.55182567 2.643218977e-11
85.64149581 -1.55250184e-05 117.562781
116.2185509 236.7174447 2.643218977e-11
214.3327421 68.15111147 192.5736563
61.54596251 -1.55250184e-05 222.7632148
94.24405401 251.3258032 2.643218977e-11
208.925542 100.4609555 2.643218977e-11
22.72117891 212.4329479 2.643218977e-11
214.3327421 22.90829257 94.0524623
-4.015925991 -1.55250184e-05 230.3404744
-59.22377549 -1.55250184e-05 214.8356958
98.99526691 36.45161247 2.643218977e-11
204.4634524 43.65868367 2.643218977e-11
214.3327421 235.9220159 82.0426309
133.6145287 -1.55250184e-05 105.1821205
214.3327421 134.6743405 180.7287508
228.7730912 73.60132007 2.643218977e-11
46.31954771 -1.55250184e-05 10.85129608
214.3327421 216.1429573 39.9118495
120.4091627 -1.55250184e-05 187.8498974
-107.6052668 -1.55250184e-05 49.51863478
-163.2327667 93.30340327 2.643218977e-11
-45.46421889 134.2618171 2.643218977e-11
-72.18648729 -1.55250184e-05 53.61548973
77.84739461 -1.55250184e-05 142.7474793
214.3327421 246.4342903 138.2927954
0.5122705086 24.78337197 2.643218977e-11
214.3327421 17.70950257 214.0260202
224.4854617 41.77129157 2.643218977e-11
-0.6234639914 103.2206213 2.643218977e-11
-44.32464609 77.11342457 2.643218977e-11
67.65394421 169.9097631 2.643218977e-11
-27.50032979 245.0192838 2.643218977e-11
214.3327421 113.5381113 186.3543816
-51.63254929 -1.55250184e-05 153.221315
28.19836401 68.44879657 2.643218977e-11
-39.26533169 -1.55250184e-05 38.80558402
-38.09481389 34.45385227 2.643218977e-11
92.57450651 22.16477677 2.643218977e-11
214.3327421 117.7291156 91.5484686
214.3327421 65.25781037 236.5524221
214.3327421 40.30248987 193.1346508
214.3327421 119.8113008 66.0305302
-125.0777935 106.0489169 2.643218977e-11
-85.15115389 68.76085547 2.643218977e-11
-75.18671419 128.061557 2.643218977e-11
39.06003291 39.41797677 2.643218977e-11
-140.0204241 221.3409369 2.643218977e-11
130.9889824 -1.55250184e-05 193.7527477
132.4483617 210.3839355 2.643218977e-11
181.3290703 -1.55250184e-05 222.9910277
-104.7503745 -1.55250184e-05 229.7246025
-157.4605862 9.137414975 2.643218977e-11
-85.95492259 -1.55250184e-05 138.4103765
0.5348409086 -1.55250184e-05 54.08102537
157.9704559 202.4837853 2.643218977e-11
-154.6184965 -1.55250184e-05 134.6945226
-168.0140756 -1.55250184e-05 111.4411801
214.3327421 23.39844907 27.05269997
157.2852483 -1.55250184e-05 45.76914817
-129.4946981 -1.55250184e-05 103.6778108
214.3327421 149.5500033 134.1542035
214.3327421 10.48367167 203.3764539
159.411406 231.2036814 2.643218977e-11
-29.03112019 -1.55250184e-05 81.1147474
214.3327421 205.6844183 153.8218697
214.3327421 152.7925182 28.44628987
-113.8929148 114.86737 2.643218977e-11
-69.64484529 11.73128167 2.643218977e-11
-158.3120179 -1.55250184e-05 238.9873289
65.68057851 104.7090404 2.643218977e-11
191.2105096 98.85972077 2.643218977e-11
214.3327421 193.8753171 10.22997115
-100.1613833 198.1134667 2.643218977e-11
-99.28719839 -1.55250184e-05 171.4848333
18.22429141 -1.55250184e-05 97.0775891
55.74523451 -1.55250184e-05 154.3487239
232.2379149 181.7101039 2.643218977e-11
-18.37644119 -1.55250184e-05 135.3420309
214.3327421 171.78544 165.5949817
-74.41287129 209.3629412 2.643218977e-11
214.3327421 110.135016 59.65192881
-22.61500439 -1.55250184e-05 27.83708557
158.197276 66.99309407 2.643218977e-11
72.70323051 160.1230313 2.643218977e-11
-194.0855018 -1.55250184e-05 67.381558
-119.8796953 84.57030707 2.643218977e-11
214.3327421 89.95266897 6.24752261
214.3327421 59.59827377 6.10028959
227.2184242 61.26219157 2.643218977e-11
-98.77776169 -1.55250184e-05 159.0430679
74.98729761 236.8729716 2.643218977e-11
-39.20020989 -1.55250184e-05 224.2172979
214.3327421 41.09846537 96.8818156
-128.7002558 -1.55250184e-05 126.1926128
23.86181381 -1.55250184e-05 51.34153199
214.3327421 30.10812457 78.1564436
-180.8850084 151.8235001 2.643218977e-11
214.3327421 178.4243122 19.96115289
13.57721441 -1.55250184e-05 240.2703015
-163.5471666 -1.55250184e-05 194.093418
-37.09497499 86.74779767 2.643218977e-11
221.4251624 -1.55250184e-05 26.99033773
-16.68276609 -1.55250184e-05 161.3349143
-186.0880961 -1.55250184e-05 37.16904395
141.4772023 79.93854697 2.643218977e-11
214.3327421 25.60191597 51.64237481
214.3327421 179.1477488 240.9367931
194.5228433 242.7364934 2.643218977e-11
214.3327421 202.6850754 205.826731
-112.5658985 -1.55250184e-05 239.6321534
-65.31297349 236.2831944 2.643218977e-11
146.5662559 36.56232317 2.643218977e-11
214.3327421 155.8349786 181.5115802
238.1702798 -1.55250184e-05 213.319717
44.88075511 -1.55250184e-05 44.83908314
214.3327421 119.5360713 200.5353116
41.67395191 24.28868657 2.643218977e-11
221.0544494 211.8122301 2.643218977e-11
-165.343358 -1.55250184e-05 53.66277564
-90.31914979 8.400256075 2.643218977e-11
-109.8725687 -1.55250184e-05 22.05511114
-171.532395 -1.55250184e-05 92.1555251
-79.98580619 219.4339805 2.643218977e-11
-29.11244559 -1.55250184e-05 155.9843683
-132.0988724 -1.55250184e-05 162.9759304
-23.76743189 -1.55250184e-05 91.0549276
-45.58386909 -1.55250184e-05 211.773466
111.9970514 -1.55250184e-05 96.1298033
214.3327421 225.2499282 10.91882457
214.3327421 18.93745847 75.049777
-94.45614299 173.8600402 2.643218977e-11
-172.7902409 -1.55250184e-05 148.3540383
60.46134801 -1.55250184e-05 60.9446495
64.83725411 246.4850998 2.643218977e-11
90.99108341 145.3613807 2.643218977e-11
49.31531611 -1.55250184e-05 121.2689806
132.8471851 -1.55250184e-05 73.6335296
-133.7278879 -1.55250184e-05 142.3234986
14.68252241 87.25279287 2.643218977e-11
214.3327421 220.5469464 212.698101
-135.9055664 40.38090387 2.643218977e-11
77.01370771 -1.55250184e-05 182.5912977
214.3327421 151.2340482 233.0945404
-16.38958379 111.9239824 2.643218977e-11
-175.5258791 -1.55250184e-05 215.706851
-212.5371919 -1.55250184e-05 201.4067832
37.79749851 -1.55250184e-05 63.5279377
-214.3327547 -1.146740125 72.347269
37.92303111 136.381201 2.643218977e-11
-199.8790174 150.1542135 2.643218977e-11
97.92668851 -1.55250184e-05 57.07796767
214.3327421 179.7593714 133.9889725
214.3327421 160.2641833 93.6213454
-132.7093394 180.7306912 2.643218977e-11
41.27738441 213.5657233 2.643218977e-11
147.3238906 206.2554779 2.643218977e-11
91.78826491 -1.55250184e-05 128.3232962
214.3327421 63.99360257 105.1289185
214.3327421 238.1161405 4.75745726
201.3653686 152.0252147 2.643218977e-11
34.38241711 -1.55250184e-05 6.97394096
-66.86293259 -1.55250184e-05 38.87243291
-205.3767482 -1.55250184e-05 156.0960975
147.7366276 -1.55250184e-05 194.5357246
-120.5041363 -1.55250184e-05 163.0118534
48.87810451 -1.55250184e-05 182.8815092
30.39263311 46.58620587 2.643218977e-11
235.1076836 137.7287158 2.643218977e-11
-107.8137402 -1.904622225 2.643218977e-11
58.55197261 51.68156237 2.643218977e-11
-23.87227369 -1.55250184e-05 180.6848673
220.0510242 21.60828377 2.643218977e-11
29.02006451 -1.55250184e-05 102.0271524
-93.70910399 -1.55250184e-05 247.6426343
210.3321151 187.5387141 2.643218977e-11
58.19014211 -1.55250184e-05 132.3252838
214.3327421 73.20780617 20.00270981
-58.93595619 -1.55250184e-05 10.09663218
-214.3327547 57.74671147 -1.29162719
7.988851009 251.4919795 2.643218977e-11
171.7843513 -1.55250184e-05 84.5814972
40.48135051 -1.55250184e-05 220.1934003
211.3698268 113.8195715 2.643218977e-11
195.4462177 -1.55250184e-05 62.6444827
-137.9401621 -1.55250184e-05 181.6641334
214.3327421 244.1554668 28.31247076
73.78610901 -1.55250184e-05 210.960712
-95.97577729 -1.55250184e-05 190.4645014
188.3380978 -1.55250184e-05 238.3436778
214.3327421 85.28304687 47.92672713
-37.15915919 13.90254477 2.643218977e-11
185.8910091 153.4068101 2.643218977e-11
-204.8833202 -1.55250184e-05 54.21610777
79.78752791 38.81872627 2.643218977e-11
-76.63393329 -1.55250184e-05 197.2343393
173.2043297 -1.55250184e-05 149.2851536
-75.16770729 58.46534097 2.643218977e-11
-205.6642873 163.1098697 2.643218977e-11
-199.9838944 -1.55250184e-05 198.0874781
214.3327421 104.8253528 105.7235358
214.3327421 76.73735447 77.1467271
-201.9944359 -1.55250184e-05 105.7428476
214.3327421 72.19147997 88.4703294
-189.9229992 116.5446891 2.643218977e-11
83.86230071 8.892214475 2.643218977e-11
49.33687001 12.41060137 2.643218977e-11
179.9119499 90.08554457 2.643218977e-11
-162.8223723 221.7301996 2.643218977e-11
214.3327421 186.1273937 207.9338056
52.46004241 124.3449336 2.643218977e-11
214.3327421 125.647904 109.4838029
-0.4752358914 186.1080947 2.643218977e-11
89.85471171 -1.55250184e-05 90.4226172
214.3327421 10.01315257 188.3059495
-94.76262929 234.6655485 2.643218977e-11
214.3327421 178.9240878 183.6562821
-50.62103339 -1.55250184e-05 242.7769298
-14.60143609 179.0845522 2.643218977e-11
-113.6280195 -1.55250184e-05 251.9293984
214.3327421 123.7385874 23.28509928
-47.38750629 -1.55250184e-05 82.7372701
203.721161 -1.55250184e-05 80.1931715
214.3327421 113.150882 230.0335961
98.82933061 -1.55250184e-05 108.943166
140.7235592 -1.55250184e-05 19.13549884
-88.43536659 -1.55250184e-05 67.1128234
-179.9266018 61.46222817 2.643218977e-11
12.76017251 -1.55250184e-05 39.85474343
-45.98174599 -1.55250184e-05 175.2893374
-107.8850831 -1.55250184e-05 122.2993691
214.3327421 22.86288637 137.1462127
-152.6529111 -1.55250184e-05 190.5898739
-196.7288522 78.17972057 2.643218977e-11
-7.227449891 -1.55250184e-05 108.2794297
4.546784309 45.43010597 2.643218977e-11
237.0312743 -1.55250184e-05 58.85087164
214.3327421 18.36720217 229.4919752
214.3327421 34.30848917 172.4089503
-55.89858959 220.021805 2.643218977e-11
-72.77616409 198.6694544 2.643218977e-11
-173.4305134 -1.55250184e-05 10.08802926
1.084192109 196.4808184 2.643218977e-11
-19.94726059 11.22712617 2.643218977e-11
-102.9292806 -1.55250184e-05 40.45474683
238.5245936 162.0803839 2.643218977e-11
237.4924461 8.012995675 2.643218977e-11
214.3327421 242.3203412 199.989187
-40.16701419 148.9254734 2.643218977e-11
214.3327421 102.5565463 28.18725629
125.0534156 200.7630083 2.643218977e-11
-201.7963629 55.50294677 2.643218977e-11
-12.90572289 -1.55250184e-05 30.8356247
-192.8069971 134.5373559 2.643218977e-11
214.3327421 94.90388157 61.6013522
-124.9838878 93.35005137 2.643218977e-11
49.66593491 -1.55250184e-05 203.190133
222.610969 -1.55250184e-05 76.6702508
214.3327421 162.2638721 52.07413736
118.7229741 223.7663405 2.643218977e-11
214.3327421 50.84083177 115.8896134
-179.6121678 -1.55250184e-05 205.6915616
167.0103478 -1.55250184e-05 122.6479627
-58.04823719 -1.55250184e-05 118.9943046
-153.5264199 98.59025677 2.643218977e-11
56.75033901 109.5239467 2.643218977e-11
214.3327421 35.57936377 26.78522497
214.3327421 147.567354 215.667574
23.67254381 38.31412927 2.643218977e-11
214.3327421 55.52927147 227.8864368
178.3816732 193.2584819 2.643218977e-11
-132.7209973 -1.55250184e-05 6.18605428
-19.28841259 218.4604075 2.643218977e-11
-72.21294639 -1.55250184e-05 14.85200883
-131.2577357 9.865181075 2.643218977e-11
-192.5685136 13.30915557 2.643218977e-11
-98.45484419 100.1049192 2.643218977e-11
121.0237943 249.5245355 2.643218977e-11
173.3538015 180.9084461 2.643218977e-11
46.59761281 -1.55250184e-05 81.7595649
170.2410698 -1.55250184e-05 214.2650951
33.97355571 161.8850559 2.643218977e-11
90.52702651 -1.55250184e-05 23.01806598
-105.6642361 -1.55250184e-05 97.4217999
14.42539861 233.0044185 2.643218977e-11
214.3327421 225.8182829 245.3964925
-44.75881899 115.2780084 2.643218977e-11
228.5133312 109.7212016 2.643218977e-11
-115.697499 166.5041018 2.643218977e-11
-114.9542823 19.32369947 2.643218977e-11
214.3327421 247.3580076 115.0469098
102.3713916 123.2374412 2.643218977e-11
-48.13247269 -1.55250184e-05 29.98826706
214.3327421 173.6400275 113.4646888
214.3327421 247.7600802 168.9641729
-58.28689549 75.81819857 2.643218977e-11
-169.7852324 206.3828706 2.643218977e-11
159.8187511 -1.55250184e-05 5.34282178
89.54933891 -1.55250184e-05 244.1392014
-156.9127149 29.45992227 2.643218977e-11
-3.145990291 77.10962197 2.643218977e-11
214.3327421 84.81821407 129.6866919
-209.2629596 -1.55250184e-05 249.1100666
-208.5501603 -1.660743825 2.643218977e-11
214.3327421 241.7603198 13.97924437
200.0883356 202.6228682 2.643218977e-11
-60.84388389 7.191730375 2.643218977e-11
214.3327421 47.87907987 7.65764572
-45.34034889 -1.55250184e-05 0.51739068
214.3327421 41.19887847 64.5826252
-201.6306749 -1.55250184e-05 128.8112918
25.09170571 -1.55250184e-05 119.1936046
140.9598439 130.4016029 2.643218977e-11
202.3726853 -1.55250184e-05 208.4787056
-144.6739968 58.74746787 2.643218977e-11
229.9172218 -1.55250184e-05 243.5679262
-214.3327547 107.1181251 -2.36797557
214.3327421 99.19138557 228.0268887
-179.0326355 29.23202377 2.643218977e-11
202.7797798 165.6525229 2.643218977e-11
214.3327421 133.4167078 116.6468863
-126.7284319 21.34067887 2.643218977e-11
-105.1935726 52.39302827 2.643218977e-11
214.3327421 85.04456367 214.3266781
-13.22689899 -1.55250184e-05 234.5637389
214.3327421 163.8776781 158.9262891
50.29805331 77.64473547 2.643218977e-11
147.7634376 107.2381614 2.643218977e-11
-119.9898653 192.5351744 2.643218977e-11
70.71010731 179.4142301 2.643218977e-11
-154.4245348 -1.55250184e-05 65.4600919
-125.6665446 -1.55250184e-05 89.7923578
214.3327421 37.40131537 242.2294244
58.46433491 -1.55250184e-05 184.8897959
-153.382372 -1.55250184e-05 85.6597886
-206.7361848 195.833931 2.643218977e-11
110.3425715 -1.55250184e-05 190.0926414
214.3327421 103.5760099 8.97688951
-109.3238718 240.8433022 2.643218977e-11
214.3327421 247.1904239 209.5477097
214.3327421 159.1412197 14.16616419
5.370087009 127.705477 2.643218977e-11
-162.3201966 -1.55250184e-05 230.073496
-150.9652472 169.0367575 2.643218977e-11
122.6131702 143.2234927 2.643218977e-11
-214.3327547 -1.113448625 40.23769356
-181.2671825 -1.55250184e-05 91.4037135
-131.3124692 30.54213247 2.643218977e-11
214.3327421 80.51698367 189.0111312
-100.2623564 130.5683783 2.643218977e-11
76.03839641 214.835304 2.643218977e-11
27.50884461 -1.55250184e-05 179.1220746
69.93219711 -1.55250184e-05 174.4106431
-90.19512059 196.7562089 2.643218977e-11
32.33242861 -1.55250184e-05 211.1798003
188.5708671 -1.55250184e-05 154.4661861
-155.8629495 53.91270997 2.643218977e-11
-205.743055 -1.55250184e-05 33.81461558
-177.330768 128.8966654 2.643218977e-11
79.22811581 -1.55250184e-05 238.1400048
107.3177317 -1.55250184e-05 87.6215161
65.32219591 -1.55250184e-05 197.874938
-12.95914369 139.797563 2.643218977e-11
214.3327421 68.21586837 50.44748957
-64.16191889 149.727393 2.643218977e-11
214.3327421 6.472048575 36.5866749
133.8260518 86.37986577 2.643218977e-11
-92.58686229 -1.55250184e-05 9.31355074
-138.4132049 141.4369852 2.643218977e-11
61.86820841 67.14217547 2.643218977e-11
3.706682709 -1.55250184e-05 179.9628953
-214.3327547 -1.140760525 215.7268846
50.22441551 -1.55250184e-05 214.8506739
-178.4558129 234.9349234 2.643218977e-11
-161.1228504 134.0412845 2.643218977e-11
214.3327421 234.2333621 133.3188303
214.3327421 12.65147547 95.2532216
214.3327421 98.56946667 159.9734162
214.3327421 140.9964408 103.1398801
43.34278461 237.2529636 2.643218977e-11
128.6004845 64.53544187 2.643218977e-11
-106.9337448 161.9006483 2.643218977e-11
-185.2696666 -1.55250184e-05 226.561943
214.3327421 177.3494009 71.0082269
-80.09966029 136.3201289 2.643218977e-11
99.52303421 212.4107146 2.643218977e-11
130.7547734 150.9257709 2.643218977e-11
214.3327421 115.7778806 248.5149873
194.6039321 -1.55250184e-05 30.79608325
-166.1001169 74.93991317 2.643218977e-11
214.3327421 96.57642977 75.3228683
-173.3970127 -1.55250184e-05 166.6901595
151.6253715 -1.55250184e-05 69.449843
-4.662854991 -1.55250184e-05 79.4326288
214.3327421 79.82539777 166.0041357
67.79970621 -1.55250184e-05 139.0639841
90.33393151 -1.55250184e-05 77.0364918
-76.71447969 48.39708237 2.643218977e-11
177.1553162 -1.55250184e-05 109.8697755
95.91961621 221.8072585 2.643218977e-11
214.3327421 205.114934 131.9647681
70.12901341 200.1273628 2.643218977e-11
-188.1658134 -1.55250184e-05 112.4584283
99.98139421 232.2732821 2.643218977e-11
237.3854579 20.29799257 2.643218977e-11
160.9259089 132.6625047 2.643218977e-11
-57.95107389 -1.55250184e-05 204.2190979
214.3327421 110.9001407 15.6735191
119.1257915 -1.55250184e-05 229.2516798
62.30186251 33.59786917 2.643218977e-11
141.8645024 -1.55250184e-05 152.2424039
214.3327421 196.2413021 167.6324018
42.02617061 52.50306887 2.643218977e-11
34.53838651 81.76750457 2.643218977e-11
95.16990321 -1.55250184e-05 199.6175185
166.305978 8.502264075 2.643218977e-11
-31.75693239 77.43491217 2.643218977e-11
-111.9272522 -1.55250184e-05 206.3257984
210.0758248 -1.55250184e-05 104.5236781
144.8277854 45.89659187 2.643218977e-11
62.57132601 -1.55250184e-05 35.14166295
169.0709144 236.2348512 2.643218977e-11
-26.39166059 -1.55250184e-05 220.0236075
16.16068001 3.043929075 2.643218977e-11
-16.76275879 43.69167717 2.643218977e-11
77.50793311 -1.55250184e-05 45.36338911
-49.99917689 97.87715877 2.643218977e-11
214.3327421 222.31727 19.91285142
231.2494004 -1.55250184e-05 171.3395205
-175.8385529 -1.55250184e-05 76.2962177
-16.68881119 -1.55250184e-05 201.055042
72.25464771 118.3928604 2.643218977e-11
134.064586 224.2276986 2.643218977e-11
1.852673009 -1.55250184e-05 203.8462523
169.660195 -1.55250184e-05 228.0387202
-12.11518159 162.3658858 2.643218977e-11
224.4599477 -1.55250184e-05 116.2665892
-9.103052591 -1.55250184e-05 153.2922944
214.3327421 87.20282447 107.0394209
214.3327421 72.28997137 201.0158097
214.3327421 201.2151656 179.4622249
58.07745321 216.0072278 2.643218977e-11
163.7880091 -1.55250184e-05 70.7473843
-50.67337779 -1.55250184e-05 39.5671639
-150.5691338 -1.55250184e-05 154.2019126
84.74120971 137.8109244 2.643218977e-11
231.6449486 -1.55250184e-05 6.03111651
-206.7455562 29.65489527 2.643218977e-11
231.4265389 100.4885807 2.643218977e-11
-82.53346439 162.6380906 2.643218977e-11
89.80398891 72.48332227 2.643218977e-11
214.3327421 59.77204837 186.0854494
214.3327421 148.4980807 165.3543768
51.05304671 -1.55250184e-05 146.2424104
-161.2285253 239.9055853 2.643218977e-11
63.37413721 -1.55250184e-05 94.7513097
186.4252532 -1.55250184e-05 69.175028
109.2331884 68.48583477 2.643218977e-11
10.30447621 55.77954887 2.643218977e-11
-123.0496771 -1.55250184e-05 64.94337
-166.2346518 177.4194358 2.643218977e-11
18.08083101 -1.55250184e-05 224.6189532
-93.91365959 -1.55250184e-05 181.3750975
214.3327421 204.4795381 57.20696274
214.3327421 56.69540867 48.57236294
-206.1629586 -1.55250184e-05 76.9547508
-179.810441 -1.55250184e-05 105.2907618
-54.07607079 154.8265666 2.643218977e-11
229.3136696 -1.55250184e-05 85.8308432
123.093369 103.4855076 2.643218977e-11
214.3327421 226.9438335 116.4702529
-169.2749616 24.40114777 2.643218977e-11
-95.18194079 208.7885792 2.643218977e-11
214.3327421 68.74746207 162.0785527
5.840744209 -1.55250184e-05 170.6055064
60.00973381 86.54091457 2.643218977e-11
-4.107082391 -1.55250184e-05 21.72722661
121.3756924 10.00263557 2.643218977e-11
49.66226981 153.7678172 2.643218977e-11
119.0448652 -1.55250184e-05 87.748252
-147.9357203 -1.55250184e-05 248.4450383
117.2443629 79.68501377 2.643218977e-11
-137.4834592 -1.55250184e-05 172.3901027
98.35540751 -1.55250184e-05 37.68128737
-187.1761528 73.31904517 2.643218977e-11
-112.7185851 -1.55250184e-05 156.3402622
-21.91396399 127.6156243 2.643218977e-11
214.3327421 225.5857726 40.78143574
-105.1367541 208.4153594 2.643218977e-11
214.3327421 132.1005747 62.2356275
86.02162021 230.9703768 2.643218977e-11
220.1217706 -1.55250184e-05 239.3171838
-85.35131379 -1.55250184e-05 32.27923328
-68.37597659 -1.55250184e-05 249.261678
-7.184952791 -1.55250184e-05 188.8688913
214.3327421 141.4633478 195.3235778
111.336571 -1.55250184e-05 116.0387998
-78.52430879 -1.55250184e-05 235.4218794
161.5731143 90.32644307 2.643218977e-11
87.35603981 190.2601368 2.643218977e-11
31.05817551 -1.55250184e-05 111.2302708
-17.27458089 -1.55250184e-05 97.5666171
-207.4184571 -1.55250184e-05 16.41108033
-94.16963309 54.39577267 2.643218977e-11
19.27753341 52.84047587 2.643218977e-11
-72.28667999 165.990943 2.643218977e-11
-66.71902269 -1.55250184e-05 23.69309085
-105.639667 249.4328792 2.643218977e-11
214.3327421 40.56079447 212.4049196
214.3327421 9.765714075 75.2495768
5.138925409 -1.55250184e-05 63.5894372
-174.9487503 -1.55250184e-05 54.59981025
214.3327421 157.7382619 214.3316161
-68.59211299 -1.55250184e-05 62.0421336
164.760728 58.53760747 2.643218977e-11
-58.68873339 -1.55250184e-05 143.7820323
215.8893787 -1.55250184e-05 224.5654007
-56.91715239 25.70917477 2.643218977e-11
214.3327421 52.73772577 246.9227798
151.5898552 -1.55250184e-05 38.03890596
-12.80365499 120.9599941 2.643218977e-11
178.5621445 -1.55250184e-05 17.16104799
-187.0399791 -1.55250184e-05 8.15375342
58.71067891 -1.55250184e-05 247.0455755
146.6617589 60.62949137 2.643218977e-11
-148.3144205 8.129030275 2.643218977e-11
125.6228869 241.6583615 2.643218977e-11
11.22042791 96.13147927 2.643218977e-11
-214.3327547 -1.929810425 180.8150624
214.3327421 87.65776107 138.7148818
178.8307276 80.85445597 2.643218977e-11
-195.5262308 -1.55250184e-05 36.92163016
64.30367531 -1.55250184e-05 159.4596462
90.28107421 -1.55250184e-05 99.507509
-141.204038 -1.55250184e-05 43.20423764
214.3327421 31.50158697 225.4388528
-151.9113127 21.44049297 2.643218977e-11
214.3327421 201.1001054 97.6820322
214.3327421 161.3719968 145.6944875
215.0557732 -1.55250184e-05 161.9398266
214.3327421 144.0133907 155.9015433
123.0230953 -1.55250184e-05 11.2872161
39.79316201 2.073133775 2.643218977e-11
228.7841608 -1.55250184e-05 17.08507694
-178.9358672 195.7003643 2.643218977e-11
214.3327421 230.7775798 215.8991064
-30.49744359 174.9094856 2.643218977e-11
236.0126666 55.89136247 2.643218977e-11
23.25882031 -1.55250184e-05 170.2749581
214.3327421 142.1145972 222.880085
188.0356371 234.700208 2.643218977e-11
149.3434462 183.3747022 2.643218977e-11
-127.635449 -1.55250184e-05 36.00845408
-47.11388979 168.6910443 2.643218977e-11
-20.53651669 146.4201135 2.643218977e-11
214.3327421 9.089207175 155.0155269
214.3327421 85.92991807 77.4294492
-208.8996373 120.0011064 2.643218977e-11
216.6208391 83.86133767 2.643218977e-11
-65.13876299 81.67778177 2.643218977e-11
214.3327421 111.3674572 172.9628683
214.3327421 250.8341258 69.6148038
-61.79614389 182.4081169 2.643218977e-11
166.9969905 218.9997419 2.643218977e-11
-51.36604749 197.9921485 2.643218977e-11
-174.3199192 120.4090911 2.643218977e-11
-164.8705024 -1.55250184e-05 172.7290941
235.1709239 37.87651967 2.643218977e-11
214.3327421 233.172179 151.5557709
-2.607703191 233.3896851 2.643218977e-11
26.13864511 128.1058719 2.643218977e-11
13.74827961 -1.55250184e-05 104.8652606
202.0415167 -1.55250184e-05 180.4628207
-157.9365902 184.2254909 2.643218977e-11
214.3327421 144.4791976 48.69471245
-67.67592379 -1.55250184e-05 78.4999119
178.9585162 -1.55250184e-05 31.71501271
-48.67758049 -1.55250184e-05 107.7729366
-214.3327547 -2.249863725 63.0037039
163.4213832 -1.55250184e-05 38.70908487
79.90601851 -1.55250184e-05 91.3425385
-93.90860249 -1.55250184e-05 145.1476227
61.55670941 13.74336597 2.643218977e-11
-67.97343709 103.5105832 2.643218977e-11
-136.1311093 61.87156727 2.643218977e-11
89.10091751 201.8883141 2.643218977e-11
22.49782781 -1.55250184e-05 240.624522
-202.798994 41.73448337 2.643218977e-11
14.66249191 -1.55250184e-05 151.5248725
-151.8428863 -1.55250184e-05 95.8035939
156.3602119 169.2308917 2.643218977e-11
-104.3158136 -1.55250184e-05 80.143524
214.3327421 98.52402007 169.0813849
214.3327421 107.3956779 114.8332189
149.1567331 -1.55250184e-05 3.00650104
32.81330831 20.36000747 2.643218977e-11
214.3327421 24.92636837 62.0795431
-145.2091683 160.9765445 2.643218977e-11
214.3327421 49.39204887 153.0219271
214.3327421 140.3165067 66.33025
-9.009307991 49.14010107 2.643218977e-11
208.5513733 -1.55250184e-05 63.3385677
146.9914001 20.25464707 2.643218977e-11
-29.55923179 96.47139357 2.643218977e-11
105.9021834 113.2318994 2.643218977e-11
187.3989897 10.96536217 2.643218977e-11
-65.43707329 57.60468337 2.643218977e-11
214.3327421 64.56371427 125.6046826
125.8666714 -1.55250184e-05 235.0088579
214.3327421 120.8400765 191.7710986
99.09143161 45.77834287 2.643218977e-11
-129.3889781 -1.55250184e-05 52.34915734
221.1288171 -1.55250184e-05 63.6383747
169.4600799 24.12547767 2.643218977e-11
26.77107401 -1.55250184e-05 82.032744
