# .PCD v0.7 - Point Cloud Data file format
VERSION 0.7
FIELDS x y z
SIZE 4 4 4
TYPE F F F
COUNT 1 1 1
WIDTH 1263
HEIGHT 1
VIEWPOINT 0 0 0 1 0 0 0
POINTS 1263
DATA ascii
-7.578558143e-05 153.3317105 44.82985838
-7.578558143e-05 -43.8647308 210.0559711
-0.2052407856 256.0118982 6.286882126e-11
150.5962612 250 167.6670559
-7.578558143e-05 41.0266879 125.3596772
29.53395421 250 239.8407724
136.2837962 -113.7342485 6.286882126e-11
156.7257372 -58.4745649 6.286882126e-11
-7.578558143e-05 -8.2498204 166.8740776
0.1289192144 105.1170594 6.286882126e-11
250.5857502 -113.9312767 6.286882126e-11
195.3445342 -86.163855 6.286882126e-11
-7.578558143e-05 -237.0565639 252.0667556
-7.578558143e-05 -187.4039482 166.6515049
168.1722032 149.9907815 6.286882126e-11
105.5309402 197.7252832 6.286882126e-11
54.57601721 -48.9105223 6.286882126e-11
27.51132521 143.7923254 6.286882126e-11
251.0581332 -66.4940108 6.286882126e-11
-7.578558143e-05 220.9707378 234.8093103
-7.578558143e-05 -188.4723982 114.8931546
-7.578558143e-05 10.4464136 12.63580055
23.58646021 -41.7102207 6.286882126e-11
0.9993572144 250 218.0963824
218.8090702 250 103.814823
-7.578558143e-05 -65.380973 60.657882
-7.578558143e-05 -248.6723261 31.15010295
-7.578558143e-05 -197.4659981 220.5378224
251.8000562 -184.0998444 6.286882126e-11
56.21601621 134.2524498 6.286882126e-11
-7.578558143e-05 139.6487833 200.7636331
103.9938162 253.0979335 6.286882126e-11
102.6227862 -112.0773536 6.286882126e-11
100.9473582 -183.8039711 6.286882126e-11
-7.578558143e-05 -247.0280975 91.050485
249.5983102 -215.5926277 6.286882126e-11
-7.578558143e-05 100.1500586 247.8762087
-7.578558143e-05 62.7533429 205.5985472
169.4752812 250 140.6333714
64.67105521 250 21.81686855
-7.578558143e-05 -90.8770927 183.5471162
126.2828362 44.6549272 6.286882126e-11
246.2511032 250 155.3290396
250.7346842 94.1459805 6.286882126e-11
169.8315102 -118.5447314 6.286882126e-11
128.5324342 250 17.65373413
225.9738372 -131.1064768 6.286882126e-11
161.9231852 250 66.1180642
80.10620821 -23.5415988 6.286882126e-11
161.5642402 250 223.9493695
212.5136032 250 192.9463061
-7.578558143e-05 -83.9033713 21.22876904
28.35526221 40.2943489 6.286882126e-11
179.4645322 250 39.11076033
25.20386421 250 174.5160977
46.14165321 -98.7200447 6.286882126e-11
-7.578558143e-05 150.9121148 77.7050418
-2.016422786 191.8452391 6.286882126e-11
196.6451292 246.6023595 6.286882126e-11
-7.578558143e-05 -16.2809389 232.194358
-7.578558143e-05 202.3774265 142.18384
-7.578558143e-05 -34.9159155 182.5532863
109.6641692 -246.8273912 6.286882126e-11
94.68619621 94.3994643 6.286882126e-11
56.00121021 250 186.1667754
-7.578558143e-05 249.3897999 30.28431366
-7.578558143e-05 -130.8766498 149.6050358
75.58846421 189.7107148 6.286882126e-11
-7.578558143e-05 -223.0367741 110.6384668
226.3031772 250 58.13178508
-7.578558143e-05 -178.2449352 244.5578118
-7.578558143e-05 186.9296094 215.8701964
63.15254021 -76.5569405 6.286882126e-11
-7.578558143e-05 -21.2209565 28.10021453
112.6704792 250 217.977243
134.4118122 250 110.1233931
220.3713512 116.756991 6.286882126e-11
67.25355221 108.223134 6.286882126e-11
-7.578558143e-05 -174.9705063 30.59462294
-7.578558143e-05 -192.7249927 62.7871952
114.7814352 -54.212327 6.286882126e-11
44.43192921 64.7162351 6.286882126e-11
120.9166722 157.3452487 6.286882126e-11
-7.578558143e-05 -234.0340053 145.6919202
-7.578558143e-05 -22.7722759 55.55256343
148.8157012 -9.3605411 6.286882126e-11
25.42797721 172.3999308 6.286882126e-11
-7.578558143e-05 -32.3102464 111.9255171
-7.578558143e-05 41.002601 249.2389946
147.7920322 235.9491829 6.286882126e-11
82.61390521 250 142.4242643
-7.578558143e-05 -49.8353698 152.8988604
-7.578558143e-05 -127.0148707 48.39082378
236.9870892 -2.9729344 6.286882126e-11
-7.578558143e-05 -106.9680276 79.0417916
-7.578558143e-05 -141.2068709 200.8677073
192.7305502 250 96.4633283
182.6007562 27.0684159 6.286882126e-11
-7.578558143e-05 105.4323381 50.91404758
12.10241921 -153.8997852 6.286882126e-11
-7.578558143e-05 -225.1503043 69.8481186
120.8224052 250 50.59048602
-7.578558143e-05 83.8014894 148.4662762
-7.578558143e-05 58.9416983 22.22247358
61.43921221 -223.390726 6.286882126e-11
2.933624214 250 139.0574434
250.9597482 250 21.00570248
86.34140921 250 168.014731
177.7682122 250 251.5636791
-7.578558143e-05 -105.3722569 207.6225977
220.6351842 250 249.9427636
1.687368214 130.7195654 6.286882126e-11
163.1499202 124.1139034 6.286882126e-11
17.68561521 -194.7936378 6.286882126e-11
-7.578558143e-05 11.1753015 121.9085477
-7.578558143e-05 7.6512587 71.7085627
2.996587214 250 85.7822811
60.44319221 11.6310155 6.286882126e-11
-7.578558143e-05 -231.7463929 193.9177994
116.2453402 20.7329312 6.286882126e-11
190.9106502 250 155.5952453
-7.578558143e-05 -111.7428123 27.54675225
237.6165112 42.0710492 6.286882126e-11
29.31642521 250 117.2271292
78.55260421 145.5837541 6.286882126e-11
52.08584721 266.6093391 6.286882126e-11
201.2170392 -184.7292313 6.286882126e-11
-7.578558143e-05 -65.4359803 252.0243986
60.81054721 -198.5274123 6.286882126e-11
-7.578558143e-05 197.9209035 51.84820759
-7.578558143e-05 13.8558139 187.4605144
85.81305321 250 232.9056554
-7.578558143e-05 132.7575739 226.6342108
-7.578558143e-05 -180.6531118 84.2779981
79.10418721 57.4368828 6.286882126e-11
59.10544021 250 82.9639544
187.6908852 250 207.9597865
-7.578558143e-05 -144.9256984 123.66488
-7.578558143e-05 158.6348668 168.6412618
114.0080482 133.8097501 6.286882126e-11
-7.578558143e-05 12.4872544 212.3117121
111.7968592 250 138.2023035
11.88741021 -125.5172708 6.286882126e-11
116.2261112 250 190.303126
47.69495221 93.7250531 6.286882126e-11
58.53914921 -120.5206242 6.286882126e-11
-7.578558143e-05 139.9288393 99.5890809
131.2040312 250 233.7285362
206.9098192 -107.8733738 6.286882126e-11
74.04581421 243.8196459 6.286882126e-11
251.6853922 250 224.4101689
-7.578558143e-05 -181.900777 190.6505251
154.2265462 -168.415259 6.286882126e-11
-7.578558143e-05 194.4039372 90.5482564
159.3089562 38.0305819 6.286882126e-11
161.9836542 250 189.8535728
-7.578558143e-05 226.4945381 109.9684243
26.70829421 223.5607106 6.286882126e-11
105.5551902 -27.5793149 6.286882126e-11
142.4840762 93.1908669 6.286882126e-11
-7.578558143e-05 150.4692212 21.03729289
134.4177562 -202.2123087 6.286882126e-11
-7.578558143e-05 46.8725893 99.8029109
-7.578558143e-05 -93.6069419 115.8978767
-7.578558143e-05 -80.0655925 160.7501422
52.84437621 250 135.3318482
-7.578558143e-05 85.7288907 219.4658668
-7.578558143e-05 -213.1426877 168.836567
235.7373982 179.6348265 6.286882126e-11
-7.578558143e-05 -58.49152 96.0876604
191.8008012 98.7464906 6.286882126e-11
100.9873332 250 63.7531364
-7.578558143e-05 -195.8482135 19.10671985
233.2903152 250 132.7381728
216.7501852 222.5704857 6.286882126e-11
-7.578558143e-05 139.7646289 147.3242194
-7.578558143e-05 -218.9487855 229.8202873
-7.578558143e-05 65.404736 54.46396325
229.0475192 269.4941459 6.286882126e-11
217.6389822 139.969157 6.286882126e-11
-7.578558143e-05 -137.0541533 100.327259
12.29462721 -83.3481741 6.286882126e-11
136.9674872 -70.6278249 6.286882126e-11
19.24291721 -237.1410271 6.286882126e-11
171.6573472 231.0938778 6.286882126e-11
52.36463021 192.2057475 6.286882126e-11
-7.578558143e-05 60.6850884 178.2442317
79.97070621 -0.5110767999 6.286882126e-11
95.41380321 231.7928638 6.286882126e-11
177.4906212 -71.8751783 6.286882126e-11
186.5066482 74.438098 6.286882126e-11
30.58662721 -12.6501559 6.286882126e-11
75.94284121 250 118.1151753
44.45106021 -154.1200133 6.286882126e-11
160.8546012 -234.4865624 6.286882126e-11
127.2537462 -154.9223172 6.286882126e-11
96.94225221 -72.3882131 6.286882126e-11
-7.578558143e-05 179.7638877 120.6304073
-7.578558143e-05 36.0330074 163.2112208
39.80275921 250 57.00677127
-7.578558143e-05 -37.931828 13.00139013
84.69812021 250 48.25832448
-7.578558143e-05 -230.3434254 18.14184815
230.9370312 250 174.567067
-7.578558143e-05 111.3604826 193.6054412
-7.578558143e-05 -232.4498437 46.55478965
144.8747712 160.4857191 6.286882126e-11
150.2845122 272.310106 6.286882126e-11
-7.578558143e-05 90.568755 98.8808599
93.06159721 -157.2077931 6.286882126e-11
-7.578558143e-05 64.1934099 134.3950364
227.6365192 -40.0081523 6.286882126e-11
-7.578558143e-05 30.3287276 22.24894504
-7.578558143e-05 228.1890905 184.4676914
20.01104721 247.2115888 6.286882126e-11
-7.578558143e-05 -94.8743855 228.4742915
-7.578558143e-05 -179.0008871 137.2135972
179.6135942 272.3530164 6.286882126e-11
160.4024762 250 119.547503
-7.578558143e-05 223.9003982 131.6024157
124.4343312 -8.3643123 6.286882126e-11
-7.578558143e-05 92.6345143 17.82637201
113.7003752 250 98.4448106
190.2099782 -155.9641286 6.286882126e-11
157.2643152 -29.3414324 6.286882126e-11
-7.578558143e-05 -157.736246 76.2221821
198.9288522 43.7405198 6.286882126e-11
121.5265312 83.5966377 6.286882126e-11
-7.578558143e-05 -147.5355714 231.2169527
-7.578558143e-05 -45.6592172 128.5908518
225.0612762 250 20.95517196
-7.578558143e-05 96.0540033 71.0098516
-7.578558143e-05 50.7911235 69.9756848
201.9327422 188.131071 6.286882126e-11
182.5180712 250 18.07040634
29.87250921 -112.825028 6.286882126e-11
40.55429721 250 220.5908581
136.7786652 202.8576716 6.286882126e-11
106.9283552 274.9072424 6.286882126e-11
144.8817512 250 83.2716812
-7.578558143e-05 -126.9159928 244.2438369
178.0777572 250 81.2634005
-7.578558143e-05 21.8018396 56.05311461
173.3264972 -142.605876 6.286882126e-11
-7.578558143e-05 194.4720429 196.1750749
-7.578558143e-05 17.8000991 101.9163811
249.8784882 238.2371043 6.286882126e-11
-7.578558143e-05 210.1974053 21.22560159
187.3740792 161.657592 6.286882126e-11
-7.578558143e-05 169.6666758 248.7464175
249.8986372 -87.3148853 6.286882126e-11
-7.578558143e-05 -147.6662725 162.222022
85.35428521 250 19.25274575
114.1524452 178.7696603 6.286882126e-11
153.5929222 250 15.08007844
237.6362132 146.7912742 6.286882126e-11
-7.578558143e-05 -4.8765463 136.1195153
48.31488221 250 34.51190501
191.2604722 -10.740302 6.286882126e-11
1.939354214 250 165.5028944
87.04195721 -231.5936923 6.286882126e-11
230.3328752 -222.6280281 6.286882126e-11
-7.578558143e-05 -30.9135769 160.7275172
-7.578558143e-05 -216.8994825 209.3293141
131.5567512 -134.9361625 6.286882126e-11
174.2263082 -195.9527491 6.286882126e-11
105.3700722 46.290973 6.286882126e-11
46.96886021 218.9386177 6.286882126e-11
-7.578558143e-05 107.8121048 173.6121217
227.5722622 -72.728891 6.286882126e-11
246.8385272 197.0605113 6.286882126e-11
37.26980521 250 15.88372482
211.4736602 250 131.6344712
-7.578558143e-05 225.3275094 59.53901552
229.2724402 17.8216962 6.286882126e-11
-7.578558143e-05 -10.6506679 79.928865
234.0290232 -162.1958487 6.286882126e-11
-7.578558143e-05 -146.9385177 50.48477547
-7.578558143e-05 -77.605739 44.84080564
157.2645272 189.8212849 6.286882126e-11
-7.578558143e-05 -162.2192155 13.4880713
194.2854102 -49.0259498 6.286882126e-11
16.79701021 250 50.49088986
-7.578558143e-05 236.7880354 203.3914379
-7.578558143e-05 -74.5075818 107.6731555
-7.578558143e-05 174.0265009 47.25378239
-7.578558143e-05 12.0067246 167.9121634
-7.578558143e-05 -122.4638622 131.8966356
8.315730214 274.9028609 6.286882126e-11
-7.578558143e-05 81.1974334 199.0528997
-7.578558143e-05 139.6892905 61.2278765
-7.578558143e-05 -58.8308086 195.7051073
-7.578558143e-05 169.9566414 20.25641552
-7.578558143e-05 -103.3092209 167.0210666
134.0787502 -228.3359479 6.286882126e-11
228.7811002 -245.2032255 6.286882126e-11
-7.578558143e-05 114.3977987 234.6259996
207.9712642 250 216.864031
-7.578558143e-05 15.0303084 231.5094227
-7.578558143e-05 150.424192 250.9037677
40.35345421 250 160.2582322
-7.578558143e-05 103.4649076 122.424941
-7.578558143e-05 155.7269711 211.521713
79.84443921 250 251.2716612
-7.578558143e-05 -69.7427763 233.240397
-7.578558143e-05 -84.4004211 63.4531221
92.85744121 212.7643468 6.286882126e-11
-7.578558143e-05 231.5123122 89.8683082
208.7430072 -216.4869026 6.286882126e-11
90.73535121 250 100.0540639
-7.578558143e-05 61.2619627 113.5919013
-7.578558143e-05 -83.6561519 137.3957126
99.02486721 145.6919987 6.286882126e-11
143.8695302 250 59.82439999
-7.578558143e-05 -24.8615314 211.8621938
-7.578558143e-05 -227.1344914 88.832966
217.2068302 32.5764905 6.286882126e-11
54.85308321 250 233.5055933
208.2880182 250 85.5667869
-7.578558143e-05 -24.6184339 249.6538818
-7.578558143e-05 159.4777028 119.891124
118.0961452 250 120.3533043
102.0190532 -206.5377065 6.286882126e-11
19.06876321 250 224.1302517
140.8145092 115.7253839 6.286882126e-11
15.80973521 250 19.06700907
234.9257662 83.9040735 6.286882126e-11
177.7526272 250 107.8788963
-7.578558143e-05 -99.6889143 96.3827013
29.71887521 88.2011196 6.286882126e-11
134.6155232 251.9900361 6.286882126e-11
77.26337221 166.6245279 6.286882126e-11
91.60577721 -94.8562239 6.286882126e-11
-2.306608786 -250 190.273883
-7.578558143e-05 109.9636974 84.8720209
-7.578558143e-05 182.2447752 165.6332152
192.0376532 8.4368331 6.286882126e-11
0.3726622144 56.930311 6.286882126e-11
163.7616332 73.1947223 6.286882126e-11
-0.6098027856 -139.1801757 6.286882126e-11
19.15713921 -174.5093604 6.286882126e-11
-7.578558143e-05 156.9808516 140.5355881
-7.578558143e-05 232.5705349 22.7645503
-7.578558143e-05 50.9402708 233.7389902
-7.578558143e-05 -24.3564614 95.3249751
232.8709972 250 192.8367034
-7.578558143e-05 123.773564 50.30139427
237.0995122 250 104.9761426
152.1863482 -190.4653869 6.286882126e-11
14.02039221 117.0369698 6.286882126e-11
-7.578558143e-05 -55.3267812 75.9478389
199.4682302 -248.7251653 6.286882126e-11
93.16825221 250 213.8635918
22.76517421 57.9639556 6.286882126e-11
-7.578558143e-05 -190.4745669 44.67477657
228.9035232 -113.1204309 6.286882126e-11
-7.578558143e-05 60.9655374 87.0173335
158.1006602 9.4065393 6.286882126e-11
235.4765992 250 39.25766265
43.65761021 250 92.504824
75.44184321 250 202.1157379
173.7440342 204.3960017 6.286882126e-11
-7.578558143e-05 -5.569861 217.5686804
102.3956542 250 84.2748382
176.7306712 -225.968009 6.286882126e-11
54.37016121 -139.0794838 6.286882126e-11
133.9380902 250 187.3162793
-7.578558143e-05 42.5336684 145.1422106
17.08687421 250 98.519225
135.5235682 -88.5272269 6.286882126e-11
-7.578558143e-05 -167.6045721 165.6446577
50.70480121 -31.4280608 6.286882126e-11
-7.578558143e-05 -247.2012591 237.3160203
216.5958982 -1.3445349 6.286882126e-11
210.1982752 250 175.2185941
8.878297214 208.9207178 6.286882126e-11
46.71170221 250 201.3765655
-1.237170786 -196.9176282 6.286882126e-11
129.2890472 250 154.4091382
-7.578558143e-05 73.3669746 162.8654055
-7.578558143e-05 207.4597902 223.2830567
-7.578558143e-05 -137.0347939 182.7672028
246.4807492 250 63.7342157
-7.578558143e-05 -115.5354048 193.1200233
-7.578558143e-05 151.6079844 185.0378987
14.93562821 186.7588108 6.286882126e-11
-7.578558143e-05 -40.6965172 63.627815
-1.848522786 78.554996 6.286882126e-11
-7.578558143e-05 172.1225672 83.4548323
223.2222192 -177.1649164 6.286882126e-11
251.8575102 -131.4703811 6.286882126e-11
-7.578558143e-05 -53.5585551 226.4218363
102.0913832 250 152.8377227
232.1979042 -20.4602089 6.286882126e-11
-7.578558143e-05 -161.6028801 118.2442474
-7.578558143e-05 -16.7148978 182.2177966
196.0031852 250 52.22715035
-7.578558143e-05 -207.2162982 123.3645981
37.53583021 -231.5277609 6.286882126e-11
55.16215821 -171.4410535 6.286882126e-11
-7.578558143e-05 161.641208 60.3137768
154.0403852 250 148.859652
41.36577021 -193.3081655 6.286882126e-11
114.9255982 -194.7720805 6.286882126e-11
213.0406822 -142.7997912 6.286882126e-11
4.726017214 -0.5896805999 6.286882126e-11
68.90740921 250 174.4891059
16.19088721 250 189.6624863
-7.578558143e-05 -114.2037301 63.341508
75.86497921 -158.8747824 6.286882126e-11
-7.578558143e-05 -212.8774438 21.84605039
212.2179372 250 7.69620543
156.9270752 250 207.1353084
46.64964521 -81.4696029 6.286882126e-11
-7.578558143e-05 177.7578159 230.4389453
14.50117821 155.7134824 6.286882126e-11
-7.578558143e-05 232.9314607 251.9208922
16.00520021 250 71.9452282
-7.578558143e-05 -152.4557008 33.40721573
-7.578558143e-05 -79.7471325 196.5240867
178.6426492 250 224.6000204
33.63153221 257.5141693 6.286882126e-11
61.25324321 150.5660018 6.286882126e-11
170.4217912 -18.4821258 6.286882126e-11
197.7810282 -66.4767784 6.286882126e-11
76.84724621 -192.3058768 6.286882126e-11
15.83629621 -63.705108 6.286882126e-11
202.8636882 250 246.5150709
40.53991121 28.4285889 6.286882126e-11
108.6453492 250 16.06194908
-7.578558143e-05 73.6606598 100.6908203
160.5403122 54.9901829 6.286882126e-11
-7.578558143e-05 -223.4131211 132.4242092
-7.578558143e-05 -64.7925272 23.19098914
203.3613202 72.9613917 6.286882126e-11
127.4270752 250 35.02146602
120.0372832 -102.9205744 6.286882126e-11
-7.578558143e-05 26.0622208 199.6048415
203.4837662 116.8145879 6.286882126e-11
199.6024632 148.8428996 6.286882126e-11
-7.578558143e-05 -232.6901513 162.5172556
-7.578558143e-05 -46.7133189 169.45938
-7.578558143e-05 110.0244179 16.0490023
17.62311921 -99.2298872 6.286882126e-11
-7.578558143e-05 -15.8963382 151.6727212
19.73082321 -212.1027497 6.286882126e-11
68.06332621 -39.0303468 6.286882126e-11
-7.578558143e-05 94.7498496 163.188337
15.44142921 250 128.0137008
246.0228542 -233.402569 6.286882126e-11
160.6789242 165.7844803 6.286882126e-11
100.5187412 250 176.6963706
79.02238121 -81.4395516 6.286882126e-11
-7.578558143e-05 21.7966227 36.46129519
176.4415012 250 163.6686985
29.52768321 -161.5946356 6.286882126e-11
-7.578558143e-05 87.0029684 235.979796
113.8711062 -164.6526611 6.286882126e-11
231.5002412 -56.6564082 6.286882126e-11
43.83424221 5.7722058 6.286882126e-11
87.18617021 -117.9886711 6.286882126e-11
211.1235102 -40.6665458 6.286882126e-11
-7.578558143e-05 128.1055782 135.6124742
-7.578558143e-05 -234.1500215 222.9579188
-7.578558143e-05 88.2933912 132.5818709
156.3660142 -104.9956343 6.286882126e-11
-7.578558143e-05 -105.1250391 127.6648886
144.0198212 250 223.3953399
104.6964772 110.8992738 6.286882126e-11
-7.578558143e-05 -208.9907793 65.2346137
-7.578558143e-05 211.8857434 92.3375695
-7.578558143e-05 220.0356626 168.8239598
52.41922821 -241.316269 6.286882126e-11
-7.578558143e-05 234.2889741 222.8198667
-7.578558143e-05 -189.4461207 149.8964057
-7.578558143e-05 81.8216283 54.89937509
131.0718382 61.8234354 6.286882126e-11
-7.578558143e-05 -161.2884661 240.7025934
143.1487392 -49.3687297 6.286882126e-11
249.1972732 -13.8123372 6.286882126e-11
224.9922072 250 74.3931399
-7.578558143e-05 66.8156555 221.3784599
118.1891732 -37.8569248 6.286882126e-11
62.12135921 176.6482897 6.286882126e-11
156.2020912 -250 -0.8316509299
143.1271662 36.9976031 6.286882126e-11
80.40590421 19.5551534 6.286882126e-11
0.6161792144 -48.2700517 6.286882126e-11
-7.578558143e-05 126.9319907 87.3799315
194.4434172 -224.0842216 6.286882126e-11
134.9362292 222.9314109 6.286882126e-11
55.31906821 250 6.18617705
15.17889121 -27.6881687 6.286882126e-11
87.53271821 252.7289605 6.286882126e-11
-7.578558143e-05 -65.9455739 151.7344555
174.6481832 -103.1460819 6.286882126e-11
-7.578558143e-05 -112.5312591 236.9958844
-7.578558143e-05 -121.2830657 97.0573569
175.0167832 135.4157887 6.286882126e-11
-7.578558143e-05 -2.3651715 22.38908306
231.6799742 164.0650751 6.286882126e-11
95.91534421 250 132.899049
-7.578558143e-05 27.5707208 135.2839543
-7.578558143e-05 66.6574894 37.7438396
-7.578558143e-05 46.7295567 206.6153885
211.4373732 -87.3236669 6.286882126e-11
103.0584632 -230.7335702 6.286882126e-11
41.66746121 127.5148434 6.286882126e-11
-7.578558143e-05 30.1549654 112.0745266
128.8443292 8.5472861 6.286882126e-11
76.04328221 129.8220604 6.286882126e-11
151.4040822 255.9114901 6.286882126e-11
74.64725821 250 60.6095711
122.4211252 -121.5567621 6.286882126e-11
245.0279722 -200.3513259 6.286882126e-11
-7.578558143e-05 183.3315417 102.8450813
12.96463821 15.5808547 6.286882126e-11
120.2768232 245.1309134 6.286882126e-11
-7.578558143e-05 -57.8278307 111.9542371
13.09836321 250 151.2467546
187.5934352 250 140.0813175
-7.578558143e-05 217.9920912 148.5557331
78.07536621 37.8484534 6.286882126e-11
246.3767192 -51.3182048 6.286882126e-11
92.29358121 71.6891043 6.286882126e-11
239.9436882 250 235.8419475
211.5108182 250 49.25213223
60.93090221 64.6967446 6.286882126e-11
245.5074222 253.3754833 6.286882126e-11
180.3831322 244.2042866 6.286882126e-11
185.6449682 113.2326412 6.286882126e-11
233.3317502 207.7028023 6.286882126e-11
251.8849992 250 99.6946204
-7.578558143e-05 -238.6080809 108.7038512
-7.578558143e-05 205.3322039 249.9041272
187.0953382 193.1874078 6.286882126e-11
-7.578558143e-05 -182.7397105 229.5411585
90.37572821 -247.558507 6.286882126e-11
5.352606214 -229.9070263 6.286882126e-11
-7.578558143e-05 25.0267711 251.0765434
-7.578558143e-05 77.3646107 251.364893
-7.578558143e-05 -79.6399055 245.4409608
-7.578558143e-05 73.5744952 14.71857754
-7.578558143e-05 59.2658668 249.0867495
38.33907121 -46.8271274 6.286882126e-11
94.47365421 186.7260718 6.286882126e-11
162.8018882 250 240.0591429
100.8253982 250 228.6938681
172.0524272 -158.1341203 6.286882126e-11
157.8172832 109.4859245 6.286882126e-11
-7.578558143e-05 185.0142394 13.81979728
-7.578558143e-05 128.2070763 190.2429839
-7.578558143e-05 188.7647306 133.2892009
152.0910372 -79.2529727 6.286882126e-11
58.55301821 208.6141443 6.286882126e-11
-7.578558143e-05 -62.0014048 211.138072
163.3290222 250 47.72108394
128.7920082 250 95.0036427
200.9967372 -28.9745929 6.286882126e-11
108.7913892 212.8396797 6.286882126e-11
234.8396792 62.7778768 6.286882126e-11
17.92929021 262.8143526 6.286882126e-11
201.1208882 28.4815542 6.286882126e-11
-7.578558143e-05 -202.1742429 107.8555423
197.8133332 250 19.69349738
10.19214221 250 239.9575327
233.7709232 131.2365338 6.286882126e-11
-7.578558143e-05 -36.5383799 28.84861928
86.80699721 -171.207046 6.286882126e-11
-7.578558143e-05 -221.963755 249.4194968
-7.578558143e-05 237.8014003 120.2950402
91.66141921 273.7441488 6.286882126e-11
174.5775372 250 125.3246324
191.7108502 -106.0717739 6.286882126e-11
-7.578558143e-05 126.9180982 117.7465896
-7.578558143e-05 -196.6551714 237.2877841
82.96961421 104.1908212 6.286882126e-11
-7.578558143e-05 103.2240047 29.71244455
197.2697972 250 187.2196288
237.9511662 -140.5607533 6.286882126e-11
36.93733221 155.7459332 6.286882126e-11
146.0982732 -127.937102 6.286882126e-11
99.90298721 250 48.25627418
-7.578558143e-05 3.8984359 154.2099807
46.09372121 -64.5074997 6.286882126e-11
59.27194021 250 66.2016775
34.91524221 184.2384714 6.286882126e-11
-7.578558143e-05 -201.2844567 159.371284
17.48556221 131.7845162 6.286882126e-11
120.6613162 198.4007969 6.286882126e-11
-7.578558143e-05 24.724293 7.67883386
73.25605421 -123.8581103 6.286882126e-11
205.7809802 204.2952462 6.286882126e-11
-7.578558143e-05 -8.6093683 64.9839222
142.9344982 250 26.31904273
153.3595122 147.2207164 6.286882126e-11
-7.578558143e-05 -179.2973007 102.9458957
181.5632212 -127.9483706 6.286882126e-11
-7.578558143e-05 -73.0930738 75.3735639
207.5391312 -198.3547461 6.286882126e-11
-7.578558143e-05 -56.274198 139.2128597
-7.578558143e-05 -174.6008922 152.0512821
188.2419792 260.0933336 6.286882126e-11
68.44360021 250 137.5777061
-7.578558143e-05 213.3889358 186.5407608
-7.578558143e-05 -40.8225947 95.4563376
176.9876362 -49.4860902 6.286882126e-11
-7.578558143e-05 171.3383567 176.6674487
205.9079252 250 146.6671214
-7.578558143e-05 173.4872105 209.3971296
-7.578558143e-05 248.5514513 12.91840976
60.24680321 250 97.8346882
136.7545002 250 46.73800426
-7.578558143e-05 189.6847491 151.2753237
-7.578558143e-05 -140.4520629 215.7268707
-7.578558143e-05 -223.4533774 32.30091097
51.80644121 250 170.0862811
20.34751221 250 251.51069
11.26053121 235.2144005 6.286882126e-11
144.7865212 -154.6974796 6.286882126e-11
81.69315221 83.0930086 6.286882126e-11
-7.578558143e-05 -77.653453 6.4893848
50.10693221 108.3481247 6.286882126e-11
208.7499022 235.0357318 6.286882126e-11
251.3058792 250 132.8031861
-7.578558143e-05 -145.703532 66.5648255
-7.578558143e-05 -247.8726607 140.436076
-7.578558143e-05 -14.7406686 111.3370198
121.9830172 250 206.4924557
-7.578558143e-05 -48.423506 51.03249714
-7.578558143e-05 242.395877 99.8436983
163.8073132 -181.3820274 6.286882126e-11
-7.578558143e-05 -171.3530223 201.3405065
35.36156121 250 130.9174295
81.24567621 203.3226645 6.286882126e-11
180.1316182 250 194.0393975
179.0092372 -86.5292203 6.286882126e-11
115.7697882 261.870404 6.286882126e-11
193.8830452 61.7535586 6.286882126e-11
206.7881282 250 117.400508
80.95649721 229.2073937 6.286882126e-11
-7.578558143e-05 133.3438269 37.06607316
99.65502021 -40.9992758 6.286882126e-11
65.55561421 -3.1332582 6.286882126e-11
222.2933952 250 229.8904373
239.9701292 110.4143224 6.286882126e-11
31.83641921 73.7626293 6.286882126e-11
164.7286512 274.2936677 6.286882126e-11
39.62172621 250 106.5123117
111.5117852 -72.6911508 6.286882126e-11
124.0298662 -22.9205712 6.286882126e-11
163.5270792 250 81.045643
224.5779482 250 144.3793842
-7.578558143e-05 -123.4422277 208.7961082
240.0320172 250 207.6116964
-7.578558143e-05 0.5328559001 232.3901992
33.07594121 250 188.8709608
77.26397221 250 186.3593064
-7.578558143e-05 -191.2623103 201.7418471
95.01098821 -15.6788497 6.286882126e-11
15.10837821 34.4232194 6.286882126e-11
-7.578558143e-05 31.493472 237.3538651
66.99865521 257.4475416 6.286882126e-11
-7.578558143e-05 123.609058 214.6737232
223.8140462 102.7166472 6.286882126e-11
224.5742352 73.834557 6.286882126e-11
-7.578558143e-05 31.9526252 66.3226234
61.58249621 -90.9108005 6.286882126e-11
30.60627721 -85.3740196 6.286882126e-11
40.30091721 48.3820975 6.286882126e-11
-7.578558143e-05 -156.8502583 195.7811657
-1.977658786 -156.8632019 6.286882126e-11
-7.578558143e-05 -194.340659 131.6997253
211.0837852 -128.3392085 6.286882126e-11
-7.578558143e-05 -32.4542825 199.6641061
251.4121862 142.7412543 6.286882126e-11
250.9188492 33.9733356 6.286882126e-11
238.6172342 250 13.70837857
76.42358221 250 100.589607
58.53598121 234.7754228 6.286882126e-11
180.3021542 87.3347273 6.286882126e-11
-7.578558143e-05 -198.4559616 179.8861682
125.1725282 -250 -0.8505385799
-7.578558143e-05 13.130889 84.8914403
94.10171321 250 250.5865864
-7.578558143e-05 -237.9617492 181.0735932
-7.578558143e-05 -137.7955034 136.0112286
65.96412221 51.3694808 6.286882126e-11
2.888066214 144.9083953 6.286882126e-11
31.07767121 -29.6007344 6.286882126e-11
-7.578558143e-05 -150.3748972 91.1127865
114.3286992 5.1443344 6.286882126e-11
46.69901721 250 245.1621462
107.3037422 83.7502221 6.286882126e-11
-7.578558143e-05 -95.811018 29.005995
168.3007302 250 17.81795151
-7.578558143e-05 -166.1123785 42.09862294
229.9331392 250 92.7029571
-7.578558143e-05 239.1457438 77.1372734
150.9189332 -220.4241733 6.286882126e-11
133.7898162 250 173.1320978
200.9385762 250 201.0931614
-7.578558143e-05 -113.8438554 43.29051244
10.04452321 172.8172224 6.286882126e-11
-7.578558143e-05 -117.7842007 162.1043171
130.4339842 -55.4216241 6.286882126e-11
138.3413772 -20.9240058 6.286882126e-11
-7.578558143e-05 -98.4569524 62.8546371
-7.578558143e-05 139.5548912 241.9949323
65.39861021 -62.733942 6.286882126e-11
-7.578558143e-05 -65.8541108 37.22877559
-7.578558143e-05 -4.5809245 251.8630374
125.9103272 141.1048437 6.286882126e-11
192.1325822 174.7746515 6.286882126e-11
-7.578558143e-05 -126.8713715 16.00462454
-7.578558143e-05 202.1956015 68.0674159
30.38774721 236.9982137 6.286882126e-11
67.33462421 94.2952146 6.286882126e-11
117.7288402 -235.4814612 6.286882126e-11
222.4889802 175.3852803 6.286882126e-11
233.9470012 232.5725849 6.286882126e-11
-7.578558143e-05 144.9841076 171.2483657
-7.578558143e-05 -114.1664834 143.1198904
-7.578558143e-05 92.8820713 112.5789087
-7.578558143e-05 -238.409569 73.9519553
227.5839002 250 120.1186909
108.2597622 32.0259876 6.286882126e-11
144.0901842 250 100.2426131
67.46826721 28.2545703 6.286882126e-11
120.9052522 121.8331702 6.286882126e-11
205.7253362 -9.8777649 6.286882126e-11
13.91944421 250 203.2759704
-7.578558143e-05 -248.4954648 47.8355674
103.9865222 -86.9403136 6.286882126e-11
199.2861412 -145.5976969 6.286882126e-11
55.88542921 -185.1925105 6.286882126e-11
202.5686962 259.0225145 6.286882126e-11
14.38971021 -250 -0.03471670994
-7.578558143e-05 171.1894002 131.3463634
144.3136872 250 119.6040068
187.5282142 -184.0573783 6.286882126e-11
104.9891802 250 200.9325862
78.59740621 250 218.0029794
182.5421992 250 68.3667192
42.61798821 -117.6700619 6.286882126e-11
-7.578558143e-05 203.5992183 236.3507039
16.12518221 -138.4669779 6.286882126e-11
241.5924332 -98.1153728 6.286882126e-11
-7.578558143e-05 -37.0783697 148.1358403
-7.578558143e-05 -91.9644948 209.967301
70.07000421 -235.2312063 6.286882126e-11
126.0035162 211.1483324 6.286882126e-11
169.6883002 -214.3430679 6.286882126e-11
192.5726702 250 35.52305553
-7.578558143e-05 220.3444336 219.0280495
-7.578558143e-05 109.7490776 160.1848794
192.0102092 -169.4034328 6.286882126e-11
99.92216521 -131.4734313 6.286882126e-11
-7.578558143e-05 -80.1860825 119.9625969
190.2859072 234.6545546 6.286882126e-11
-7.578558143e-05 -26.7960587 40.41565908
87.56735421 250 65.3329383
-7.578558143e-05 -188.6349212 31.29396691
123.0725942 250 244.5115295
-7.578558143e-05 -24.4680548 68.9468618
43.25876521 80.9124353 6.286882126e-11
-7.578558143e-05 158.8426627 31.57567764
29.91588621 250 94.45901
-7.578558143e-05 94.4926873 201.0165385
249.8411482 0.8963818001 6.286882126e-11
59.94092721 250 199.2370525
12.93669521 47.6319029 6.286882126e-11
97.84168321 18.5864539 6.286882126e-11
110.5471952 165.7679654 6.286882126e-11
116.4699112 57.5142533 6.286882126e-11
-7.578558143e-05 -203.0980446 207.9290585
-7.578558143e-05 149.614988 156.3291609
240.9517942 -123.1424182 6.286882126e-11
17.31835021 -11.4357566 6.286882126e-11
-7.578558143e-05 -30.36986 223.9825113
0.3708172144 -32.409996 6.286882126e-11
-7.578558143e-05 95.6556724 40.65107617
-7.578558143e-05 -230.0530374 207.4372629
151.2463272 223.1206886 6.286882126e-11
-7.578558143e-05 108.4653077 66.3179681
-7.578558143e-05 -180.7006586 12.7173511
-7.578558143e-05 -119.708449 0.9173193501
-7.578558143e-05 -107.701493 249.5533336
20.49887621 105.4909736 6.286882126e-11
54.63924021 -212.0397401 6.286882126e-11
-7.578558143e-05 237.3510702 136.6540637
-7.578558143e-05 -136.5411478 35.70619312
-7.578558143e-05 51.6978261 53.06530673
-7.578558143e-05 -202.4010425 50.81362521
170.1521742 250 202.6266506
51.07618821 250 21.64040272
93.70469421 58.6093117 6.286882126e-11
-7.578558143e-05 -223.5320728 176.888514
-7.578558143e-05 -243.4846751 12.08880552
-7.578558143e-05 -148.3541653 107.0270762
-7.578558143e-05 127.3135778 151.5105583
-7.578558143e-05 -192.4306627 251.6955521
-0.7404437856 -250 250.3395686
160.3329202 250 176.3665484
-7.578558143e-05 97.030346 150.3351508
144.9369942 -238.2520414 6.286882126e-11
-7.578558143e-05 50.6051034 193.4262557
42.80530421 250 180.2286459
139.8794882 250 243.4191458
-7.578558143e-05 70.1701776 187.1434776
-7.578558143e-05 232.104061 45.62781183
-7.578558143e-05 242.294627 1.54064618
171.3568342 114.073791 6.286882126e-11
-7.578558143e-05 46.1695648 24.36232165
-7.578558143e-05 -206.1098685 9.5423599
-7.578558143e-05 29.7181169 174.4940021
-7.578558143e-05 -183.0240083 71.5743996
-7.578558143e-05 -134.4588626 58.94661614
184.4586822 250 240.5229095
-1.435767786 250 124.2218285
-7.578558143e-05 214.2357414 123.0708307
-7.578558143e-05 1.5008085 183.8654097
212.7087632 127.0711871 6.286882126e-11
-7.578558143e-05 117.656613 2.78431231
-7.578558143e-05 -12.0557044 13.95797082
221.0071322 250 202.581629
186.1568942 -142.6919305 6.286882126e-11
-7.578558143e-05 48.226094 175.2066205
246.5113572 -165.101948 6.286882126e-11
77.77927621 250 37.47713177
183.6674672 149.4007436 6.286882126e-11
144.4607912 192.6182049 6.286882126e-11
-7.578558143e-05 4.1138236 202.636395
-7.578558143e-05 248.8981361 151.4600354
-7.578558143e-05 140.1412945 86.8002009
-7.578558143e-05 33.9419062 94.2588312
-7.578558143e-05 -216.6074549 81.0899057
-7.578558143e-05 -237.4143574 61.1434277
52.61500721 250 149.5548223
-7.578558143e-05 -218.0359858 157.0403746
211.1486092 -71.3252657 6.286882126e-11
-7.578558143e-05 -162.6079286 132.2629106
126.9321972 250 137.8785476
219.4985882 257.1142215 6.286882126e-11
-7.578558143e-05 -164.5113006 227.9210356
206.3853202 250 100.9612757
29.07891521 250 47.08979723
162.8769802 -8.2242242 6.286882126e-11
120.1043382 -206.400736 6.286882126e-11
-7.578558143e-05 113.5437942 41.11346435
-7.578558143e-05 125.8175709 100.0513953
-7.578558143e-05 -239.3345265 129.3577483
-7.578558143e-05 -133.1456477 118.8880846
-7.578558143e-05 -13.5791554 38.25743379
239.1021972 -184.3464783 6.286882126e-11
92.18892221 -198.5069574 6.286882126e-11
-7.578558143e-05 236.2258152 168.6982261
-7.578558143e-05 137.7263754 181.8510549
-7.578558143e-05 198.8882136 211.6867689
184.0699942 -236.2760324 6.286882126e-11
114.3811502 250 28.77680214
131.1915872 164.672201 6.286882126e-11
156.0635022 -117.5861998 6.286882126e-11
157.7934182 -41.9229125 6.286882126e-11
169.2859172 30.3590105 6.286882126e-11
-7.578558143e-05 140.6041744 48.69185399
47.01747321 148.2490639 6.286882126e-11
-7.578558143e-05 198.6554259 39.31546247
133.9409242 81.7373416 6.286882126e-11
190.7066422 250 169.236985
244.7475072 52.3937373 6.286882126e-11
-7.578558143e-05 25.0303127 212.5580043
12.10508821 250 33.50964811
55.77634021 -108.2987253 6.286882126e-11
72.43822921 -50.7689994 6.286882126e-11
-7.578558143e-05 201.3630502 155.7748381
223.4459882 250 45.53999637
225.4838692 188.0931277 6.286882126e-11
40.37642521 274.6744722 6.286882126e-11
238.8133862 -81.5664072 6.286882126e-11
-7.578558143e-05 175.7804652 31.76617348
167.8177142 -131.4180289 6.286882126e-11
-7.578558143e-05 8.9980747 33.68097347
165.7300172 -75.9913943 6.286882126e-11
-2.295196786 92.9063937 6.286882126e-11
137.0525102 -164.4509605 6.286882126e-11
-7.578558143e-05 -230.1566684 120.8440732
106.7156842 -99.0736236 6.286882126e-11
-7.578558143e-05 -1.8125756 113.5223627
138.9169012 -213.7959448 6.286882126e-11
150.9837562 250 196.2410279
-7.578558143e-05 -235.8348534 33.0846504
-7.578558143e-05 1.7152296 58.1409921
234.1262842 250 152.8026945
180.0521062 250 51.47921145
73.39183821 -220.2072612 6.286882126e-11
-7.578558143e-05 -168.7578466 68.3975117
-2.172237786 268.2214036 6.286882126e-11
65.06408021 -152.8610929 6.286882126e-11
108.6997422 153.3826569 6.286882126e-11
48.78199621 -226.4050087 6.286882126e-11
152.2433462 129.922907 6.286882126e-11
193.4453382 273.3808692 6.286882126e-11
139.9006792 250 71.5080099
-7.578558143e-05 165.0038293 219.6537661
-7.578558143e-05 -94.7014433 80.3387526
60.55868021 -22.701372 6.286882126e-11
-7.578558143e-05 -148.1408399 176.6789401
159.3239772 240.3003064 6.286882126e-11
-7.578558143e-05 -95.7814721 198.2496312
46.99327321 250 67.2086136
178.5494692 250 93.5732803
65.56730821 250 39.03605378
-1.875955786 250 237.5270653
178.0273682 250 151.4625109
-7.578558143e-05 -25.2780819 16.48300301
248.8967602 250 173.5036406
-7.578558143e-05 -105.2607663 110.371225
-7.578558143e-05 -67.9128952 88.204285
131.5584992 240.0923594 6.286882126e-11
-7.578558143e-05 -219.4503929 44.37054319
130.2448862 250 122.1043779
-7.578558143e-05 -71.4572707 138.619946
132.8351932 30.3454694 6.286882126e-11
-7.578558143e-05 0.4887930001 85.0043124
-7.578558143e-05 -155.2336232 207.9108489
182.2400312 41.6949499 6.286882126e-11
-7.578558143e-05 55.2412978 124.2309485
-7.578558143e-05 -54.5064205 243.5130088
238.7323342 -67.7883841 6.286882126e-11
-7.578558143e-05 -102.3216686 187.95303
-7.578558143e-05 -187.8288455 94.1236918
187.8818722 205.3408247 6.286882126e-11
-7.578558143e-05 76.1420999 174.7161901
-7.578558143e-05 189.9197261 230.2773213
-7.578558143e-05 153.6591256 7.92853519
143.8747402 212.7187991 6.286882126e-11
2.643318214 250 72.1858397
2.189572214 -90.0770318 6.286882126e-11
-7.578558143e-05 46.2191729 220.2840772
-7.578558143e-05 -245.0457718 152.2353367
147.7063152 2.7189875 6.286882126e-11
110.3012942 -121.9766314 6.286882126e-11
-7.578558143e-05 203.7316319 10.96880063
23.85500521 250 162.4734054
189.7975642 250 84.7072505
123.7382282 250 222.9015455
-7.578558143e-05 96.3156531 225.3401958
171.4865822 250 30.00895289
-7.578558143e-05 134.8588385 74.6213637
203.4040332 250 165.2192153
217.3689452 -116.7083575 6.286882126e-11
136.8547622 151.4563808 6.286882126e-11
213.9950662 -184.9490718 6.286882126e-11
172.8099212 12.4678681 6.286882126e-11
154.5473692 93.3647571 6.286882126e-11
38.54761721 101.5910583 6.286882126e-11
160.0860052 -151.0058243 6.286882126e-11
161.6503142 250 158.1944419
-7.578558143e-05 76.9452387 136.6080623
210.9478592 43.1107397 6.286882126e-11
43.11971321 250 5.37655674
-7.578558143e-05 -91.0631677 165.6132836
-7.578558143e-05 12.2958795 0.7589397901
136.0047652 263.9197625 6.286882126e-11
-7.578558143e-05 -59.3800053 10.84824611
43.93999821 174.1243702 6.286882126e-11
64.38841821 250 121.3014388
-7.578558143e-05 -49.9021937 21.76193357
107.9575472 -15.8397361 6.286882126e-11
5.403113214 67.9766702 6.286882126e-11
39.97081521 250 233.9540937
71.82539421 -206.1516769 6.286882126e-11
-7.578558143e-05 -163.9802362 25.84361289
-7.578558143e-05 -89.5658112 151.0140449
17.78519721 89.0102256 6.286882126e-11
16.83294921 250 116.1392817
-7.578558143e-05 6.7143188 133.2024926
67.13350621 274.5266262 6.286882126e-11
-7.578558143e-05 25.7278543 186.2256071
-2.373355786 -250 106.067541
24.12364521 -123.2785183 6.286882126e-11
-7.578558143e-05 214.4231177 54.7008193
94.25957021 -222.0982201 6.286882126e-11
249.4970992 250 197.5715926
122.2807272 250 106.6806983
-0.8876717856 250 199.5726117
-7.578558143e-05 177.1682517 4.89860624
-7.578558143e-05 73.7915853 87.4601663
78.29275621 250 130.9853115
143.4846132 250 8.89621705
77.86350121 250 9.3578228
75.56770921 -11.5016178 6.286882126e-11
137.0305632 -145.7603879 6.286882126e-11
101.1675622 -165.8145541 6.286882126e-11
113.1290872 250 178.8935595
152.4060842 22.6561075 6.286882126e-11
204.9781002 221.9033674 6.286882126e-11
-7.578558143e-05 -222.251006 9.56767822
-7.578558143e-05 -73.8039913 170.739147
154.0098072 178.5100373 6.286882126e-11
84.95534121 -34.2650739 6.286882126e-11
-7.578558143e-05 -33.1051103 128.9886285
47.43038621 204.7799941 6.286882126e-11
51.55455221 24.2974145 6.286882126e-11
182.4971882 -18.577722 6.286882126e-11
108.4471802 231.6672016 6.286882126e-11
-7.578558143e-05 76.1982607 26.1755642
-7.578558143e-05 -151.6607264 219.263093
-7.578558143e-05 53.6984172 11.72451808
-7.578558143e-05 -222.3059553 145.8257723
174.7564642 216.073353 6.286882126e-11
130.9914992 250 82.9688124
-7.578558143e-05 -149.7673151 136.2401786
85.49988921 -104.9291795 6.286882126e-11
228.2520042 220.4369747 6.286882126e-11
146.5925082 -204.2199842 6.286882126e-11
-7.578558143e-05 -22.3048339 80.880726
-7.578558143e-05 -40.0964401 230.4633984
239.9438172 273.6901314 6.286882126e-11
88.51317921 -64.3121419 6.286882126e-11
16.96650321 200.5076366 6.286882126e-11
-7.578558143e-05 15.3879188 23.20764127
-7.578558143e-05 -48.8264124 104.527572
73.04141021 250 48.80299734
-7.578558143e-05 -202.6745795 75.4910989
-7.578558143e-05 137.2980924 110.9538601
243.6672332 250 143.9599348
-7.578558143e-05 -121.4688403 73.4006466
226.6677852 -211.5613011 6.286882126e-11
146.8031972 105.6700105 6.286882126e-11
175.8862112 159.6868888 6.286882126e-11
249.4807172 82.5645226 6.286882126e-11
223.7755622 -12.4279049 6.286882126e-11
-7.578558143e-05 93.3409932 53.30828911
30.56163321 -197.5992132 6.286882126e-11
-7.578558143e-05 -13.1444723 92.2826358
131.4227452 -100.6116027 6.286882126e-11
145.3129412 250 184.9756084
100.9172942 250 105.6745801
-2.089163786 -250 72.9798474
-7.578558143e-05 37.1566527 11.47880349
200.9226302 136.2178033 6.286882126e-11
174.0111272 250 213.9691679
74.23468021 250 232.984875
150.4635122 250 129.4031178
85.30471521 179.6791294 6.286882126e-11
147.5844662 47.6672879 6.286882126e-11
161.6787992 139.1999703 6.286882126e-11
-7.578558143e-05 32.8756461 52.76942518
-7.578558143e-05 -89.0710197 100.8853492
213.3560492 250 75.2125824
29.70212921 124.298363 6.286882126e-11
-7.578558143e-05 63.93372 145.9162049
203.4982532 -96.8687478 6.286882126e-11
29.07171021 -184.0042758 6.286882126e-11
-7.578558143e-05 113.4344272 128.179282
-7.578558143e-05 183.7519178 192.0075269
181.7967132 225.1674525 6.286882126e-11
-7.578558143e-05 -186.1313599 212.0335392
-7.578558143e-05 -157.6468543 155.7569844
232.7115552 95.4487507 6.286882126e-11
192.7294632 -119.7597611 6.286882126e-11
-7.578558143e-05 20.160534 159.2732961
-7.578558143e-05 69.1772733 124.0677748
-7.578558143e-05 -101.160311 218.2855787
-7.578558143e-05 167.0135517 237.6050552
237.8899352 250 28.07128029
64.51040621 119.3283698 6.286882126e-11
-7.578558143e-05 -125.1105465 35.91367903
225.1601082 40.7831386 6.286882126e-11
44.13159421 -22.0807903 6.286882126e-11
213.0225402 66.8612471 6.286882126e-11
-7.578558143e-05 -126.9077602 194.176678
-7.578558143e-05 -127.6916751 107.9264466
-7.578558143e-05 -179.3499542 41.14069675
86.44246121 -147.9068506 6.286882126e-11
227.8723912 53.5462028 6.286882126e-11
-7.578558143e-05 -173.3058702 112.6599185
-7.578558143e-05 -184.1357406 55.27401307
29.12579621 210.9991914 6.286882126e-11
147.1832122 -64.7210188 6.286882126e-11
-7.578558143e-05 223.4728976 195.1506545
-7.578558143e-05 183.3269992 40.30243074
8.283949214 -188.3584336 6.286882126e-11
118.4251442 250 151.0080196
-7.578558143e-05 150.2404123 56.96124094
62.50130721 223.0943527 6.286882126e-11
-7.578558143e-05 -58.1649638 160.6407073
-7.578558143e-05 91.3090738 81.3325096
125.1246212 71.5017984 6.286882126e-11
127.6113212 20.2705662 6.286882126e-11
10.60635721 -53.6389307 6.286882126e-11
28.14041221 250 105.6541186
126.3299032 184.3156412 6.286882126e-11
-7.578558143e-05 129.5062891 16.85933869
-7.578558143e-05 -51.970147 64.7393383
-7.578558143e-05 -135.5095637 251.6183935
-7.578558143e-05 11.0779874 51.78536558
-7.578558143e-05 75.9878281 209.096925
235.2881292 260.0584639 6.286882126e-11
131.8359672 108.2187742 6.286882126e-11
-7.578558143e-05 44.041587 88.8633428
6.616249214 -168.3550783 6.286882126e-11
232.4609692 118.8425332 6.286882126e-11
126.3088052 250 196.0672086
-7.578558143e-05 -100.2503508 11.26664433
-7.578558143e-05 -49.7931717 180.3128304
83.28893121 250 91.5818745
-7.578558143e-05 121.435596 164.7495812
172.4541622 -61.8015504 6.286882126e-11
118.2413042 -184.0090679 6.286882126e-11
222.4242062 -103.8430499 6.286882126e-11
31.59178421 250 251.2330292
192.2336572 21.2686381 6.286882126e-11
-7.578558143e-05 189.4477148 112.2795412
151.9847732 250 50.64617748
68.08891421 250 244.5364611
67.84573521 250 73.4648289
-7.578558143e-05 162.5933711 89.3696373
-7.578558143e-05 -75.5857142 56.03544423
241.3826482 25.3178044 6.286882126e-11
-7.578558143e-05 242.0652546 38.72938368
226.1508362 7.0953608 6.286882126e-11
-7.578558143e-05 232.0751916 236.0176408
-7.578558143e-05 -155.3857433 59.42179299
223.1332012 -235.3679741 6.286882126e-11
-7.578558143e-05 98.6962891 181.1091393
-7.578558143e-05 118.7520055 201.9618084
189.4741662 -73.9088098 6.286882126e-11
-7.578558143e-05 208.0099034 164.7166282
63.90616821 -133.32715 6.286882126e-11
-7.578558143e-05 -237.6149299 85.0752395
-7.578558143e-05 -200.723823 29.10316207
-7.578558143e-05 219.686751 15.42706324
-7.578558143e-05 -83.93581 230.4446491
-7.578558143e-05 182.3983192 177.7190164
-7.578558143e-05 -140.7178719 82.3833489
-7.578558143e-05 -142.6929272 241.2013244
245.6289682 -24.3181631 6.286882126e-11
-7.578558143e-05 152.8072198 111.0319206
150.4304702 -20.3318505 6.286882126e-11
42.84520421 250 81.446043
-7.578558143e-05 -214.3386938 239.9006695
26.42283121 159.2457761 6.286882126e-11
-7.578558143e-05 117.3893778 59.74975006
168.5703002 63.2147811 6.286882126e-11
96.60740021 263.8319237 6.286882126e-11
6.702884214 250 45.96600741
-7.578558143e-05 -210.6932847 218.4818693
-7.578558143e-05 146.6793117 227.7958818
76.78597221 250 26.48069603
218.9219042 -250 -1.18061101
-1.619473786 250 175.9377778
-7.578558143e-05 228.6390458 143.3929359
166.5873472 250 110.4344786
-7.578558143e-05 220.2457165 85.1870327
141.6931372 -187.1679817 6.286882126e-11
205.2678932 -50.8089828 6.286882126e-11
132.3103922 -239.1826467 6.286882126e-11
235.4461582 250 248.9193039
-7.578558143e-05 240.173039 182.9493308
-7.578558143e-05 100.5984179 10.30195788
-7.578558143e-05 -77.6107361 33.88866127
135.8748502 0.1497925001 6.286882126e-11
154.1236972 250 75.4312159
-7.578558143e-05 181.5536428 55.20259489
54.66212321 55.7255906 6.286882126e-11
203.6758852 84.2606964 6.286882126e-11
142.6589322 58.8556839 6.286882126e-11
-7.578558143e-05 196.373053 123.8906024
-7.578558143e-05 138.5732254 8.42592688
-7.578558143e-05 -151.6841483 16.3892182
220.2532702 250 167.2140347
151.5283682 250 111.4071505
-7.578558143e-05 22.9084528 223.9780957
72.32030021 154.5154622 6.286882126e-11
-7.578558143e-05 -106.0664191 228.2318356
131.7812862 122.2567123 6.286882126e-11
46.48529521 250 45.2394931
208.4196612 179.4042824 6.286882126e-11
-7.578558143e-05 -236.3478013 237.9346379
-7.578558143e-05 41.6010701 61.3204482
32.09280021 -241.3241111 6.286882126e-11
28.66708621 -225.2734824 6.286882126e-11
-7.578558143e-05 -66.646052 188.1802159
-7.578558143e-05 83.850916 160.0818704
-7.578558143e-05 83.045215 108.0112767
222.6263712 -50.4303362 6.286882126e-11
43.05651121 250 139.9805249
220.8122242 232.6020112 6.286882126e-11
188.3853562 -197.3767064 6.286882126e-11
8.641725214 -219.5999492 6.286882126e-11
11.14472321 58.8089334 6.286882126e-11
161.8512672 263.6654734 6.286882126e-11
112.6241962 250 39.44631891
-7.578558143e-05 229.7234671 33.62906105
-7.578558143e-05 119.5600079 142.7708842
-7.578558143e-05 83.9881312 11.3603917
103.0186932 242.3456974 6.286882126e-11
236.0563232 -46.7609519 6.286882126e-11
168.5429332 -41.0057319 6.286882126e-11
113.2892842 189.522773 6.286882126e-11
150.8748012 250 240.595497
16.13982021 221.4315694 6.286882126e-11
-7.578558143e-05 17.9041147 130.3243554
191.0648862 87.7856102 6.286882126e-11
96.56880321 250 164.6462483
28.11877421 250 21.55271363
180.3604332 -116.3208608 6.286882126e-11
-7.578558143e-05 234.9181138 64.3868607
-7.578558143e-05 160.4540448 72.7713164
189.8128552 -95.5055806 6.286882126e-11
16.02966721 145.1027401 6.286882126e-11
37.42247821 250 170.5686784
-7.578558143e-05 81.3715364 65.6074674
-7.578558143e-05 -15.544605 133.9304502
-7.578558143e-05 -141.5622922 148.8437013
88.31449221 250 178.5406487
16.24151921 250 213.729727
119.4746372 -140.3230424 6.286882126e-11
-7.578558143e-05 -138.2568201 167.3315011
219.7569232 -225.2117236 6.286882126e-11
163.7055002 -193.988215 6.286882126e-11
125.3753682 -191.9814999 6.286882126e-11
218.7861682 161.0831236 6.286882126e-11
-7.578558143e-05 52.0487071 165.2152645
240.9958592 250 118.4466392
-7.578558143e-05 95.7625027 211.6334997
94.13989021 109.2304822 6.286882126e-11
241.0279112 169.2253796 6.286882126e-11
-7.578558143e-05 192.0373876 80.1412166
235.8487992 -194.5030858 6.286882126e-11
151.6412252 -95.4450038 6.286882126e-11
-7.578558143e-05 20.8824794 117.3200233
27.50926521 -61.5972228 6.286882126e-11
129.7918522 -44.8003382 6.286882126e-11
-7.578558143e-05 238.1240796 109.6621508
210.2364672 149.0835814 6.286882126e-11
243.6515262 250 92.9628922
151.6795572 250 91.6140512
56.49185821 -160.8931906 6.286882126e-11
152.9001082 250 217.5654317
214.9464902 267.8142893 6.286882126e-11
205.8529042 95.8606793 6.286882126e-11
38.08990221 250 31.45949527
99.25480921 128.5100997 6.286882126e-11
-7.578558143e-05 164.4766585 148.3586702
56.81727921 78.6297605 6.286882126e-11
-7.578558143e-05 51.1113117 110.5718133
104.5221802 183.1695343 6.286882126e-11
251.5965032 -101.5772079 6.286882126e-11
-7.578558143e-05 -112.5620493 8.70489136
117.4368872 273.7728241 6.286882126e-11
43.59524321 -203.6381248 6.286882126e-11
-7.578558143e-05 106.7361742 205.6600849
-7.578558143e-05 120.6055201 182.9268021
173.0048542 250 237.3929846
-7.578558143e-05 -20.5520664 198.8049826
-7.578558143e-05 99.2610116 132.0934861
74.76970621 -91.3638084 6.286882126e-11
36.00552221 57.9948369 6.286882126e-11
-7.578558143e-05 -41.4094722 159.903232
