# .PCD v0.7 - Point Cloud Data file format
VERSION 0.7
FIELDS x y z
SIZE 4 4 4
TYPE F F F
COUNT 1 1 1
WIDTH 1229
HEIGHT 1
VIEWPOINT 0 0 0 1 0 0 0
POINTS 1229
DATA ascii
-1.258274597e-05 86.41400847 -44.8388054
-25.04432388 -1.552502283e-05 12.3727444
-156.1426126 -1.552502283e-05 -117.6747162
-99.44557988 114.966376 -250
-1.258274597e-05 190.2194781 -117.8402244
-75.02067468 157.9106067 -250
-1.258274597e-05 151.2728625 69.3152972
-1.258274597e-05 29.39950747 223.6621349
-35.72250438 -1.552502283e-05 142.8504988
-1.258274597e-05 17.70950257 -35.9739798
-230.3257419 70.53890377 -250
-88.55625618 84.89059957 -250
-1.258274597e-05 237.4745882 35.2216555
-13.44776748 -1.552502283e-05 66.8835414
-122.12328 -1.552502283e-05 200.9569313
-12.07514358 -1.552502283e-05 -78.5138377
-186.1373096 -1.552502283e-05 -148.6170622
-1.258274597e-05 107.2827306 -12.8862097
-1.258274597e-05 164.0546402 -50.0241991
-1.258274597e-05 91.26537547 35.5070367
-1.258274597e-05 46.48886057 107.8571793
-193.0862864 247.8605184 -250
-1.258274597e-05 17.23398747 138.5416606
-74.90633428 -1.552502283e-05 -124.1850582
-137.8550697 192.0428264 -250
-1.258274597e-05 21.48650337 -102.6710507
-1.258274597e-05 130.7747352 234.6652658
-1.258274597e-05 90.22230737 -77.6356804
-186.385076 179.2872697 -250
-104.3918079 158.9170987 -250
-96.03542438 -1.552502283e-05 233.3297254
-1.258274597e-05 233.8646621 -3.3280791
-1.258274597e-05 248.9719218 246.6296378
-1.258274597e-05 41.92354067 -226.1391729
-9.482768583 -1.552502283e-05 -4.9980791
-250.7092373 192.7435425 -250
-171.7819323 -1.552502283e-05 90.2674155
-142.9958825 -1.552502283e-05 121.615494
-1.258274597e-05 169.9683383 100.771227
-74.75856338 230.7983761 -250
-227.1364097 120.9599941 -250
-67.27195788 -1.552502283e-05 69.4594935
-1.258274597e-05 2.215947975 -147.3174304
-204.8182057 -1.552502283e-05 -122.0235719
-243.2477365 87.61054047 -250
-173.9798178 -1.552502283e-05 125.3974356
-201.6814826 -1.552502283e-05 -165.0707708
-11.82643958 -1.552502283e-05 -229.1345329
-129.8623916 60.46335997 -250
-1.258274597e-05 72.48784007 169.3088249
-230.4786293 248.621191 -250
-230.4682319 -1.552502283e-05 -154.8160108
-1.258274597e-05 83.65247747 4.6359849
-1.258274597e-05 52.04297307 19.7882031
-1.258274597e-05 91.13666587 229.1870897
-1.258274597e-05 145.0987108 -177.7488083
-134.8026089 -1.552502283e-05 217.3344429
-1.258274597e-05 170.9508893 79.5046305
-215.853622 -1.552502283e-05 3.474703
-1.258274597e-05 132.773035 214.2578896
-1.258274597e-05 148.1200186 171.6279074
-1.258274597e-05 123.9419638 -169.1418638
-109.5245141 181.6143489 -250
-50.91137148 -1.552502283e-05 -211.2909151
-116.6870194 -1.552502283e-05 -3.887422
-1.258274597e-05 60.80477207 146.864902
-169.9544493 37.02351717 -250
-200.1105384 50.14121827 -250
-31.51784738 -1.552502283e-05 -166.3686338
-200.9113733 -1.552502283e-05 127.3342361
-35.41717058 -1.552502283e-05 -240.5924329
-28.03808238 -1.552502283e-05 52.829855
-103.5187167 -1.552502283e-05 -182.2825892
-119.1633363 119.4800656 -250
-164.7029115 107.8650934 -250
-1.258274597e-05 133.1412189 48.3693116
-17.13626118 -1.552502283e-05 -31.1686137
-15.90279788 -1.552502283e-05 139.1029175
-45.95775548 194.5553742 -250
-188.7159981 -1.552502283e-05 55.2888376
-251.4469379 46.39730707 -250
-1.258274597e-05 155.2200764 19.4661428
-230.0341425 -1.552502283e-05 -30.7351321
-84.61863458 -1.552502283e-05 179.3142148
-1.258274597e-05 191.0832568 141.3916978
-234.9183087 176.7302568 -250
-189.7435274 -1.552502283e-05 -191.498287
-1.258274597e-05 14.69093747 67.1319632
-207.4834746 -1.552502283e-05 -229.057122
-114.088309 -1.552502283e-05 -233.6425199
-248.8458554 213.4744293 -250
-1.258274597e-05 27.38906497 -208.0138867
-18.62662268 -1.552502283e-05 -198.2984254
-51.01154488 250.4950161 -250
-1.258274597e-05 14.01876057 203.076211
-1.258274597e-05 197.7432517 114.9822439
-132.3008577 96.32572307 -250
-1.258274597e-05 9.008641175 30.6536015
-1.258274597e-05 108.0757881 -213.5536969
-98.41357418 -1.552502283e-05 40.0277418
1.715916717 12.94739147 -250
-132.8381207 -1.552502283e-05 -156.6379573
-175.0410405 -1.552502283e-05 207.867895
-191.4882637 228.4758105 -250
-252.2899052 -1.552502283e-05 -81.5801785
-234.7625738 -1.552502283e-05 186.0738916
-140.6145048 -1.552502283e-05 -46.6067907
-61.54405098 -1.552502283e-05 -142.1335148
-18.76284218 -1.552502283e-05 32.1785371
-1.258274597e-05 108.1025965 72.9869871
-113.6419865 -1.552502283e-05 131.0087264
-50.77467088 -1.552502283e-05 110.5104425
-1.258274597e-05 67.89703227 55.0066564
-1.258274597e-05 23.79111677 -124.559462
-175.0370069 16.37024717 -250
-1.258274597e-05 234.3490121 67.23746
-121.1420703 78.56452107 -250
-12.44570668 -1.552502283e-05 -111.3172179
-95.71499728 -1.552502283e-05 209.7974022
-1.258274597e-05 39.35552327 181.1863532
-234.2800153 11.22712617 -250
-1.258274597e-05 24.76060827 156.0076016
-1.258274597e-05 98.89520587 202.610617
-80.35817248 22.43248557 -250
-50.53095648 -1.552502283e-05 -3.9538914
-53.40684578 132.6625047 -250
-159.1032342 -1.552502283e-05 44.6447373
-67.23852718 89.56122467 -250
-107.5539621 -1.552502283e-05 -112.4735379
-128.6912589 -1.552502283e-05 -132.437219
-1.258274597e-05 171.78544 -84.4050183
-90.13443038 57.23515347 -250
-183.9005535 -1.552502283e-05 -226.0050653
-1.258274597e-05 144.5088607 -28.6913342
-1.258274597e-05 122.4757555 3.1809313
-1.258274597e-05 67.52397087 74.2389449
-1.258274597e-05 226.4080491 128.5254594
-167.4281089 -1.552502283e-05 -139.3686007
-7.398557383 210.9508946 -250
-1.258274597e-05 22.68443727 3.4886736
-227.2809735 -1.552502283e-05 41.764332
-1.258274597e-05 212.0704655 4.3554836
-1.258274597e-05 12.27477267 104.8249395
-60.54732388 -1.552502283e-05 30.3440024
-14.06819528 -1.552502283e-05 176.9013918
-44.27169988 -1.552502283e-05 -107.9150427
-1.258274597e-05 170.3019915 54.7963491
-1.258274597e-05 203.7254587 -71.3028542
-1.258274597e-05 114.7739236 178.8848958
-1.258274597e-05 67.98443557 -205.7051704
-1.258274597e-05 18.17874577 -55.0575886
-1.258274597e-05 106.6955626 113.2278238
-1.258274597e-05 78.64010027 -112.512089
-83.56454078 -1.552502283e-05 114.3426149
-34.44363238 -1.552502283e-05 239.7371663
-1.258274597e-05 183.3757161 -39.0898103
-239.0806355 -1.552502283e-05 234.7802398
-73.12072628 -1.552502283e-05 -239.6021232
-1.258274597e-05 89.21404507 -181.1169304
-1.258274597e-05 64.96010677 -163.1781334
-14.03353598 -1.552502283e-05 108.7671216
-147.153468 -1.552502283e-05 232.3506055
-225.456986 -1.552502283e-05 -196.4449565
-252.1929231 -1.552502283e-05 -0.4202087
-95.28788948 -1.552502283e-05 -162.251748
-61.19318908 53.56076447 -250
-123.2406409 -1.552502283e-05 -217.1230019
-1.258274597e-05 232.3255279 210.4228121
-124.8463673 -1.552502283e-05 -20.1188367
-174.6655531 197.254513 -250
-197.9188377 -1.552502283e-05 158.1368836
-1.258274597e-05 229.3319248 -232.0129799
-1.258274597e-05 250.1144406 141.0472115
-105.0649421 -1.954653025 -250
-12.96738608 152.0252147 -250
-85.14374228 -1.552502283e-05 -25.8273907
-8.569746383 246.7994983 -250
-226.8877907 -1.552502283e-05 77.2225912
-101.4856341 -1.552502283e-05 -36.2322565
-1.258274597e-05 98.30053957 -149.1554181
-1.258274597e-05 240.2332085 -74.693855
-1.258274597e-05 97.78221377 164.0320438
-1.258274597e-05 160.2641833 -156.3786546
-76.88233678 186.5700345 -250
-1.258274597e-05 230.1686039 146.2595826
-17.20073208 184.1422916 -250
-155.6220758 -1.552502283e-05 -2.9544245
-1.258274597e-05 86.91492617 132.8027955
-15.95616088 78.03386917 -250
-171.958497 -1.552502283e-05 152.3902495
-1.258274597e-05 32.96473387 -160.3259306
-1.258274597e-05 108.76775 -124.1112895
-1.258274597e-05 133.4796935 85.8224772
-202.3296027 -1.552502283e-05 40.3682027
-67.22753318 -1.552502283e-05 165.8746896
-11.52135628 -1.552502283e-05 -160.5922785
-1.258274597e-05 186.6495967 -99.7169442
-1.258274597e-05 132.8198009 136.7763054
-252.3961366 -1.552502283e-05 -222.3697722
-157.8458869 -1.552502283e-05 -181.9301318
-104.613672 -1.552502283e-05 59.6912334
-1.258274597e-05 52.44609697 84.2469728
-1.258274597e-05 56.22619307 -97.3946051
-229.991477 -1.552502283e-05 153.8734742
-1.258274597e-05 226.9861137 179.5294666
-101.0539591 15.59188977 -250
-1.258274597e-05 164.6818555 -211.3044964
-1.258274597e-05 228.0237074 93.6533521
-135.0514402 -1.552502283e-05 41.4776966
-155.926179 -1.552502283e-05 71.7907011
-1.258274597e-05 87.59895097 80.2180218
-164.8800651 69.36632687 -250
-233.3903284 157.7630571 -250
-54.45122348 -1.552502283e-05 -33.5075525
-1.258274597e-05 122.3435889 -21.89866
-125.9601566 -1.552502283e-05 -186.494584
-21.14579018 -1.552502283e-05 82.3703629
-186.8239101 -1.552502283e-05 -70.8779254
-1.258274597e-05 37.12371057 36.2208475
-144.3526912 -1.552502283e-05 10.2061781
-212.3827572 90.23278237 -250
-1.258274597e-05 71.20723107 110.1186038
-90.80221418 -1.552502283e-05 -65.8409091
-1.258274597e-05 227.0256372 -156.8106811
-51.11137128 -1.552502283e-05 128.9621762
-111.5440263 236.4149957 -250
-55.18699668 22.99525647 -250
-245.2073467 -1.552502283e-05 91.7260237
-63.51196458 -1.552502283e-05 236.7301926
0.3219203173 66.61886797 -250
-1.258274597e-05 234.8522016 -215.8053005
-231.4286817 -1.552502283e-05 210.7007841
-1.258274597e-05 194.0084618 -176.5081436
-125.6744189 -1.552502283e-05 87.7889347
-1.258274597e-05 142.5895579 -196.5872842
-251.4676347 6.870510775 -250
-107.2136657 -1.552502283e-05 115.299429
-218.2572824 144.9129313 -250
-1.258274597e-05 49.43682417 -23.1339946
-1.258274597e-05 168.5752299 -233.2179855
-1.258274597e-05 193.8445465 204.8919873
-1.258274597e-05 193.6655585 -157.5290702
-1.258274597e-05 227.876185 -133.7275406
-1.258274597e-05 170.1167282 207.9408357
-161.4955606 235.6121166 -250
-1.258274597e-05 149.5500033 -115.8457965
-189.4612426 -1.552502283e-05 -18.8320129
-1.258274597e-05 197.910895 231.8384289
-1.258274597e-05 140.510708 -140.8141146
-125.6742436 -1.552502283e-05 159.6788061
-141.6295242 160.1230313 -250
-51.09865598 -1.552502283e-05 -227.9131151
-1.258274597e-05 137.9401805 -216.2441015
-1.258274597e-05 203.6593766 64.1401993
-1.258274597e-05 213.6478912 -106.7877379
-115.2413231 45.77834287 -250
-127.8546701 -1.552502283e-05 182.751036
-135.8697517 -0.08014822502 -250
0.4401395173 -1.552502283e-05 -184.6062628
-180.9815492 73.17912977 -250
-1.258274597e-05 171.2577287 23.3689867
-45.36410408 -1.552502283e-05 17.0664774
-1.258274597e-05 84.08286417 -229.5423737
-1.258274597e-05 13.08894077 83.7174926
-185.777546 117.7350196 -250
-217.4072323 -1.552502283e-05 -65.3517388
-1.258274597e-05 176.0210357 147.9868799
-82.19031848 -1.552502283e-05 83.8346835
-1.258274597e-05 228.2553207 -186.5238432
-70.80789318 -1.552502283e-05 -35.0594376
-1.258274597e-05 187.9832524 -54.8346771
-238.4671132 -1.552502283e-05 -98.9521522
-204.8699056 -1.552502283e-05 -40.596343
-1.258274597e-05 70.68436317 229.0968413
-1.258274597e-05 35.09642557 -86.1326281
-1.258274597e-05 81.03136677 192.7676618
-1.258274597e-05 144.3867654 -54.8577252
-1.258274597e-05 200.1272523 47.1179932
-24.54658278 45.38890357 -250
-118.5280626 150.8446179 -250
-150.434115 -1.552502283e-05 158.8341736
-1.258274597e-05 247.1904239 -40.4522903
-210.4254453 -1.552502283e-05 74.6016406
-205.5136004 -1.552502283e-05 243.8373232
-151.9353905 -1.552502283e-05 -79.8431798
-202.7496779 -1.552502283e-05 93.3517392
-203.7930878 174.1669687 -250
-175.8792188 -1.552502283e-05 -210.2389208
-100.0491916 -1.552502283e-05 -206.5998076
-1.258274597e-05 242.4839418 174.4977523
-62.70738318 -1.552502283e-05 -180.550157
-1.258274597e-05 174.6810494 -132.5749797
-1.258274597e-05 213.2876981 -56.8403541
-67.35325968 118.1115142 -250
-1.258274597e-05 117.6090093 21.6749384
-1.258274597e-05 204.4795381 -192.7930373
-1.258274597e-05 114.297066 198.1317052
-24.90245078 9.742065975 -250
-13.88585588 -1.552502283e-05 234.9411566
-111.6200576 220.3018521 -250
-1.258274597e-05 214.8148072 241.2187197
-1.258274597e-05 0.878373175 167.1563165
-1.258274597e-05 111.3674572 -77.0371317
-47.15023638 -1.552502283e-05 161.274964
-1.258274597e-05 161.670773 180.0876121
-1.258274597e-05 143.6486751 4.5331322
-1.258274597e-05 1.424172675 -40.0165618
-1.258274597e-05 103.3531127 148.2260299
-88.21623058 127.2113385 -250
-204.5483696 -1.552502283e-05 -180.7311321
-227.4050232 -1.552502283e-05 -113.7571835
-54.20542558 -1.552502283e-05 80.6118101
-1.258274597e-05 211.2869999 176.9269712
-1.258274597e-05 59.00897857 203.298516
-205.632833 -1.552502283e-05 222.6016667
-1.258274597e-05 118.3136319 56.4343754
-1.258274597e-05 155.6555714 110.6509948
-1.258274597e-05 192.9930738 182.9643481
-183.1332606 -1.552502283e-05 12.8052307
-1.258274597e-05 115.0564358 233.031891
1.855893217 -1.552502283e-05 72.5344045
-1.258274597e-05 170.9387762 226.9881342
-204.5254186 108.1634715 -250
-171.4087765 -1.552502283e-05 -85.7440533
-1.258274597e-05 216.7566808 208.2581778
-234.0311808 37.61611117 -250
-35.52294748 228.9935014 -250
-1.258274597e-05 213.2527248 -236.3528459
-142.1947708 128.4639251 -250
-1.258274597e-05 225.2602808 112.9103371
-141.1702416 46.07562067 -250
-225.9260056 -1.552502283e-05 -238.059985
-151.4759229 -1.552502283e-05 181.449238
-66.14745108 -1.552502283e-05 209.0295712
-1.258274597e-05 184.9618576 106.0560863
-39.76947198 -1.552502283e-05 213.1814727
-73.18148048 -1.552502283e-05 -89.0877831
-1.258274597e-05 65.25781037 -13.4475779
-27.60249078 -1.552502283e-05 -77.4744272
-1.258274597e-05 138.0699314 -232.6868891
-1.258274597e-05 87.41217837 96.1713058
-1.258274597e-05 92.19757937 -28.9301967
-44.91456818 165.7119351 -250
-74.81713038 -1.552502283e-05 134.5626168
-1.258274597e-05 53.38006867 -242.0145096
-130.5129172 -1.552502283e-05 232.1813259
-1.258274597e-05 120.4081508 -53.682216
-1.258274597e-05 148.0170799 232.5147485
-33.80803338 -1.552502283e-05 -201.0882416
-1.258274597e-05 54.78378057 -215.7652964
-41.24927528 64.78408737 -250
-1.258274597e-05 155.1618581 157.6632453
-1.258274597e-05 37.16831187 -1.5432479
-173.9566999 -1.552502283e-05 -104.5593054
-1.258274597e-05 196.4536874 3.9136743
-159.044842 199.0057231 -250
-1.258274597e-05 247.6730724 107.5111675
-1.258274597e-05 235.9526108 -23.7574102
-1.258274597e-05 29.90189437 68.5364757
-126.7152637 -1.552502283e-05 -59.0802227
-1.258274597e-05 124.7293682 120.2284827
-182.6846465 -1.552502283e-05 -54.0865754
-1.258274597e-05 49.68370267 130.3991803
-1.258274597e-05 125.5765096 -104.0929237
-50.69877908 93.87022677 -250
-143.0976932 224.4652991 -250
-135.9457976 252.0782856 -250
-127.4583053 -1.552502283e-05 63.1303055
-1.258274597e-05 115.1346966 -182.2553448
-37.48535768 210.5581626 -250
-153.5550522 85.89450547 -250
-143.5142697 30.84692157 -250
-1.258274597e-05 47.29912967 238.8850884
-111.5515314 -1.552502283e-05 -147.1578015
-1.258274597e-05 87.99612727 -97.3773973
-1.258274597e-05 71.64215417 40.4360975
-209.9279826 -1.552502283e-05 -195.5358571
-152.4803792 -1.552502283e-05 206.2783786
-66.06633898 9.852420875 -250
-139.2061089 -1.552502283e-05 -106.0016411
-50.79040038 -1.552502283e-05 -67.2336355
-237.5493664 -1.552502283e-05 -185.9614364
-11.65855888 -1.552502283e-05 -132.9244213
-51.52767108 215.810204 -250
-234.1164821 -1.552502283e-05 -170.8374324
-133.9756879 17.17649127 -250
-190.110144 163.9066037 -250
-160.6026979 -1.552502283e-05 -211.4253318
-1.258274597e-05 129.7377454 163.9353843
-150.4503 -1.552502283e-05 -232.8527758
-1.258274597e-05 146.7068563 55.1023243
-40.12518498 -1.552502283e-05 182.4808486
-93.13033518 -1.552502283e-05 195.1130124
-166.51799 -1.552502283e-05 -240.5215038
-1.258274597e-05 4.572407975 -71.1054105
-1.258274597e-05 226.0364106 194.3790248
-20.84450458 -1.552502283e-05 -45.8306888
-127.9108914 -1.552502283e-05 -76.5559156
-1.258274597e-05 170.7815008 -67.7679543
-43.75798468 34.32547507 -250
-1.258274597e-05 228.5926831 -118.9087138
-1.258274597e-05 99.22703747 49.5629772
-1.258274597e-05 10.67778087 -12.8817212
-98.99555868 -1.552502283e-05 -50.8245392
-1.258274597e-05 158.302612 -14.9322209
-199.8006666 -1.552502283e-05 -103.6036914
-1.258274597e-05 252.3536098 75.4826858
-112.15119 -1.552502283e-05 32.1301876
0.4957444173 -1.552502283e-05 -169.8853114
-1.258274597e-05 251.5191343 39.5974358
-114.9561043 136.3892433 -250
-83.06503108 -1.552502283e-05 -209.2232148
-1.258274597e-05 67.93948437 -146.3153427
-230.2604912 -1.552502283e-05 132.7553626
-78.10237918 -1.552502283e-05 97.9356065
-172.1779753 -1.552502283e-05 234.6644053
-47.88050778 -1.552502283e-05 -50.4436036
-45.01002678 -1.552502283e-05 -17.4825872
-106.20963 78.08738137 -250
-195.9970382 -1.552502283e-05 -137.8550656
-1.258274597e-05 49.70851197 -186.6671326
-1.258274597e-05 133.8050389 33.8033643
-1.258274597e-05 247.5315679 208.1779687
-1.258274597e-05 217.8677827 28.9319343
-174.1017064 -1.552502283e-05 107.1520002
-204.5088334 -1.552502283e-05 190.3757053
-244.9219666 -1.552502283e-05 123.1242825
-13.82495218 -1.552502283e-05 154.2223027
-17.16910198 138.2024372 -250
-8.983888283 -1.552502283e-05 198.8591676
-1.258274597e-05 168.1160298 -182.974476
-1.258274597e-05 29.32665927 -240.3424255
-1.258274597e-05 162.2765041 123.4444892
-1.258274597e-05 184.179433 -235.7568856
-177.3121273 98.13380737 -250
-70.13626258 -1.552502283e-05 189.169932
-1.258274597e-05 151.9252195 -84.1506751
-56.13547868 66.99309407 -250
-1.258274597e-05 230.4497613 51.1771348
-1.258274597e-05 210.7521678 154.7739605
-198.1720747 3.043929075 -250
-1.258274597e-05 46.74041617 -135.2024833
-89.32009468 158.223783 -250
-94.53144948 97.87427767 -250
-1.258274597e-05 22.46991067 35.4445986
-225.9804998 84.14395347 -250
-53.66402658 -1.552502283e-05 65.1620118
-243.4915823 -1.552502283e-05 -68.2638649
-248.578056 100.824622 -250
-1.258274597e-05 53.19460037 -57.2368405
-41.46639508 -1.552502283e-05 57.5473479
-1.258274597e-05 212.839223 124.2661196
-185.6323051 136.4854332 -250
-173.2285393 -1.552502283e-05 50.0792889
-130.5687839 210.5472388 -250
-20.85118588 -1.552502283e-05 -240.2659578
-209.2468354 -1.552502283e-05 114.7499649
-16.96657028 -1.552502283e-05 124.4046736
-86.40012668 142.0658639 -250
-202.8235273 -1.552502283e-05 171.4190895
-171.6493348 -1.552502283e-05 -153.6304306
-1.258274597e-05 233.4891865 229.6450695
-1.258274597e-05 249.898634 -212.3728342
-151.2641929 65.62045867 -250
-175.5216506 -1.552502283e-05 181.340338
-1.258274597e-05 182.9662672 246.8856261
-93.49923368 -1.552502283e-05 -118.0736924
-1.258274597e-05 76.47643257 -194.4669624
-251.3875271 132.3627137 -250
-1.258274597e-05 200.5746717 79.7258394
-13.81864368 123.4248156 -250
-1.258274597e-05 6.272468475 -109.8038231
-215.0085863 -1.552502283e-05 -160.7434775
-67.25789608 -1.552502283e-05 -162.1628182
-211.6715353 41.46374267 -250
-1.258274597e-05 104.5465779 -94.3081777
-1.258274597e-05 250.3565337 0.8741145
-1.258274597e-05 138.9275294 -76.0609786
-1.258274597e-05 164.1305544 -119.6638717
-1.258274597e-05 13.97779837 -139.8170397
-1.258274597e-05 177.1231035 -150.1868069
-110.9001683 25.44057327 -250
-64.59732398 221.2918625 -250
-14.58059478 -1.552502283e-05 49.3528183
-1.258274597e-05 15.25389267 -201.2404845
-123.8184834 -1.552502283e-05 -172.7755243
2.260587917 -1.552502283e-05 -245.0137198
-172.2277811 -1.552502283e-05 -31.8736335
-249.4350856 -1.552502283e-05 182.5381981
-155.3538628 162.1099172 -250
-1.258274597e-05 185.5047929 162.0417552
-140.7472363 175.6132784 -250
-213.8352992 -1.552502283e-05 -12.2371804
-130.7071884 -1.552502283e-05 127.9141892
-1.258274597e-05 26.06291757 105.1252223
-114.6033721 -1.552502283e-05 236.5512282
-188.5899751 84.65398267 -250
-65.85379818 -1.552502283e-05 -113.812051
-1.258274597e-05 195.4674863 -208.3108971
-48.79922218 -1.552502283e-05 -147.309951
-95.21162798 -1.552502283e-05 169.7399953
-138.1022263 -1.552502283e-05 -120.8812529
-206.3439037 251.4919795 -250
-37.30090848 134.5950063 -250
-69.15607178 170.6465786 -250
-143.4373146 -1.552502283e-05 98.4554055
-178.5769073 210.4107572 -250
-230.7003424 -1.552502283e-05 -61.9392052
-188.6794009 14.89695217 -250
-111.8007131 -1.552502283e-05 86.3777099
-1.258274597e-05 94.72864917 215.6142677
-89.39973358 -1.552502283e-05 -132.8715536
-229.0742503 -1.552502283e-05 108.6785632
-1.258274597e-05 218.2059211 61.7205861
-1.258274597e-05 12.42193707 -86.5947447
-1.258274597e-05 206.7706286 -26.9433743
-213.6958281 -1.552502283e-05 26.721345
-5.407212683 100.4609555 -250
-1.258274597e-05 102.1556404 22.8705647
-239.7331104 -1.552502283e-05 -217.5144806
-86.32477188 -1.552502283e-05 141.713711
-151.807934 -1.552502283e-05 -54.1440653
-217.71437 -1.552502283e-05 -89.2364023
-1.258274597e-05 79.50789807 -171.0643159
-43.25022728 120.6381256 -250
-85.63590998 34.83737587 -250
-159.8078854 218.0492342 -250
-183.876443 -1.552502283e-05 158.6414229
-178.400731 -1.552502283e-05 -183.7122355
-1.258274597e-05 130.3142337 -151.5390038
-123.0330835 -1.552502283e-05 -97.239371
-205.2343039 195.9551042 -250
-157.2945995 -1.552502283e-05 95.7573173
-1.258274597e-05 4.423421875 230.5568777
-1.258274597e-05 135.656462 105.6212038
-64.47596908 144.1208003 -250
-1.258274597e-05 204.8226879 -134.0565986
-94.64147038 69.85477127 -250
-110.7921445 -1.552502283e-05 -24.4943607
-166.4009903 171.0857768 -250
-149.7299739 251.986238 -250
-110.5457331 -1.552502283e-05 194.3086582
-1.258274597e-05 144.2077334 207.4029408
-1.258274597e-05 97.46004387 240.9137886
-109.9415168 -1.552502283e-05 -217.4469268
-101.1417743 -1.552502283e-05 -236.6981809
-1.258274597e-05 249.4076187 -129.9944401
-1.258274597e-05 62.86409827 5.1761389
-1.258274597e-05 4.073189875 136.8458272
-10.63499048 -1.552502283e-05 -91.7048604
-1.258274597e-05 225.2548066 -51.1474274
-1.258274597e-05 4.163690975 -216.3299661
-1.258274597e-05 41.13414547 77.3766213
-1.258274597e-05 126.9799322 -239.8755187
-1.258274597e-05 238.759663 -106.0429072
-144.3373125 -1.552502283e-05 -192.1606515
-16.23927848 170.9712119 -250
-1.258274597e-05 196.2413021 -82.3675982
-236.7560666 -1.552502283e-05 -17.9630844
-98.11420378 236.7174447 -250
-20.24606408 -1.552502283e-05 -18.3556198
-83.66026638 -1.552502283e-05 -231.7111129
-1.258274597e-05 219.4612826 -218.6979473
-237.19789 59.32592937 -250
-37.17743848 -1.552502283e-05 -140.1302245
-156.9905273 -1.552502283e-05 -131.3976082
-70.50676318 -1.552502283e-05 2.7466801
0.1226579173 151.0264201 -250
-1.258274597e-05 31.29271147 -49.4126701
-1.258274597e-05 239.1906505 -203.4292303
-1.258274597e-05 37.55878827 248.9269695
-1.258274597e-05 19.55760277 214.9598392
-190.5558775 -1.552502283e-05 212.7548848
-127.0571682 240.2320533 -250
-1.258274597e-05 207.6293015 -164.1967579
-125.2117612 -1.552502283e-05 31.9624213
-216.7320403 -1.552502283e-05 185.7791613
-1.258274597e-05 84.54315877 17.6566398
-1.258274597e-05 81.24193797 49.2710638
-1.258274597e-05 114.7953382 88.1190141
-102.2913189 -1.552502283e-05 73.2218699
-1.258274597e-05 149.4076815 -210.0944577
-1.258274597e-05 133.0823269 200.662431
-170.1524575 185.0646057 -250
-191.4488896 -1.552502283e-05 -83.0213669
-1.258274597e-05 103.7985606 126.9487495
-13.19494348 -1.552502283e-05 211.2590024
-44.17334128 -1.552502283e-05 -169.4093142
-1.258274597e-05 24.09575447 188.7040614
-97.59153268 -1.552502283e-05 246.214104
-1.258274597e-05 181.2013271 177.5451575
-239.2814781 -1.552502283e-05 14.3023542
-56.96105938 79.92812407 -250
-1.258274597e-05 100.0408919 -48.7538304
-1.258274597e-05 113.7040663 -234.9037052
-115.2441954 165.9803328 -250
-1.258274597e-05 252.3258997 -185.4066322
-244.317982 -1.552502283e-05 -132.943198
-121.4123799 105.0903921 -250
-1.258274597e-05 172.8802472 -195.0060303
-18.60615078 111.4212956 -250
-1.258274597e-05 57.10055757 100.4849709
-197.6216231 -1.552502283e-05 64.6113612
-1.258274597e-05 80.51698367 -60.9888688
-1.258274597e-05 165.2059261 -95.7500634
-1.258274597e-05 41.70073427 55.473639
-1.258274597e-05 35.98857417 -195.0949365
-216.4461511 -1.552502283e-05 -127.5077416
-58.78311088 190.9196338 -250
-250.3872168 -1.552502283e-05 -41.0949956
-1.258274597e-05 121.8642405 -128.0585416
-1.258274597e-05 158.9706111 -169.1390411
-1.258274597e-05 14.67370297 52.4811971
-1.258274597e-05 102.3331306 -182.1800692
-1.258274597e-05 177.4526772 -21.2068863
-1.258274597e-05 69.98995517 241.8642962
-78.79809498 -1.552502283e-05 -61.4694143
-1.258274597e-05 80.91971047 178.9011802
-1.258274597e-05 53.76091277 -109.9180234
-211.6291935 -1.552502283e-05 -216.8004325
-14.23420618 -1.552502283e-05 -210.2683622
-156.4348545 131.8105408 -250
-136.6111377 -1.552502283e-05 -216.2174462
-39.87688308 -1.552502283e-05 5.5633966
-249.0000158 -1.552502283e-05 -162.8166511
-204.1233325 -1.552502283e-05 8.4289575
-1.258274597e-05 100.2089473 -136.0847597
-247.0949718 180.3131256 -250
-132.5343919 120.2328253 -250
-1.258274597e-05 229.999745 81.117153
-1.258274597e-05 8.827553775 4.5527408
-174.0289958 -1.552502283e-05 -117.2437886
-154.6159707 -1.552502283e-05 59.1911123
-42.52854438 -1.552502283e-05 85.5189907
-1.258274597e-05 50.68305707 193.761528
-1.258274597e-05 43.65051577 -95.9454898
-30.11414488 85.30155357 -250
-1.258274597e-05 196.9605562 -233.6196603
-185.763165 -1.552502283e-05 238.2844054
-125.7533492 -1.552502283e-05 -238.4763471
-113.2741616 -1.552502283e-05 100.401473
-236.4595984 189.2595206 -250
-156.5409589 -1.552502283e-05 -197.2851165
-1.258274597e-05 239.9945777 -87.3001762
-1.258274597e-05 202.6030157 95.9706108
-51.45735258 -1.552502283e-05 -186.2194709
-114.8981851 -1.552502283e-05 -129.8819438
-91.35613958 188.3616733 -250
-177.9465903 -1.552502283e-05 195.6625659
-1.258274597e-05 15.61230127 237.3763627
-57.55348938 -1.552502283e-05 -83.2215491
-4.884905283 -1.552502283e-05 37.8691826
-233.832427 24.82612917 -250
-1.258274597e-05 133.7971716 -92.2960501
-79.75004908 -1.552502283e-05 237.5228069
-176.914676 -1.552502283e-05 223.0213239
-245.7745435 228.94291 -250
-1.258274597e-05 189.5473098 -25.068963
-164.6704849 153.7678172 -250
-130.736748 153.5259859 -250
-215.5279633 -1.552502283e-05 46.0133875
-80.24180548 243.1102094 -250
-207.021746 28.26772357 -250
-206.1330031 -1.552502283e-05 203.3897888
-39.61843318 -1.552502283e-05 45.211968
-137.1188588 -1.552502283e-05 24.6537352
-158.9827265 -1.552502283e-05 236.2748918
-8.153403483 -1.552502283e-05 25.6400752
-1.258274597e-05 61.22734887 174.6332341
-212.5007888 -1.552502283e-05 134.8146851
-193.72493 -1.552502283e-05 -218.3585354
-1.258274597e-05 14.45787867 117.0738636
-63.70384788 -1.552502283e-05 56.3316221
-155.8826046 32.31144587 -250
1.663552417 -1.552502283e-05 105.7732473
-205.7382477 151.6632522 -250
-88.98104898 -1.552502283e-05 50.1696078
-12.05751338 19.23594227 -250
-1.258274597e-05 153.6049856 -237.8663973
-1.258274597e-05 33.58759987 -73.0118987
-68.19291238 -1.552502283e-05 105.3874871
-105.0014759 199.395159 -250
-1.258274597e-05 202.6461316 -118.9737451
-98.44296798 -1.552502283e-05 8.5276534
-41.45914968 -1.552502283e-05 195.7363751
-61.32740688 100.4296174 -250
-62.48561098 -1.552502283e-05 -233.2949318
-1.258274597e-05 117.7291156 -158.4515314
-235.3067645 108.7412698 -250
-1.258274597e-05 11.19442217 -236.0998693
-1.258274597e-05 177.5711533 -206.7925692
-1.258274597e-05 228.4958544 -80.6963778
-218.2743077 129.5331158 -250
-91.29811808 -1.552502283e-05 -180.6616804
-150.6874325 -1.552502283e-05 -14.8857267
-147.3224426 96.52633147 -250
-67.48373428 23.79747087 -250
-245.6578202 -1.552502283e-05 211.8926606
-63.29048828 -1.552502283e-05 -210.7817961
-1.258274597e-05 61.50752497 216.073293
-31.33352848 -1.552502283e-05 227.827398
-92.97187678 -1.552502283e-05 -145.2003319
-1.258274597e-05 86.94119857 205.3040657
-1.258274597e-05 158.371243 -143.410284
-1.258274597e-05 75.04404847 135.7300842
-62.92816738 -1.552502283e-05 -7.466812
-1.258274597e-05 130.173045 -206.8039736
-1.258274597e-05 201.1761954 -58.452914
-112.5391098 -1.552502283e-05 7.5731633
-1.258274597e-05 145.4228893 141.3474041
-140.296416 -1.552502283e-05 206.4572159
-197.3546188 -1.552502283e-05 -153.3731648
-219.1618429 109.8446968 -250
-1.258274597e-05 77.19631827 -138.3945949
-1.258274597e-05 34.43850977 -27.0661859
-1.258274597e-05 237.6682757 -62.8062684
-197.7583395 184.7235483 -250
-1.258274597e-05 245.4511451 24.7459371
-81.88439298 210.3839355 -250
-98.63708938 -1.552502283e-05 -103.8269424
-167.9424945 -1.552502283e-05 1.2232084
-1.258274597e-05 59.67494687 -67.4640488
-229.6220917 216.6668728 -250
-1.258274597e-05 178.0285601 -7.4168281
-48.02677668 8.502264075 -250
-1.258274597e-05 183.4265923 231.1224707
-191.6115758 212.4329479 -250
-250.3597371 -1.552502283e-05 -193.1974501
-1.258274597e-05 196.5199559 217.4984324
-1.258274597e-05 73.26573307 -4.4288441
-10.91613528 89.73719727 -250
-80.91063458 -1.552502283e-05 212.2987779
-1.258274597e-05 29.50442877 -220.0917682
-229.9292659 -1.552502283e-05 -249.4205469
-211.37765 8.743429175 -250
-251.0625128 -1.552502283e-05 235.8420305
-75.70595028 45.59853607 -250
-1.258274597e-05 63.32738897 161.5194277
-1.258274597e-05 118.608461 -113.8905582
-145.4696592 -1.552502283e-05 147.8845288
-1.258274597e-05 71.71779437 200.3484466
-40.97895318 180.9084461 -250
-1.258274597e-05 163.2123719 37.9906203
-1.258274597e-05 49.58277527 8.0554647
-250.1711806 -1.552502283e-05 157.2055425
-1.258274597e-05 183.4152493 76.983005
-217.48591 -1.552502283e-05 105.6468842
-12.65831098 195.2194058 -250
-1.258274597e-05 250.980324 -166.6816577
-126.8752641 48.57374647 -250
-122.7670053 -1.202282825 -250
-148.053531 -1.552502283e-05 -160.1287389
-1.258274597e-05 218.3510355 -140.9473368
-1.258274597e-05 175.7172097 136.0447852
-150.8790643 -1.552502283e-05 -40.5110945
-196.3418214 -1.552502283e-05 -32.2534923
-235.3572362 -1.552502283e-05 168.2899162
-1.258274597e-05 173.5928852 66.2619272
-1.258274597e-05 54.58704687 53.717242
-54.58869828 43.64082987 -250
-165.7032177 -1.552502283e-05 -171.964785
-1.258274597e-05 188.9596062 51.2714544
-38.29013788 248.9357363 -250
-1.258274597e-05 242.5536443 49.3295418
-87.83712008 112.1468778 -250
-235.2947916 -1.552502283e-05 32.962407
-209.0631984 64.60445287 -250
-9.869302283 43.65868367 -250
-1.258274597e-05 210.0604403 -209.8813612
-1.258274597e-05 10.63867907 18.2207246
-77.92411228 10.72243417 -250
-1.258274597e-05 236.2218384 9.87216
-169.4968101 -1.552502283e-05 24.9935732
-233.3839285 -1.552502283e-05 -227.5417046
-1.258274597e-05 30.10812457 -171.8435564
-21.19480238 -1.552502283e-05 96.405309
-192.6010734 -1.552502283e-05 -175.2375651
-1.258274597e-05 42.07166047 156.022259
-161.9243178 5.437723975 -250
-1.258274597e-05 33.33325427 -102.3442184
-1.258274597e-05 35.70462737 236.4891805
-1.258274597e-05 214.4510901 17.1038724
-1.258274597e-05 78.81474007 119.8342316
-1.258274597e-05 26.41588597 -63.5361706
-99.25664478 -1.552502283e-05 -74.1025831
-1.258274597e-05 225.739006 37.7409907
-242.040797 -0.236030325 -250
-208.4527382 138.3427418 -250
-1.258274597e-05 81.24474917 -33.320381
-1.258274597e-05 158.5761014 78.5546044
-24.85404258 -1.552502283e-05 147.3794385
-1.258274597e-05 65.38435657 -104.7764206
-120.8576133 -1.552502283e-05 142.7720407
-58.52405898 162.0448935 -250
-202.2567072 223.7883686 -250
-98.98331908 -1.552502283e-05 182.0781378
-23.68530708 156.8566033 -250
-1.258274597e-05 62.15652287 31.7604519
-1.258274597e-05 37.33740117 -15.2480986
-1.258274597e-05 97.50716587 -6.4062103
-1.258274597e-05 122.5770498 78.8460148
-96.39121038 -1.552502283e-05 150.6063299
-123.8935124 23.13008877 -250
-221.5602046 -1.552502283e-05 -141.7205703
-199.24671 -1.552502283e-05 142.840241
-1.258274597e-05 238.6131748 98.6306805
-1.258274597e-05 97.06669087 -118.765726
-27.90750148 -1.552502283e-05 -180.824972
-190.2505443 -1.552502283e-05 43.7114147
-92.06480598 -1.552502283e-05 20.2140481
-1.258274597e-05 157.7382619 -35.6683839
-1.258274597e-05 11.12420167 -188.0586162
-1.258274597e-05 12.54572117 187.1897868
-30.96351238 -1.552502283e-05 -105.9446013
-235.8341198 -1.552502283e-05 98.5976532
-181.035312 -1.552502283e-05 -199.8315666
-148.6784855 187.8307375 -250
-1.258274597e-05 218.1064732 -29.4575374
-86.26168978 232.2896269 -250
-1.258274597e-05 18.93745847 -174.950223
-1.258274597e-05 143.5205781 195.6229585
-1.258274597e-05 148.0041532 -6.2016623
-235.2936849 -1.552502283e-05 197.6459452
-78.88665878 59.97750367 -250
-200.6493461 91.83424817 -250
-206.8637027 -1.552502283e-05 -93.2229364
-1.258274597e-05 234.3544048 162.3761033
-15.39849158 -1.552502283e-05 -56.0026655
-102.2494235 -1.552502283e-05 219.3066221
-184.2080972 -1.552502283e-05 0.726117
-1.258274597e-05 14.84083757 149.8068645
-1.258274597e-05 192.566797 -221.5591192
-47.68765618 -1.552502283e-05 -92.4084884
-35.58998828 -1.552502283e-05 154.3586674
-24.34857388 -1.552502283e-05 -135.2558484
-1.258274597e-05 122.8086197 -10.4068444
-29.36813638 -1.552502283e-05 109.6784562
-1.258274597e-05 151.4863 127.4081681
-102.7388248 45.01418007 -250
-186.6247435 -1.552502283e-05 -116.9766094
-1.258274597e-05 15.41830327 -66.8563169
-240.3859305 123.3202902 -250
-223.6957622 -1.552502283e-05 142.1565039
-155.8684198 -1.552502283e-05 -65.1102041
-1.258274597e-05 101.0316859 103.2615634
-167.9353272 -1.552502283e-05 77.9485377
-25.44702798 -1.552502283e-05 206.2250606
-26.64610298 -1.552502283e-05 66.5532928
-1.258274597e-05 159.4489009 232.5023162
-213.38302 -1.552502283e-05 214.2025293
-1.258274597e-05 62.98941467 -47.2330355
-39.08379388 -1.552502283e-05 -122.4033943
-1.258274597e-05 79.82539777 -83.9958643
-190.157659 -1.552502283e-05 131.1728213
-1.258274597e-05 92.07853887 -168.3786525
-1.258274597e-05 123.6894603 149.4107363
-1.258274597e-05 121.4382895 207.0055376
-1.258274597e-05 60.05106677 -178.0892996
-181.0632806 -1.552502283e-05 75.6629497
-135.6288473 -1.552502283e-05 -23.7277211
-1.258274597e-05 133.714377 -25.1576532
-1.258274597e-05 114.8366186 -99.1101545
-1.258274597e-05 182.4143918 207.9423204
-1.258274597e-05 72.17001907 -235.2838005
-88.46608328 -1.552502283e-05 -14.9911421
-128.6847658 181.2162724 -250
-227.8961753 -1.552502283e-05 236.5271533
-1.258274597e-05 162.5090677 89.7573314
-135.0380541 -1.552502283e-05 -36.7724609
-167.6382878 -1.552502283e-05 -127.6065876
-1.258274597e-05 95.93935957 139.6029536
-56.74942868 -1.552502283e-05 192.4997168
-62.38032968 -1.552502283e-05 138.8988745
-122.5972797 -1.552502283e-05 170.5334393
-1.258274597e-05 142.9794119 76.9642906
-1.258274597e-05 196.3702175 131.4259135
-9.986530883 -1.552502283e-05 6.2451364
-1.258274597e-05 226.4873013 -175.4137783
-1.258274597e-05 157.8965787 56.0920854
-1.258274597e-05 170.9084292 114.2027891
-1.258274597e-05 10.48367167 -46.6235461
-245.6346694 -1.552502283e-05 27.23875
-1.258274597e-05 40.26584777 220.9766202
-1.258274597e-05 97.44281357 -210.0591956
-1.258274597e-05 140.8453637 -129.6416975
-200.4816856 -1.552502283e-05 233.8567845
-149.8920607 -1.552502283e-05 243.1862476
-131.0507702 -1.552502283e-05 243.7394458
-1.258274597e-05 173.1270913 6.4633146
-1.258274597e-05 11.12002927 127.7247614
-150.8558861 -1.552502283e-05 217.3195745
2.156205117 -1.552502283e-05 -158.8529575
-105.3513582 -1.552502283e-05 142.4488542
-150.3062353 9.528329475 -250
-1.258274597e-05 14.05017867 248.8604924
-61.46157178 -1.552502283e-05 -62.6385936
-1.258274597e-05 166.7049469 190.7160088
-176.1161082 -1.552502283e-05 -67.3514126
-46.84194488 -1.552502283e-05 143.0371704
-234.7843492 -1.552502283e-05 85.0529487
-104.4112492 248.999002 -250
-84.56628578 -1.552502283e-05 125.5285246
-82.62323938 -1.552502283e-05 10.9044154
-1.258274597e-05 1.850339175 205.1181964
-141.9651023 -1.552502283e-05 -240.0074547
-1.258274597e-05 239.1596274 -154.3694859
-190.5566074 -1.552502283e-05 184.738289
-1.258274597e-05 113.6284291 -65.9548599
-1.258274597e-05 43.93470687 -49.8562742
-127.2299816 -1.552502283e-05 76.8151541
-33.85330908 101.6086659 -250
-1.258274597e-05 14.47425367 -153.14442
-50.15420408 204.7987653 -250
-175.7355786 27.41594377 -250
-225.5504872 -1.552502283e-05 -102.2108626
-45.05963648 -1.552502283e-05 172.1853239
-1.258274597e-05 102.1681642 229.4618339
-216.0949363 -1.552502283e-05 -30.9796614
-217.478745 77.10962197 -250
-149.4131151 -1.552502283e-05 -101.8108277
-1.258274597e-05 97.62159707 69.5423584
-184.3458518 241.1394076 -250
-1.258274597e-05 73.26388087 13.7882514
-72.85555238 79.93854697 -250
-164.4287087 -1.552502283e-05 -110.0659104
-1.258274597e-05 192.63298 16.9731234
-62.72540598 -1.552502283e-05 225.7553588
-1.258274597e-05 87.20282447 -142.9605791
-138.3440649 67.46570687 -250
-128.3504352 197.5774275 -250
-1.258274597e-05 13.26569847 -121.3951868
-23.71050078 -1.552502283e-05 -228.5644268
-218.4398371 -1.552502283e-05 -228.2727734
-172.6297718 115.4639603 -250
-31.91739388 55.68246797 -250
-240.9075573 73.44597657 -250
-20.06427968 210.322588 -250
-1.258274597e-05 27.13819457 202.1206911
-102.0156686 -1.552502283e-05 104.970234
-21.24754728 -1.552502283e-05 -2.7214893
-1.258274597e-05 126.6139588 -79.7157398
-1.258274597e-05 129.0508469 245.4898147
-1.258274597e-05 76.39400547 80.6735115
-1.258274597e-05 214.4084665 -95.8574025
-1.258274597e-05 107.7832542 59.4497237
-1.258274597e-05 208.4972698 -81.1609556
-30.89600398 -1.552502283e-05 172.1084908
-102.3357033 -1.552502283e-05 -153.8701967
-67.52575078 -1.552502283e-05 153.2842106
-151.2527616 122.2122142 -250
-1.258274597e-05 29.54608087 137.48072
-1.258274597e-05 35.51769907 95.8062221
-1.258274597e-05 81.07258387 162.5945463
-1.258274597e-05 0.307680375 -81.1261454
-160.1627402 -1.552502283e-05 30.5977265
-1.258274597e-05 184.1322189 -186.4530325
-1.258274597e-05 203.9880968 11.7556237
-1.258274597e-05 241.7603198 -236.0207556
-1.258274597e-05 41.09846537 -153.1181844
-80.27335548 -1.552502283e-05 -114.539804
-81.98527488 -1.552502283e-05 -186.4646948
-245.0867251 -1.552502283e-05 59.3780118
-1.258274597e-05 8.989664775 174.3674469
-26.29711758 234.700208 -250
-165.2307929 -1.552502283e-05 -18.0610822
-1.258274597e-05 222.1856498 233.3063239
-152.3286155 -1.552502283e-05 170.6737845
-1.258274597e-05 125.3655937 176.7342705
-1.258274597e-05 52.43237597 -126.0152484
-33.66000908 -1.552502283e-05 -64.3103543
-1.258274597e-05 160.1462272 -109.6220865
-129.2832009 -1.552502283e-05 -48.4464512
-1.258274597e-05 33.92880477 193.4014952
-1.258274597e-05 193.5681607 -35.5551521
-33.54438928 39.44322537 -250
-1.258274597e-05 171.4709968 -222.5310706
-182.9751173 -1.552502283e-05 -158.9196814
-231.4930145 -1.552502283e-05 5.3826669
-164.9633175 143.006306 -250
-1.258274597e-05 107.3821869 186.7097472
-1.258274597e-05 143.6058394 21.7113416
-129.3023739 -1.552502283e-05 117.162323
-202.6522575 206.3887639 -250
-1.258274597e-05 39.01622527 166.6916236
-132.5527774 -1.552502283e-05 51.9213653
-1.258274597e-05 40.65220817 124.5960866
-124.0516805 -1.552502283e-05 -150.492491
-1.258274597e-05 99.37949637 -220.589284
-1.258274597e-05 130.6995833 -56.6297223
-158.6223547 -1.552502283e-05 -145.4487046
-93.36355578 23.01595907 -250
-43.26903198 -1.552502283e-05 -218.7481633
-74.11858128 -1.552502283e-05 177.4367112
-242.8396313 -1.552502283e-05 -122.3960318
-88.96511118 -1.552502283e-05 31.9045939
-1.258274597e-05 119.0662517 188.6191932
-176.2838955 175.9763843 -250
-232.8382964 -1.552502283e-05 120.2615424
-1.258274597e-05 179.7593714 -116.0110275
-1.258274597e-05 134.0237135 125.8731934
-168.008328 -1.552502283e-05 -56.8868391
-133.7359518 -1.552502283e-05 102.7622766
-127.5656228 -1.552502283e-05 -196.9865278
-117.0402863 -1.552502283e-05 -77.2267834
-151.6933219 -1.552502283e-05 128.7270416
-158.5326672 -1.552502283e-05 148.283324
-76.81222738 -1.552502283e-05 74.7097806
-1.258274597e-05 23.25422097 76.7772937
-144.1281365 -1.552502283e-05 -131.1616069
-223.4604933 196.8926009 -250
-115.820902 -1.552502283e-05 -119.0721263
-1.258274597e-05 187.7326835 -89.1981148
-89.93913878 46.66669597 -250
-1.258274597e-05 7.885568775 -31.6536505
-1.258274597e-05 15.23889717 -217.7956323
-26.55964628 21.55817267 -250
-215.0412311 -1.552502283e-05 16.2439669
-39.77832728 -1.552502283e-05 107.8862323
-64.71295708 234.0643277 -250
-1.258274597e-05 250.005436 197.1879602
-15.63812518 -1.552502283e-05 -149.590102
-5.772372483 -2.178516625 250
-1.258274597e-05 171.8863218 43.9922755
-1.258274597e-05 183.5032031 -175.5849717
-183.9401216 46.58620587 -250
-1.258274597e-05 47.25941327 93.4262081
-133.6484326 -1.552502283e-05 -167.5504302
-1.258274597e-05 214.4429512 -196.2100214
-1.258274597e-05 114.8786103 143.6390054
-104.894885 -1.552502283e-05 163.4468728
-116.4169095 189.5744791 -250
-81.48225398 -1.552502283e-05 -219.6311368
-35.44949598 161.1119252 -250
-235.8676022 -1.552502283e-05 -39.4800934
-176.7598791 -1.552502283e-05 -22.0561856
-1.258274597e-05 212.1286615 91.5865571
-9.204324783 -1.552502283e-05 222.6346499
-1.258274597e-05 56.96079107 -138.0736594
-10.74038528 -1.552502283e-05 -43.0609309
-213.3411853 55.04209927 -250
-0.6292641827 -1.552502283e-05 -136.5440085
-1.258274597e-05 159.4568392 100.8934597
-104.8417946 -1.552502283e-05 -171.9006346
-1.258274597e-05 141.4487308 -43.024697
-124.7236242 128.3436232 -250
-1.258274597e-05 112.9794622 121.9340628
-34.44088818 5.461040175 -250
-1.258274597e-05 231.477626 -13.503854
-1.258274597e-05 48.83980687 176.7945033
-1.258274597e-05 19.39840707 166.0544526
-97.87938218 -1.552502283e-05 -191.6457964
-107.9342727 -1.552502283e-05 204.424946
-1.258274597e-05 244.1554668 -221.6875292
-1.258274597e-05 61.83468047 16.1488313
-8.012961783 -1.552502283e-05 131.5360426
-80.87478408 -1.552502283e-05 -155.2512432
-1.258274597e-05 238.4432117 248.0908626
-194.0872334 -1.552502283e-05 11.2056314
-152.3523533 -1.552502283e-05 16.8671016
-154.9801987 112.3671955 -250
-49.57202668 58.53760747 -250
-132.6657319 -1.552502283e-05 193.7779276
-243.0778284 199.8164357 -250
-1.258274597e-05 74.26374167 63.2349131
-1.258274597e-05 155.3315921 207.7560999
-174.0761566 -1.552502283e-05 -248.0058407
-1.258274597e-05 107.220646 -154.4853776
-140.9694695 -1.552502283e-05 -80.5961796
-1.258274597e-05 75.61941337 99.7195493
-1.258274597e-05 51.60982077 -163.5613672
-4.265045383 -1.552502283e-05 -14.442628
-227.2918984 139.797563 -250
-117.9991454 65.75081917 -250
-1.258274597e-05 248.7471949 -243.6932961
-191.2347274 -1.552502283e-05 -48.2136361
-204.0970263 163.0768943 -250
-213.3980049 -1.552502283e-05 237.1013004
-1.258274597e-05 72.49410047 145.7718041
-1.258274597e-05 215.788647 186.2458737
-164.5329595 45.83434367 -250
-212.4269712 225.6035077 -250
-154.5345462 -1.552502283e-05 117.9530488
-1.258274597e-05 113.7680871 -224.0257477
-40.84010538 90.84746537 -250
-55.84566668 -1.552502283e-05 212.0811612
-220.5123796 169.6749612 -250
-30.39666548 -1.552502283e-05 -20.1301737
-119.1628515 -1.552502283e-05 -50.3824815
-1.258274597e-05 226.7133741 5.9236289
-3.018443683 -1.552502283e-05 59.332151
-118.6213704 -1.552502283e-05 187.9258661
-63.51074448 129.9045565 -250
-1.258274597e-05 108.01375 165.0883892
-163.4291961 120.9833856 -250
-33.37491158 -1.552502283e-05 18.3998428
-144.2037413 200.1273628 -250
-4.081257883 -1.552502283e-05 -117.2907593
-1.258274597e-05 68.11976857 -114.7520097
-1.258274597e-05 22.86288637 -112.8537873
-1.258274597e-05 163.5164429 -60.2841751
-184.2907578 -1.552502283e-05 113.8048294
-159.3706257 99.09721147 -250
-1.258274597e-05 106.5925747 -242.2968997
-1.258274597e-05 124.1479352 93.2471111
-183.2745792 -1.552502283e-05 -138.7697292
-69.69114538 -1.552502283e-05 34.9854871
-62.16634608 -1.552502283e-05 247.2286604
-235.5475254 49.20904207 -250
2.459156117 101.9374482 250
0.6411423173 123.4004519 -250
-102.7478131 128.146981 -250
-1.258274597e-05 51.86219647 212.7247699
-1.258274597e-05 106.8189616 -2.2226591
-222.4807145 13.76352837 -250
-222.7888601 209.0884008 -250
-242.5430826 17.55617437 -250
-77.06712788 146.1782308 -250
-174.944207 -1.552502283e-05 171.1623101
-1.258274597e-05 242.3203412 -50.010813
-219.8917929 -1.552502283e-05 -75.2267713
-164.884596 -1.552502283e-05 207.1884128
-19.72882258 -1.552502283e-05 -219.2039167
-88.87680228 -1.552502283e-05 218.6155955
-1.258274597e-05 235.7903346 137.7890698
-4.716272483 -1.552502283e-05 180.881327
-43.12061238 151.7770607 -250
-1.258274597e-05 191.9158543 194.9192583
-92.41037518 214.1471952 -250
-1.258274597e-05 117.5091539 -35.8023022
-1.258274597e-05 139.5155995 176.9556922
-1.258274597e-05 73.30015867 -68.0617192
-44.15342158 -1.552502283e-05 -131.1365285
-133.2199889 -1.552502283e-05 -206.6005675
-35.95108148 193.2584819 -250
-206.860137 -1.552502283e-05 -4.9485272
-1.258274597e-05 94.53059077 16.2647616
-1.258274597e-05 188.2773062 118.4579087
-239.3070865 -1.552502283e-05 219.7250353
-1.258274597e-05 223.2241599 138.9538668
-130.5049054 74.87576727 -250
-248.4234429 -1.552502283e-05 -97.5365052
-27.63564468 -1.552502283e-05 -209.0249193
-21.47081968 -1.552502283e-05 -166.2422412
-1.258274597e-05 173.4324899 -37.7075709
-91.30965938 -1.552502283e-05 -238.7127839
-1.258274597e-05 21.52130197 129.4726119
-144.0658249 19.15728687 -250
-1.258274597e-05 72.89727847 -19.9390022
-168.0158093 -1.552502283e-05 133.4509077
-1.258274597e-05 168.2250536 -5.3447131
-1.258274597e-05 240.3864059 200.6366448
-135.6267881 -1.552502283e-05 158.5375741
-56.96647268 -1.552502283e-05 -22.9166163
-1.258274597e-05 110.1967692 -191.3238004
-245.4653697 37.08567487 -250
-181.7734722 188.1546407 -250
-71.61868968 196.7102211 -250
-248.73765 -1.552502283e-05 132.3400414
-83.69576388 252.465911 -250
-1.258274597e-05 206.5414881 39.4823033
-150.0290794 -1.552502283e-05 -90.5403538
-241.5576161 -1.552502283e-05 244.4323323
-252.2106502 58.86523767 -250
-1.258274597e-05 132.1005747 -187.7643725
-240.8745459 243.5226746 -250
-1.258274597e-05 151.2586847 -161.9974756
-220.5916515 67.65148047 -250
-1.258274597e-05 108.9393894 -201.3081903
-1.258274597e-05 84.81821407 -120.3133081
-1.258274597e-05 200.8247082 155.2308032
-31.64449388 184.2949171 -250
-1.258274597e-05 249.8604686 185.0827704
-102.7343 92.27434347 -250
-1.258274597e-05 147.7116306 -19.2966382
-1.258274597e-05 49.49514707 149.4431846
-111.2229991 -1.552502283e-05 -38.1198174
-1.258274597e-05 238.1161405 -245.2425427
-1.258274597e-05 250.9955547 236.9328435
-180.5217623 -1.552502283e-05 -81.8654477
-131.048578 107.3330994 -250
-1.258274597e-05 131.9404065 0.2992757
-238.3825899 -1.552502283e-05 42.3444687
-123.8057282 -1.552502283e-05 -226.981934
-24.76141518 -1.552502283e-05 241.8232322
-1.258274597e-05 99.19138557 -21.9731113
-1.258274597e-05 158.4319737 148.3681741
-7.308245083 72.85112467 -250
-164.6593428 207.0914662 -250
-1.258274597e-05 247.7600802 -81.0358271
-1.258274597e-05 82.10634017 225.277512
-194.3691474 -1.552502283e-05 116.7984038
-83.19134018 165.9199001 -250
-18.94965168 -1.552502283e-05 -188.470589
-1.258274597e-05 194.6608913 -105.4143374
-1.258274597e-05 237.9642398 109.0514069
-187.9830547 -1.552502283e-05 33.4285435
-1.258274597e-05 25.60191597 -198.3576252
-234.0364085 -1.552502283e-05 -205.2399378
-1.258274597e-05 125.647904 -140.5161971
-95.75160608 -1.552502283e-05 -28.265201
-242.9924106 151.6343818 -250
-59.22506278 -1.552502283e-05 -168.1896923
-7.403329983 184.4468518 -250
-1.258274597e-05 79.95461287 30.7074231
-1.258274597e-05 177.150045 -46.7677777
-1.258274597e-05 78.73960417 90.4370079
-105.5006384 -1.552502283e-05 0.7683614
-13.06761048 -1.552502283e-05 186.6400489
-80.48732458 71.88694677 -250
-1.258274597e-05 251.6505276 -31.7487602
-1.258274597e-05 171.0405011 -157.8317257
-200.6598012 -1.552502283e-05 74.8424953
-22.83691358 -1.552502283e-05 -86.2181183
-1.258274597e-05 88.25896337 -66.9346925
-61.56478948 -1.552502283e-05 -151.8881244
-1.493077683 -1.552502283e-05 0.6868557
-210.6270617 -1.552502283e-05 87.6094341
-1.258274597e-05 15.10493477 41.8273767
-73.58885938 -1.552502283e-05 62.043748
-28.45917708 -1.552502283e-05 43.1038275
-1.258274597e-05 209.666793 214.928851
-34.95562028 -1.552502283e-05 -92.3353766
-1.258274597e-05 140.8304369 42.4080135
-214.3495545 120.6318439 -250
-65.17602158 -1.552502283e-05 -246.993499
-142.0858076 88.33374607 -250
-1.258274597e-05 107.4591067 33.2355568
-1.258274597e-05 140.2736694 165.8990084
-1.258274597e-05 152.3106147 -103.8114546
