# .PCD v0.7 - Point Cloud Data file format
VERSION 0.7
FIELDS x y z
SIZE 4 4 4
TYPE F F F
COUNT 1 1 1
WIDTH 1231
HEIGHT 1
VIEWPOINT 0 0 0 1 0 0 0
POINTS 1231
DATA ascii
-170.494537 1.064108801e-10 195.4917846
-57.56323368 -251.1900391 -250
-87.24215718 1.064108801e-10 72.5686787
-1.258274756e-05 -135.9999381 9.9517631
-155.347506 1.064108801e-10 -69.0811826
-1.258274756e-05 -185.2451417 129.0098174
-50.50621668 1.064108801e-10 -72.5890688
-164.8457388 -123.974444 -250
-44.88803358 1.064108801e-10 -193.9236936
-156.7754492 1.064108801e-10 -195.5099915
-1.258274756e-05 -186.9336516 -117.6778499
-251.6036097 1.064108801e-10 -241.5410022
-1.258274756e-05 -111.5128708 -241.3215886
-168.9188909 1.064108801e-10 17.4166228
-1.258274756e-05 -203.9896867 28.2513217
-193.9491627 -188.9469589 -250
-34.83016048 1.064108801e-10 220.1990621
-1.258274756e-05 -68.4324541 37.1048495
2.220744717 1.064108801e-10 -25.5040334
-1.258274756e-05 -139.1396404 -62.416124
-1.258274756e-05 -50.0718974 109.2641573
-1.258274756e-05 -251.1726275 -95.5861352
-1.258274756e-05 -59.3701689 -188.025573
-1.258274756e-05 -68.9507036 -114.2256265
-134.638474 -63.3668373 -250
-1.258274756e-05 -232.0830982 248.9004545
-1.258274756e-05 -190.7130584 -180.5318934
-176.8515685 1.064108801e-10 -132.9415656
-1.258274756e-05 -250.577992 -228.348043
-41.40535098 1.064108801e-10 112.1921102
-1.258274756e-05 -49.967163 188.2932605
-1.258274756e-05 -183.2324499 191.284475
-243.3624494 1.064108801e-10 92.8194355
-245.2692882 -85.6416272 -250
-49.99733958 -145.0359346 -250
-156.4918295 1.1471476 250
-42.44450398 1.5818056 -250
-1.258274756e-05 -249.5515748 -8.9339758
-183.4174825 0.8503771001 -250
-199.8796416 1.064108801e-10 -32.0528078
-1.258274756e-05 -112.8737979 239.6313034
-1.258274756e-05 -24.5287764 -77.9288681
-52.19618888 1.064108801e-10 -137.5100661
-1.258274756e-05 -175.826729 75.018947
-101.6674184 1.064108801e-10 -195.7795406
-55.98920848 1.064108801e-10 24.2546049
-247.2437449 1.064108801e-10 -114.5722925
-107.3689865 -223.2554645 -250
-1.258274756e-05 -236.9884309 138.0718265
-103.0376902 1.064108801e-10 -62.7070283
-185.5793932 1.064108801e-10 142.5862281
-230.0359086 1.064108801e-10 200.8836827
-114.4577501 -112.937798 -250
-119.0425214 1.064108801e-10 199.7015302
-248.495103 -195.0148051 -250
-59.08170748 -200.0044516 -250
1.832701617 1.064108801e-10 -212.0686737
-133.3963718 1.064108801e-10 51.6805127
-1.258274756e-05 -92.9839442 132.6558689
-45.35124998 1.064108801e-10 172.8343451
-145.7108152 -191.6827562 -250
-204.6064791 1.064108801e-10 -84.5571399
-117.9228181 1.064108801e-10 115.1873218
-1.258274756e-05 -150.0626244 -213.1291604
-1.258274756e-05 -127.1212294 -108.3487603
-44.77873608 1.064108801e-10 -21.6483413
1.350536017 -4.7730657 250
-141.4600682 1.064108801e-10 158.5478147
-195.6288353 1.064108801e-10 55.7725415
-1.258274756e-05 -29.7675997 10.3699228
-197.6653606 -243.0462315 -250
-244.956822 1.064108801e-10 -15.2309711
-1.258274756e-05 -140.9345899 141.8275917
-146.6895488 1.064108801e-10 -22.7365487
-51.23265118 -42.7863689 -250
-1.258274756e-05 -93.509857 -5.2929386
2.098368217 1.064108801e-10 100.1994953
-211.4729529 -118.4299099 -250
-1.258274756e-05 -177.883039 -7.4902163
-213.9984691 1.064108801e-10 -205.6294247
-205.4608576 1.064108801e-10 246.3672663
-21.62492168 -74.3364254 -250
-1.258274756e-05 -104.1493288 -197.2508154
-1.258274756e-05 -91.9033039 -77.9226612
-1.258274756e-05 -247.293641 -52.0168279
-80.57883978 1.064108801e-10 -103.0377289
-1.258274756e-05 -250.0830326 33.3824562
-1.258274756e-05 -138.4298967 53.7223582
-248.7817988 -41.0525245 -250
-147.2922366 -19.7272378 -250
-92.97839458 -42.9654848 -250
-140.4011762 1.064108801e-10 -107.6151176
2.479406417 1.064108801e-10 197.458734
-21.60215108 -223.1103574 -250
-1.258274756e-05 -26.2378458 -163.5234829
-79.00513028 1.064108801e-10 208.607721
-1.258274756e-05 -217.3893453 101.807355
-1.258274756e-05 -161.4377076 -152.3617819
-1.258274756e-05 -140.0421721 208.7838064
-209.6325638 1.064108801e-10 6.8362813
-1.258274756e-05 -29.9859635 73.6828818
-142.5001308 1.064108801e-10 -156.0316289
-1.258274756e-05 -215.287083 -147.1773598
-1.258274756e-05 -78.8922461 -153.6619579
-1.258274756e-05 -84.2910076 212.3605449
-1.258274756e-05 -207.7893669 -215.974483
-39.18802468 1.064108801e-10 70.3280363
-205.2690515 1.064108801e-10 104.0259668
-1.258274756e-05 -207.3442926 -82.223419
-1.258274756e-05 -57.8695957 150.1232554
-27.78194678 1.064108801e-10 -103.9189851
-186.0708973 -89.6395092 -250
-103.3610272 1.064108801e-10 27.999125
-131.7113416 -149.6569515 -250
-58.29141128 1.9016597 250
-79.30984588 1.064108801e-10 114.0050221
-72.81607668 1.064108801e-10 -219.9320075
-81.51384238 1.064108801e-10 -164.006049
-1.258274756e-05 -108.6004859 -39.5840544
-1.258274756e-05 -200.8682753 228.6446839
-213.9631486 1.064108801e-10 -131.0798984
-3.110741583 -147.6066214 -250
-212.0396571 1.064108801e-10 168.4790096
-216.2481845 -20.1060102 -250
-35.86283548 -109.065928 -250
-1.258274756e-05 -151.0900363 102.4862128
-1.258274756e-05 -104.9212627 32.2848695
-85.74390458 -135.8475642 -250
-249.7335443 1.064108801e-10 -196.3715072
-1.258274756e-05 -80.3786197 84.755243
-1.258274756e-05 -215.6259519 62.679514
-186.3102265 1.064108801e-10 -174.6682009
-20.35458528 1.064108801e-10 11.6697849
-198.8203539 -152.048911 -250
-1.258274756e-05 -207.0931981 157.8231746
-1.258274756e-05 -29.3225051 224.0782648
-20.35176948 1.064108801e-10 -53.0170677
-74.92629098 1.064108801e-10 -40.4423697
-1.258274756e-05 -168.0939792 34.188796
-1.258274756e-05 -168.3581556 -42.2546378
-1.258274756e-05 -58.4452667 -223.3936179
-218.0735196 -214.6999433 -250
-1.258274756e-05 -164.3520469 -86.4268953
-171.7738966 -219.9442821 -250
-131.4839188 1.064108801e-10 8.3556076
-1.258274756e-05 -235.1224281 -194.111794
-7.226482283 1.064108801e-10 -248.5584977
-1.258274756e-05 -33.2800525 -125.3013148
-164.2445592 -159.4475232 -250
-153.0744256 1.064108801e-10 124.5463518
-13.11702348 1.064108801e-10 -180.2508942
-1.258274756e-05 -58.267658 -79.4357861
-61.52463668 1.064108801e-10 142.4780695
-1.258274756e-05 -219.3168808 199.7285302
-1.258274756e-05 -34.7503833 -34.4326889
-173.9459527 1.064108801e-10 -97.70952
-1.258274756e-05 -211.1182187 -6.2643878
-137.010994 1.064108801e-10 -222.1115803
-1.258274756e-05 -100.6128156 -128.7385413
-166.4356773 -47.2462829 -250
-227.3439172 1.064108801e-10 64.6531094
-128.8745049 1.064108801e-10 233.4458225
-200.3862355 1.064108801e-10 212.8524008
-1.258274756e-05 -171.1679301 157.670077
-37.21507638 -174.270082 -250
-216.4375357 1.064108801e-10 134.6004884
-1.258274756e-05 -141.7618162 -21.3783274
-1.258274756e-05 -218.2790409 -113.8345383
-1.258274756e-05 -32.4032625 -205.9048823
-1.258274756e-05 -64.0817549 5.4439905
-162.6544834 1.064108801e-10 63.0981625
-224.3344058 -169.7244849 -250
-1.258274756e-05 -140.0601219 -181.327398
-147.5928022 -98.3055688 -250
-23.49952548 1.064108801e-10 -151.1201891
-108.0581285 -79.1209861 -250
-118.5365819 1.064108801e-10 84.3748837
-215.2836511 -78.8082031 -250
-1.258274756e-05 -142.2462051 172.4198032
-1.258274756e-05 -79.2883307 171.9627489
-1.258274756e-05 -29.9127192 162.5582591
-13.35056628 1.064108801e-10 129.0396517
-1.258274756e-05 -251.2044612 225.1375469
-110.6640137 1.064108801e-10 -98.2049319
-184.5176717 1.064108801e-10 -60.7807382
-111.6636539 1.064108801e-10 -167.078168
-87.82999248 -250.1088603 -250
-73.32781748 -10.8023914 -250
-70.56411068 1.064108801e-10 -1.9071225
-174.9182485 1.064108801e-10 -219.2835722
-1.258274756e-05 -39.8500031 45.3680471
-122.3205134 -35.9020283 -250
-70.64374338 -166.5067464 -250
1.425288417 1.064108801e-10 -98.5691817
-119.8044187 1.064108801e-10 -35.0114025
-243.047671 -115.4811393 -250
-1.258274756e-05 -241.8033408 -134.4639099
-1.258274756e-05 -83.8742006 243.6646371
-215.6859002 1.064108801e-10 -56.6566313
-74.03007818 1.064108801e-10 178.3630409
-248.9072023 1.064108801e-10 121.3254826
-1.258274756e-05 -156.1366592 -114.1511556
-1.258274756e-05 -118.622146 118.3334069
-173.2554015 1.064108801e-10 -11.0023381
-1.258274756e-05 -184.078821 -65.9219595
-1.258274756e-05 -34.960364 133.3778734
-146.8969625 1.064108801e-10 211.0481838
-116.7048809 -249.8496815 -250
-117.6130688 -193.641005 -250
-62.20724278 -119.0063019 -250
-168.7027937 1.064108801e-10 167.409417
-234.708413 1.064108801e-10 -86.7629747
-53.46163048 1.064108801e-10 -165.5184169
-1.258274756e-05 -111.1735602 59.410229
-26.73476598 1.064108801e-10 246.7979268
-63.93828148 1.064108801e-10 87.5970433
-1.258274756e-05 -176.302008 -221.6630157
-87.21829788 -204.4378659 -250
-1.258274756e-05 -114.5161641 149.8482464
-24.69073068 -25.5610997 -250
-1.258274756e-05 -59.4739337 66.913058
-24.75887908 1.064108801e-10 -227.5178882
-1.258274756e-05 -175.295279 217.4894317
-1.258274756e-05 -57.0560824 215.0478057
-175.5234688 1.064108801e-10 224.1602795
-117.9371579 1.064108801e-10 144.6773697
-252.3792782 1.064108801e-10 216.5640241
-102.2056206 1.064108801e-10 223.2126877
-184.1688255 -26.2517291 -250
-1.258274756e-05 -139.8582083 241.5740743
-1.258274756e-05 -182.1745028 101.3122307
-1.258274756e-05 -84.9800794 -228.3064419
-1.258274756e-05 -118.7162769 -80.0322293
-1.258274756e-05 -53.4696583 -144.9191952
-79.18847548 1.064108801e-10 46.95268
-167.0917139 1.064108801e-10 -40.1845687
-109.9160141 1.064108801e-10 -224.4105133
-249.4299441 1.064108801e-10 -141.2975673
-129.6258183 1.064108801e-10 -196.4068614
-204.3342781 1.064108801e-10 -230.5461082
-129.2858508 1.064108801e-10 -249.2588915
-81.45545078 1.064108801e-10 -129.7418115
-15.60894448 -251.3259664 -250
-73.82948898 1.064108801e-10 -189.5341186
-14.04782628 1.064108801e-10 79.1401042
-28.75561148 1.064108801e-10 150.5943527
-54.11463688 1.064108801e-10 -101.1453106
-163.0227606 -76.6860082 -250
-48.20914088 -226.4688142 -250
-205.0287155 1.064108801e-10 -156.0792321
-227.1005719 1.064108801e-10 231.4076429
-1.258274756e-05 -243.373906 105.7813935
-1.258274756e-05 -41.1453102 -99.3438971
2.304569217 1.064108801e-10 -158.1850077
-1.258274756e-05 -189.1493611 -148.5175942
-35.12521628 1.064108801e-10 44.4873472
-1.258274756e-05 -233.4871304 -29.8028361
-47.27208298 -69.4453106 -250
0.4244719173 1.064108801e-10 -69.1222366
-1.258274756e-05 -232.9478823 170.0359319
-1.258274756e-05 -114.1177492 207.9168102
-23.43936898 1.064108801e-10 196.7086318
-76.02615108 1.064108801e-10 -77.1007142
-73.78443578 -60.3426726 -250
-250.7316004 1.064108801e-10 11.347345
-1.258274756e-05 -141.3612092 -136.2864397
-137.221475 -230.4052253 -250
-24.81337698 -133.9343427 -250
-108.9947845 1.064108801e-10 175.8311583
-1.258274756e-05 -97.4330939 -103.3199719
0.5412848173 -61.533234 -250
-1.258274756e-05 -212.6833899 130.0421555
-1.258274756e-05 -225.4487485 -236.5251239
-243.1472744 1.064108801e-10 175.5707576
-127.059254 1.064108801e-10 -78.6278074
-197.8594854 1.064108801e-10 -111.4549398
-234.4000224 1.064108801e-10 -39.4223011
-1.258274756e-05 -165.8265532 -184.6424935
-1.258274756e-05 -230.1602257 17.9606539
1.451282317 1.064108801e-10 222.5156223
-159.5374493 1.064108801e-10 -239.0075636
-229.7235904 1.064108801e-10 -229.5530589
-1.258274756e-05 -125.1677027 -212.7404717
-1.258274756e-05 -43.9721935 -11.3723828
-251.3936651 1.064108801e-10 58.5970875
-1.258274756e-05 -26.1445147 199.5170347
-1.258274756e-05 -158.520758 191.7642779
-137.2657023 1.064108801e-10 183.0396855
-1.258274756e-05 -148.3247335 76.2764519
-48.41409358 1.064108801e-10 199.6801271
-1.258274756e-05 -221.6091638 -61.5877337
-194.9388896 1.064108801e-10 186.0927112
-252.2123816 -170.7512521 -250
-222.3761286 -247.3000225 -250
-91.28424908 -104.8928295 -250
-29.90179528 -200.0435273 -250
-249.6473993 -222.219908 -250
-1.258274756e-05 -24.5226277 97.5647207
-227.0982621 -52.4074577 -250
-145.5329626 1.064108801e-10 28.3975855
-108.7521861 1.064108801e-10 60.9137214
-43.46425808 1.064108801e-10 2.7779047
-137.8086464 1.064108801e-10 99.4135852
-1.258274756e-05 -101.6253856 -172.8038629
-1.258274756e-05 -118.9348314 -12.6412013
-1.258274756e-05 -20.0340934 -226.8922618
-1.258274756e-05 -92.8187487 108.3134138
-215.0467758 1.064108801e-10 35.4687697
-1.258274756e-05 -242.4037375 56.4100478
-21.11332598 1.064108801e-10 -16.2943615
-140.7955545 -124.9212296 -250
-132.6715622 1.064108801e-10 -134.1070299
-1.258274756e-05 -183.8257656 52.3936441
-223.899474 -142.9881962 -250
-1.258274756e-05 -159.57023 126.8124298
-109.1323077 -141.8071283 -250
-1.258274756e-05 -71.1947086 123.0463168
-47.37519788 1.064108801e-10 -220.3364099
-187.9725381 -115.4234314 -250
-1.258274756e-05 -75.0968018 -206.7768575
-164.6310858 1.064108801e-10 -165.6417321
-191.2935019 1.064108801e-10 24.4106683
-1.258274756e-05 -9.9125342 -47.1216571
-20.55744828 -51.0005827 -250
-200.283643 1.064108801e-10 81.3497877
-81.72233288 1.064108801e-10 19.6067279
-14.56880658 1.064108801e-10 173.7766909
-140.1612454 1.064108801e-10 -51.6390706
-1.258274756e-05 -0.4414118999 25.5364479
-124.2336718 -171.4272611 -250
-1.258274756e-05 -141.3483356 -85.7373824
-77.70336778 -225.3330533 -250
-1.258274756e-05 -213.6326429 -181.3228178
-1.258274756e-05 -19.9791554 -10.3387514
-72.21699418 1.064108801e-10 230.4649128
-1.258274756e-05 -228.6826947 81.9231286
-64.34447148 1.064108801e-10 64.7383428
-174.3642735 -247.4197229 -250
-95.19351778 1.064108801e-10 130.4219651
-1.258274756e-05 -43.3387961 -62.1968093
-216.4571745 1.064108801e-10 -16.4040337
-217.1971071 -191.2873269 -250
-1.258274756e-05 -182.7629776 17.030163
-49.88235428 -19.7197509 -250
-20.18483598 1.064108801e-10 101.7307431
-1.258274756e-05 -228.454061 -93.9807278
1.517946617 -91.0361536 -250
-1.258274756e-05 -20.9317644 -185.1565438
-243.102182 -19.6071443 -250
-220.5401876 1.064108801e-10 -103.7688509
-53.96988818 1.064108801e-10 -47.5602175
-1.258274756e-05 -72.065603 192.8376124
-1.258274756e-05 -83.760718 -28.6352058
-32.79147948 1.064108801e-10 -125.3643479
-174.3443063 -178.9925058 -250
-214.3228562 2.2611578 -250
-1.258274756e-05 -144.2227407 30.3015917
-1.258274756e-05 -15.8238616 179.382332
-1.258274756e-05 -187.6680709 -27.1142689
-1.258274756e-05 -26.3319199 246.3213183
-17.82809338 -164.1147424 -250
-229.5761516 1.064108801e-10 111.1808766
-225.5740846 1.064108801e-10 -186.299972
-1.258274756e-05 -183.2669114 -201.0488577
-1.258274756e-05 -154.8164477 224.7567072
-149.096466 1.064108801e-10 80.8571018
-1.258274756e-05 -63.1500061 -21.5539011
-194.9071121 1.064108801e-10 -10.9863468
-1.258274756e-05 -54.415219 87.8925376
-1.258274756e-05 -46.290016 24.7815778
-1.258274756e-05 -84.6523271 63.6207455
-1.258274756e-05 -46.8501625 -169.722067
-165.7694149 -199.0311372 -250
-173.4429396 1.064108801e-10 118.1293759
-227.1996089 -97.0128744 -250
-1.258274756e-05 -230.1411058 -215.7089921
-231.1032895 1.064108801e-10 2.9820051
-184.1652312 1.064108801e-10 246.0181227
-1.258274756e-05 -81.6687893 -59.2685792
-1.258274756e-05 -129.8686796 -39.0290235
-27.02701008 1.064108801e-10 -73.1937315
-1.258274756e-05 -80.3803103 149.7426157
-153.6094136 1.064108801e-10 2.7116928
-153.8495645 1.064108801e-10 -91.3629131
-26.66109528 1.064108801e-10 -206.5740223
-197.0903631 1.064108801e-10 -193.1470903
-1.258274756e-05 -131.4268483 -234.6454943
-1.258274756e-05 -203.1328111 184.6811707
-171.8268379 1.064108801e-10 38.1737017
-222.899751 1.064108801e-10 88.341782
-42.00954728 1.064108801e-10 134.3839459
-4.957774783 1.064108801e-10 -2.4766044
-140.8603546 1.064108801e-10 -176.8352783
-1.258274756e-05 -15.3365904 -114.7074941
-157.6975131 1.064108801e-10 -141.7825592
-1.258274756e-05 -192.8321308 -97.7345606
-228.452222 1.064108801e-10 151.8939228
-97.15579168 1.064108801e-10 90.8494508
-1.258274756e-05 -16.8034808 -143.973616
-19.22768978 -94.9132253 -250
-1.258274756e-05 -248.2731737 -75.0808353
-1.258274756e-05 -84.3668135 -188.2601724
-1.258274756e-05 -195.5731275 81.2446745
-98.37357438 1.064108801e-10 198.7567287
-1.258274756e-05 -7.9343908 66.2692273
-251.8464283 -61.4554883 -250
-1.258274756e-05 -189.6305493 245.9302036
-182.4919336 1.064108801e-10 -154.4183182
-83.89613318 -183.6217443 -250
-97.53637188 1.064108801e-10 -82.4549447
-1.258274756e-05 -199.0402575 204.731108
-1.258274756e-05 -100.3922268 76.7998956
-1.258274756e-05 -120.7483323 -132.3531383
-1.258274756e-05 -127.4371541 224.8843171
-37.65553688 -246.8721839 -250
-1.258274756e-05 -109.4162624 7.3972102
-1.258274756e-05 -153.702356 -0.05030649994
-74.89810048 -33.6921986 -250
-1.258274756e-05 -82.6288863 13.7200757
-1.258274756e-05 -205.0187769 -129.6884051
-95.39403328 -22.84118 -250
-1.258274756e-05 -23.9726672 32.9504258
-54.94032368 1.064108801e-10 219.7341257
-39.89884608 -88.1602426 -250
-87.87082398 -74.6991238 -250
-186.8716585 -69.6112236 -250
-1.258274756e-05 -164.4354238 -62.0742002
-1.258274756e-05 -110.7223482 -61.6914439
-62.96749428 1.064108801e-10 -120.6565736
-1.258274756e-05 -242.2707353 207.2540756
-31.48601678 1.064108801e-10 -169.4371265
-111.1499502 1.064108801e-10 5.9758928
2.200587417 -240.0086238 -250
-1.258274756e-05 -11.0423682 139.6378495
-141.0018573 -44.4902087 -250
-55.68017968 1.064108801e-10 46.8236511
-195.6440777 1.064108801e-10 121.4370895
-1.258274756e-05 -158.2775146 52.8539139
-176.5657504 1.064108801e-10 -193.9353639
-97.08903468 1.064108801e-10 -117.5334715
-233.371436 1.064108801e-10 -209.7595315
-37.58514248 1.064108801e-10 92.2807605
-1.258274756e-05 -230.8751958 -2.5189416
-129.199989 -209.6144284 -250
-202.4998915 -100.5579606 -250
-17.06788108 1.064108801e-10 229.6415879
-248.0376305 1.064108801e-10 -174.2671552
-1.258274756e-05 -96.5801222 227.7121875
-1.258274756e-05 -21.2627975 119.3215287
-1.258274756e-05 -218.0777683 219.2842261
-92.13795298 1.064108801e-10 -212.8882254
-182.9995077 1.064108801e-10 72.1636035
-68.30555878 1.064108801e-10 -148.6044034
-1.258274756e-05 -234.7571912 -174.3814993
-1.258274756e-05 -107.1256375 -220.1431429
-198.7354439 -217.0780795 -250
-127.1012704 -83.0935704 -250
-143.6405211 -170.6051865 -250
-1.258274756e-05 -221.7514245 44.2615936
-118.692066 1.064108801e-10 -14.2724478
-152.9504692 1.064108801e-10 -123.0253482
-190.9560492 1.064108801e-10 167.1646973
-1.258274756e-05 -130.2645595 187.5507399
-69.47251828 1.064108801e-10 -21.1082956
-158.5428595 1.064108801e-10 142.9609619
-230.8542756 -229.0373545 -250
-54.59181558 -101.4091651 -250
-92.64742138 1.064108801e-10 -28.2138466
-59.82418738 1.064108801e-10 -241.7742822
-97.50935248 1.064108801e-10 -153.5072104
-1.258274756e-05 -138.2211812 116.6242504
-131.5726782 1.064108801e-10 128.5507178
-1.258274756e-05 -242.6585333 -115.3916551
-1.258274756e-05 -210.7670202 -248.6767899
-252.0159533 1.064108801e-10 -96.1954628
-203.3336814 1.064108801e-10 149.297843
-1.258274756e-05 -126.1373951 39.2615075
-1.258274756e-05 -148.3020504 -43.4054033
-1.258274756e-05 -139.0507598 -161.0697402
-1.258274756e-05 -250.9922438 123.0980691
-39.47397068 1.064108801e-10 -87.951626
-78.87829318 1.064108801e-10 248.1604807
-20.80622518 1.064108801e-10 60.6164181
-64.37474678 1.064108801e-10 162.1419777
-22.32701448 1.064108801e-10 30.6124855
-154.7593543 -143.1871918 -250
-1.258274756e-05 -99.1095708 -147.4744482
-91.75712738 1.064108801e-10 -234.6721939
-1.258274756e-05 -47.8117957 168.1843483
-1.258274756e-05 -93.9817068 47.4391004
-1.258274756e-05 -170.5891626 -244.2600042
-157.7784762 -232.2615957 -250
-1.258274756e-05 -124.2179347 167.0456406
-1.258274756e-05 -210.944039 244.2949115
-1.258274756e-05 -38.5383971 -228.3811706
-1.258274756e-05 -194.134874 -228.5408888
-88.49011748 -154.1996243 -250
-41.99267108 -126.9365867 -250
-1.258274756e-05 -72.6030825 104.5899594
-215.6186434 1.064108801e-10 189.3108208
-1.258274756e-05 -127.0949673 74.4312587
-153.2431018 1.064108801e-10 47.2271403
-1.258274756e-05 -68.6531075 -134.4461759
-229.6062018 -32.8209845 -250
-1.258274756e-05 -191.2582479 167.2672601
-1.258274756e-05 -46.0071242 231.8890689
-1.258274756e-05 -213.9348 -26.7655999
-61.05777638 1.064108801e-10 111.6147022
-184.2344863 1.064108801e-10 -82.4554378
-231.0814156 1.064108801e-10 -124.3707736
-1.258274756e-05 -199.0418796 -163.9997203
-12.57350298 1.064108801e-10 -86.6865192
-199.7288034 -12.1862411 -250
-82.16869598 1.064108801e-10 -59.8497064
-121.8636606 1.064108801e-10 162.5131846
-1.258274756e-05 -103.1776156 -22.1742055
-15.20154808 1.064108801e-10 -117.058788
-195.9333391 1.064108801e-10 -133.4938845
-1.258274756e-05 -51.3067783 -123.4684073
-124.7328198 1.064108801e-10 25.1641155
-14.73109348 -118.8949456 -250
-1.258274756e-05 -80.9576103 -95.8156914
-1.258274756e-05 -133.4511677 98.463935
-1.258274756e-05 -164.3393424 16.5012495
-67.81071048 -142.0691588 -250
-1.258274756e-05 -150.6820204 -231.1382409
-1.258274756e-05 -55.4203512 132.2912327
-1.258274756e-05 -122.1638398 -183.0845212
-1.258274756e-05 -215.9495855 -199.9862
-1.258274756e-05 -223.2435096 -131.1079848
-79.39243198 1.064108801e-10 141.1225196
-1.258274756e-05 -93.5661886 182.9811944
-1.258274756e-05 -197.4587225 142.791405
-99.66135448 1.064108801e-10 -45.2073063
-187.3653774 1.064108801e-10 5.160178
-65.99110788 1.064108801e-10 194.2585375
-127.8979357 -100.8544742 -250
-204.1977354 -174.4264666 -250
-96.55826238 1.064108801e-10 109.8278411
-1.258274756e-05 -63.9499553 -62.6288414
-1.258274756e-05 -174.657174 -169.2676979
-154.8714289 1.064108801e-10 106.4843992
-234.2004503 1.064108801e-10 -246.6759816
-249.0215697 1.064108801e-10 199.2027604
-181.5421348 -148.3371193 -250
-222.8302934 1.064108801e-10 -149.2256837
-154.260778 1.064108801e-10 187.8181667
-151.7523894 1.064108801e-10 228.0046039
-24.63806248 1.064108801e-10 -33.5701357
-1.258274756e-05 -53.18296 -204.4986883
-1.258274756e-05 -233.1706289 187.6231608
-1.258274756e-05 -167.8581495 174.938616
-116.219193 1.064108801e-10 -184.0283579
-1.258274756e-05 -248.7119241 243.3679214
-115.7653124 1.064108801e-10 40.3568516
-1.258274756e-05 -6.1134582 -194.4539211
-245.4312242 1.064108801e-10 75.4893213
-1.258274756e-05 -201.2083181 51.0781112
1.053108917 -15.3618503 -250
-1.258274756e-05 -29.1318304 -50.9102353
-244.842337 1.064108801e-10 232.3083138
-117.2414017 -63.7054556 -250
-1.258274756e-05 -17.8390547 -30.3526317
-1.258274756e-05 -246.7534258 8.2232161
-1.258274756e-05 -69.6261356 -168.3626202
-126.2988964 1.064108801e-10 -117.9550633
-28.19341168 1.064108801e-10 -189.1777045
-178.6083406 1.064108801e-10 -115.6901895
-34.74626338 -153.2861949 -250
-1.258274756e-05 -1.1700578 -229.2663148
-1.258274756e-05 -233.9898888 227.1176406
-1.258274756e-05 -8.8947985 84.0181279
-1.258274756e-05 -207.4040844 10.6547759
-64.95241998 1.064108801e-10 -63.0703871
-1.258274756e-05 -97.9230263 154.6951164
-61.74588468 -182.9278613 -250
-1.258274756e-05 -245.5785196 -207.9536572
-100.6621196 -58.4305335 -250
-1.258274756e-05 -231.3811895 121.7491371
-1.258274756e-05 -97.6437055 201.4410297
-1.258274756e-05 -175.4523306 -104.811745
-195.2623811 1.064108801e-10 232.4877826
-184.3580909 -231.6827973 -250
-236.5445315 -157.520715 -250
-1.258274756e-05 -197.6723992 108.7613067
-1.258274756e-05 -63.8305406 -96.5378485
-124.758892 1.4830072 250
-1.258274756e-05 -183.1489874 -83.6231389
-185.2922255 1.064108801e-10 204.0042037
-36.48360998 1.064108801e-10 -58.9823299
-150.1478068 -216.9968552 -250
-173.0354929 -13.3498474 -250
-153.7112769 1.064108801e-10 -218.7548599
-1.258274756e-05 -251.0116527 -35.3960874
-1.258274756e-05 -156.2207361 149.3216327
-1.258274756e-05 -228.7122054 -157.6243105
-13.93111498 1.064108801e-10 212.9359755
-1.258274756e-05 -172.4218319 140.1531201
-1.258274756e-05 -223.0289375 -43.1528389
-199.6214312 -135.170299 -250
-1.258274756e-05 -40.347918 -185.2634707
-22.02299038 -181.381077 -250
-213.1550611 1.064108801e-10 -175.0275758
-1.258274756e-05 -76.0565039 226.922012
-125.7783577 1.064108801e-10 -156.4624366
-167.1564865 -92.8942446 -250
-138.24866 1.064108801e-10 -8.3438392
-99.81592808 -193.5022428 -250
-249.7837764 1.064108801e-10 -32.9948207
-200.0893559 1.064108801e-10 -66.6598178
-98.29370728 1.064108801e-10 43.8482326
-51.00361418 -164.9789512 -250
-1.258274756e-05 -160.4179293 87.6315993
-72.64255068 -102.7935357 -250
-235.5632091 1.064108801e-10 217.2044442
-1.258274756e-05 -199.7536631 -196.7880476
-119.2479135 1.064108801e-10 -59.6538943
-30.59862628 -10.1820415 -250
-1.258274756e-05 -184.5434008 34.1729665
-68.57175288 1.064108801e-10 -91.7523437
2.497566017 1.064108801e-10 175.7253387
-94.76926048 -122.1297377 -250
-1.258274756e-05 -126.1800854 134.6649792
-1.258274756e-05 -33.362037 -148.7524336
0.7909217173 -125.3739693 -250
-1.258274756e-05 -142.5223434 -198.5969815
-45.11682278 1.064108801e-10 150.5025585
-158.0122508 -33.2224666 -250
-1.258274756e-05 -5.1765157 116.511836
-160.9062474 1.064108801e-10 -108.8003495
-59.61435118 1.064108801e-10 -200.8089051
-123.170752 1.064108801e-10 68.4007483
-136.0499241 1.064108801e-10 -35.1622645
-1.258274756e-05 -112.0177493 -114.2909399
-86.62942988 1.5542675 -250
-69.98244188 1.064108801e-10 32.2750139
-50.84237048 1.064108801e-10 235.8464779
-1.258274756e-05 -50.7243428 -32.4190853
-182.5859545 1.064108801e-10 -35.8086529
-1.258274756e-05 -211.4045281 78.3958431
-122.3712781 -14.4924899 -250
-1.258274756e-05 -62.3929549 174.9333512
-11.48538118 1.064108801e-10 -140.4524922
-1.258274756e-05 -170.1834744 -138.8856025
-12.94444298 -201.3794891 -250
-156.4382083 -59.7620992 -250
-1.258274756e-05 -190.918592 3.2575215
-226.3839722 -124.2343387 -250
-34.79563698 1.064108801e-10 20.6015847
-239.0303084 1.064108801e-10 138.4587106
-98.67882708 1.064108801e-10 -176.3629697
-44.11827228 -211.0399028 -250
-165.8401736 1.064108801e-10 -181.5457533
-1.258274756e-05 -81.7468654 -125.4007402
-1.258274756e-05 -26.5094589 58.160141
-13.06507228 1.064108801e-10 148.0643314
-1.258274756e-05 -173.138665 114.3642511
-1.258274756e-05 -25.3596949 -101.0196651
-1.258274756e-05 -162.9347853 -12.9396621
-32.27876378 1.064108801e-10 183.5989525
-125.5524196 1.064108801e-10 -232.9863848
-1.258274756e-05 -14.8198603 4.5892189
-168.9760305 1.064108801e-10 -55.8589159
-1.258274756e-05 -41.4088672 213.0527124
-74.79751608 1.064108801e-10 -236.8326784
-217.4204392 1.064108801e-10 -75.3831484
-39.22972528 1.064108801e-10 -151.8769632
-83.15275228 1.064108801e-10 -13.348963
-189.9273267 1.064108801e-10 40.0747639
-1.258274756e-05 -222.330816 154.003864
-66.54957898 -236.3899263 -250
-95.44919068 -236.3835938 -250
-1.258274756e-05 -168.8936913 232.0795615
-238.005129 -71.7476081 -250
-112.1012064 1.064108801e-10 98.6705928
-233.1507059 1.064108801e-10 -68.8275014
-1.258274756e-05 -86.4638053 -167.3788231
-1.258274756e-05 -75.7285227 -243.4008925
-179.6685037 -129.0366667 -250
-87.46911768 1.064108801e-10 234.0121204
-228.4938235 1.064108801e-10 170.1092125
-1.258274756e-05 -167.8203151 -203.482515
-167.5565225 1.064108801e-10 237.5748122
-27.47419618 1.064108801e-10 122.4410418
-192.2900202 1.064108801e-10 95.3922307
-67.56701318 1.064108801e-10 -175.2602929
-206.6704216 -202.7643017 -250
-33.57136328 -59.522386 -250
-1.258274756e-05 -139.0265695 -118.3605277
-180.5916734 1.064108801e-10 180.0979839
2.218134117 1.064108801e-10 -115.9739174
-63.08609238 -72.4777401 -250
-1.258274756e-05 -38.9575635 88.9612041
-1.258274756e-05 -14.4209191 162.4680945
-126.9600835 1.064108801e-10 -94.1144758
-162.3438039 1.064108801e-10 216.0412389
-206.6030844 1.064108801e-10 67.2244981
-78.57175098 1.064108801e-10 -204.2625937
-181.6906113 -44.7566051 -250
-1.258274756e-05 -247.9054204 166.1550044
-1.258274756e-05 -108.9613964 106.2911125
-145.6057629 -82.9992709 -250
-215.9404267 1.064108801e-10 207.1455149
-109.7959258 -98.2625265 -250
-1.258274756e-05 -200.6984408 66.7391626
-197.2800842 -34.2823339 -250
-249.7456328 1.064108801e-10 -156.654199
-1.258274756e-05 -181.811232 -50.7487702
-142.1395823 1.064108801e-10 241.113715
-84.05400108 1.064108801e-10 189.9282145
-117.3446202 1.064108801e-10 -205.525872
-144.6011987 1.064108801e-10 -242.3022325
-10.45705478 1.064108801e-10 188.664985
-79.83124908 1.064108801e-10 85.9204708
-1.258274756e-05 -98.4714138 94.131804
-213.8513634 1.064108801e-10 50.6804839
-1.258274756e-05 -14.041103 208.7911133
-58.10017098 1.064108801e-10 7.0539993
-237.0579374 -178.0877962 -250
-227.5961116 1.064108801e-10 246.6137989
-1.258274756e-05 -221.6440537 -77.0533092
-248.8041099 1.064108801e-10 -226.6051786
-1.258274756e-05 -48.9667767 6.9011948
-154.1290879 -113.2316367 -250
-110.3361783 1.064108801e-10 129.5420181
-1.258274756e-05 -120.8722265 25.0643777
0.4606730173 1.064108801e-10 -173.5980476
-1.258274756e-05 -127.8310669 -92.4398917
-112.0116887 1.064108801e-10 -77.8485526
-1.258274756e-05 -198.9490676 -63.6650836
-42.71722098 1.064108801e-10 -37.5870972
-133.0003496 1.064108801e-10 146.1298311
-84.68269518 1.064108801e-10 -145.6813591
-16.68758538 1.064108801e-10 -165.6573182
-137.564171 -245.3867193 -250
-1.258274756e-05 -61.4476682 230.1837029
-1.258274756e-05 -84.6031248 28.5259197
-1.258274756e-05 -153.6104391 -96.7989034
-12.81574338 -35.513588 -250
-1.258274756e-05 -30.7328868 179.2590558
-1.258274756e-05 -201.0081322 -112.7587112
-1.258274756e-05 -66.0455266 20.222214
-1.258274756e-05 -11.4241009 -84.9649441
-188.3025342 1.064108801e-10 -205.1458399
-87.06586488 -90.6415345 -250
-1.258274756e-05 -9.5827164 38.74329
-1.258274756e-05 -183.7952433 232.2727245
-213.7886535 -64.0463835 -250
-137.2722995 1.064108801e-10 199.7581114
-13.45554548 1.064108801e-10 -195.6269029
-237.7971428 -213.332424 -250
-134.9960814 -27.9805873 -250
-1.258274756e-05 -111.3756105 134.8430639
-140.9868174 1.064108801e-10 -72.6384931
-206.1534713 -229.8648023 -250
-1.258274756e-05 -190.0720526 217.8257083
-1.258274756e-05 -94.065071 -42.2573136
-114.1011171 1.064108801e-10 233.6567643
-235.3148869 1.064108801e-10 -103.7882401
-1.258274756e-05 -143.6821082 157.7361351
-216.8336211 1.064108801e-10 119.8539055
-1.258274756e-05 -231.7195717 33.3907577
-1.258274756e-05 -34.4359428 148.5295692
-173.1109813 1.064108801e-10 -72.8483124
-180.0277796 1.064108801e-10 -235.747665
-1.258274756e-05 -160.420835 206.2984613
-1.258274756e-05 -7.6603592 234.9225552
-1.258274756e-05 -69.5890157 247.2876407
-95.21461878 1.064108801e-10 170.3921645
-190.1249286 -203.0703048 -250
-1.258274756e-05 -217.4858353 181.9966523
-230.5191536 1.064108801e-10 184.5638699
-154.2754721 1.064108801e-10 173.2284296
-38.24167298 -36.1711508 -250
-112.3362188 -163.0323886 -250
-135.3982951 1.064108801e-10 219.978593
-1.258274756e-05 -204.0460824 93.0672959
-174.4343726 1.064108801e-10 133.2629024
-45.14068948 -195.9580765 -250
-249.6456443 1.064108801e-10 -75.7132952
-134.1904088 -182.8836857 -250
-1.258274756e-05 -162.7792233 66.6322548
-50.59867668 1.064108801e-10 81.9867352
-1.258274756e-05 -154.7775679 -30.4697946
-1.258274756e-05 -49.2599333 -238.0735379
-178.1627176 -163.3357158 -250
-73.56349978 -199.7294718 -250
-57.41374888 1.064108801e-10 180.7578897
-1.258274756e-05 -70.10576 207.1247909
-1.258274756e-05 -74.3254979 -83.0145575
-31.43239458 1.064108801e-10 -5.1625833
-1.258274756e-05 -173.1649056 -28.6697686
-107.131014 -45.553604 -250
-88.40263968 1.064108801e-10 -186.4169671
-212.7465576 1.064108801e-10 233.9797116
-157.9602656 -9.1213615 -250
-98.35893958 1.064108801e-10 12.5116462
-108.2697846 -127.0230911 -250
-1.258274756e-05 -132.9026635 -9.4257477
-61.66615578 -52.7147984 -250
-133.312253 1.064108801e-10 114.3663553
-25.19175978 -239.9020555 -250
-46.71834938 1.064108801e-10 35.110441
-1.258274756e-05 -124.7262993 -59.0459272
-31.69687828 1.064108801e-10 168.7531932
-202.108096 1.064108801e-10 198.4011754
-1.258274756e-05 -242.157339 91.5893348
-31.93947718 1.064108801e-10 -239.8192228
-1.258274756e-05 -53.2265071 40.5023568
-217.666948 -40.5465717 -250
-101.3508008 1.064108801e-10 74.0258413
-126.619055 -125.3642246 -250
-60.38419028 1.064108801e-10 -226.7468322
-227.1371884 -201.3872985 -250
-1.258274756e-05 -160.1545619 -127.7371112
-56.42485958 1.064108801e-10 -7.0137738
-200.048605 1.064108801e-10 -169.6500074
-1.258274756e-05 -119.3450408 -196.9646155
-215.8482921 1.064108801e-10 21.3483738
-108.276677 -15.50318 -250
-1.258274756e-05 -189.7431008 -134.39963
-171.7807791 1.064108801e-10 147.8744252
-1.258274756e-05 -58.8489297 -159.2638324
-5.112962283 1.064108801e-10 -37.5506152
-65.31403698 -22.3996185 -250
-167.9685737 1.064108801e-10 -151.4086543
-1.258274756e-05 -200.3251691 123.3139836
-68.00870298 1.064108801e-10 -133.8808285
-1.258274756e-05 -67.6371839 -8.1653468
-1.258274756e-05 -122.2744536 1.0109929
-11.60577408 1.064108801e-10 247.577777
-231.0222089 1.064108801e-10 -16.4004915
-182.0340814 1.064108801e-10 51.6001814
-1.258274756e-05 -17.155337 18.3589326
-1.258274756e-05 -103.8692091 167.3200597
-1.258274756e-05 -152.2403591 -188.1253797
-1.258274756e-05 -213.3157984 -160.9802766
-65.08029438 1.064108801e-10 209.2346809
-1.258274756e-05 -42.469958 121.6425591
-1.258274756e-05 -233.677802 68.9177874
-242.2405533 -101.5760005 -250
-228.2800519 1.064108801e-10 42.8691925
-32.37401848 1.064108801e-10 -139.7725408
-1.258274756e-05 -110.3272104 -98.112409
-76.21312468 1.064108801e-10 154.644742
-1.258274756e-05 -115.3560777 -170.8744091
-80.29872438 -114.3462494 -250
-16.19303598 -14.6273068 -250
-1.258274756e-05 -30.4855282 -21.2811959
-114.4091974 1.064108801e-10 212.7253817
-76.60448188 1.064108801e-10 127.5855307
-13.83372018 1.064108801e-10 115.228278
-1.258274756e-05 -153.3775522 244.3988455
-91.13784388 1.064108801e-10 0.3885523001
-218.0216598 1.064108801e-10 -117.9070481
-110.7738703 -179.5413765 -250
-200.6673205 1.064108801e-10 -211.1985271
-1.258274756e-05 -100.2349289 245.0768379
-1.258274756e-05 -142.1694157 -104.4420405
-51.32110598 1.064108801e-10 -179.1094788
-170.450858 1.064108801e-10 2.4414897
-6.683332383 1.064108801e-10 13.5493195
-1.258274756e-05 -64.547915 54.1759084
-130.3006688 1.064108801e-10 -22.719773
-200.5371991 -68.8358044 -250
-1.258274756e-05 -183.4766494 -237.1157384
-115.54807 1.064108801e-10 -247.9440441
-1.258274756e-05 -12.094636 -164.1267648
-158.9261244 1.064108801e-10 -28.8142025
-190.5882307 -175.4448964 -250
-1.258274756e-05 -136.3854065 -221.9470988
-155.5925936 1.064108801e-10 -53.2692398
-1.258274756e-05 -212.8732962 -231.3047381
-107.9117776 1.064108801e-10 -28.4022619
-162.5489732 1.064108801e-10 78.821762
-145.5095068 1.064108801e-10 67.7358744
-11.03468588 1.064108801e-10 -104.0241022
-183.8252013 1.064108801e-10 -19.5497022
-220.5790435 1.064108801e-10 -29.352307
-1.258274756e-05 -37.418815 104.3184414
-1.258274756e-05 -88.6787677 -206.6750763
-51.55588448 1.064108801e-10 60.1728728
-1.258274756e-05 -158.2670787 165.3304399
-1.258274756e-05 -200.848982 -23.180726
-216.7291899 1.064108801e-10 -225.0821546
-1.258274756e-05 -246.8200565 -187.2854444
-124.3913189 1.064108801e-10 187.2279439
-160.4403057 1.064108801e-10 -15.2625324
-2.851748383 1.064108801e-10 -56.0235779
-1.258274756e-05 -124.2568591 246.8563725
-1.258274756e-05 -54.778092 200.8865539
-1.258274756e-05 -55.8956914 -50.5982775
-1.258274756e-05 -235.4009654 -82.4420464
-1.258274756e-05 -232.9226135 -144.8531243
-127.1092649 1.064108801e-10 -46.2996052
-84.90330868 1.064108801e-10 -90.3083918
-14.22531848 -63.1179941 -250
-1.258274756e-05 -91.9227808 -115.5758893
-213.1994979 -162.2526215 -250
-1.258274756e-05 -98.2120596 20.6746438
-91.37157108 1.064108801e-10 -70.5489133
-102.7213113 -153.5776603 -250
-228.4077057 1.064108801e-10 128.5715192
-94.70807778 1.064108801e-10 211.6453473
-145.253187 1.064108801e-10 140.7843458
-1.258274756e-05 -98.0633122 -66.0875062
-55.26058588 1.064108801e-10 -151.3163344
-8.292100883 -222.5048311 -250
-104.79633 1.064108801e-10 146.8489879
-12.45366998 1.064108801e-10 -26.4373357
-166.0266987 1.064108801e-10 -209.3799015
-244.8076504 1.064108801e-10 -1.9268479
-61.75554018 1.064108801e-10 -31.9441774
-1.258274756e-05 -84.5180038 122.3960089
-222.0218179 1.064108801e-10 -44.2909345
-1.258274756e-05 -76.266833 47.8915065
-245.2324574 1.064108801e-10 108.5585879
-127.6955553 1.064108801e-10 -175.0632873
-1.258274756e-05 -173.3581312 203.2977975
-145.6926078 1.064108801e-10 13.3534254
-1.258274756e-05 -77.0684146 134.9361434
-1.258274756e-05 -5.4784299 -13.4887477
-1.258274756e-05 -240.7291815 150.7941005
-158.0283206 1.064108801e-10 32.7650948
-161.7752416 -174.8601505 -250
-1.258274756e-05 -107.6268708 46.6739007
-219.2548976 1.064108801e-10 219.9318457
-1.258274756e-05 -150.8155081 -167.0327837
-214.8801529 1.064108801e-10 77.876557
-146.2551986 -157.6929256 -250
-1.258274756e-05 -12.9738368 54.1006352
-1.258274756e-05 -221.1367638 235.9621212
-156.4137231 1.064108801e-10 160.2398073
0.8256756173 1.064108801e-10 128.5797287
-178.1475673 1.064108801e-10 105.8673709
-95.96605878 1.064108801e-10 -131.3440597
-90.45335678 -222.1944105 -250
-207.0729641 1.064108801e-10 -6.0414507
-51.57706668 -82.1983578 -250
-72.12426108 -127.5767068 -250
-38.27780898 1.064108801e-10 57.2042137
-59.80473688 -10.5168676 -250
-36.83506258 -140.3591604 -250
-138.4628631 -108.5852051 -250
-1.258274756e-05 -44.7471569 -155.2105488
-238.6346287 1.064108801e-10 -187.1189153
-1.258274756e-05 -164.037378 -217.133198
-1.258274756e-05 -236.0729757 -43.8766336
-113.6912873 1.064108801e-10 -114.5348922
-165.4509475 1.064108801e-10 -85.3638151
-96.11430998 1.064108801e-10 57.6416164
-1.258274756e-05 -143.8175128 90.560624
-1.258274756e-05 -178.2752183 -128.202159
-1.258274756e-05 -67.0023376 77.5537019
-10.14112908 1.064108801e-10 -154.3158813
-88.10882778 -12.0390474 -250
-11.37987448 1.064108801e-10 -236.2376296
-1.258274756e-05 -114.1694546 73.085177
-195.8529141 1.064108801e-10 -146.8878388
-62.11326418 1.064108801e-10 124.5360312
-1.258274756e-05 -127.0699248 207.4223366
-251.0505061 1.064108801e-10 -126.9551726
-73.46458368 1.064108801e-10 102.4444831
-210.1383971 1.064108801e-10 92.0258378
-207.6316911 1.064108801e-10 -102.8694182
-1.258274756e-05 -117.6055059 -30.2990628
-1.258274756e-05 -182.7526317 177.0063846
-83.44587508 -51.7501257 -250
-68.95686608 1.064108801e-10 17.6589417
-200.4918477 1.064108801e-10 133.4056377
-1.258274756e-05 -90.3714468 165.342468
-103.7824774 -33.0865206 -250
-1.258274756e-05 -150.1136236 -69.2129656
-108.9622006 1.064108801e-10 162.5812648
-178.252039 -79.3784936 -250
-230.0315208 1.064108801e-10 25.5589854
-136.9579989 1.064108801e-10 -209.2399666
-1.258274756e-05 -33.9713636 -86.6732368
-103.6956949 -246.2608513 -250
-181.1944496 1.064108801e-10 84.902492
-4.766865083 -49.6121673 -250
-1.258274756e-05 -238.1332076 -231.540827
-1.258274756e-05 -234.4434926 -61.2912491
-1.258274756e-05 -104.6877141 -78.9879954
-131.4076189 -196.9834873 -250
-19.75079418 -2.3140764 -250
-1.258274756e-05 -133.5198538 22.9961384
-1.258274756e-05 -59.1520278 99.786691
-188.2490023 -251.6966936 -250
-1.258274756e-05 -22.2025148 152.2470155
-1.258274756e-05 -84.9084977 -14.7528002
-1.258274756e-05 -108.0683262 -5.3160267
-1.258274756e-05 -252.3801238 -22.6905105
-1.258274756e-05 -172.5436575 58.404997
-245.5043647 1.064108801e-10 163.0268797
-15.26346188 -143.7257157 -250
-21.05987508 -107.529612 -250
-242.9070509 -52.3651351 -250
-1.258274756e-05 -182.4713561 151.8103229
-39.43943388 1.064108801e-10 247.5149339
-140.1567597 -140.1392841 -250
-1.258274756e-05 -23.4856107 84.8986595
-120.9960393 -137.2573216 -250
-1.258274756e-05 -156.7245356 26.6707403
-1.258274756e-05 -241.1894441 42.4505046
-233.8538314 1.064108801e-10 -142.9272
-1.258274756e-05 -100.4375812 -160.1902697
-1.258274756e-05 -39.5635408 -137.7102575
-1.258274756e-05 -148.1276491 -146.9905061
-60.09558378 -222.1126129 -250
-13.27535118 1.064108801e-10 -208.28001
-14.45439468 1.064108801e-10 -71.8854144
-1.258274756e-05 -11.4452948 -205.8881353
-117.3216373 -213.8590293 -250
-1.258274756e-05 -215.877657 -93.1044561
-1.258274756e-05 -150.5038316 181.9452484
-42.17096838 1.064108801e-10 -116.9496839
-1.258274756e-05 -114.7342944 192.5166086
-1.258274756e-05 -25.4820842 -62.9631654
-163.1518803 -21.1004537 -250
-99.15995158 1.064108801e-10 -103.207253
-1.258274756e-05 -184.5647301 64.8917112
-1.258274756e-05 -194.3120888 -50.3925287
-1.258274756e-05 -215.5065958 20.178561
-179.4020625 1.064108801e-10 -48.993868
-232.110278 -108.8539776 -250
-145.1387464 1.064108801e-10 -134.4989276
-1.258274756e-05 -41.3206829 -74.5050444
-192.7055819 1.064108801e-10 -241.7203898
-88.01764068 1.064108801e-10 -39.7916428
-204.8133594 1.064108801e-10 -50.5532548
-1.258274756e-05 -14.8711971 105.4557312
-50.38961418 -115.1662857 -250
-1.258274756e-05 -233.4747616 -124.0569427
-88.06603968 -167.6433722 -250
-128.8132001 -46.8573979 -250
-1.258274756e-05 -220.5639183 141.7260218
-136.8814252 1.064108801e-10 170.068471
-1.258274756e-05 -136.7546671 66.0035645
-185.0043621 -56.6989998 -250
-118.8525756 -227.8927828 -250
-1.258274756e-05 -61.5479411 113.9069086
-1.258274756e-05 -184.8479925 -160.1231907
-166.7580619 1.064108801e-10 183.6961238
-243.7977274 -233.0983448 -250
-206.6725665 -88.9368063 -250
-1.258274756e-05 -139.0570099 229.2556172
-34.89793858 -71.794569 -250
-72.07500238 1.4640963 -250
-36.69651558 1.064108801e-10 195.1024104
-193.2362093 1.064108801e-10 -100.034601
-1.258274756e-05 -209.553846 -103.6364484
-1.258274756e-05 -228.6646375 -106.2442559
-49.76170468 -177.1811677 -250
-203.8513416 1.064108801e-10 30.4632334
-204.3237597 1.064108801e-10 -20.6306146
-109.9165757 1.064108801e-10 -237.0640302
-248.4818615 -182.5083519 -250
-219.666809 -234.0241479 -250
-1.258274756e-05 -29.8445836 -175.2150959
-199.3437778 -120.02748 -250
-29.84741098 1.064108801e-10 135.685856
-1.258274756e-05 -201.1914521 -146.4383022
-229.8101577 -10.8979412 -250
-1.258274756e-05 -207.8987681 -55.3700238
-1.258274756e-05 -194.7915562 -79.9828304
-1.258274756e-05 -38.6651191 -0.3896844999
-1.258274756e-05 -15.7155721 225.7663132
-1.258274756e-05 -242.2147077 19.801424
-1.258274756e-05 -35.7585472 190.3565524
-1.258274756e-05 -118.7643874 -223.6940656
-26.13633238 1.064108801e-10 88.1679768
-189.7141945 1.064108801e-10 -120.6502297
-1.258274756e-05 -177.5606598 6.0427503
-1.258274756e-05 -172.4133981 89.583513
-227.3592208 -80.0882457 -250
-1.258274756e-05 -68.2334622 -230.5792448
-211.5757427 1.064108801e-10 -187.053751
-178.5129207 1.064108801e-10 160.2851989
-235.2596777 1.064108801e-10 55.470647
-186.0600832 -219.6850282 -250
-83.55111518 1.064108801e-10 167.1062378
-1.258274756e-05 -65.2805802 163.1666056
-1.258274756e-05 -1.8793938 -143.8108587
-196.7841904 1.064108801e-10 12.7613086
-180.8894337 1.064108801e-10 15.687172
-127.1815495 1.064108801e-10 93.6607424
-47.23678948 1.064108801e-10 15.9375822
-149.155703 -204.9675172 -250
-1.258274756e-05 -13.7861563 -237.2189455
-155.9045476 1.064108801e-10 199.7616912
-1.258274756e-05 -26.6663817 -236.9588378
-57.42701538 1.064108801e-10 -20.6824259
-1.258274756e-05 -134.4823427 -50.1624333
-98.95225498 1.064108801e-10 237.6156952
-182.3192696 -104.8165238 -250
-37.71524758 -24.1658527 -250
-1.258274756e-05 -209.8051341 -68.8112011
-168.1369406 1.064108801e-10 49.6047399
-162.6989025 1.064108801e-10 -130.0302178
-1.258274756e-05 -173.4645636 -150.4182534
-82.87861108 -24.7489104 -250
-1.258274756e-05 -152.7527241 38.719668
-1.258274756e-05 -95.0081328 -54.1986567
-1.258274756e-05 -228.5968261 -18.8758088
-1.258274756e-05 -100.6579231 -230.2113678
-11.20129318 -186.4853133 -250
-1.258274756e-05 -188.9489106 -15.2252677
-1.258274756e-05 -69.0182249 -217.811842
-1.258274756e-05 -174.3236198 45.1527764
-77.58983138 -240.9521958 -250
-1.258274756e-05 -149.1271074 199.1149282
-1.258274756e-05 -239.7403371 -98.9783483
-1.258274756e-05 -136.5785554 128.8360818
-98.19818868 -137.0586702 -250
-122.3993804 1.064108801e-10 223.4413842
-28.09148128 1.064108801e-10 234.1485325
-14.60083768 1.064108801e-10 -128.9435628
-99.06470378 -205.4179563 -250
-0.1323305827 1.064108801e-10 76.1403216
-36.98336388 -187.3259344 -250
-1.258274756e-05 -37.4933351 240.1566719
-75.23222598 1.064108801e-10 -113.6319318
-1.258274756e-05 -93.0390064 -89.7309582
-47.32295348 1.064108801e-10 186.9922067
-1.258274756e-05 -151.5646355 136.574478
-33.38352208 -216.0570952 -250
-216.9008471 1.064108801e-10 149.3436093
-145.1696573 1.064108801e-10 -193.242218
-223.060929 1.064108801e-10 -6.6159085
-9.817934683 1.064108801e-10 32.0734179
-1.258274756e-05 -191.3680908 -217.0767562
-1.258274756e-05 -162.5290218 -168.3555748
-1.258274756e-05 -134.4570225 -145.8272831
-105.0250177 1.064108801e-10 189.0410643
-121.1811851 1.064108801e-10 -105.4508694
-39.36370058 1.064108801e-10 -204.3125353
-26.88585828 1.064108801e-10 211.5485628
-2.645764283 -160.6961076 -250
-157.3795934 1.064108801e-10 14.3902802
-149.3247529 -69.0925746 -250
-1.258274756e-05 -39.7528506 201.4409601
-9.112729283 1.064108801e-10 68.500379
-1.258274756e-05 -95.5841806 -218.0850413
-233.9497043 -249.1137882 -250
-1.258274756e-05 -156.648095 -53.3355248
-1.258274756e-05 -111.334447 -187.4891917
-1.258274756e-05 -193.6192638 155.3241921
-116.9079347 -25.5425134 -250
-61.69284258 -152.026307 -250
-209.2604398 -241.7453173 -250
-1.258274756e-05 -202.465439 170.5122248
-1.258274756e-05 -172.3057398 -70.6786382
-161.2768322 -104.0181815 -250
-236.3974403 -142.1711577 -250
-246.5102828 1.064108801e-10 48.0174546
-126.5703174 1.064108801e-10 -5.6912855
-56.07267368 -135.0983193 -250
-1.258274756e-05 -208.4657431 39.0012591
-136.8866348 -74.7736498 -250
-32.65967088 -97.2576953 -250
-38.82236938 1.064108801e-10 -230.4494337
-1.258274756e-05 -232.309231 102.2177396
-1.258274756e-05 -121.4628089 -47.8909929
-105.8453576 1.064108801e-10 -207.1876554
-200.3739488 1.064108801e-10 173.9680659
-1.258274756e-05 -45.578077 -110.0813979
-166.3518979 -143.7555443 -250
-1.258274756e-05 -29.092389 -193.4004278
-199.7881988 -163.704726 -250
-163.5711005 -243.1886539 -250
-1.258274756e-05 -96.2172694 64.3735908
-149.7497547 1.064108801e-10 -231.9196867
-49.06246508 1.064108801e-10 93.8794842
-80.51556268 1.064108801e-10 8.1012512
-30.12253548 -119.1052356 -250
-219.6858527 1.064108801e-10 -92.2384181
-75.27916678 1.064108801e-10 68.4815179
-214.0030322 -99.6614073 -250
-227.1432696 -67.8578244 -250
-1.258274756e-05 -80.6688566 -70.7599731
-245.5461918 1.064108801e-10 -50.0086591
-44.82639808 -237.8508098 -250
-49.21889598 1.064108801e-10 -58.04961
-33.74349708 1.064108801e-10 32.0510056
-28.15277858 1.064108801e-10 -89.9425854
-1.258274756e-05 -32.3271136 116.2114533
-1.258274756e-05 -226.3373954 -186.7069478
-122.4632221 -183.2285785 -250
-1.258274756e-05 -89.184256 193.5971274
-1.258274756e-05 -123.0697386 178.4717682
-91.61775468 1.064108801e-10 25.4330337
-1.258274756e-05 -215.7401158 89.0279847
-1.258274756e-05 -38.3795677 56.7555638
-1.258274756e-05 -201.3996304 -176.3421189
-234.6126722 1.064108801e-10 -197.8547533
0.003121817252 1.064108801e-10 211.1455775
-1.258274756e-05 -129.3947844 -124.5653305
-32.84546438 1.064108801e-10 -43.4015247
-234.663383 1.064108801e-10 -176.372631
-1.258274756e-05 -142.5831321 -240.1952141
-1.258274756e-05 -220.4829415 -221.8534351
-147.4545204 1.064108801e-10 92.1748609
-165.3383623 1.064108801e-10 126.3398537
-3.480192283 -104.9383609 -250
-176.9126604 -201.5571979 -250
-64.09499258 -37.411144 -250
-212.3192275 1.064108801e-10 -238.9837528
-1.258274756e-05 -155.3006115 -79.4884082
-1.258274756e-05 -88.0128244 -144.8728965
-144.9305279 -33.7947705 -250
-1.258274756e-05 -216.7059338 4.0759868
2.344515517 -136.6524388 -250
-76.19432648 1.064108801e-10 219.6374054
-1.258274756e-05 -13.359923 190.4910397
-64.77720378 1.064108801e-10 -78.795401
-1.258274756e-05 -239.8785181 -155.4914859
-142.1132175 1.064108801e-10 44.3904347
-131.2159947 1.064108801e-10 -145.3719675
-163.1408444 1.064108801e-10 -225.0677752
-224.0552077 1.064108801e-10 -239.3826198
-182.7231519 -187.2983431 -250
-222.9661085 1.064108801e-10 -198.6798644
-1.258274756e-05 -18.6823108 72.746897
-1.258274756e-05 -148.4417699 124.6309575
-68.74170938 1.064108801e-10 241.2575235
-1.258274756e-05 -161.8290539 -229.0792196
-1.258274756e-05 -116.283344 226.8995751
-244.45464 1.064108801e-10 -207.4495528
-1.258274756e-05 -53.3661049 76.62489
-203.4893019 -1.5145886 -250
