# .PCD v0.7 - Point Cloud Data file format
VERSION 0.7
FIELDS x y z
SIZE 4 4 4
TYPE F F F
COUNT 1 1 1
WIDTH 1260
HEIGHT 1
VIEWPOINT 0 0 0 1 0 0 0
POINTS 1260
DATA ascii
78.28070321 -1.55250226e-05 173.1020807
-7.578558188e-05 33.96842917 133.3878584
-7.578558188e-05 17.71249597 249.1004105
4.640561214 105.0116696 -250
-7.578558188e-05 229.3584128 -63.5149146
-7.578558188e-05 161.4180926 228.9483827
81.48137921 -1.55250226e-05 -161.178851
43.82542321 -1.55250226e-05 -31.5070402
-7.578558188e-05 61.07600627 -206.8710141
-7.578558188e-05 10.53504237 194.8338999
118.6149552 230.6394519 -250
106.2733832 -1.55250226e-05 89.9228414
56.37280721 243.3526806 -250
120.1120082 -1.55250226e-05 155.0523166
-7.578558188e-05 188.7352465 130.5095459
91.98224021 141.6629702 -250
-7.578558188e-05 33.14534667 219.1052572
44.02012721 66.65952067 -250
-7.578558188e-05 212.53227 -98.4663711
216.8376792 228.0972331 -250
86.21444121 -1.55250226e-05 -228.7701626
11.70087921 -1.55250226e-05 238.4213941
-7.578558188e-05 69.22984617 -153.3055323
-7.578558188e-05 35.75085457 -225.6494628
230.2051692 246.5633434 -250
185.7233932 -1.55250226e-05 -158.0506625
126.4547952 -1.55250226e-05 -121.9126107
-7.578558188e-05 33.11862547 106.0296478
84.89048121 -1.55250226e-05 17.0466786
223.6009472 -1.55250226e-05 -127.1399535
66.34341421 -1.55250226e-05 -102.2330003
-7.578558188e-05 236.9677626 -13.4647356
-7.578558188e-05 143.157323 -45.7572806
48.72054921 10.71177547 -250
140.5012392 -1.55250226e-05 99.4841739
68.63234021 124.0876696 -250
227.9729512 141.8184664 -250
41.22950221 47.95333447 -250
163.8872172 -1.55250226e-05 -132.7035581
121.6983072 44.18226967 -250
-7.578558188e-05 214.2695796 -221.456152
-2.238258786 -1.55250226e-05 160.1617191
-7.578558188e-05 126.6247498 -75.7767253
65.26247721 38.85228827 -250
17.15285621 -1.55250226e-05 -195.6752396
-7.578558188e-05 182.7373619 55.7158506
109.8238832 106.0525661 -250
162.8591772 84.27180367 -250
-7.578558188e-05 71.54849787 -171.3779514
-7.578558188e-05 98.93450807 -198.4965022
12.29611521 -1.55250226e-05 100.2782115
-7.578558188e-05 36.49887917 -27.257689
144.2393922 -1.55250226e-05 -9.6163132
229.5192812 -1.55250226e-05 -229.764895
33.36511421 102.0827744 -250
118.3492592 -1.55250226e-05 -166.505381
67.36422121 -1.55250226e-05 235.8548131
240.9895192 -1.55250226e-05 109.9203921
-7.578558188e-05 78.98230817 65.8676071
240.8514132 -1.55250226e-05 -98.808101
237.7777522 108.848889 -250
-7.578558188e-05 48.76644727 60.3095888
-7.578558188e-05 247.8955431 -234.207517
19.10274121 -1.55250226e-05 173.8109921
104.7192122 -1.55250226e-05 -57.9378369
-7.578558188e-05 88.35073687 -180.7246169
153.1987922 -1.55250226e-05 210.6110685
103.8334952 -1.55250226e-05 -245.1332916
-7.578558188e-05 81.28116927 -109.6492619
209.6036342 52.73290777 -250
4.457958214 12.80581867 -250
203.5820402 -1.55250226e-05 -215.6538519
184.0299972 -1.55250226e-05 207.1967
27.48078021 236.0426111 -250
-7.578558188e-05 46.70002297 3.0503009
-7.578558188e-05 170.5983654 107.0098002
176.1670132 167.6604845 -250
119.8222562 -1.55250226e-05 -223.2235029
194.2134892 -1.55250226e-05 -243.4960333
26.25532221 -1.55250226e-05 62.7761364
147.0483472 -1.55250226e-05 -221.6202831
139.3608402 117.3656857 -250
-7.578558188e-05 104.9038005 -42.745321
-7.578558188e-05 35.07674607 -140.2133333
151.7243042 -1.55250226e-05 48.6254681
-7.578558188e-05 184.3434045 -109.6500413
123.1734132 -1.55250226e-05 23.7490291
25.51553321 251.8747172 -250
-7.578558188e-05 184.2049989 233.2487846
160.9830562 137.0712017 -250
104.7818922 -1.55250226e-05 -147.4399141
-7.578558188e-05 165.4604684 80.3864529
-7.578558188e-05 64.19815667 52.123486
64.11183021 -1.55250226e-05 -137.5712041
27.90319721 -1.55250226e-05 -7.7684511
225.9584982 -1.55250226e-05 -56.0193806
207.3834762 -1.55250226e-05 150.1413289
-7.578558188e-05 248.6834141 168.7533217
136.6048382 171.6228309 -250
-7.578558188e-05 41.20498867 -209.3870517
232.2277122 -1.55250226e-05 -7.0718253
-7.578558188e-05 120.7360907 33.3929048
164.5868272 -1.55250226e-05 -83.3669381
158.1172232 53.29692327 -250
-7.578558188e-05 168.6815115 13.5543801
248.9943282 -1.55250226e-05 -149.7839333
88.01043921 -1.55250226e-05 230.2283234
235.9262322 59.48515457 -250
244.2104622 157.7976158 -250
202.0570672 -1.55250226e-05 58.94968
-7.578558188e-05 133.572871 228.1673489
-7.578558188e-05 235.1904909 35.7158334
-7.578558188e-05 216.5181695 -115.3078784
60.15552821 142.6586864 -250
15.13093621 43.85704627 -250
-7.578558188e-05 192.0583433 -243.6260013
-7.578558188e-05 179.394651 -79.9061729
-7.578558188e-05 1.468895675 -146.1674024
-7.578558188e-05 97.82367787 7.8783781
104.8844992 -1.55250226e-05 -124.954256
-7.578558188e-05 41.01820307 205.0566105
-7.578558188e-05 12.63251187 -58.1779524
-7.578558188e-05 123.5844525 2.211918
65.73833421 -1.55250226e-05 87.4424992
-7.578558188e-05 229.3757111 239.0560429
235.8662802 -1.55250226e-05 144.0277176
-7.578558188e-05 203.1089399 74.8684151
-7.578558188e-05 91.12318727 -73.6596831
-7.578558188e-05 147.5702027 -216.7204003
231.2230342 -1.55250226e-05 -156.6953046
-7.578558188e-05 205.5968026 29.3811639
-7.578558188e-05 153.395773 -79.9234048
208.4609952 -1.55250226e-05 -198.2675904
245.0400962 -1.55250226e-05 184.5954262
-7.578558188e-05 234.3163074 -169.9203236
151.1726052 -1.55250226e-05 130.0646912
1.031026214 -1.55250226e-05 -0.7429645
-7.578558188e-05 138.1041256 122.1421705
223.4573162 86.63690007 -250
199.5329362 100.3056951 -250
-7.578558188e-05 76.91870297 192.6793497
215.0333252 -1.003385625 -250
-7.578558188e-05 64.28498987 84.5088908
151.1644242 151.6962454 -250
184.1960362 -1.55250226e-05 127.596407
140.4374032 -1.55250226e-05 -183.8599624
250.0609812 -1.55250226e-05 -2.2641876
-7.578558188e-05 211.4692632 -187.5253712
-7.578558188e-05 14.63444047 -191.7323893
208.3062332 152.4544336 -250
174.8015342 -1.55250226e-05 143.1350311
-7.578558188e-05 204.3318542 -59.8312017
120.5820592 -1.55250226e-05 114.551682
13.63007721 -1.55250226e-05 213.6256166
-7.578558188e-05 217.1449738 2.3031552
189.5856262 17.57470597 -250
-7.578558188e-05 69.00317047 -3.8703138
121.7507132 -1.55250226e-05 -149.6191812
134.4393842 -1.55250226e-05 238.1494922
165.2364362 -1.55250226e-05 -118.016905
170.4938982 -1.55250226e-05 75.7598609
13.31569821 -1.55250226e-05 -9.8603761
42.92315321 -1.55250226e-05 -89.8273128
50.21731321 -1.55250226e-05 -184.81123
-7.578558188e-05 104.6944477 174.2329399
-7.578558188e-05 99.29635927 -125.8194768
244.9703652 -1.55250226e-05 27.1806647
85.22879321 -1.55250226e-05 -210.7257902
5.407061214 58.51081837 -250
-7.578558188e-05 46.65673197 178.727658
117.5836642 -1.55250226e-05 131.3632659
52.16181421 203.4666766 -250
93.93618821 251.3418276 -250
-7.578558188e-05 103.004107 215.2922987
-7.578558188e-05 136.5706804 64.8984305
14.67861921 -1.55250226e-05 -97.6917933
-7.578558188e-05 66.04662067 -224.2065055
241.1032832 235.2983109 -250
171.7751582 -1.55250226e-05 -169.5159593
234.2044652 -1.55250226e-05 -210.1582673
-7.578558188e-05 77.17427617 235.388845
127.9481932 -1.55250226e-05 141.538773
31.92996721 -1.55250226e-05 213.9442227
-7.578558188e-05 46.17147357 -112.6928878
89.59185021 -1.55250226e-05 207.909858
202.7717282 186.1125493 -250
229.0693632 -1.55250226e-05 27.3322165
145.9795942 -1.55250226e-05 156.5351773
9.945347214 167.5561881 -250
-7.578558188e-05 14.11543477 -163.3380622
-7.578558188e-05 195.0939313 190.4065276
-7.578558188e-05 126.3762453 154.5606172
73.38466121 59.06939517 -250
-7.578558188e-05 190.6809798 210.258625
161.5407042 200.9500087 -250
32.75903421 120.4785559 -250
188.0104542 -1.55250226e-05 21.8173437
29.17911421 -1.55250226e-05 -155.6324395
187.5827272 81.98827357 -250
218.3172602 -1.55250226e-05 173.1499692
111.5268902 126.5777632 -250
61.94039121 -1.55250226e-05 -232.920934
251.6923632 105.3312152 -250
-7.578558188e-05 226.6656743 191.8697992
189.4106212 140.8745845 -250
-7.578558188e-05 201.6072984 118.1535415
198.7062232 -1.55250226e-05 -52.3060117
113.3905382 161.6724575 -250
75.29857321 153.4447897 -250
-7.578558188e-05 188.5432487 -161.6691038
177.5157872 -1.55250226e-05 -139.8545709
237.1377952 -1.55250226e-05 58.3248404
22.98682221 -1.55250226e-05 -67.6837186
-7.578558188e-05 162.3529171 -29.937589
147.0344762 78.93591777 -250
-7.578558188e-05 204.2022302 172.8688512
34.43988821 19.56851407 -250
252.4752782 -1.55250226e-05 -234.1781103
164.2663232 -1.55250226e-05 183.5132173
-7.578558188e-05 89.79848857 245.8939026
174.3398702 -1.55250226e-05 -93.935431
-7.578558188e-05 114.1530477 140.5910027
191.1291712 194.2999598 -250
-7.578558188e-05 153.8873413 -55.123594
22.36350421 206.8064393 -250
-7.578558188e-05 54.48291907 -161.636852
192.9017152 -1.55250226e-05 2.0398872
82.67933921 118.9266524 -250
-7.578558188e-05 74.47078467 173.4945564
-7.578558188e-05 93.99519737 50.1492502
-7.578558188e-05 41.47595837 -171.1002483
-7.578558188e-05 29.12864747 44.8678037
-7.578558188e-05 9.617809075 71.5378764
96.06669521 -1.55250226e-05 7.3985913
-7.578558188e-05 153.0574343 -115.0683663
-7.578558188e-05 201.3010386 -35.0629003
-7.578558188e-05 184.362868 -177.5786315
214.7251682 -1.55250226e-05 -47.4535537
9.332522214 72.07815847 -250
236.7359652 76.02032067 -250
-7.578558188e-05 33.08761947 89.8259028
57.11578321 -1.55250226e-05 -219.5096842
-7.578558188e-05 244.3814746 22.1289095
52.35504921 -1.55250226e-05 -128.6360529
134.6348362 -1.55250226e-05 48.7033627
-7.578558188e-05 27.59516717 155.2749674
-7.578558188e-05 12.04035417 -27.8956323
193.1980302 -1.55250226e-05 -188.3498984
130.3012102 184.2775568 -250
-7.578558188e-05 57.46552357 104.3539021
-7.578558188e-05 177.9290455 -16.3947833
-7.578558188e-05 12.35532127 -177.9261135
237.5859132 -1.55250226e-05 -127.0583256
-7.578558188e-05 200.8641422 149.3322517
123.8288982 95.83151007 -250
101.0142102 220.0105973 -250
86.73546821 -1.55250226e-05 114.429007
158.9528372 -1.55250226e-05 15.4344078
-7.578558188e-05 215.7194683 147.5833435
89.27980621 177.129479 -250
194.8741452 47.05945607 -250
31.52620121 -1.55250226e-05 77.1168064
-7.578558188e-05 79.36927327 -64.8830308
-7.578558188e-05 185.3024559 -207.3328824
-7.578558188e-05 247.9059444 235.2895731
-7.578558188e-05 126.5723297 -213.3936379
-7.578558188e-05 172.8973603 156.4273285
179.0133802 -1.55250226e-05 -191.519045
-7.578558188e-05 80.12186277 -94.7696407
172.6371242 212.3192592 -250
-7.578558188e-05 168.9828273 179.4820745
168.2602532 249.5140891 -250
-7.578558188e-05 149.4472989 203.5942594
-7.578558188e-05 160.5536314 -191.3147851
238.8470932 -1.55250226e-05 -32.4526714
223.8180652 -1.55250226e-05 96.0735404
49.77675021 -1.55250226e-05 208.9012815
-7.578558188e-05 32.20130697 171.5664173
-7.578558188e-05 28.78841497 -84.2808089
121.3260132 -1.55250226e-05 -72.9666854
115.2044942 -1.55250226e-05 51.0197309
-7.578558188e-05 10.45211427 -77.2369187
5.803577214 135.0898761 -250
122.7490742 12.76318537 -250
110.8232352 -1.55250226e-05 32.0075673
76.49675321 -1.55250226e-05 144.0248932
47.60731121 -1.55250226e-05 186.3715757
15.97858021 -1.55250226e-05 -34.8577051
156.6167712 -1.55250226e-05 -185.486419
109.2879182 -1.55250226e-05 -214.2189776
-7.578558188e-05 47.35184447 -233.7081735
-7.578558188e-05 146.721332 238.357275
112.1398782 188.741128 -250
10.41660621 213.5969302 -250
166.5406262 -1.811034125 -250
-7.578558188e-05 4.011312275 230.6768749
53.58710521 -1.55250226e-05 127.3242401
176.2505772 -1.55250226e-05 -107.8679713
161.0879502 97.78543287 -250
48.11041421 -1.55250226e-05 40.8819045
119.9231802 -1.55250226e-05 -59.3405463
-7.578558188e-05 246.0549647 185.0097933
118.8781142 -1.55250226e-05 -14.9598641
54.98228021 -1.55250226e-05 17.8446169
135.9785732 45.78051547 -250
224.4011982 -1.55250226e-05 44.4438414
26.01706921 -1.55250226e-05 35.9539176
150.4893702 -1.55250226e-05 -99.2567358
176.1828862 -1.55250226e-05 236.2200846
162.3720832 -1.55250226e-05 -30.7218594
194.8426422 -1.55250226e-05 -114.9029425
-7.578558188e-05 196.0908651 57.8156251
207.9384182 122.3079014 -250
194.3817772 -1.55250226e-05 -170.6047847
-7.578558188e-05 249.6885533 -114.0691688
65.82848321 -1.55250226e-05 214.281004
-7.578558188e-05 234.4135666 -140.7501347
-7.578558188e-05 61.35978857 152.2451159
-7.578558188e-05 207.146517 -160.8140628
-7.578558188e-05 232.0708317 102.9032316
67.63523121 -0.454489725 250
36.74940821 -1.55250226e-05 -51.8997498
192.8975412 -1.55250226e-05 -67.2256286
210.2927992 -1.55250226e-05 48.3731022
-7.578558188e-05 96.90762427 -150.0966202
-7.578558188e-05 250.6948368 -24.1797819
100.9098242 151.6659182 -250
96.63055621 -1.55250226e-05 -81.4794909
91.42699221 -1.55250226e-05 -97.7367801
25.84861921 147.6446117 -250
-7.578558188e-05 13.04977897 131.2886031
-7.578558188e-05 234.4860393 -48.2089548
236.2392312 207.6504021 -250
-7.578558188e-05 252.1628592 -77.8380227
91.87243121 -1.55250226e-05 -129.210952
79.94549221 -1.55250226e-05 -73.9551022
-7.578558188e-05 50.73646877 -96.6602829
216.4929442 -1.55250226e-05 -221.3222939
134.3941202 -1.55250226e-05 -77.6460797
-7.578558188e-05 89.42163697 109.0334868
-7.578558188e-05 101.5384133 21.5909772
107.8690382 -1.55250226e-05 -189.5216895
212.4916902 -1.55250226e-05 3.564413
2.268611214 -1.55250226e-05 -53.6031676
236.2083762 -1.55250226e-05 -46.7319109
24.54212121 -1.55250226e-05 187.0909936
-7.578558188e-05 114.684129 -173.6085277
-7.578558188e-05 7.285535075 148.6731233
-7.578558188e-05 225.8068018 165.6201345
-7.578558188e-05 129.208345 215.6857872
237.1143082 -1.55250226e-05 92.9747348
28.30503421 -1.55250226e-05 102.5317737
247.7983362 188.2521657 -250
10.73312521 -1.55250226e-05 163.6295053
-7.578558188e-05 208.9001986 218.8301296
-7.578558188e-05 26.18254007 -4.9473397
220.6636152 -1.55250226e-05 -72.5868623
72.75273021 217.4921841 -250
-7.578558188e-05 155.3917018 -247.6648902
129.5038932 -1.55250226e-05 -174.5652366
135.1141582 -0.431618625 -250
-7.578558188e-05 145.3479394 -155.7706015
-7.578558188e-05 132.3530669 -26.8716713
53.46742121 -1.55250226e-05 168.3432875
104.8420432 -1.55250226e-05 104.4111377
208.8036692 202.331481 -250
-7.578558188e-05 41.47173687 246.0550944
25.42031221 -1.55250226e-05 -185.1746152
-7.578558188e-05 197.2676441 -82.2996576
-7.578558188e-05 129.0652617 189.181776
-7.578558188e-05 130.518354 -55.7051071
182.5921992 -1.55250226e-05 -20.5668682
35.20402621 221.7777036 -250
170.3942452 -0.892138425 250
-7.578558188e-05 198.5905855 -223.1038937
-7.578558188e-05 156.2730112 116.9600972
-7.578558188e-05 3.095628875 -242.5632294
141.5526922 -1.55250226e-05 175.605495
76.31584121 -1.55250226e-05 95.012452
-7.578558188e-05 43.14681537 227.4300133
-7.578558188e-05 170.767715 -59.6650396
-7.578558188e-05 150.5538584 87.2854027
168.7370812 61.75389547 -250
-7.578558188e-05 163.2167078 214.4871206
41.05289221 -1.55250226e-05 249.0587897
-7.578558188e-05 181.6949733 -122.3323932
-7.578558188e-05 76.81122947 78.6097883
129.2631792 -1.55250226e-05 -98.2381917
249.6892132 217.2685562 -250
-7.578558188e-05 97.42726157 -15.937082
31.12660121 -1.55250226e-05 -33.7767963
17.89421021 178.5535407 -250
7.931520214 -1.55250226e-05 -121.4703204
52.29801521 -1.55250226e-05 114.5218819
-7.578558188e-05 59.91564417 128.2545102
-1.717775786 241.4358023 -250
-7.578558188e-05 218.4591037 -200.2364462
47.15252821 -2.040991425 -250
-7.578558188e-05 11.11686977 23.7330958
201.7411312 -1.55250226e-05 76.0089371
152.9323972 -1.55250226e-05 28.7891223
-7.578558188e-05 83.31113227 221.7333657
-7.578558188e-05 195.8352013 -23.4842496
61.36209021 229.2303333 -250
59.44738821 110.5747685 -250
-7.578558188e-05 220.5792885 -236.5806065
-7.578558188e-05 183.5141283 36.4416009
72.22401721 -1.55250226e-05 -1.5121011
205.8632722 -1.55250226e-05 95.0360551
-7.578558188e-05 216.7726697 -65.4951666
205.4124022 -1.55250226e-05 109.6561675
140.1032672 158.0156077 -250
17.50119221 -1.55250226e-05 -56.1548103
113.8284142 -1.55250226e-05 -237.24418
76.78200121 -1.55250226e-05 -28.5014033
208.6008122 -1.55250226e-05 199.3986728
197.7900602 -1.55250226e-05 31.5065521
-7.578558188e-05 113.6766167 -125.5593535
38.09611221 -1.55250226e-05 -119.9394633
72.43716321 -1.55250226e-05 200.7562811
249.5665742 -1.55250226e-05 139.1297986
65.28168721 -1.55250226e-05 122.3922611
-7.578558188e-05 242.5036197 63.8508688
-7.578558188e-05 171.5901027 -238.1166024
38.13980921 -1.55250226e-05 90.2699634
246.6219962 -1.55250226e-05 216.7970561
242.2111592 11.05474957 -250
-7.578558188e-05 218.2719681 14.8660011
229.1545922 -1.55250226e-05 -178.1036212
-7.578558188e-05 164.35033 -168.6802466
174.7832582 -1.55250226e-05 -231.2019691
27.61426221 -1.55250226e-05 121.2987341
152.0032582 -1.55250226e-05 71.8702798
-7.578558188e-05 173.9370426 26.050399
17.05743921 -1.55250226e-05 -220.4963158
243.2954082 -1.55250226e-05 -187.3456542
193.8335382 -1.55250226e-05 153.1295855
234.4343002 -1.55250226e-05 194.095997
152.7156912 110.2513745 -250
-7.578558188e-05 101.3467075 -214.4349897
-7.578558188e-05 72.95521517 -202.9129332
-7.578558188e-05 11.34937467 180.8219644
10.29418421 -1.55250226e-05 -164.112016
-7.578558188e-05 61.17900557 -47.0680477
4.352003214 32.34348147 -250
105.4268022 171.2704557 -250
35.05557721 156.7583235 -250
63.09605021 172.621494 -250
-7.578558188e-05 170.4907609 199.5540139
-7.578558188e-05 191.8805996 2.3192793
-7.578558188e-05 217.8810702 122.8183042
-7.578558188e-05 14.12037547 83.0978591
177.4152392 120.3379411 -250
172.8150682 -1.55250226e-05 212.4934798
-7.578558188e-05 175.2399529 -30.7453259
69.75720921 -1.55250226e-05 -209.5994496
139.5946332 -1.55250226e-05 -136.6410144
-7.578558188e-05 246.5943829 96.5233317
-0.1501927856 -1.55250226e-05 -214.621238
228.0428082 -1.55250226e-05 223.4816142
215.8682592 -1.55250226e-05 -155.6525123
8.827099214 -1.55250226e-05 -137.6520382
-7.578558188e-05 149.7466897 -126.9559574
-7.578558188e-05 148.3435485 -15.9083089
133.0492902 -1.55250226e-05 -193.7287731
133.8573262 -1.55250226e-05 200.2534943
143.7667162 26.04057667 -250
-7.578558188e-05 10.01903627 -101.3145299
96.07081321 41.68308137 -250
171.8291982 -1.55250226e-05 -57.0959368
91.77002721 8.940531975 -250
152.6382502 -1.55250226e-05 -86.910737
229.2950522 14.75150177 -250
230.4340502 -1.55250226e-05 171.1098968
201.2291802 -1.55250226e-05 -91.1919236
69.40581321 -1.55250226e-05 -89.3003381
148.9303042 223.1343174 -250
-7.578558188e-05 67.59781847 207.8854305
223.6532762 -1.55250226e-05 -21.2519786
-7.578558188e-05 40.37436817 -88.175886
222.7060992 -1.55250226e-05 -140.1850927
153.4741282 -1.55250226e-05 100.0526922
3.108184214 -1.55250226e-05 -176.2501106
-7.578558188e-05 111.5101513 74.4303939
208.9660642 -1.55250226e-05 -18.9664021
70.18241921 82.67449567 -250
56.20289021 -1.55250226e-05 -158.801898
68.16564321 -1.55250226e-05 -192.6765545
183.9821262 -1.55250226e-05 81.4676231
102.7717432 -1.55250226e-05 -33.5369856
98.49679821 206.4782909 -250
-7.578558188e-05 143.9432348 109.8976219
-7.578558188e-05 157.8354294 -3.1128109
-7.578558188e-05 8.854174475 -116.9701124
151.5628872 -1.55250226e-05 -210.3902435
242.5759752 30.62796287 -250
38.56629221 -1.55250226e-05 224.0484455
-7.578558188e-05 106.9806391 130.8749208
76.70948821 96.57570157 -250
-7.578558188e-05 165.9598494 48.8181061
218.3897232 132.408928 -250
191.1315232 -1.55250226e-05 -217.0089148
218.3690272 -1.55250226e-05 -105.5853566
17.11984821 -1.55250226e-05 80.9921439
146.2402022 -1.55250226e-05 200.7692725
97.99476121 -1.55250226e-05 148.5609176
-7.578558188e-05 21.00503737 108.1840929
209.0366202 64.75685157 -250
-7.578558188e-05 230.9053207 70.148281
50.91370421 85.69863437 -250
176.6331332 179.9291669 -250
-7.578558188e-05 156.5838378 9.548545
105.3221162 -1.55250226e-05 208.440256
121.6324342 -1.55250226e-05 66.6695807
28.49981321 -1.55250226e-05 -78.5111431
200.9062232 -1.55250226e-05 -125.2273171
116.1516232 -1.55250226e-05 197.3364804
-7.578558188e-05 57.86993927 -67.7284201
-7.578558188e-05 236.1317518 142.6447761
189.0420722 -1.55250226e-05 166.4204556
86.04559021 -1.55250226e-05 151.1920469
167.4845972 -1.55250226e-05 2.2101145
-7.578558188e-05 35.23492607 6.9415516
-7.578558188e-05 238.4006057 -1.0658655
105.7238952 -1.55250226e-05 14.3828345
-7.578558188e-05 17.67642957 -38.3853399
-7.578558188e-05 20.66435267 188.237323
29.04607521 -1.55250226e-05 -102.34982
88.97795921 -1.55250226e-05 -170.6251576
-7.578558188e-05 12.23011117 212.2999251
-7.578558188e-05 59.74157557 -131.0352845
-7.578558188e-05 229.2090562 -79.737943
93.52748621 -1.55250226e-05 124.1599323
-7.578558188e-05 111.3427457 9.2849577
37.95218621 -1.55250226e-05 -207.8800789
-7.578558188e-05 224.0526746 -21.6617459
226.6329172 104.8542904 -250
68.20452421 -1.55250226e-05 44.8684468
132.4144752 -1.55250226e-05 -9.4378436
-7.578558188e-05 200.5930437 105.4054751
-7.578558188e-05 171.958381 234.2952552
180.8813742 56.94104507 -250
-7.578558188e-05 99.74393057 -176.6386228
2.953052214 -1.55250226e-05 190.4320256
-7.578558188e-05 166.6356174 -218.2876523
35.54412921 -1.55250226e-05 182.858589
252.4239482 -1.55250226e-05 112.7403572
-7.578558188e-05 204.9633322 -213.2023375
-7.578558188e-05 25.11789827 -97.3803724
-7.578558188e-05 120.6801095 -158.6810843
-7.578558188e-05 86.45151927 151.4522939
-7.578558188e-05 175.6826287 -135.26678
23.62680521 -1.55250226e-05 -144.690485
86.44303121 107.1019519 -250
-7.578558188e-05 222.9490003 40.3819878
177.8321022 -1.55250226e-05 115.8384401
-7.578558188e-05 81.54180907 -31.8572252
182.9446402 -1.55250226e-05 99.0703134
-7.578558188e-05 144.710074 40.5600714
-7.578558188e-05 164.231188 -84.3898285
20.14619521 -1.55250226e-05 111.0285342
12.54360521 -1.426112525 250
190.0721042 -1.55250226e-05 -34.4919169
193.0815942 -1.55250226e-05 -148.7024363
-7.578558188e-05 163.7396888 -110.3544458
16.88209421 -1.55250226e-05 -79.5834634
-7.578558188e-05 90.36099197 94.9339387
-7.578558188e-05 143.4168485 -4.3011968
156.0496802 -1.55250226e-05 -231.9648841
176.0379662 80.51518057 -250
-7.578558188e-05 248.0408461 83.754668
-7.578558188e-05 207.1142934 41.2404371
-7.578558188e-05 116.9398112 -43.4950755
217.7352302 -1.55250226e-05 155.3854584
-7.578558188e-05 106.1847087 -100.7400587
-7.578558188e-05 89.76224447 76.0150416
-7.578558188e-05 236.2691673 -111.6042005
229.0461782 -1.55250226e-05 4.0725002
-7.578558188e-05 110.5445865 -198.80326
-7.578558188e-05 152.1434613 157.4334814
65.04105321 -1.55250226e-05 168.6702626
210.3409062 95.61402337 -250
-7.578558188e-05 128.706443 177.624485
183.1834652 106.0936361 -250
198.6579602 247.2961361 -250
-7.578558188e-05 215.6763145 195.3755079
32.85967221 -1.55250226e-05 -18.1793483
163.1158012 -1.55250226e-05 156.2364051
-7.578558188e-05 130.7116989 -241.0595876
90.33496321 -1.55250226e-05 51.718866
-7.578558188e-05 196.3136486 -152.2211261
-1.804922786 -1.55250226e-05 64.125084
-7.578558188e-05 86.44057687 -199.9394843
213.7309462 40.49953157 -250
69.83074621 -1.55250226e-05 185.4081475
-7.578558188e-05 118.3853231 -238.4201745
34.46685421 132.3109465 -250
-7.578558188e-05 223.1999656 138.8475254
24.13710621 -1.55250226e-05 205.5005013
130.4006172 205.6342292 -250
47.72860421 214.427526 -250
-7.578558188e-05 103.7867442 -61.6282172
210.2534262 -1.55250226e-05 249.7444601
63.94428921 -1.55250226e-05 -34.5745227
-7.578558188e-05 70.70678037 18.6110862
-7.578558188e-05 70.94983847 103.9197886
-1.439313786 225.2970574 250
201.8653282 -1.55250226e-05 -226.9680019
-7.578558188e-05 174.2932135 -198.5101654
-7.578558188e-05 177.7704789 -91.2218066
-1.228569786 76.42625377 -250
12.75921421 124.4000493 -250
51.02344321 151.0080181 -250
-7.578558188e-05 31.77129607 -37.6374273
-7.578558188e-05 235.3336286 -216.3116557
160.5421322 40.60964357 -250
-7.578558188e-05 42.17846917 121.8098966
-7.578558188e-05 169.4422715 133.9588058
-7.578558188e-05 140.9844252 -192.3426903
157.9572052 -1.55250226e-05 -156.1327499
-7.578558188e-05 75.62385457 54.9911988
191.0887922 166.7058668 -250
-7.578558188e-05 200.6846811 -183.8906238
130.3779032 -1.55250226e-05 -37.3032873
248.0353302 -1.55250226e-05 -54.2362351
181.1012812 -1.55250226e-05 33.7516793
122.9588222 60.17129127 -250
135.3947852 -1.55250226e-05 152.4181475
-7.578558188e-05 193.6945635 81.895746
-7.578558188e-05 174.4850541 167.6605787
52.16791621 -1.55250226e-05 -96.3994021
80.34293421 44.51586447 -250
63.62950321 65.26969707 -250
87.70063821 67.09310727 -250
164.8990512 168.7685276 -250
-7.578558188e-05 246.5516088 -204.2454438
-7.578558188e-05 135.4104798 -173.3772561
-7.578558188e-05 121.5918189 113.1093015
-7.578558188e-05 205.4741653 -0.3173983
205.3298112 -1.55250226e-05 -8.2037483
-7.578558188e-05 228.0075909 81.0578455
217.5903472 172.6707172 -250
238.1746512 -1.55250226e-05 69.5606134
-7.578558188e-05 236.9059397 120.3665492
97.51584921 -1.55250226e-05 187.1053037
122.4072722 -1.55250226e-05 -25.6674185
19.51292521 -1.55250226e-05 -240.2088352
-7.578558188e-05 64.95386847 -185.0981352
-7.578558188e-05 17.50437887 -132.913301
-7.578558188e-05 74.09444587 -216.3443947
237.5291682 183.1495661 -250
-7.578558188e-05 98.18237067 -163.3836119
72.46837021 -1.55250226e-05 -169.2221172
82.07695921 251.9826258 -250
147.9874102 -1.55250226e-05 -53.1967436
-7.578558188e-05 238.0095667 230.0039802
8.113113214 197.7459752 -250
88.63766321 -1.55250226e-05 177.4027554
-7.578558188e-05 195.1953573 -123.4196415
-7.578558188e-05 20.70301987 -207.6219952
-7.578558188e-05 151.497354 -67.873811
-7.578558188e-05 249.8724904 -149.973689
42.37245021 -1.55250226e-05 -78.6442454
83.12314321 -1.55250226e-05 -109.788715
1.470329214 -1.55250226e-05 123.1161389
-7.578558188e-05 208.9740022 65.3557804
-7.578558188e-05 121.7103479 -9.0603788
-7.578558188e-05 240.4655074 155.0069936
131.4134822 238.7648507 -250
79.07674821 -1.55250226e-05 -97.4520756
-7.578558188e-05 21.72690797 13.5058668
49.08794821 -1.55250226e-05 -167.4036801
-7.578558188e-05 67.83445517 -73.2147653
-7.578558188e-05 52.62701197 40.2602832
-0.8087307856 207.3512048 -250
-1.497494786 -1.55250226e-05 97.8232291
44.16966621 -1.55250226e-05 162.2235711
124.8883532 -1.55250226e-05 -235.9957822
-7.578558188e-05 98.49080047 189.4404096
43.89216521 -1.55250226e-05 54.0903062
101.8730772 -1.55250226e-05 134.2503352
35.82602721 -1.55250226e-05 4.755552
-7.578558188e-05 128.8772658 25.8667479
-7.578558188e-05 110.8335838 38.3755482
204.9152682 -1.55250226e-05 160.9394211
11.93392421 -1.55250226e-05 -46.5882904
-7.578558188e-05 77.23803387 -11.2642801
145.7174992 -1.55250226e-05 -162.9515164
-7.578558188e-05 153.0535828 -202.6631124
32.21737421 -1.55250226e-05 152.1503925
76.48915621 -1.55250226e-05 77.1261269
118.2399982 145.8810874 -250
205.8659892 -1.55250226e-05 -147.9293651
-7.578558188e-05 238.7539074 -74.199813
186.2871792 127.6284871 -250
232.5894502 161.4902097 -250
-7.578558188e-05 240.2576121 -179.2141617
172.2016052 -1.55250226e-05 166.579221
-7.578558188e-05 1.020552775 200.9984038
139.9554842 246.9921815 -250
186.3875032 40.03779867 -250
69.96388121 -1.55250226e-05 -244.4689339
34.43021021 72.80764537 -250
93.58869321 81.82136207 -250
215.6675452 -1.55250226e-05 71.32742
92.25706921 -1.55250226e-05 -155.9634893
-7.578558188e-05 52.63537937 187.9376178
-7.578558188e-05 48.36866857 -132.4354687
-7.578558188e-05 156.1993042 37.7841588
-7.578558188e-05 143.3451927 54.6950511
9.932018214 -1.55250226e-05 -20.2542451
245.4778032 -1.55250226e-05 85.9538417
224.2258052 -1.55250226e-05 198.1832063
110.3935002 10.50556587 -250
-7.578558188e-05 145.1940353 -227.3657376
-7.578558188e-05 248.1760474 210.5312213
-7.578558188e-05 29.67827847 249.400001
186.8791642 204.9439915 -250
-7.578558188e-05 209.979707 -174.0341958
-7.578558188e-05 68.74765007 -114.0064004
-7.578558188e-05 85.88239357 131.8592665
-7.578558188e-05 86.13119827 15.1706018
176.4069142 -1.55250226e-05 45.816123
232.5292412 -1.55250226e-05 102.8112056
61.67621421 -1.55250226e-05 -53.3090058
-7.578558188e-05 194.4057072 -198.0245354
114.8129622 -1.55250226e-05 213.6617462
250.4194072 -1.55250226e-05 229.295241
-7.578558188e-05 178.1928798 -69.1555689
103.8346632 -1.55250226e-05 -136.6669058
-7.578558188e-05 23.76544037 -185.9463843
-7.578558188e-05 121.542867 -66.2494671
-7.578558188e-05 45.67061217 49.9686215
98.31593521 -1.55250226e-05 -16.5499706
143.2108232 -1.55250226e-05 -66.5141156
-7.578558188e-05 153.2168092 -169.492271
148.2262692 -1.55250226e-05 61.774356
60.98909421 -1.55250226e-05 -184.4994646
-7.578558188e-05 59.74533807 4.8189915
214.5585842 217.5714687 -250
-7.578558188e-05 46.87541347 102.438841
-7.578558188e-05 63.36349527 247.7179384
175.3723702 14.87018357 -250
13.58034421 -1.55250226e-05 -205.803738
-7.578558188e-05 219.285221 -211.9650644
-7.578558188e-05 164.8792375 95.6852367
139.7622782 -1.55250226e-05 115.9478441
156.1335262 -1.55250226e-05 196.6281924
-7.578558188e-05 108.7143829 -83.2869049
-7.578558188e-05 98.56793767 -228.5407744
-7.578558188e-05 132.5389836 8.0945609
-7.578558188e-05 228.9664718 -6.1433759
-7.578558188e-05 74.94387787 34.8837218
-7.578558188e-05 41.64575527 25.3512904
-7.578558188e-05 13.52965417 -240.2126802
37.04891021 58.49377767 -250
-7.578558188e-05 14.78938197 156.2931679
-7.578558188e-05 234.5147712 201.777428
118.0893622 -1.55250226e-05 5.6429525
145.9176772 -1.55250226e-05 89.4920325
234.1098032 150.9396458 -250
155.6349292 -1.55250226e-05 139.7373105
-7.578558188e-05 45.46534717 -39.7075672
215.3643752 -1.55250226e-05 -190.1690784
108.7203292 -1.55250226e-05 -112.8108768
-7.578558188e-05 209.8242099 232.1969941
-7.578558188e-05 179.6601035 81.4529823
-0.9397227856 -1.55250226e-05 75.9707679
-7.578558188e-05 188.4533933 145.7340616
240.3153602 -1.55250226e-05 -87.8781639
36.17902421 -1.55250226e-05 127.5786872
-7.578558188e-05 44.37985767 194.6187901
-7.578558188e-05 52.19348757 168.0822196
36.88065221 -1.55250226e-05 -147.0736001
52.05059121 -1.55250226e-05 -110.7267816
111.3156722 -1.55250226e-05 -157.0199271
245.3100862 -1.55250226e-05 -159.7249232
246.7606922 134.238491 -250
11.11207521 -1.55250226e-05 181.7132217
147.8461022 -1.55250226e-05 -109.4985713
-7.578558188e-05 189.4423848 -230.4259792
54.08002221 -1.55250226e-05 73.9181811
-7.578558188e-05 131.3890746 79.8364158
93.75501921 -1.55250226e-05 64.5353075
165.1425202 -1.55250226e-05 118.155384
135.6307682 69.72917257 -250
225.6029522 -1.55250226e-05 131.3124214
-7.578558188e-05 95.92791997 -135.8306194
-7.578558188e-05 57.84472667 26.0035377
-7.578558188e-05 151.8245964 -90.3654557
167.7584632 -1.55250226e-05 -45.0073874
-7.578558188e-05 55.52400927 -240.3948775
-7.578558188e-05 252.0580855 6.5999227
245.9232982 56.16084117 -250
109.1727812 -1.55250226e-05 77.5076859
216.5681912 -1.55250226e-05 -83.582674
231.0789842 -1.55250226e-05 -94.899089
231.2676302 40.06735047 -250
31.52564721 -1.55250226e-05 -222.2404715
-7.578558188e-05 103.4983607 -24.9389858
150.5814392 61.14725887 -250
156.2851842 -1.55250226e-05 220.6363369
53.26525521 -1.55250226e-05 -22.1094447
-7.578558188e-05 89.96172547 213.6241242
174.6624902 143.0568104 -250
-7.578558188e-05 78.78582517 -54.416268
210.1688082 -1.55250226e-05 19.6776864
98.39928221 133.3837578 -250
202.4756182 -1.55250226e-05 187.5179491
-7.578558188e-05 110.1408345 198.888109
-7.578558188e-05 240.0124688 -131.0842217
48.45226521 40.38188147 -250
-7.578558188e-05 99.07781467 -240.0666704
112.4442192 -1.55250226e-05 -175.1416265
225.4371562 -2.337650225 250
10.72381821 -1.55250226e-05 17.4400975
-7.578558188e-05 184.1174741 100.7363302
9.584867214 -1.55250226e-05 40.3231244
47.97872921 -1.55250226e-05 -204.9132346
-7.578558188e-05 138.4323437 -136.317401
166.7199732 127.4173468 -250
207.7223562 -1.55250226e-05 139.2981991
52.86827021 -1.55250226e-05 -75.7206005
145.8336372 -1.55250226e-05 5.7208935
-7.578558188e-05 118.0482631 -219.4012782
-0.2926587856 229.2450985 -250
-7.578558188e-05 154.1348118 -236.4082265
-7.578558188e-05 125.8198557 99.9214772
-2.473033786 -1.55250226e-05 -90.1592833
215.1963512 -1.55250226e-05 -37.0574433
-7.578558188e-05 9.751280875 -218.2386091
42.51276921 -1.55250226e-05 106.0186591
128.1868172 226.5749479 -250
-7.578558188e-05 56.13135867 -105.5448742
155.5479322 192.4861788 -250
20.41457821 -1.55250226e-05 -161.8625265
165.7385802 222.0480673 -250
165.4324102 -1.55250226e-05 -212.858045
47.24532921 56.38708297 -250
77.65539321 -1.55250226e-05 230.1676071
-7.578558188e-05 121.7676961 -20.9999515
102.3158552 -1.55250226e-05 -102.3642857
-7.578558188e-05 157.0435738 239.011012
134.3466812 -1.55250226e-05 216.5437457
-7.578558188e-05 72.04539127 218.1748235
89.69799721 -1.55250226e-05 -70.5579069
113.7674302 -1.55250226e-05 234.134702
-7.578558188e-05 208.2195846 98.1465867
230.7724972 -1.55250226e-05 114.3451225
211.2583212 -1.55250226e-05 -127.1491246
-7.578558188e-05 23.96606377 130.9246441
-7.578558188e-05 39.42841537 81.711444
-7.578558188e-05 23.04547017 176.2766981
240.2694492 -0.610737525 -250
240.7486582 -1.55250226e-05 153.6355609
-7.578558188e-05 187.4397689 243.0192596
-7.578558188e-05 215.231459 206.7854813
62.93660921 -1.55250226e-05 154.2560356
33.12832621 211.7077604 -250
-7.578558188e-05 122.2327707 -228.8824581
66.94707221 195.4634754 -250
-7.578558188e-05 231.2085721 216.0515433
-7.578558188e-05 48.10594437 -62.5840533
95.72374921 -1.55250226e-05 84.7240236
181.7346462 234.3758163 -250
-7.578558188e-05 76.99821777 -229.9739755
222.5656222 7.020626275 -250
88.25750821 -1.55250226e-05 38.0054951
151.4037382 233.9094232 -250
198.5748712 202.8362302 -250
-7.578558188e-05 214.4313599 172.4796213
208.6827802 -1.55250226e-05 230.8639228
-7.578558188e-05 65.71031637 -27.1189589
125.2538392 -1.55250226e-05 -207.0116454
65.57566721 -1.55250226e-05 26.7083339
-7.578558188e-05 15.52897027 -4.0349829
103.3714492 98.15385247 -250
-7.578558188e-05 73.33676927 -131.0231602
130.6808052 -1.55250226e-05 30.6374159
47.79384821 184.3535415 -250
162.6460582 -1.55250226e-05 -61.4273241
161.7678312 -1.55250226e-05 -165.5411762
29.18672321 189.1546652 -250
78.65829721 196.6055727 -250
250.7760862 -1.55250226e-05 -96.7398961
188.6457392 -1.55250226e-05 230.2739863
40.83183921 -1.55250226e-05 -180.9849199
-7.578558188e-05 13.57163277 41.5446479
-7.578558188e-05 177.5655122 -170.0924547
100.3570462 230.1006539 -250
20.39480821 -1.55250226e-05 153.9644359
53.65123521 -1.55250226e-05 140.4385511
116.9800272 -1.55250226e-05 -5.0369936
129.7036402 124.1267386 -250
44.08100221 -1.55250226e-05 -156.88006
-7.578558188e-05 219.1288226 -178.2533431
72.49733721 -1.55250226e-05 -18.180863
-7.578558188e-05 48.79971857 -25.6630796
230.6804482 -1.55250226e-05 -219.7679373
247.0144372 -1.55250226e-05 -75.5044183
-7.578558188e-05 173.075085 -227.0916111
146.3946282 -1.55250226e-05 -237.6414311
182.8866222 -1.55250226e-05 -68.1009509
236.8833902 -1.55250226e-05 -200.4741248
216.2021162 240.4997201 -250
-7.578558188e-05 202.4730238 -94.920175
174.5798782 -1.55250226e-05 -201.1305341
-7.578558188e-05 185.4131451 121.0561678
137.0502922 100.9876803 -250
-7.578558188e-05 92.01548877 -39.6316453
96.73006921 -1.55250226e-05 -51.9010911
71.74801921 -1.55250226e-05 -56.6567048
110.7871782 222.1811351 -250
-7.578558188e-05 141.2408996 19.6481954
158.9226352 245.9075233 -250
-7.578558188e-05 98.82918377 237.4685862
17.90170121 238.9370359 -250
-7.578558188e-05 139.6460351 172.5247459
-7.578558188e-05 115.5652484 63.7252829
-7.578558188e-05 161.6308784 204.1628742
130.9969002 144.7073681 -250
-7.578558188e-05 35.02859447 -240.0852707
97.94517621 -1.55250226e-05 231.1676948
87.52357021 204.8935362 -250
131.3661642 -1.55250226e-05 -223.9042795
252.2957902 -1.55250226e-05 -210.5387808
106.0898302 65.13863857 -250
67.59484821 242.3158419 -250
-7.578558188e-05 53.83809477 71.7800705
-7.578558188e-05 176.7024251 -45.2659718
83.09191921 -1.55250226e-05 -36.1869705
193.7333452 -1.55250226e-05 216.488223
-7.578558188e-05 179.677611 186.9630381
-7.578558188e-05 138.6696695 -163.9449217
150.8997142 202.545821 -250
126.7849732 -1.55250226e-05 -52.1869162
84.28827121 -1.55250226e-05 83.2443257
-7.578558188e-05 100.7958125 115.6778568
240.3359532 -1.55250226e-05 170.837349
-7.578558188e-05 206.1191183 188.0747715
-7.578558188e-05 239.7706444 45.800759
-7.578558188e-05 155.6280501 177.2717363
131.6992692 -1.55250226e-05 12.6205548
-7.578558188e-05 225.7138535 -43.6738106
1.722239214 -1.55250226e-05 54.6792332
-7.578558188e-05 185.9988896 -22.7931659
166.1829412 -1.55250226e-05 51.2721493
-7.578558188e-05 36.41448067 -193.6228646
131.7810182 -1.55250226e-05 176.895123
-7.578558188e-05 96.81961137 131.7050386
235.6250432 -1.55250226e-05 -61.9881908
233.4976582 -1.55250226e-05 -21.4623087
-7.578558188e-05 240.6375983 13.0252285
-7.578558188e-05 46.37389407 -179.6333117
168.0223062 -1.55250226e-05 -142.4289936
20.28160021 -0.380762925 -250
-7.578558188e-05 118.5940363 44.3938135
229.7483582 115.4031691 -250
229.4097052 -1.55250226e-05 64.3728789
238.3742822 129.1460358 -250
-7.578558188e-05 14.42766777 118.390429
-7.578558188e-05 89.20575167 -21.4482673
-7.578558188e-05 65.94611807 143.5874606
166.2463742 73.58915917 -250
109.8716802 -1.55250226e-05 -83.2229253
17.76294921 -1.55250226e-05 -106.9792293
8.212487214 -1.55250226e-05 -232.5447132
73.74546521 -1.55250226e-05 -118.8240776
-7.578558188e-05 15.51991637 -47.9200726
-7.578558188e-05 21.31423127 236.0095551
74.05270321 -1.55250226e-05 -146.3407608
92.78852921 186.3923899 -250
-7.578558188e-05 146.6566221 248.1104323
-7.578558188e-05 239.248344 166.2847376
206.6819862 -1.55250226e-05 67.5288604
220.6608642 -1.55250226e-05 -115.0538234
-7.578558188e-05 228.164564 -196.7556676
191.2982972 -1.55250226e-05 11.6485018
-7.578558188e-05 167.6161471 -4.3143374
-7.578558188e-05 194.2404234 -141.5603127
-7.578558188e-05 210.0407588 20.0725676
103.3188272 81.84967337 -250
-0.9340357856 145.6081334 -250
234.8732412 -1.55250226e-05 19.5347488
-7.578558188e-05 233.7785682 -241.409966
-7.578558188e-05 140.1053534 -109.6587599
250.5846052 88.16185697 -250
-7.578558188e-05 127.8953568 166.7465243
129.1254072 165.4393545 -250
9.335321214 114.6886583 -250
-7.578558188e-05 247.4952961 -162.7754704
-7.578558188e-05 96.39561747 157.0566988
-7.578558188e-05 236.0451172 189.3965114
-7.578558188e-05 187.0897857 -43.8870322
142.0861802 53.49031507 -250
59.19362221 120.262826 -250
-7.578558188e-05 85.32843067 58.550692
52.66247821 98.52809897 -250
232.9394512 -1.55250226e-05 49.0118199
112.0208812 -2.411511625 -250
60.31522521 -1.55250226e-05 109.0987158
183.3166272 -1.55250226e-05 -114.4816095
206.4436912 -1.55250226e-05 -30.0898169
86.19763521 149.4120701 -250
-7.578558188e-05 161.9517299 -151.2681379
226.0437482 -1.55250226e-05 232.9401422
139.1656002 -1.55250226e-05 246.5826239
-7.578558188e-05 24.45056607 -57.6913429
210.5526512 -1.55250226e-05 -169.8823488
80.51504821 -1.55250226e-05 -241.0004672
166.2212692 -1.55250226e-05 98.9782416
240.8896602 141.899686 -250
192.5330212 -1.55250226e-05 182.6595526
-7.578558188e-05 26.59039957 -115.7074682
-7.578558188e-05 179.5824478 133.5190166
184.8932332 149.556823 -250
-7.578558188e-05 211.6300037 109.9601486
8.062200214 -1.55250226e-05 109.083487
0.6127642144 22.19403237 -250
221.2143362 -1.55250226e-05 119.3161309
-7.578558188e-05 90.64620217 40.1402885
-7.578558188e-05 105.6454658 59.0818848
-7.578558188e-05 209.5489547 -108.6899319
-0.4708457856 165.7511708 -250
-7.578558188e-05 121.3065509 -188.809344
53.31852521 -1.55250226e-05 -139.7747144
113.2191432 -1.55250226e-05 246.5197136
70.03528621 166.031524 -250
81.96799521 -1.55250226e-05 159.9262319
234.2170972 99.01972487 -250
216.8023132 -1.55250226e-05 27.614777
-7.578558188e-05 209.4974358 -21.4391852
43.13517121 -1.55250226e-05 76.5072502
-7.578558188e-05 122.9077252 201.6628377
169.8637272 94.00361257 -250
-7.578558188e-05 180.9189697 -234.7369348
204.0802282 -1.55250226e-05 -240.8064857
252.2554192 -1.55250226e-05 238.6595524
-7.578558188e-05 11.15495167 -143.1669104
98.77355921 -1.55250226e-05 248.6341555
75.04867921 31.46885807 -250
97.54732021 -1.55250226e-05 40.1480805
120.2836112 242.6552513 -250
-7.578558188e-05 31.61994137 -65.4950185
-7.578558188e-05 155.2459898 -45.696802
-7.578558188e-05 101.6907524 -52.3463209
96.43109421 -1.55250226e-05 -62.5910052
-7.578558188e-05 247.5691956 137.3459871
83.07531921 -1.55250226e-05 -51.4274253
-7.578558188e-05 26.89263487 25.7619931
89.84420921 -1.55250226e-05 -219.9982482
53.46794421 65.79248947 -250
-7.578558188e-05 176.757264 209.2392183
25.46718521 107.3198026 -250
118.4606292 35.28151897 -250
-7.578558188e-05 119.1402186 -104.3778722
150.3449932 46.22829607 -250
196.6171042 6.425773575 -250
-7.578558188e-05 226.1297314 20.1168944
237.4910582 -1.55250226e-05 206.2003629
219.6028742 196.942042 -250
-7.578558188e-05 130.9718612 -65.7019513
-7.578558188e-05 227.47454 119.952663
13.65855421 225.2682656 -250
169.0697102 240.1097912 -250
16.63308821 34.55254507 -250
-0.2307577856 -1.55250226e-05 -101.1864848
210.5489792 180.7953517 -250
124.1628702 -1.55250226e-05 -196.852813
197.8611312 23.68014467 -250
78.79973721 162.1740528 -250
241.4147842 -1.55250226e-05 134.4653329
85.62093521 87.59490037 -250
-7.578558188e-05 173.2085252 -189.0610457
106.7660312 -1.55250226e-05 185.5356437
-7.578558188e-05 23.87181467 86.0701465
75.29034321 -1.55250226e-05 134.7265978
-7.578558188e-05 181.3658899 10.2616397
79.57478621 -1.55250226e-05 6.064254
224.4650122 233.5354574 -250
-7.578558188e-05 105.9099951 -168.6780837
-7.578558188e-05 148.5587512 139.7499159
180.0516672 -1.55250226e-05 -150.6059365
-7.578558188e-05 79.03999757 -179.7820119
134.4729482 132.1776314 -250
-7.578558188e-05 192.5850664 23.7975546
-7.578558188e-05 8.700955275 222.5835608
-7.578558188e-05 54.59107197 208.3791973
92.90482921 -1.55250226e-05 -235.2995544
-7.578558188e-05 40.70951727 167.6940269
210.7878822 -1.55250226e-05 -74.5756548
-7.578558188e-05 29.51340037 141.6007104
-7.578558188e-05 59.51572127 95.2391725
-7.578558188e-05 210.6607675 9.4512838
-7.578558188e-05 192.1335539 13.8591867
-7.578558188e-05 135.8963951 -213.824644
196.0961632 -1.55250226e-05 100.0930791
-7.578558188e-05 48.82155767 -8.0193052
83.21018121 128.2396656 -250
126.9754922 174.7022552 -250
13.52283321 -1.55250226e-05 224.3206833
72.79221521 -1.55250226e-05 -231.0789116
120.9498012 -1.55250226e-05 -34.862457
174.2524792 -1.55250226e-05 196.649272
-7.578558188e-05 66.09499987 -196.6199968
225.5359132 214.7100075 -250
195.8253882 -1.55250226e-05 -234.0490685
172.7719332 -1.55250226e-05 -222.0092409
157.2729732 163.4400757 -250
-7.578558188e-05 188.1274835 -84.0199137
-7.578558188e-05 94.04348397 -117.0931555
203.2313492 -1.55250226e-05 217.3673895
247.3588572 -1.55250226e-05 -241.9329281
-7.578558188e-05 192.0528632 -187.9833378
206.0834092 -1.55250226e-05 178.9638353
-7.578558188e-05 17.35311987 -123.632355
16.22263121 142.2652553 -250
-7.578558188e-05 206.2653659 -80.0358901
-7.578558188e-05 238.9139807 -56.3595105
137.2899762 -1.55250226e-05 -205.9334578
82.13656721 231.6194243 -250
161.2331602 -1.55250226e-05 75.4206266
-7.578558188e-05 66.16009497 194.6706388
81.73088921 18.99502467 -250
-7.578558188e-05 249.6702395 -243.6342669
-7.578558188e-05 240.0798356 -196.5598186
-7.578558188e-05 212.9972806 137.409511
96.35162421 -1.55250226e-05 98.8395682
-7.578558188e-05 56.53450767 225.7478991
246.1130892 -1.55250226e-05 56.0551025
238.2726082 -1.55250226e-05 -72.4628116
-7.578558188e-05 129.2838718 145.7845365
97.10105321 -1.55250226e-05 109.4611593
-7.578558188e-05 112.6961896 -19.2422257
-7.578558188e-05 138.4448005 215.4849018
131.0126282 16.88741307 -250
-7.578558188e-05 188.1664759 219.6667746
42.46556521 77.35814967 -250
190.8587712 -1.55250226e-05 121.2178521
-7.578558188e-05 201.807874 210.033205
148.9552312 89.19770007 -250
250.1327952 237.1680919 -250
176.1867302 -1.55250226e-05 -48.9814788
225.5202352 182.4982665 -250
-7.578558188e-05 130.5234782 135.5556739
112.8812622 -1.55250226e-05 -29.709139
112.0677602 -1.55250226e-05 -65.6945468
112.0771042 19.53467467 -250
-1.563155786 -1.55250226e-05 -156.2622522
151.5980912 -1.55250226e-05 240.9616057
205.0472812 37.54431697 -250
-7.578558188e-05 213.0085561 -153.6714131
46.47473521 196.2740299 -250
-7.578558188e-05 180.610527 110.8717227
-7.578558188e-05 71.02677717 162.2659964
58.26535621 252.3177932 -250
19.19480721 -1.55250226e-05 -88.8454753
62.14171121 -1.55250226e-05 -127.3859288
-0.5155117856 65.49312857 -250
211.5848262 143.9059567 -250
-7.578558188e-05 242.9145395 113.4642748
-7.578558188e-05 94.83457267 -206.6623034
55.29556821 -1.55250226e-05 -210.3855595
-7.578558188e-05 212.0309611 -239.9720582
68.22397121 186.420082 -250
174.8587472 -1.55250226e-05 -81.9334871
127.0805792 -1.55250226e-05 104.118947
-7.578558188e-05 210.8481786 -139.004638
-7.578558188e-05 24.29009647 196.5906483
-7.578558188e-05 30.95605837 209.8477834
187.9059302 -0.740203525 -250
119.8861242 -1.55250226e-05 -115.5178675
123.2326542 -1.55250226e-05 239.1948636
80.02010121 -1.55250226e-05 45.7532998
-7.578558188e-05 135.0792325 99.9110237
172.9940872 -1.55250226e-05 -243.8780183
-7.578558188e-05 31.20473597 69.2127897
111.0351022 -1.55250226e-05 124.6296338
16.36240821 -1.55250226e-05 -125.8929392
-7.578558188e-05 127.9674152 121.9365025
38.81640221 7.417367775 -250
162.2497072 -1.55250226e-05 210.7873882
135.6233362 -1.55250226e-05 107.1112079
-7.578558188e-05 173.6292469 -150.550639
29.59094621 -1.55250226e-05 241.1572121
-7.578558188e-05 20.84308997 -79.9724005
-7.578558188e-05 248.8613095 159.7171211
-7.578558188e-05 233.872629 -37.5315034
-7.578558188e-05 240.4851144 -227.7663971
45.99437621 -1.55250226e-05 217.0968643
225.2011562 -1.55250226e-05 -149.9728319
101.8516502 185.91715 -250
-7.578558188e-05 80.21744517 -42.6372481
-7.578558188e-05 195.72049 202.7797167
93.20148021 169.0102211 -250
195.3469602 127.7656738 -250
-7.578558188e-05 201.736104 240.3575092
-7.578558188e-05 147.3400083 165.0475864
153.4315712 -1.55250226e-05 120.7074917
187.3239622 213.9328024 -250
-7.578558188e-05 116.879949 216.7279674
243.6023822 -1.55250226e-05 -107.3699711
146.6186272 -1.55250226e-05 -80.2321514
144.9337002 124.4209313 -250
-7.578558188e-05 39.34963937 140.5719064
-7.578558188e-05 66.26630377 -12.4347655
-7.578558188e-05 114.7537734 0.6665924
158.2581042 145.6094761 -250
38.09792421 -1.55250226e-05 -39.4087004
131.9950982 92.13991227 -250
27.03739221 92.60415267 -250
43.46767121 -1.55250226e-05 -61.755392
83.57829021 -1.55250226e-05 -189.2511985
10.19085321 -1.55250226e-05 -241.3026668
135.1703272 28.55192147 -250
-7.578558188e-05 119.4972713 -136.4911678
-7.578558188e-05 35.65795717 196.6111311
99.64521821 244.4602781 -250
-7.578558188e-05 174.1057128 45.1544425
-7.578558188e-05 89.44558997 3.2548291
196.8798292 -1.55250226e-05 -179.16719
206.1201412 -1.234954325 -250
118.2006792 251.4914902 -250
51.94730121 222.2662214 -250
-1.880458786 -1.55250226e-05 142.9196411
144.2164122 -1.55250226e-05 -18.5161409
-7.578558188e-05 124.6076074 -173.7418822
-7.578558188e-05 195.333749 66.6698069
52.24522921 171.4445282 -250
215.3263052 164.0790941 -250
52.52057221 -1.55250226e-05 -10.5743796
224.4005052 -1.55250226e-05 34.8884125
-7.578558188e-05 187.4607345 88.2226223
-7.578558188e-05 21.12723107 -229.9541817
115.4403692 -1.55250226e-05 86.3060241
221.0937342 -1.55250226e-05 -232.5522047
-7.578558188e-05 95.09313187 174.6862168
35.11748021 240.5495219 -250
-7.578558188e-05 144.2281566 229.8606239
92.44766821 -1.55250226e-05 194.3657548
-7.578558188e-05 150.2052718 148.4347447
224.3447762 165.8606414 -250
201.8162342 -1.55250226e-05 -68.5371323
183.4761592 -1.55250226e-05 -204.5154073
111.0672972 114.7960251 -250
146.0135772 68.70530467 -250
-7.578558188e-05 114.5144343 82.7325374
-7.578558188e-05 48.82554387 -121.1021265
93.47633321 20.32213077 -250
-7.578558188e-05 28.80663437 98.3423832
117.4056862 -1.55250226e-05 144.2889607
82.63873821 -1.55250226e-05 -120.0399567
16.91424321 -1.55250226e-05 35.4503035
217.9625482 -1.55250226e-05 -199.8207059
-7.578558188e-05 120.0890731 -204.763711
10.82979821 -1.55250226e-05 -0.04020869996
189.8746092 231.0684846 -250
96.01481621 -1.55250226e-05 216.6270311
-7.578558188e-05 140.7544569 -32.9573915
148.8620422 -1.55250226e-05 -181.3627118
