# .PCD v0.7 - Point Cloud Data file format
VERSION 0.7
FIELDS x y z
SIZE 4 4 4
TYPE F F F
COUNT 1 1 1
WIDTH 1247
HEIGHT 1
VIEWPOINT 0 0 0 1 0 0 0
POINTS 1247
DATA ascii
167.2427803 1.064108801e-10 -133.861589
48.13128065 1.064108801e-10 -18.4868842
93.85978515 1.064108801e-10 -158.6481143
118.1633687 1.064108801e-10 -182.9575746
59.64595385 -76.7400774 -250
-3.364579362e-05 -244.9195009 -106.957964
142.0190455 1.064108801e-10 249.4410405
193.5988124 1.064108801e-10 80.04214
-3.364579362e-05 -82.3396434 -137.4066831
218.1951839 1.064108801e-10 -52.3574174
116.4597731 -225.6767491 -250
163.1631182 -175.6503269 -250
98.72720815 1.064108801e-10 -101.0409016
213.5584285 1.064108801e-10 21.7100481
-3.364579362e-05 -52.2163799 -147.7112107
231.4935931 1.064108801e-10 -209.6446798
-3.364579362e-05 -110.44672 67.7049175
14.83150045 -177.3151977 -250
-3.364579362e-05 -44.6096998 43.8895412
-3.364579362e-05 -36.2989009 249.1425852
79.58607635 1.064108801e-10 60.2320051
-3.364579362e-05 -79.2330226 57.456741
145.4854523 -35.2858114 -250
-3.364579362e-05 -18.9351779 -14.1896896
201.2602958 1.064108801e-10 -233.3098987
194.9421324 -141.5368345 -250
156.8832384 1.064108801e-10 -37.4727891
243.8013139 1.064108801e-10 57.6266447
218.3532717 1.064108801e-10 -138.2367769
250.1757278 1.064108801e-10 -8.2864489
222.920413 -33.0681637 -250
157.5714 1.064108801e-10 67.3438276
-3.364579362e-05 -233.7150025 203.8432938
-3.364579362e-05 -51.1707626 -0.2612975999
29.18668715 1.064108801e-10 101.2231397
163.6147165 1.064108801e-10 -238.974169
250.9651877 1.064108801e-10 208.7518252
149.7390936 1.064108801e-10 -174.3431488
-3.364579362e-05 -12.9303537 8.1019559
-3.364579362e-05 -29.414983 160.9720253
251.5689861 -41.4321195 -250
222.2602111 1.064108801e-10 108.7926113
137.4154113 -233.7911855 -250
-3.364579362e-05 -143.5520326 -140.6034636
51.92725615 -17.2124251 -250
16.12004625 1.064108801e-10 130.8047033
47.26998075 1.064108801e-10 113.8623072
-3.364579362e-05 -137.9498004 -236.7373484
-3.364579362e-05 -169.2900798 201.9002576
-2.384579746 1.064108801e-10 -97.110206
-3.364579362e-05 -38.6699349 73.8746996
37.38784415 1.064108801e-10 33.0058392
240.1889864 1.064108801e-10 92.8114183
160.3264793 1.064108801e-10 135.3534168
117.411931 1.064108801e-10 29.6618681
150.643636 1.064108801e-10 -75.3896965
-3.364579362e-05 -208.3698042 34.0641425
219.1637702 2.3965048 -250
-3.364579362e-05 -16.2317453 -77.0416884
128.1544267 1.064108801e-10 -71.2495926
-3.364579362e-05 -16.4346985 -32.9490612
200.7105982 1.064108801e-10 51.9160188
65.71104155 1.064108801e-10 -72.4435099
87.94765025 1.064108801e-10 -173.9738612
-3.364579362e-05 -233.8080309 -51.0029011
-3.364579362e-05 -85.7601857 -177.213686
179.0407126 1.064108801e-10 -203.7019094
65.34810155 -109.1450685 -250
229.69386 -13.0503788 -250
11.44439325 1.064108801e-10 -233.8936162
-3.364579362e-05 -44.8937652 -127.9343734
-3.364579362e-05 -22.7503572 183.4312599
160.8171125 -129.8931848 -250
-3.364579362e-05 -159.9913349 -81.8430875
-3.364579362e-05 -175.6808224 -24.4499168
-3.364579362e-05 -130.3644977 -9.4321216
-3.364579362e-05 -17.5717755 25.2057997
-3.364579362e-05 -92.2610571 -160.7126748
-3.364579362e-05 -13.6508174 43.2737848
236.4232129 1.064108801e-10 -145.8187789
-3.364579362e-05 -76.6405081 236.1479422
-3.364579362e-05 -7.5360714 236.3254081
-3.364579362e-05 -16.8972 131.1665067
-3.364579362e-05 -233.4263801 -246.9148192
134.2535397 1.064108801e-10 59.0201207
-3.364579362e-05 -190.9386996 -236.6872966
94.92335525 1.064108801e-10 -79.2686143
108.6348959 1.064108801e-10 -203.6618205
26.58373715 1.064108801e-10 -157.7700698
-3.364579362e-05 -236.0077493 100.6197607
148.6288853 1.064108801e-10 -230.9131312
155.3135174 1.064108801e-10 33.0558183
206.8077625 1.064108801e-10 93.8711509
251.9928802 1.064108801e-10 230.1089551
-3.364579362e-05 -106.5607209 169.1634567
-3.364579362e-05 -64.1786005 161.790705
125.706572 1.064108801e-10 -216.7802406
171.9547846 1.064108801e-10 -32.217863
159.7758932 -13.0518538 -250
180.0339274 -115.5956567 -250
-3.364579362e-05 -28.6814633 102.1569086
233.4303721 -74.5043612 -250
-3.364579362e-05 -237.7073663 240.0270345
-1.083612146 -144.9674127 250
14.00238475 1.064108801e-10 -209.3609225
-3.364579362e-05 -217.148796 -118.798344
40.43400915 1.064108801e-10 179.7145438
235.9861833 1.064108801e-10 43.8468134
-3.364579362e-05 -249.7091169 -219.9445603
-3.364579362e-05 -51.9307967 219.3999958
-3.364579362e-05 -100.6588348 88.2492964
-3.364579362e-05 -108.068082 119.9018737
174.5651512 1.064108801e-10 41.9651197
30.40562895 -188.642996 -250
40.97351915 1.064108801e-10 206.4661651
96.94694925 -49.5508217 -250
204.2616361 -61.2826876 -250
189.0351532 -160.1077548 -250
-3.364579362e-05 -110.5948242 201.6259713
137.607391 1.064108801e-10 126.6269055
33.53939715 1.064108801e-10 -95.5478903
-3.364579362e-05 -133.9448521 -208.8365057
-3.364579362e-05 -32.4206268 197.598286
119.7947595 1.064108801e-10 -130.2700013
-3.364579362e-05 -166.6099473 -247.7965419
169.35277 -75.350414 -250
-3.364579362e-05 -162.9473822 230.0183679
217.2198196 1.064108801e-10 -1.4770778
40.51823735 -6.0884374 -250
104.3762646 -113.714569 -250
73.20918305 1.064108801e-10 167.0938438
82.96594185 1.064108801e-10 -142.3830507
85.73890745 1.064108801e-10 152.7067861
-3.364579362e-05 -230.0865213 -195.839919
134.707132 1.064108801e-10 -1.6648776
-3.364579362e-05 -209.1658168 -184.5376599
154.8251598 1.064108801e-10 216.2688939
-3.364579362e-05 -208.7332864 180.5943394
-3.364579362e-05 -180.0583993 -220.1512346
-3.364579362e-05 -208.4314169 196.3690662
-2.016357846 -108.6293642 -250
-3.364579362e-05 -180.5918199 -69.104753
71.24173115 -170.1300129 -250
-3.364579362e-05 -198.532311 -120.3088101
-3.364579362e-05 -194.5956588 -170.1441552
66.46838165 1.064108801e-10 -101.9775862
238.7830157 1.064108801e-10 181.7917512
23.53988675 1.064108801e-10 233.6575869
191.0231763 1.064108801e-10 114.697515
-3.364579362e-05 -232.4058338 -69.234609
73.69777645 -136.1419493 -250
252.309785 -185.9676947 -250
34.87326625 1.064108801e-10 -125.6414372
99.91866915 1.064108801e-10 -57.2946896
162.8989601 1.064108801e-10 -7.0508366
-3.364579362e-05 -206.3062925 -147.2694257
233.6834625 1.064108801e-10 148.3345094
-3.364579362e-05 -36.6936378 -179.6017635
-3.364579362e-05 -55.077668 -107.3759902
181.1894828 1.064108801e-10 211.0231236
65.69216435 1.064108801e-10 -199.6662262
-3.364579362e-05 -193.8831503 -206.8667235
-3.364579362e-05 -220.8995299 80.4032893
137.2430485 1.064108801e-10 -101.612505
-3.364579362e-05 -85.2594097 -48.5397397
219.5822844 1.064108801e-10 142.517369
246.5368011 1.064108801e-10 27.0345864
-3.364579362e-05 -141.4469762 18.8775534
86.24932295 1.064108801e-10 186.5641093
-3.364579362e-05 -206.7302773 243.19848
203.9099242 1.064108801e-10 207.3755217
121.898745 1.064108801e-10 218.1680533
248.0310266 1.064108801e-10 -48.9628772
120.8828324 -139.6109674 -250
16.84646645 -211.7947061 -250
49.38043275 1.064108801e-10 96.9403361
51.43735775 1.064108801e-10 248.8366221
-3.364579362e-05 -187.200937 -139.0607436
-3.364579362e-05 -195.3739933 156.5524874
-3.364579362e-05 -152.0729509 -171.0351193
251.3108663 -232.5118217 -250
202.3001072 -87.6577148 -250
190.6238954 1.064108801e-10 -5.6398184
230.3395968 1.064108801e-10 -236.098215
66.71258945 -44.23216 -250
118.1268048 -25.0053334 -250
67.37093885 -7.9046527 -250
-1.538635446 -1.5436599 250
237.228827 1.064108801e-10 -109.7619758
28.90240755 1.064108801e-10 -12.663701
-3.364579362e-05 -72.7226685 -99.9342094
62.27176275 -91.4831866 -250
-3.364579362e-05 -129.7145434 -76.1299113
13.39457905 1.064108801e-10 -118.861161
-3.364579362e-05 -103.1330723 -186.7181315
-3.364579362e-05 -175.6708347 -159.8187443
130.9351239 -41.0171141 -250
43.70996125 1.064108801e-10 -173.1243378
-3.364579362e-05 -237.6210649 -170.0729473
-3.364579362e-05 -88.0084356 181.3688383
49.84545655 1.064108801e-10 -136.1671212
-3.364579362e-05 -248.7909895 143.2716196
71.17100365 1.064108801e-10 29.6012421
181.3739753 -201.1352464 -250
33.64288285 -223.4870848 -250
234.8798569 -205.1513631 -250
-3.364579362e-05 -237.5692257 56.5016627
-3.364579362e-05 -206.9060161 -68.4354951
-3.364579362e-05 -148.8401957 -95.2831632
111.9701029 -200.4199397 -250
120.2648248 1.064108801e-10 174.3063952
221.6774827 -140.5569713 -250
-3.364579362e-05 -108.8996256 139.5675197
-3.364579362e-05 -140.14086 163.7954287
143.8347435 1.064108801e-10 -129.9063397
-3.364579362e-05 -34.8390731 -159.71232
118.6632808 1.064108801e-10 249.969152
-3.364579362e-05 -119.4839762 30.808505
99.79312115 -16.7321267 -250
-3.364579362e-05 -196.4135689 126.0003299
-3.364579362e-05 -204.9064512 -48.2579623
-3.364579362e-05 -189.3484706 2.9134234
-3.364579362e-05 -30.179287 -127.0237041
246.2496742 -130.8129884 -250
10.83796655 -52.2648316 -250
70.73560295 -201.6363903 -250
19.54902645 -144.4803407 -250
-3.364579362e-05 -153.948077 -237.1146988
-3.364579362e-05 -210.1938556 68.3759893
-3.364579362e-05 -37.3227326 -217.5104644
124.1820322 -61.2397413 -250
237.2881637 -107.1170078 -250
248.9058097 -149.330562 -250
76.73246925 1.064108801e-10 -49.2300843
-3.364579362e-05 -185.7535076 49.7702802
-3.364579362e-05 -51.548499 169.0702869
-3.364579362e-05 -114.8262472 -138.0789105
69.09263305 1.064108801e-10 203.7911225
-3.364579362e-05 -89.935073 28.3753829
236.3608542 -44.8763278 -250
80.27990445 1.064108801e-10 -106.4598073
48.22367995 1.064108801e-10 -71.5505121
237.4582647 1.064108801e-10 -24.5669737
-3.364579362e-05 -122.8072552 -168.6401073
143.9589233 1.064108801e-10 74.4212929
-1.256470946 1.064108801e-10 142.8347636
-3.364579362e-05 -80.6322673 215.2558221
217.9308895 1.064108801e-10 -106.9405146
-3.364579362e-05 -58.136169 31.9770145
175.316017 -21.8952777 -250
-3.364579362e-05 -57.8509959 134.9232614
-3.364579362e-05 -214.1301165 226.6484615
31.36525725 1.064108801e-10 -56.9956941
-3.364579362e-05 -111.6401869 -63.9349417
98.70617655 1.1273311 -250
194.7486245 1.064108801e-10 -51.8379082
-3.364579362e-05 -225.7593224 0.4973166001
-3.364579362e-05 -229.6987757 163.2319446
-3.364579362e-05 -77.5854051 80.8457998
-3.364579362e-05 -207.0308381 -24.2279394
-3.364579362e-05 -157.7842813 179.0543159
-3.364579362e-05 -82.8771806 125.5567325
98.66159435 -250.6706306 -250
-3.364579362e-05 -235.2696125 -24.198033
-3.364579362e-05 -127.1104636 183.8228649
102.4488554 1.064108801e-10 118.5991007
114.854077 1.064108801e-10 -1.878191
-3.364579362e-05 -101.2544863 54.6281351
-3.364579362e-05 -199.4596714 -249.9295698
-3.364579362e-05 -52.9356875 -236.853525
205.019562 1.064108801e-10 -162.1207613
68.28725995 1.064108801e-10 -86.9972672
166.9871191 1.064108801e-10 54.0151641
25.79231705 1.064108801e-10 76.9052024
151.0345425 -183.0557007 -250
60.34542115 -140.9381785 -250
108.4162661 1.064108801e-10 132.7271044
233.9479166 1.064108801e-10 234.4650106
-3.364579362e-05 -15.7070724 -192.6057901
117.5844802 1.064108801e-10 -158.6644434
-3.364579362e-05 -160.6234323 -214.7393611
32.65997715 -93.9056085 -250
-3.364579362e-05 -220.419946 -143.4370346
-3.364579362e-05 -137.7382822 50.9220309
188.6884385 1.064108801e-10 42.6247314
154.7021391 1.064108801e-10 160.1389232
104.4125643 1.064108801e-10 -121.757187
165.7922117 1.064108801e-10 -208.6023048
-3.364579362e-05 -45.9302614 -19.9612359
185.5387753 1.064108801e-10 20.5338135
-3.364579362e-05 -246.6924599 -136.3580198
47.80460815 -218.6180515 -250
18.12890055 1.064108801e-10 14.6824726
226.2039079 1.064108801e-10 163.2364185
62.37992685 1.064108801e-10 14.8473936
-3.364579362e-05 -34.1291784 -55.5639327
10.59154645 -245.8572511 -250
201.0581316 1.064108801e-10 -87.645964
71.25832765 -244.6604763 -250
247.5103138 -78.7293675 -250
236.4170473 -241.1883829 -250
167.5680147 1.064108801e-10 187.8613529
89.65075555 1.064108801e-10 41.32613
-3.364579362e-05 -188.3146991 109.3002959
123.2678893 1.064108801e-10 -100.6481093
231.5367775 1.064108801e-10 -70.3077995
174.1458235 1.064108801e-10 91.077424
202.9543 -33.8792724 -250
108.0889138 1.064108801e-10 220.0026101
119.9292683 1.064108801e-10 65.5725175
-3.364579362e-05 -60.7999479 -158.6711823
167.1103044 -196.8970051 -250
-3.364579362e-05 -9.4371146 -212.9292236
20.91721625 1.064108801e-10 184.8898195
-3.364579362e-05 -57.45711 -66.9396833
35.46687185 1.064108801e-10 -184.3162904
11.39561715 1.064108801e-10 -39.520723
90.55258525 -85.1953568 -250
36.82154595 -155.9041704 -250
251.8222357 1.064108801e-10 9.4702974
146.4692311 1.064108801e-10 -160.8708698
-3.364579362e-05 -139.2715562 -20.0383294
-3.364579362e-05 -130.3024698 -148.1114073
-3.364579362e-05 -18.2199038 -231.79299
141.6154959 1.064108801e-10 -44.1425029
121.5019981 1.064108801e-10 89.2376165
193.8264169 1.064108801e-10 63.9036647
82.54907405 -33.6632862 -250
-3.364579362e-05 -131.6679326 101.5446198
99.59611725 -127.3234337 -250
-3.364579362e-05 -125.4683347 -230.8586986
207.2869648 -133.5234901 -250
-3.364579362e-05 -136.7886565 212.2344239
150.9979337 -58.3023189 -250
81.73426965 1.064108801e-10 -31.5310407
10.72250555 1.064108801e-10 -143.9105786
38.74236795 1.064108801e-10 160.9439747
-3.364579362e-05 -240.730169 -233.8311451
10.21166605 1.064108801e-10 45.3172216
-2.063972246 -22.0271385 -250
-3.364579362e-05 -209.1776534 146.3523937
-1.818506546 1.064108801e-10 12.0903294
7.647297254 -74.4924872 -250
-3.364579362e-05 -32.5033886 236.0431172
153.2885476 1.064108801e-10 104.0066778
-3.364579362e-05 -97.231768 7.4118455
88.23556895 1.064108801e-10 5.4412047
250.7803242 1.064108801e-10 -126.5729627
2.946460854 -137.2991684 -250
133.5155149 1.064108801e-10 225.2356265
-3.364579362e-05 -164.0696867 120.4332389
178.0587804 1.064108801e-10 -217.2468576
-3.364579362e-05 -211.5152121 -213.3436847
-3.364579362e-05 -190.5651644 77.8851517
-3.364579362e-05 -60.0659617 111.6378735
-1.305191246 1.064108801e-10 69.1658073
134.8797283 1.064108801e-10 -153.7703396
119.5913858 -87.219551 -250
-3.364579362e-05 -193.4871814 -76.1865987
-3.364579362e-05 -76.0641973 -214.7276816
179.8937318 1.064108801e-10 147.168859
13.85960955 -100.7527523 -250
74.66285735 1.064108801e-10 -215.0167482
158.7737101 1.064108801e-10 12.5474361
157.1501605 -237.2848022 -250
20.52270195 1.064108801e-10 -75.6147665
110.1093315 1.064108801e-10 -46.741274
137.9618798 -202.1976276 -250
-3.364579362e-05 -57.4437818 84.8422807
177.9075131 1.064108801e-10 237.4166053
9.829749454 -115.0160272 -250
-3.364579362e-05 -252.3506289 -95.7397611
-3.364579362e-05 -14.2600868 161.6167726
138.3943062 -187.6625183 -250
138.8595044 1.064108801e-10 -15.1707262
186.8389916 1.064108801e-10 -104.18266
18.21590515 -28.5448322 -250
195.565202 1.064108801e-10 -73.5189813
54.31623695 1.064108801e-10 54.1743181
103.5356693 -163.8795946 -250
-0.05380664579 1.064108801e-10 186.4458832
-3.364579362e-05 -62.4765608 210.4473124
-3.364579362e-05 -26.0995854 0.3045913001
-1.136944846 1.064108801e-10 164.6990832
17.54620785 1.064108801e-10 88.2301294
220.3016333 1.064108801e-10 77.7607276
-2.265155246 1.064108801e-10 207.7522082
154.7270303 1.064108801e-10 -106.8454037
10.29647415 1.064108801e-10 227.0308452
103.4780695 -82.0837098 -250
-3.364579362e-05 -9.99656 -108.3904647
206.3763435 1.064108801e-10 141.0147034
14.48002185 1.064108801e-10 -163.2466334
44.10050585 -55.2681028 -250
33.82760965 1.064108801e-10 225.2829345
-3.364579362e-05 -206.925474 -238.2228301
3.864692954 1.064108801e-10 116.3054311
138.0066444 1.064108801e-10 41.0056335
-3.364579362e-05 -228.1967144 127.6643441
-3.364579362e-05 -250.412184 -183.9020155
208.2757574 1.064108801e-10 -126.7538079
78.66238875 -98.9193323 -250
9.335335454 1.064108801e-10 172.7173591
139.2480129 1.064108801e-10 -203.2301612
94.64478335 1.064108801e-10 -19.4521852
182.0508573 -172.8288658 -250
150.4115663 -211.8929388 -250
-3.364579362e-05 -251.017056 -14.3529031
58.94808925 -192.360491 -250
-3.364579362e-05 -77.0312765 158.9750554
-3.364579362e-05 -78.6889196 -236.0082011
-3.364579362e-05 -56.9996662 56.5134952
-3.364579362e-05 -194.3741098 203.6302478
114.3274567 1.064108801e-10 52.3089619
-3.364579362e-05 -3.3657122 -16.7959165
7.238585254 1.064108801e-10 -84.7338026
-3.364579362e-05 -249.4851675 81.2545425
71.13236555 1.064108801e-10 -115.825306
-3.364579362e-05 -92.0895658 -79.4314369
83.75003275 1.064108801e-10 103.4094685
131.4825796 1.064108801e-10 114.2790197
-3.364579362e-05 -78.521479 106.7182805
207.8530464 1.064108801e-10 228.1833672
190.443735 -189.1909105 -250
-3.364579362e-05 -160.1285018 -159.5142431
233.3325705 1.064108801e-10 135.3334116
23.91582955 1.064108801e-10 -230.2803075
211.5081614 -45.5196702 -250
23.72909785 -15.9920268 -250
-3.364579362e-05 -129.6561749 -89.9936371
48.90322465 -133.2258922 -250
105.0019075 1.064108801e-10 -71.1294934
43.97195565 1.064108801e-10 -103.1963065
231.560741 -129.7803408 -250
53.96936495 1.064108801e-10 138.6131659
69.87505755 1.064108801e-10 80.1502452
191.2230862 -62.8276027 -250
-3.364579362e-05 -54.313042 -206.2605393
-3.364579362e-05 -219.4406938 173.3931663
166.2530996 1.064108801e-10 123.8974762
145.2969661 -115.5880873 -250
88.88897875 1.064108801e-10 -193.7687855
145.4448893 -149.063093 -250
-3.364579362e-05 -251.4687957 201.8970667
7.909487054 -2.5406205 -250
-3.364579362e-05 -165.147581 -131.3709977
23.61687835 1.064108801e-10 153.8836878
191.9279381 1.064108801e-10 -19.5909914
164.5940165 1.064108801e-10 -67.2510501
-3.364579362e-05 -25.2176625 209.120188
167.561745 1.064108801e-10 -92.5652892
-3.364579362e-05 -52.8885848 -78.8480384
217.9242669 1.064108801e-10 -65.6832888
107.3888435 -139.7745051 -250
226.9656507 -194.0609843 -250
115.4860419 -182.2445565 -250
221.26076 1.064108801e-10 235.5631507
-3.364579362e-05 -245.9979364 108.4913543
174.9250586 1.064108801e-10 -158.9406395
-3.364579362e-05 -60.5547912 195.4352135
239.0406315 1.064108801e-10 198.4951868
-3.364579362e-05 -236.9444263 14.6862962
-3.364579362e-05 -177.6227599 246.0980831
-3.364579362e-05 -166.2088534 -16.0733883
175.8165957 -145.3797428 -250
216.731245 1.064108801e-10 57.3319579
-3.364579362e-05 -176.1400686 -145.1189181
-3.364579362e-05 -152.3749384 29.521694
-3.364579362e-05 -180.596054 188.8666712
-3.364579362e-05 -135.9595557 195.6318487
-3.364579362e-05 -129.2672477 144.1563675
-3.364579362e-05 -245.9219152 -45.0673765
-3.364579362e-05 -241.5853724 228.0995749
-3.364579362e-05 -236.2642619 139.6144609
250.463431 1.064108801e-10 -242.7374027
226.0472681 -234.1707022 -250
104.3567794 1.064108801e-10 -151.5192071
-3.364579362e-05 -167.3691935 168.0219495
-3.364579362e-05 -99.8844696 -132.5404288
249.9797554 1.064108801e-10 152.4551507
115.2586363 1.064108801e-10 -238.6759898
194.4437986 -17.1479692 -250
-3.364579362e-05 -9.257283 -63.0293515
-3.364579362e-05 -214.2059852 -95.6479286
127.1654245 1.064108801e-10 -58.007476
98.69708135 1.064108801e-10 -213.3517065
-3.364579362e-05 -17.5063606 222.4282977
-3.364579362e-05 -117.5451214 -87.2130042
-3.364579362e-05 -149.7944845 -151.3395505
224.4730346 -86.2628981 -250
49.22787085 1.064108801e-10 234.9011537
55.17475775 1.064108801e-10 -47.3363405
-3.364579362e-05 -230.6166616 -92.4133474
-3.364579362e-05 -34.4195853 147.2015819
41.41067725 1.064108801e-10 -33.2329767
85.42571065 1.064108801e-10 237.8967383
-3.364579362e-05 -25.1694574 71.5621867
173.8893334 1.064108801e-10 -171.2398529
194.4492819 1.064108801e-10 -154.4178605
149.5622957 -90.4272648 -250
235.6184047 1.064108801e-10 81.3582601
-3.364579362e-05 -62.9585553 238.0496581
8.563118254 1.064108801e-10 213.6222679
201.8921374 1.064108801e-10 17.7610456
-3.364579362e-05 -214.1664797 23.2029985
-3.364579362e-05 -43.6861082 -45.1520801
178.7349156 1.064108801e-10 -73.6732321
109.8330904 1.064108801e-10 9.338733
49.71098045 -244.6516839 -250
-3.364579362e-05 -115.0009785 -12.8591613
156.5639084 1.064108801e-10 247.33347
152.050954 -46.1039846 -250
-3.364579362e-05 -146.9483375 76.8158527
-3.364579362e-05 -86.4193851 -208.2077903
190.6805493 -0.05603569989 -250
-3.364579362e-05 -176.7149053 40.1714595
43.25192285 1.064108801e-10 -59.8304887
-3.364579362e-05 -251.3312665 -207.8373989
-3.364579362e-05 -73.7072429 -127.9152482
-3.364579362e-05 -103.3046745 -17.6771666
213.1912703 1.064108801e-10 -23.8155307
-3.364579362e-05 -130.0483817 -42.0536803
-3.364579362e-05 -180.3126055 66.8938765
206.6883975 -210.2617016 -250
157.4623001 1.064108801e-10 -53.9274823
142.7526907 1.064108801e-10 91.7504442
212.8355035 1.064108801e-10 198.5746884
-3.364579362e-05 -38.0370246 212.0588385
-3.364579362e-05 -11.6456729 -166.1114356
44.63665185 1.064108801e-10 -118.4688829
-3.364579362e-05 -46.0429552 64.2700458
238.8068268 1.064108801e-10 -163.8029083
143.6514996 -17.9052263 -250
98.33951205 -149.6225073 -250
-3.364579362e-05 -141.6723261 135.5828397
-3.364579362e-05 -216.9654407 -170.9545896
49.02175495 1.064108801e-10 15.9147181
-3.364579362e-05 -65.5668671 -169.7540644
70.35627955 1.064108801e-10 247.1605443
90.56535215 1.064108801e-10 65.2030728
-3.364579362e-05 -146.970008 97.8321475
-3.364579362e-05 -141.9290161 113.1041531
155.3506349 -101.1026217 -250
-3.364579362e-05 -240.1063818 -123.5326239
-3.364579362e-05 -43.591725 187.3731504
228.5099026 -173.4156668 -250
-3.364579362e-05 -138.0503429 -100.5184916
-3.364579362e-05 -182.3110936 -200.1314244
87.78782815 -229.2551151 -250
190.083446 1.064108801e-10 -177.9722474
-3.364579362e-05 -13.4380181 -46.010137
233.3763506 -61.0145439 -250
139.9578981 1.064108801e-10 -242.1921174
101.12176 1.064108801e-10 203.3501369
-3.364579362e-05 -11.9187808 -241.9475986
32.16244935 -240.0911025 -250
87.73840155 -183.4308918 -250
117.2653129 1.064108801e-10 -76.0991523
-3.364579362e-05 -223.8662782 50.9438754
9.143577954 -226.430638 -250
190.8747256 1.064108801e-10 9.885441
17.76783495 1.064108801e-10 -188.9467649
-3.364579362e-05 -97.0674499 124.4484227
-3.364579362e-05 -78.5825031 -63.7267842
9.666010954 1.064108801e-10 -60.7509322
129.1142964 1.064108801e-10 23.85245
234.6756801 1.064108801e-10 -225.0211542
192.9419844 1.064108801e-10 178.5461347
213.5317927 1.064108801e-10 -190.2455595
-3.364579362e-05 -76.9969048 -23.1090365
205.062178 -10.3760947 -250
127.9331577 1.064108801e-10 202.680786
213.6374601 1.064108801e-10 9.8338979
26.32385855 1.064108801e-10 -85.9559479
76.14644505 1.064108801e-10 138.0961493
136.4080463 1.064108801e-10 237.6170998
40.85620905 1.064108801e-10 191.8468512
184.9471773 1.064108801e-10 -136.7016096
-0.5765439458 1.064108801e-10 101.9547556
-3.364579362e-05 -175.2146512 90.016222
72.99240705 1.064108801e-10 -148.8251907
-3.364579362e-05 -122.9711943 -0.2187585999
62.70807205 1.064108801e-10 160.5289982
127.7495539 -240.5752759 -250
44.49096885 -165.9383866 -250
67.76244355 1.064108801e-10 216.1101641
112.33227 -35.2841667 -250
77.62342965 -125.0193603 -250
-3.364579362e-05 -12.3682459 -4.4141266
-3.364579362e-05 -117.6881951 213.2433743
246.4473266 1.064108801e-10 -151.9502834
-3.364579362e-05 -172.3836114 -186.1683089
130.2258339 1.064108801e-10 247.9738829
46.71075125 -201.0716785 -250
-3.364579362e-05 -43.4574809 105.0697228
182.3004615 -71.043167 -250
133.5874155 1.064108801e-10 140.6727795
-3.364579362e-05 -121.0185263 -124.4605072
102.9325342 -226.1322218 -250
-3.364579362e-05 -171.3697441 -37.7800673
141.528853 1.064108801e-10 14.7193921
58.19058465 1.064108801e-10 -125.3619108
160.6016835 1.064108801e-10 -182.1582463
101.6931758 -194.9629991 -250
132.4872967 -134.4779825 -250
-3.364579362e-05 -235.7445062 -206.0276909
-3.364579362e-05 -44.6288524 139.3942322
211.8659251 -251.9373452 -250
237.2028315 -118.7121697 -250
19.87612385 1.064108801e-10 206.9772531
-3.364579362e-05 -152.7678101 -107.8328311
84.08046545 1.064108801e-10 -238.5161016
141.3001222 -65.3021231 -250
212.7390477 -163.2228311 -250
-3.364579362e-05 -93.0296817 191.7897692
-3.364579362e-05 -160.8062781 73.1238361
122.3127286 1.064108801e-10 -32.3226194
136.1634988 -168.3108753 -250
-3.364579362e-05 -208.687838 91.917226
179.8587431 1.064108801e-10 181.5132799
-3.364579362e-05 -47.8321766 248.8082633
-3.364579362e-05 -98.3047186 99.5405549
185.1136702 1.064108801e-10 71.4444184
209.8494262 1.064108801e-10 34.7183681
20.19165995 1.064108801e-10 51.0206573
231.7023034 1.064108801e-10 102.242926
16.79409275 1.064108801e-10 144.6373951
-3.364579362e-05 -217.5887731 -72.9639588
153.3892509 1.064108801e-10 -209.8382335
244.338966 1.064108801e-10 119.7309636
-3.364579362e-05 -78.6758213 43.8491962
92.33378035 1.064108801e-10 25.3767214
-3.364579362e-05 -188.305675 226.9975676
-3.364579362e-05 -189.1918473 -27.4953957
195.5383304 1.064108801e-10 -129.522699
192.4640531 -130.3093755 -250
-3.364579362e-05 -118.3582588 236.5160415
228.1418223 -220.2562632 -250
-3.364579362e-05 -11.280443 -119.8430589
62.93596565 -178.2177967 -250
50.61665305 1.064108801e-10 39.348377
-3.364579362e-05 -87.9422418 237.897098
-3.364579362e-05 -132.1561347 -29.0498126
-3.364579362e-05 -89.0654306 63.1621948
-3.364579362e-05 -157.983433 -190.2226289
19.34331875 -2.0463742 -250
31.24592525 -56.7213185 -250
49.52535455 1.064108801e-10 221.0639628
111.5463388 1.064108801e-10 240.1777505
166.6383458 -100.0431979 -250
54.02371155 -108.7058439 -250
63.88533145 1.064108801e-10 48.1516703
159.1127223 1.064108801e-10 78.5252041
111.9237576 1.064108801e-10 112.4679285
148.2112114 1.064108801e-10 -8.8553708
-3.364579362e-05 -29.4819777 -67.6962528
73.69111245 1.064108801e-10 -6.25267
27.23374895 1.064108801e-10 24.6777523
58.78004885 -33.2390435 -250
-3.364579362e-05 -10.0385117 -182.8791003
-3.364579362e-05 -129.9404452 231.6745441
-3.364579362e-05 -172.8272006 -96.393754
56.04837025 -231.7464269 -250
46.59232795 1.064108801e-10 -162.2502281
-3.364579362e-05 -99.3122444 -88.0500408
-3.364579362e-05 -123.6663471 -180.8744551
15.70293495 1.064108801e-10 -29.1408998
198.7559061 1.064108801e-10 237.5606742
114.7334543 -163.1229208 -250
109.1708373 1.064108801e-10 -18.1499085
-3.364579362e-05 -12.1233018 -148.2586033
-3.364579362e-05 -236.2241038 185.1561459
-3.364579362e-05 -120.4516152 192.8470865
58.81186305 1.064108801e-10 -155.8648063
24.04776485 -201.9333417 -250
-3.364579362e-05 -36.9309079 -190.7975774
111.5752887 -60.83072 -250
146.5291162 1.064108801e-10 -26.9168133
162.8673122 -66.2360889 -250
56.91604515 1.064108801e-10 201.0277107
-3.364579362e-05 -196.6474169 21.8413136
-3.364579362e-05 -30.8440724 25.5964489
-3.364579362e-05 -172.3271075 129.0475043
196.4533978 1.064108801e-10 217.9601497
105.533308 1.064108801e-10 89.8287905
220.8193595 1.064108801e-10 -181.4086436
120.0895982 -208.8276928 -250
-3.364579362e-05 -58.8626177 -53.4887076
-3.364579362e-05 -198.8950377 -15.6706484
-3.364579362e-05 -156.1840174 -69.1741636
-3.364579362e-05 -227.8618738 -115.7456808
62.31580745 1.064108801e-10 -1.4294159
240.723541 1.064108801e-10 247.4901858
36.59170705 1.064108801e-10 -235.8562518
208.7354798 1.064108801e-10 -221.1696856
162.9859904 -161.7867875 -250
-3.364579362e-05 -179.8834867 -235.429953
-3.364579362e-05 -142.6799753 -129.5176848
-3.364579362e-05 -192.7189487 -48.1770474
-3.364579362e-05 -31.428988 -105.876012
-3.364579362e-05 -95.5133043 -233.798749
-3.364579362e-05 -63.5465559 -212.4481058
58.26999765 1.064108801e-10 -239.4466191
32.21656575 1.064108801e-10 -2.0645276
16.74914755 1.064108801e-10 162.6646138
194.4511135 1.064108801e-10 -224.138559
46.59464655 -85.6591314 -250
95.77823345 1.064108801e-10 -130.1558334
-0.9106457458 -46.0780575 -250
167.7097781 1.064108801e-10 -21.9961776
234.8720531 1.064108801e-10 -98.956745
-3.364579362e-05 -89.9428209 -102.2035922
-3.364579362e-05 -66.3687717 63.5566792
237.6990634 1.064108801e-10 -45.0747623
-3.364579362e-05 -224.8807562 -234.2988347
215.3621185 1.064108801e-10 -166.830597
29.49108975 1.064108801e-10 41.0315927
192.0906879 -242.4515304 -250
140.6258743 -216.9019876 -250
-3.364579362e-05 -101.9892188 -58.6858463
99.87447605 1.064108801e-10 -29.1121717
72.10339045 1.064108801e-10 5.3451216
185.4048334 -233.7529957 -250
-3.364579362e-05 -87.9323699 148.1749022
-3.364579362e-05 -142.1058911 40.8813688
81.40011975 1.064108801e-10 25.6735946
37.49592735 -32.210935 -250
-3.364579362e-05 -231.0311342 75.3345958
-3.364579362e-05 -132.2333999 -191.1813774
91.67375035 -39.9885497 -250
111.3690144 1.064108801e-10 -97.9988194
83.11332905 -240.9239519 -250
-3.364579362e-05 -46.3969425 -100.7689553
149.2904109 1.064108801e-10 -186.6968635
-3.364579362e-05 -243.1139712 2.0819188
80.36745905 1.064108801e-10 91.5403204
-3.364579362e-05 -126.3807954 40.4327736
39.73577085 1.064108801e-10 -194.3715767
-3.364579362e-05 -166.5655606 219.7469975
215.8950874 -9.2741847 -250
-3.364579362e-05 -68.6213546 87.0237878
97.67645825 1.064108801e-10 216.8340778
131.4983929 -90.1905991 -250
-3.364579362e-05 -175.8935589 -11.1136841
-0.3315405458 1.064108801e-10 -187.620489
-3.364579362e-05 -212.7516622 104.9600239
-3.364579362e-05 -205.7123815 135.959134
-1.889454946 -79.664736 -250
55.22672635 1.064108801e-10 -196.8340873
-3.364579362e-05 -5.8059277 195.5930407
45.13492295 1.064108801e-10 -83.7461315
-3.364579362e-05 -169.1425902 -50.0812197
8.512028254 1.064108801e-10 34.6236561
63.06789365 1.064108801e-10 -189.1684684
-3.364579362e-05 -210.7440543 4.9480012
156.6308906 1.064108801e-10 -131.7632937
122.5969513 -252.1772683 -250
-3.364579362e-05 -79.5952014 -83.0195784
-3.364579362e-05 -113.3446273 17.4374091
46.66785495 1.064108801e-10 -242.4048477
-3.364579362e-05 -178.1728106 167.8793695
-3.364579362e-05 -201.9813318 -193.7919561
34.14620245 1.064108801e-10 -136.4034286
5.780363154 1.064108801e-10 -134.3259418
131.4230541 1.064108801e-10 168.1420642
-3.364579362e-05 -88.2835434 -128.4094557
13.77126535 1.064108801e-10 -105.4791187
-3.364579362e-05 -242.5220443 -65.5169859
66.70130915 1.064108801e-10 132.906842
-3.364579362e-05 -123.3521563 94.6930864
91.34719455 -208.5525875 -250
44.21048905 -67.5648952 -250
204.2096987 1.064108801e-10 151.712095
-3.364579362e-05 -11.6841575 184.6572333
80.56810005 1.064108801e-10 177.433572
14.79868035 1.064108801e-10 120.1457086
93.08299205 1.064108801e-10 84.19689
160.3862175 1.064108801e-10 231.8411295
176.2660745 1.064108801e-10 -42.2087009
19.38367655 -187.6064783 -250
-3.364579362e-05 -73.2814451 13.0891703
208.2275468 -172.9512295 -250
119.0262784 1.064108801e-10 77.8446096
-3.364579362e-05 -147.9169782 -46.7475498
32.90591705 -67.9869177 -250
78.52841735 -109.624075 -250
76.74616405 1.064108801e-10 -80.4369436
-3.364579362e-05 -50.9304583 117.2020486
-3.364579362e-05 -42.7301923 163.0230392
-3.364579362e-05 -221.7023392 -216.5763899
-3.364579362e-05 -242.095503 40.0176176
203.7060311 -74.6082087 -250
161.6012442 1.064108801e-10 44.7994094
196.2533264 1.064108801e-10 -201.8430253
-3.364579362e-05 -198.9889515 44.1568526
46.74141145 1.064108801e-10 -7.940878
-3.364579362e-05 -236.2853827 215.2831868
-3.364579362e-05 -147.6799872 -207.6466859
-3.364579362e-05 -43.119781 -84.7960825
125.8077608 -16.1016341 -250
43.64230645 1.064108801e-10 -222.0273831
-3.364579362e-05 -200.8847274 1.0382943
-3.364579362e-05 -105.4430477 225.3844741
247.3916901 -222.6589548 -250
77.58539355 1.064108801e-10 210.1402153
239.4757899 1.064108801e-10 -6.3276086
-3.364579362e-05 -56.233626 97.4573592
199.6151799 1.064108801e-10 -26.8824281
-3.364579362e-05 -81.6445264 -112.9492022
23.13327675 0.9361336001 250
61.09817405 1.064108801e-10 113.0746784
121.6770732 -111.386621 -250
-2.107712846 -214.5315781 250
231.6425874 1.064108801e-10 53.4734774
44.42786705 1.064108801e-10 78.6778765
147.806546 1.064108801e-10 63.3236803
113.3259063 1.064108801e-10 -194.2047719
-1.459223846 -243.4124377 -250
-3.364579362e-05 -167.0577133 22.8562606
-3.364579362e-05 -40.3498412 -150.7220563
117.7608069 1.064108801e-10 -171.4367217
12.55914155 1.064108801e-10 -198.2481867
38.54424375 1.064108801e-10 107.973655
-3.364579362e-05 -42.3478643 -139.3865114
-3.364579362e-05 -205.293301 -174.7702856
63.35272515 -162.0422565 -250
-3.364579362e-05 -159.8392228 206.4717989
-3.364579362e-05 -16.3126825 98.8522903
-3.364579362e-05 -134.1254375 10.2598157
62.37011555 -18.0337876 -250
-3.364579362e-05 -65.008732 -146.0167102
-3.364579362e-05 -24.6100541 49.7388844
216.3338948 1.064108801e-10 -38.3141206
-3.364579362e-05 -74.669302 246.4118124
-3.364579362e-05 -160.2451383 60.3707883
-3.364579362e-05 -67.3624315 -90.0932477
131.6390636 1.064108801e-10 -177.881807
-3.364579362e-05 -212.5240291 115.3923411
-3.364579362e-05 -221.3511588 204.8773905
164.8274447 1.064108801e-10 -154.1537965
-3.364579362e-05 -46.6442638 -183.5517399
225.3026439 -67.9690824 -250
123.0360101 1.064108801e-10 108.1692385
216.0425111 -110.4556355 -250
173.2496877 1.064108801e-10 -60.8368195
104.8869417 1.064108801e-10 42.3200684
70.13431025 -77.7859418 -250
-3.364579362e-05 -137.4546875 126.070194
192.209124 1.064108801e-10 190.8144203
247.1884546 -103.9590463 -250
92.52339465 1.064108801e-10 -91.2392784
236.5829609 1.064108801e-10 -196.3385104
214.5874802 -62.3871927 -250
-3.364579362e-05 -21.192142 -143.2023007
208.384974 1.064108801e-10 167.312296
244.2534038 1.064108801e-10 -118.5063657
-3.364579362e-05 -187.7445022 -96.163611
-3.364579362e-05 -27.9687399 -185.3378259
222.9214294 1.064108801e-10 -27.3812115
-3.364579362e-05 -230.0004761 152.874384
-3.364579362e-05 -168.622768 156.1901101
-3.364579362e-05 -23.0558944 231.7944344
2.662074754 1.064108801e-10 -107.9715481
-3.364579362e-05 -154.210211 235.56495
217.1882779 -190.6764571 -250
228.6643655 1.064108801e-10 5.042659
-3.364579362e-05 -172.3603992 -121.4919202
143.7116949 -80.4472703 -250
156.5769172 1.064108801e-10 148.927336
-3.364579362e-05 -114.5626316 -32.2803816
27.66768885 -214.6097425 -250
-3.364579362e-05 -100.792253 -121.3065796
-3.364579362e-05 -230.2218974 29.6820169
57.67350175 1.064108801e-10 -79.8648791
240.3307538 1.064108801e-10 156.42217
199.4278735 1.064108801e-10 -170.7584185
201.1924619 1.064108801e-10 120.1343509
-3.364579362e-05 -37.1771167 88.3158616
-3.364579362e-05 -221.9879235 -131.3409518
203.5691533 1.064108801e-10 -46.5490194
31.04278025 1.064108801e-10 -206.1371125
174.8454983 1.064108801e-10 -125.2788204
172.3940328 1.064108801e-10 -233.6289077
248.5508301 1.064108801e-10 129.1061213
224.3625416 1.064108801e-10 208.7987664
-3.364579362e-05 -80.0180622 -189.1306118
192.3613297 -37.5277326 -250
-3.364579362e-05 -234.8565476 -180.088014
128.1491488 1.064108801e-10 35.5218857
189.5114453 -101.5594027 -250
-3.364579362e-05 -141.9311931 -168.6486569
121.9091493 1.064108801e-10 119.9473503
83.76758815 1.064108801e-10 125.9239328
-3.364579362e-05 -47.2385976 -67.7786449
-3.364579362e-05 -26.4063861 -165.7354472
60.40724315 1.064108801e-10 146.5865509
-3.364579362e-05 -162.6472319 -6.4706058
83.61903215 1.064108801e-10 162.7189958
-3.364579362e-05 -107.4043025 8.4849658
187.2707839 1.064108801e-10 202.8002693
244.0672226 -53.4445299 -250
240.8182601 -176.0602065 -250
249.7925136 1.064108801e-10 172.6985019
40.43566395 1.064108801e-10 144.9161067
96.63215845 1.064108801e-10 -168.6033808
-3.364579362e-05 -102.3479075 35.4592461
-3.364579362e-05 -100.7858001 207.1571513
84.46404065 1.064108801e-10 -152.4633389
-3.364579362e-05 -74.6816945 -174.306329
24.58680705 1.064108801e-10 -100.9076248
67.15651205 1.064108801e-10 -45.7831584
109.8587011 -98.7650779 -250
-3.364579362e-05 -129.3190522 -65.9707927
-3.364579362e-05 -57.3676613 229.5603291
-3.364579362e-05 -35.781925 3.3535527
159.7856827 1.064108801e-10 194.3748347
112.1969814 1.064108801e-10 -145.0757618
-3.364579362e-05 -156.8162401 -137.1594044
-3.364579362e-05 -58.0815634 -117.0656686
-3.364579362e-05 -158.918908 189.8043694
-3.364579362e-05 -22.646823 -207.8350446
-3.364579362e-05 -47.3988354 9.1414263
143.6817992 -175.8563959 -250
33.00966925 1.064108801e-10 60.4013069
164.3707071 1.064108801e-10 102.5962838
-3.364579362e-05 -151.0824615 -36.3917138
119.0960845 1.064108801e-10 -21.9757249
-3.364579362e-05 -122.4995056 159.8962796
79.21599325 -196.010262 -250
-3.364579362e-05 -73.8833596 -43.9722902
-3.364579362e-05 -79.0492999 -146.9607355
86.09822245 -8.4460028 -250
166.4718573 -186.8134823 -250
219.8852553 1.064108801e-10 -240.2128529
-3.364579362e-05 -15.4965748 77.4490206
-3.364579362e-05 -199.026043 -100.3624312
193.9846915 1.064108801e-10 -240.312558
83.92472445 -146.8446399 -250
112.012872 1.064108801e-10 230.0961755
-3.364579362e-05 -157.4831762 -224.7024881
172.6829921 -108.1158541 -250
202.0354957 -187.5912268 -250
-3.364579362e-05 -238.6823671 -99.0457946
93.87769765 1.064108801e-10 246.6916377
210.8770166 1.064108801e-10 -117.037138
-3.364579362e-05 -220.5469387 -206.5873286
-3.364579362e-05 -103.6743391 -225.1806618
100.9072419 1.064108801e-10 4.7259821
239.5843604 -153.0781977 -250
168.8476006 -138.1433873 -250
251.8440542 1.064108801e-10 66.0162147
237.1983939 1.064108801e-10 112.6831803
50.82710995 -119.1882625 -250
-3.364579362e-05 -67.7335938 -12.7915321
168.4365926 -3.6711273 -250
6.098143254 1.064108801e-10 136.0298292
32.94874165 1.064108801e-10 -45.4267262
245.8407011 1.064108801e-10 -200.5567001
-3.364579362e-05 -8.5975118 34.6319284
189.7928238 1.064108801e-10 139.8631484
250.6113319 1.064108801e-10 -18.2789626
-3.364579362e-05 -99.7734343 -244.1141431
-3.364579362e-05 -134.3078415 -218.8201126
-3.364579362e-05 -98.0174747 235.49234
-3.364579362e-05 -113.3863973 176.9600174
-3.364579362e-05 -247.5270103 55.7214878
-3.364579362e-05 -60.32924 -4.2459026
249.9575878 -90.552421 -250
20.99684775 1.064108801e-10 -42.2403356
92.07839075 1.064108801e-10 145.0038139
-3.364579362e-05 -193.9613722 237.6563034
11.57747775 1.064108801e-10 22.2042821
-3.364579362e-05 -135.7034751 246.4734284
120.0327145 -153.5601749 -250
-3.364579362e-05 -204.9741964 -38.019928
151.541976 1.064108801e-10 -199.6638385
73.33622375 1.064108801e-10 -249.0333843
-3.364579362e-05 -164.4078576 108.1674952
-3.364579362e-05 -129.2329715 -159.4813112
184.8946215 1.064108801e-10 122.5170878
84.00209765 -174.2287278 -250
31.63605345 1.064108801e-10 186.5428088
-3.364579362e-05 -87.910854 3.9924222
243.7443681 1.064108801e-10 -180.7425073
224.5772138 1.064108801e-10 152.2855954
164.5497136 -49.0905484 -250
-3.364579362e-05 -164.4564293 143.2689997
228.3283619 1.064108801e-10 37.5422771
-3.364579362e-05 -203.019636 118.2211093
153.0333201 -21.0641923 -250
81.54085535 1.064108801e-10 -118.0428381
-3.364579362e-05 -189.0554151 -224.2617645
197.17469 -207.5662001 -250
44.04290025 1.064108801e-10 169.2881038
-3.364579362e-05 -163.3583695 10.1205231
158.6433596 0.3098233001 -250
123.8426929 -51.3675804 -250
-3.364579362e-05 -117.3941487 -239.2510087
-3.364579362e-05 -178.509472 6.9564318
28.07780575 -28.0231989 -250
-3.364579362e-05 -240.4600596 196.6345399
140.9265449 1.064108801e-10 156.6834014
59.71152735 1.064108801e-10 221.817529
-3.364579362e-05 -23.6569598 -83.5221944
-3.364579362e-05 -231.0055444 -37.7059074
88.42355125 -100.2761057 -250
-3.364579362e-05 -16.2248542 -129.2189114
-3.364579362e-05 -18.6254714 170.7868216
179.0836193 -219.5559756 -250
123.2851915 1.064108801e-10 -117.9803135
164.8633792 -231.1711207 -250
-3.364579362e-05 -239.85698 70.9865861
144.6235798 1.064108801e-10 -108.1111571
225.0807101 1.064108801e-10 129.9881908
-3.364579362e-05 -38.5473916 14.2065109
96.34824605 1.064108801e-10 73.1411085
178.5830948 1.064108801e-10 -88.4127181
-3.364579362e-05 -200.0012646 -157.2377276
98.89280425 1.064108801e-10 137.2979139
-3.364579362e-05 -170.8507048 189.9192212
204.775195 -243.0505579 -250
210.0004869 -199.6974479 -250
-3.364579362e-05 -181.8089697 133.1032174
-3.364579362e-05 -248.4841974 176.1960501
131.4352808 -109.4105252 -250
-3.364579362e-05 -204.4441911 -58.9634015
-3.364579362e-05 -44.7850379 -7.7818151
0.3232925542 1.064108801e-10 -232.8284014
230.5840806 -25.8314917 -250
150.7845147 1.064108801e-10 139.1871144
50.77726175 1.064108801e-10 69.2920609
-3.364579362e-05 -179.3456334 113.1671826
13.89376595 -37.3031028 -250
71.95793975 -53.9508226 -250
-3.364579362e-05 -184.400526 -54.6614784
-3.364579362e-05 -71.6651117 115.1392192
173.8570476 1.064108801e-10 200.0672245
-3.364579362e-05 -153.4757833 152.5274902
59.52884945 -218.3294422 -250
-3.364579362e-05 -91.0498981 84.382293
217.810746 1.064108801e-10 67.0118515
159.1591163 1.064108801e-10 -98.0082311
49.73447245 1.064108801e-10 -212.5049237
-3.364579362e-05 -173.984247 145.2689694
-3.364579362e-05 -215.2389128 153.9705983
-3.364579362e-05 -100.3018175 154.8850361
-3.364579362e-05 -151.3991534 171.287189
-3.364579362e-05 -144.4923763 -182.0374583
173.1635904 1.064108801e-10 -2.8169612
68.94232465 -98.7580307 -250
95.14852035 -217.5463002 -250
-3.364579362e-05 -239.3631684 -150.8644957
49.06329415 -76.0480009 -250
241.4898374 -6.1617413 -250
131.0192356 1.064108801e-10 -23.1134719
-3.364579362e-05 -56.6892997 -188.3780426
57.93824235 1.064108801e-10 101.926873
63.84316715 -67.9898595 -250
-3.364579362e-05 -110.9782898 82.3555476
31.11609895 -47.022113 -250
137.5289287 1.064108801e-10 81.6739537
164.0696851 1.064108801e-10 241.2034251
-3.364579362e-05 -175.5254498 29.7633794
-3.364579362e-05 -69.6737973 -241.895844
5.910284254 1.064108801e-10 239.7683291
-3.364579362e-05 -196.4103413 216.2442649
-3.364579362e-05 -131.5022057 82.6379517
52.90811785 1.064108801e-10 -59.2086269
6.645073154 -187.1776054 -250
-3.364579362e-05 -185.2067966 -167.8223248
38.32174055 -103.0084439 -250
-3.364579362e-05 -46.2160841 79.9193598
173.9634732 1.064108801e-10 139.3938322
1.994962754 1.064108801e-10 -213.5546625
171.4854238 1.064108801e-10 67.7306706
-3.364579362e-05 -6.4797362 -128.3518653
-3.364579362e-05 -27.5747561 -242.3763163
168.7365613 -220.3948345 -250
-3.364579362e-05 -189.1371761 -178.2848962
-0.003746945794 1.064108801e-10 -25.8259401
-3.364579362e-05 -56.1535414 19.1567403
7.819537954 1.064108801e-10 54.6473791
238.8318237 1.064108801e-10 -35.5123802
67.95839685 -119.6260557 -250
231.6865692 1.064108801e-10 -12.8230491
198.6571834 -154.6939518 -250
-3.364579362e-05 -79.7796862 186.3606219
54.56911225 1.064108801e-10 -221.9403055
111.7607561 1.064108801e-10 194.8153902
167.5730141 1.064108801e-10 -143.4705863
-3.364579362e-05 -188.7210707 149.6205855
138.911264 1.064108801e-10 -138.1563604
1.670078154 1.064108801e-10 87.499745
-3.364579362e-05 -29.8867943 170.5600042
109.0704988 1.064108801e-10 -229.3241919
187.3517837 1.064108801e-10 -187.7089737
73.92373645 -14.8987698 -250
105.0264697 1.064108801e-10 174.1684813
-3.364579362e-05 -128.3842857 218.4576644
0.6981812542 1.064108801e-10 -144.8734705
53.40504285 1.064108801e-10 179.7122108
-3.364579362e-05 -46.9215406 -227.0921942
-3.364579362e-05 -200.821911 -230.8672322
10.44660055 -84.2684141 -250
196.2385526 1.064108801e-10 104.5219498
235.5139407 -166.934077 -250
98.02438145 1.064108801e-10 165.3104727
-3.364579362e-05 -250.906703 133.0990529
-3.364579362e-05 -114.1660037 -102.1385236
171.233893 1.064108801e-10 177.4545409
204.6816805 1.064108801e-10 80.103831
88.54775325 1.064108801e-10 14.9624414
201.4341811 -24.4870516 -250
227.9165467 1.064108801e-10 -141.5578586
239.8474204 1.064108801e-10 33.7970692
196.2955282 1.064108801e-10 -115.8183362
89.19552535 1.064108801e-10 -103.1772859
-3.364579362e-05 -166.5428678 93.8872397
-3.364579362e-05 -34.3554447 -26.4348969
195.3656669 1.064108801e-10 -35.9451263
82.88677685 -63.6314292 -250
147.5581401 1.064108801e-10 83.5833286
87.64762765 1.064108801e-10 220.8687678
-3.364579362e-05 -218.8987321 -152.7871007
139.1839568 1.064108801e-10 -226.7362871
233.5813053 1.064108801e-10 173.8857535
172.9616905 -170.2066148 -250
159.3337602 -202.2757048 -250
-3.364579362e-05 -104.0975999 -151.9408221
8.709443554 -169.5097223 -250
194.7780386 1.064108801e-10 -94.6865398
164.0155388 1.064108801e-10 4.7044976
111.2014071 1.064108801e-10 69.1489148
-3.364579362e-05 -71.9075533 210.4441646
49.71853265 1.064108801e-10 -39.6463403
212.4558874 -231.3429335 -250
242.4200419 1.064108801e-10 -62.6168762
-3.364579362e-05 -116.5475649 -224.8304499
-3.364579362e-05 -5.6805965 157.2884564
-3.364579362e-05 -185.2989814 201.1567445
223.7263435 1.064108801e-10 -214.9246116
43.68504955 1.064108801e-10 2.5405955
204.3301528 1.064108801e-10 -76.8832403
103.7517913 1.064108801e-10 -90.1832807
-3.364579362e-05 -222.4123858 214.193158
-3.364579362e-05 -81.3498098 204.7895688
-2.484422246 1.064108801e-10 -63.8420018
-3.364579362e-05 -182.7278635 98.6744046
196.2590043 1.064108801e-10 200.205033
-3.364579362e-05 -108.2427398 -41.7356515
77.14402655 -42.7973582 -250
211.0497853 1.064108801e-10 -146.1689126
95.55021725 1.064108801e-10 124.903241
-3.364579362e-05 -8.350441 21.4507721
144.993842 1.064108801e-10 -85.250005
49.43949225 -33.3770689 -250
6.959695954 1.064108801e-10 -95.0694081
-3.364579362e-05 -26.0308912 129.2530545
26.10040095 1.064108801e-10 -64.6959652
11.04811125 -132.6762574 -250
-3.364579362e-05 -56.5853304 -28.9636493
76.49017065 1.064108801e-10 73.5758667
180.3739766 1.064108801e-10 84.1363532
-3.364579362e-05 -50.7065919 -135.2191229
78.93210585 1.064108801e-10 -224.5263914
-3.364579362e-05 -166.7689421 80.5127496
35.18612255 1.064108801e-10 -145.6613454
224.9641621 1.064108801e-10 -131.6818936
-3.364579362e-05 -178.4822707 219.6791971
-3.364579362e-05 -15.5822208 58.4853313
-3.364579362e-05 -105.1077249 -110.4167539
-3.364579362e-05 -165.9236346 -166.8424011
152.1258212 1.064108801e-10 -46.325884
-3.364579362e-05 -167.9836933 48.3651446
211.2041669 1.064108801e-10 185.5304018
-3.364579362e-05 -235.877337 -82.3364847
18.09224855 1.064108801e-10 -241.0368432
-3.364579362e-05 -140.4518781 -90.0421478
79.04329455 1.064108801e-10 200.9841754
159.7590024 -214.6727014 -250
-3.364579362e-05 -65.1694953 21.2363075
-3.364579362e-05 -144.9765871 -113.8729455
-3.364579362e-05 -150.8250208 9.6643411
-3.364579362e-05 -105.1283915 194.1713015
141.1073491 1.064108801e-10 175.6761485
-3.364579362e-05 -224.3407934 232.1838079
-3.364579362e-05 -79.7388813 137.8157092
238.1377174 1.064108801e-10 -82.3228183
229.185914 1.064108801e-10 15.2331999
63.25401475 1.064108801e-10 92.3396109
-3.364579362e-05 -170.5714309 -71.4840483
103.9763153 -8.0772409 -250
-3.364579362e-05 -108.8531862 -50.9356184
176.5263207 -81.1417394 -250
202.7017316 1.064108801e-10 42.9174037
-3.364579362e-05 -111.3779993 -164.1457073
-3.364579362e-05 -194.6300262 52.2721025
-3.364579362e-05 -11.6074656 119.4525417
-0.7206402458 -223.9814755 250
-3.364579362e-05 -91.7433441 -137.9618557
82.87182245 1.064108801e-10 -130.1432863
-3.364579362e-05 -127.9262406 25.939806
15.47328675 1.064108801e-10 -128.3870949
154.6562321 1.064108801e-10 128.1020428
175.7834019 -125.3782957 -250
176.9019967 1.064108801e-10 226.8704901
6.412628754 1.064108801e-10 7.9991952
219.1346463 1.064108801e-10 117.4360547
141.9221287 -241.8012922 -250
117.6673119 1.064108801e-10 159.9151212
-3.364579362e-05 -174.3960682 -105.7826506
142.7060442 1.064108801e-10 134.2676934
155.3719171 1.064108801e-10 -158.6136631
-3.364579362e-05 -146.9559461 67.6405433
74.79803935 1.064108801e-10 -200.7295048
-3.364579362e-05 -241.3928572 150.3403013
0.8592186542 1.064108801e-10 -169.9036336
74.81751685 1.064108801e-10 -171.1586454
181.922312 1.064108801e-10 113.6457145
-3.364579362e-05 -156.8354555 -117.0862865
207.8545115 -142.6639165 -250
132.0899851 1.064108801e-10 -144.6103724
58.15707365 -47.4458589 -250
106.6211703 1.064108801e-10 -131.2366567
154.4094372 -116.2638613 -250
219.3032436 -215.7037183 -250
24.64174845 1.064108801e-10 -215.5762556
-3.364579362e-05 -90.8657814 172.6950513
74.76749125 1.064108801e-10 -71.2705671
-3.364579362e-05 -5.2622989 -86.5195079
-3.364579362e-05 -35.2720646 -205.0682864
149.0832168 1.064108801e-10 185.2240159
233.4277553 1.064108801e-10 213.7339153
-3.364579362e-05 -169.3754285 -222.7334706
-1.104560646 -7.8382988 -250
72.77110365 1.064108801e-10 52.2868771
179.7256589 1.064108801e-10 -113.2435244
205.2823153 1.064108801e-10 -212.2341269
-3.364579362e-05 -244.236171 -163.8517534
-0.9917994458 -10.8664188 250
139.910466 -94.4713633 -250
-3.364579362e-05 -238.6259677 164.83288
190.7173705 -84.3625807 -250
-3.364579362e-05 -64.0763503 -106.329995
160.152863 1.064108801e-10 110.613719
115.5569784 -12.9640381 -250
87.32414135 1.064108801e-10 -164.9161392
