# .PCD v0.7 - Point Cloud Data file format
VERSION 0.7
FIELDS x y z
SIZE 4 4 4
TYPE F F F
COUNT 1 1 1
WIDTH 1245
HEIGHT 1
VIEWPOINT 0 0 0 1 0 0 0
POINTS 1245
DATA ascii
-3.364579192e-05 163.7428642 240.8052585
249.1054982 197.5481529 -250
42.67571005 -1.552502306e-05 197.0590736
-3.364579192e-05 151.2371879 96.8621444
43.47229895 69.43178157 -250
129.590227 251.957615 -250
-3.364579192e-05 88.23387007 -59.9732192
15.65688735 -1.552502306e-05 45.4463925
-3.364579192e-05 37.38219357 -151.6394821
94.54209865 -1.552502306e-05 128.8188459
-3.364579192e-05 206.9127612 100.400164
-3.364579192e-05 35.18672107 -243.0438482
213.6440282 -1.552502306e-05 -228.8366317
-3.364579192e-05 216.6432417 144.0131992
38.55575745 -1.552502306e-05 -15.3148891
-3.364579192e-05 158.1939626 -98.6982915
-3.364579192e-05 208.8709433 36.0179522
121.7396731 -1.552502306e-05 80.7833183
147.7308786 -1.552502306e-05 -32.7349242
-0.8259565458 251.5280432 250
143.0737431 -1.552502306e-05 195.123909
137.3741466 -1.552502306e-05 -101.8680729
211.6965952 -1.552502306e-05 -148.3793851
163.3334987 204.138653 -250
-3.364579192e-05 108.0168648 -221.9733285
215.7570285 -1.552502306e-05 162.6909566
-3.364579192e-05 241.5789003 -206.4429671
211.0241588 -1.552502306e-05 -35.3607316
210.9032366 159.5422885 -250
38.67270075 -1.552502306e-05 -206.8399922
-3.364579192e-05 90.95791887 147.9226749
119.7463328 -1.552502306e-05 -156.5334437
165.4665969 -1.552502306e-05 -216.8018
212.8874686 251.0353058 -250
89.39430125 -1.552502306e-05 45.2127166
77.68469515 -1.552502306e-05 -81.2756293
86.02679965 212.0975299 -250
164.0753208 -1.552502306e-05 27.420554
46.38266965 28.82390977 -250
-3.364579192e-05 124.8842191 56.032226
82.67473775 -1.552502306e-05 -40.7032849
211.5803077 -1.552502306e-05 80.1725371
54.75237385 -1.552502306e-05 -147.5521258
-3.364579192e-05 49.58885607 213.4852843
-3.364579192e-05 209.1018995 -149.5672993
45.80313785 -1.552502306e-05 65.3352648
59.44830945 144.4131425 -250
129.694505 -1.552502306e-05 156.1937417
-3.364579192e-05 27.43343697 167.26006
-3.364579192e-05 11.88007827 -36.2756536
141.4696956 174.1881734 -250
241.1985728 -1.552502306e-05 108.1127356
-3.364579192e-05 66.24402827 81.6500186
-3.364579192e-05 78.69194837 -178.1938028
21.39954565 -1.552502306e-05 169.3689384
172.2251844 -1.552502306e-05 97.6878052
-3.364579192e-05 201.1303146 -231.8405071
95.47767625 8.646897375 -250
173.2766616 122.0191329 -250
-3.364579192e-05 98.54806657 181.8964396
171.1363346 45.92927287 -250
-3.364579192e-05 66.61290707 -9.0662063
-3.364579192e-05 147.6945403 -12.2866529
-3.364579192e-05 150.4436304 -165.9637653
170.9082026 -1.552502306e-05 147.2777321
71.83018705 -1.552502306e-05 -4.6101226
248.6076756 36.10699977 -250
-3.364579192e-05 76.08292907 -105.1259074
-3.364579192e-05 167.6971932 170.0664663
-3.364579192e-05 19.85399197 110.1996651
-2.193049146 -1.552502306e-05 75.1774431
135.7484033 -1.552502306e-05 7.3969345
148.8411466 -0.931085125 -250
114.8177863 -1.552502306e-05 -192.8468886
-3.364579192e-05 73.60409257 -216.4304744
-3.364579192e-05 226.5864027 217.4803084
-3.364579192e-05 216.2667308 -76.4171854
244.7845031 102.4197214 -250
-3.364579192e-05 252.3049994 151.5697851
-3.364579192e-05 182.2985205 -172.1238561
56.70137435 -1.552502306e-05 109.2082119
242.5568897 -1.552502306e-05 -215.0672344
217.2234894 -1.552502306e-05 -4.0081344
178.9534675 -1.552502306e-05 -38.688503
98.24362075 243.5451672 -250
-3.364579192e-05 32.19302027 -67.6574519
79.83960665 -1.552502306e-05 204.9498661
54.81455545 -1.761083925 -250
250.5603943 -1.552502306e-05 -48.064282
-3.364579192e-05 217.6991023 -1.6125519
29.26796085 -1.552502306e-05 -83.7491281
-3.364579192e-05 196.3774295 -31.6085115
125.8195287 -1.552502306e-05 221.3175451
251.9085232 -1.552502306e-05 -92.0811266
-3.364579192e-05 15.33854077 -178.939346
219.276491 77.79819787 -250
251.9281555 -1.552502306e-05 229.8937722
36.45670285 238.6968637 -250
-3.364579192e-05 143.1709443 -72.2099573
212.3970374 -1.552502306e-05 208.4979504
-3.364579192e-05 105.4681505 28.1157695
24.40019085 -1.552502306e-05 15.406512
35.00900205 171.171221 -250
-3.364579192e-05 177.7719224 27.0286503
251.6537935 -1.552502306e-05 32.3927696
-3.364579192e-05 132.4757192 -239.3477319
-3.364579192e-05 252.4646995 -178.4878419
-3.364579192e-05 34.01377637 -8.6315628
181.3875952 -1.552502306e-05 -156.4231949
-3.364579192e-05 62.65164997 -75.4545526
72.47764325 76.33792037 -250
57.50449475 -1.552502306e-05 170.4965054
-3.364579192e-05 185.9431766 -109.2569818
-3.364579192e-05 26.44306567 233.3945804
96.11153345 130.5547346 -250
-3.364579192e-05 97.92517627 -31.5970714
243.5258121 -1.552502306e-05 -154.0650286
141.6422745 92.56086117 -250
101.4303846 -1.552502306e-05 17.2316007
-3.364579192e-05 206.5170665 69.0638261
-3.364579192e-05 167.1794654 -34.3186579
-3.364579192e-05 84.94832887 244.8639113
-3.364579192e-05 56.40014567 53.0904836
224.270073 16.87274537 -250
-3.364579192e-05 101.9925078 -120.7721133
-3.364579192e-05 196.1171082 164.595018
193.1817361 -1.552502306e-05 35.6253637
200.1330536 -1.552502306e-05 -76.8977426
118.8040609 -1.552502306e-05 -37.5237565
21.60949185 -1.552502306e-05 222.2471678
-3.364579192e-05 129.0869148 120.4640625
25.13210685 -1.552502306e-05 131.0852672
69.17560575 -1.552502306e-05 -122.9748038
151.7505637 -1.552502306e-05 77.8791781
-3.364579192e-05 72.92222607 28.7423607
83.09495105 -1.552502306e-05 -147.6946687
-3.364579192e-05 24.94478577 37.2061508
-3.364579192e-05 244.9213476 -113.9213603
-3.364579192e-05 7.379001675 -97.6361477
145.836255 228.8688824 -250
144.1048779 -1.552502306e-05 -66.8994986
225.0886566 -1.552502306e-05 -192.114273
-3.364579192e-05 195.1211664 225.2058062
-3.364579192e-05 246.1838231 -13.1704017
-3.364579192e-05 80.55231957 121.7979169
163.1348046 -1.552502306e-05 216.6861277
-3.364579192e-05 125.2618255 86.1155395
-3.364579192e-05 120.5390826 220.0784555
-3.364579192e-05 54.62463687 -124.5771577
-3.364579192e-05 179.105314 103.8751696
52.72886075 -1.552502306e-05 -175.4605575
25.02377025 -1.552502306e-05 -40.1853067
146.8767085 143.1592139 -250
94.05207435 182.4103765 -250
41.93569555 96.96018447 -250
-3.364579192e-05 107.0566546 -249.6287684
81.04594385 -1.552502306e-05 156.4504025
21.14050935 53.54344117 -250
107.5672917 43.38152657 -250
222.616813 184.1932218 -250
59.13112885 215.784331 -250
-3.364579192e-05 158.1166771 209.1484508
-3.364579192e-05 225.4531186 -177.8837074
179.3298489 225.7970335 -250
249.2278247 169.5185283 -250
174.8323938 -1.552502306e-05 -108.9528852
-3.364579192e-05 9.295543275 -149.8864563
105.4571938 -1.552502306e-05 104.4802875
-1.261902546 220.3729692 -250
-3.364579192e-05 96.95169157 77.6343104
122.81635 19.30127317 -250
226.9464783 -1.552502306e-05 -102.405104
-3.364579192e-05 234.7626025 94.5084203
-3.364579192e-05 130.7072268 -202.0295909
-3.364579192e-05 247.2898849 41.2795598
225.8624892 -1.552502306e-05 135.6645316
-1.829300846 -1.552502306e-05 -239.665344
-3.364579192e-05 46.32039917 103.5406849
92.97039555 -1.552502306e-05 -207.016084
211.9499974 -1.552502306e-05 54.1442485
24.00875845 147.6163558 -250
155.5727871 24.13236597 -250
176.8487192 182.0144198 -250
-3.364579192e-05 182.0305496 -211.532668
-1.580515346 -1.552502306e-05 181.188828
-3.364579192e-05 225.1635359 118.6252981
-3.364579192e-05 96.64083707 -159.7583308
137.6695348 -1.552502306e-05 -205.8894742
148.8532696 68.01793767 -250
108.4684318 108.1604171 -250
-3.364579192e-05 33.09092817 -216.210568
-3.364579192e-05 40.58933527 189.6424496
187.5172175 -1.552502306e-05 -131.0107067
67.50751635 -1.552502306e-05 -196.9256593
-3.364579192e-05 250.9989684 224.4709864
151.0120001 -1.552502306e-05 52.4982197
208.1246626 132.5435066 -250
-3.364579192e-05 250.8917435 -44.3524559
245.1583819 -1.552502306e-05 171.1209544
-3.364579192e-05 72.31242077 -34.1602821
-3.364579192e-05 96.12663807 -199.600475
111.8929291 -1.552502306e-05 -91.8150347
81.64595935 156.3249341 -250
-3.364579192e-05 152.5764582 45.8341197
24.04259225 -1.552502306e-05 -142.9700661
188.7932821 -1.552502306e-05 -227.6984185
-3.364579192e-05 148.1048294 72.1914321
-3.364579192e-05 216.3799253 178.8968954
117.0996529 -1.552502306e-05 244.6971327
77.54277665 -1.552502306e-05 249.2457083
204.4260762 -1.552502306e-05 248.2337867
156.6670507 -1.552502306e-05 167.3909317
-3.364579192e-05 154.8581533 -123.0758621
120.1270793 -1.552502306e-05 -128.3128744
-3.364579192e-05 154.8009197 146.6041275
-3.364579192e-05 58.72902177 -236.7695658
232.4460292 215.2848608 -250
119.1843468 -1.552502306e-05 134.3010403
191.0611087 62.67153127 -250
-3.364579192e-05 121.3012483 -21.3819885
68.83647595 17.98394847 -250
240.0799661 -1.552502306e-05 11.1425436
-3.364579192e-05 113.1633668 -70.7521324
-3.364579192e-05 24.38207987 -131.1091306
168.4016366 -1.552502306e-05 241.4422717
170.7716777 -1.552502306e-05 -193.3557778
188.8750255 -1.552502306e-05 203.5571344
198.5338756 -1.552502306e-05 12.1960936
206.9065183 -1.552502306e-05 185.2645399
-3.364579192e-05 58.44097647 -165.5950484
-3.364579192e-05 140.6624396 234.8506159
-3.364579192e-05 222.6669531 -220.9434613
192.0504243 -1.552502306e-05 158.2731593
-3.364579192e-05 23.12069847 13.4275332
81.37005995 -1.552502306e-05 108.9915612
201.1012523 2.973117875 -250
105.1959287 -1.552502306e-05 153.5447668
-3.364579192e-05 48.24757227 155.6651751
-3.364579192e-05 164.4807517 7.343963
-3.364579192e-05 202.0023374 125.5437276
1.533681354 -1.552502306e-05 22.2541414
-3.364579192e-05 88.04455037 -84.8426187
58.64894175 -1.552502306e-05 -95.3179575
-3.364579192e-05 124.5841685 7.175643
-3.364579192e-05 133.3067147 -114.1919883
19.74755815 24.95009857 -250
-3.364579192e-05 231.9569131 -57.8670601
66.86179575 -1.552502306e-05 55.4944659
55.22031935 -1.552502306e-05 -35.5219347
156.3273822 -1.552502306e-05 -7.3581259
25.06346775 -1.552502306e-05 245.1518134
195.6604345 91.69760747 -250
234.0167401 122.8064133 -250
167.2018952 -1.552502306e-05 124.5386351
48.27774235 -1.552502306e-05 -227.7765222
-1.086975346 -1.552502306e-05 227.0755522
60.52807615 -1.552502306e-05 217.45769
52.07216925 119.9579532 -250
142.6494358 -1.552502306e-05 -158.2179438
197.6549693 -1.552502306e-05 98.3902773
123.9920471 142.3758328 -250
-3.364579192e-05 68.26307947 144.6198638
134.2618899 -1.552502306e-05 99.935377
-3.364579192e-05 14.20530657 57.4423493
10.58574595 192.3710551 -250
233.8278111 -1.552502306e-05 48.0773687
-3.364579192e-05 120.1171436 -158.5876073
-3.364579192e-05 209.4583249 -50.1285355
111.1645494 -1.552502306e-05 196.4591936
-3.364579192e-05 28.30195537 142.0930689
195.9211126 31.19535497 -250
19.66227355 93.48574847 -250
124.2037746 -1.552502306e-05 178.0782833
45.78333745 194.6645974 -250
222.7500032 -1.552502306e-05 -124.5089583
213.1591122 226.7685997 -250
91.18724905 93.85570827 -250
38.72224115 -1.552502306e-05 44.085696
-3.364579192e-05 151.4142321 119.6916103
116.8545329 178.0716928 -250
-3.364579192e-05 126.4829348 173.8497144
91.29609395 63.69637897 -250
-1.591835246 183.9202588 250
9.213746154 -1.552502306e-05 115.6583622
19.03727595 -1.552502306e-05 198.5118683
219.0770916 -1.552502306e-05 229.5886388
121.4429279 230.1635929 -250
127.1110787 64.62741337 -250
107.1588554 -1.552502306e-05 58.1861128
-3.364579192e-05 182.2939789 82.131466
231.8222975 59.76337737 -250
25.85238465 -1.552502306e-05 -224.6759988
-3.364579192e-05 162.9921153 -228.9447509
16.90121815 -1.552502306e-05 -18.5740023
58.48921965 47.98923157 -250
217.0975295 -1.552502306e-05 112.6495285
16.09161865 -1.552502306e-05 -112.2119435
-3.364579192e-05 231.9331781 -91.6671062
-3.364579192e-05 107.6771646 202.406506
75.02010175 -1.552502306e-05 26.6055305
-3.364579192e-05 176.3180411 -86.5995608
232.7002984 -1.552502306e-05 -33.3788018
104.9222977 -1.552502306e-05 -172.9878393
22.97466905 -1.552502306e-05 -189.5951546
-3.364579192e-05 157.8109938 -56.2490605
222.408562 -1.552502306e-05 -170.642288
158.8913416 105.858442 -250
-3.364579192e-05 70.01150357 102.9248972
-3.364579192e-05 198.641838 17.0342308
124.9485102 -2.066099925 -250
51.13189195 -1.552502306e-05 86.0906382
-3.364579192e-05 196.0857699 -132.64325
-3.364579192e-05 21.56033907 88.4654122
-3.364579192e-05 111.4069297 137.9680084
25.38701215 -1.552502306e-05 71.2318269
192.3581885 -1.552502306e-05 -57.2541904
-3.364579192e-05 163.8968154 -182.4035363
-3.364579192e-05 194.0028038 50.950844
-3.364579192e-05 230.0979153 160.2260724
208.8167431 -1.552502306e-05 -208.3505457
159.5119521 -1.552502306e-05 -94.5434994
-3.364579192e-05 63.08312007 230.2352424
249.3224117 -1.552502306e-05 -69.8589144
-3.364579192e-05 227.6647023 48.8175492
39.11583825 -1.552502306e-05 156.942594
233.287398 -1.552502306e-05 -235.9370501
-3.364579192e-05 88.32830907 -231.1489908
26.84008265 -1.552502306e-05 -61.0329508
86.21860195 -1.552502306e-05 -19.6454427
188.5574575 143.7550208 -250
230.0470939 -1.552502306e-05 89.4379047
-3.364579192e-05 222.1432831 20.2059887
164.0698193 -1.552502306e-05 -52.9651886
144.095932 -1.552502306e-05 -122.4691316
201.8525668 -1.552502306e-05 -169.366733
104.1695354 200.3294199 -250
-3.364579192e-05 75.09783607 190.8181602
-3.364579192e-05 77.06033837 8.6332184
225.8013336 143.831635 -250
63.22807585 -1.552502306e-05 192.963875
195.5475464 -1.552502306e-05 -22.0018878
93.85168465 -1.552502306e-05 -57.809872
95.53032725 -1.552502306e-05 -231.4885332
-3.364579192e-05 102.7451268 234.8436821
80.08496335 -1.552502306e-05 180.1338352
-3.364579192e-05 222.2301754 -134.0263725
194.7511724 239.0655261 -250
227.9945756 37.84620917 -250
-3.364579192e-05 195.6949409 -80.6750323
206.2981499 -1.552502306e-05 140.8273789
144.1185952 197.874639 -250
83.21896935 -1.552502306e-05 -103.7826292
250.5228054 -0.602915125 250
150.0771634 -1.552502306e-05 148.3573099
214.0477882 -1.552502306e-05 -56.0751485
-3.364579192e-05 167.7970607 -13.1419229
21.15149025 251.7479209 -250
68.35637415 -1.552502306e-05 -162.3306131
192.9016392 117.8752673 -250
-3.364579192e-05 15.31465687 -56.8709807
-3.364579192e-05 124.536889 36.0395901
163.9683433 -1.552502306e-05 -237.0142196
-3.364579192e-05 29.24695457 213.656717
187.3011564 -1.552502306e-05 81.354782
18.34187805 226.2483759 -250
129.2567802 -1.552502306e-05 62.3423131
-3.364579192e-05 133.4309151 -181.3615295
-3.364579192e-05 8.081905975 162.866276
-3.364579192e-05 144.0251328 164.6786148
-3.364579192e-05 206.7447832 209.2145417
128.8786575 -1.552502306e-05 -178.5845405
125.4940013 -1.552502306e-05 -13.9836904
52.39048655 -1.552502306e-05 4.1848507
-3.364579192e-05 248.001065 -225.0670163
147.050503 -1.552502306e-05 229.2650502
193.7237144 169.0558679 -250
81.74401045 231.5575585 -250
70.82226055 -1.552502306e-05 133.0870332
-3.364579192e-05 81.25021037 164.9092962
-3.364579192e-05 66.48624727 -52.8034981
-3.364579192e-05 229.3787565 243.0599231
-3.364579192e-05 195.8317178 144.0211212
98.10789925 -1.552502306e-05 83.0647925
76.20680975 -1.552502306e-05 -248.8585623
-2.110456046 -1.552502306e-05 -167.1462349
52.90211755 -1.552502306e-05 -76.000727
-3.364579192e-05 240.6780638 135.4548749
-3.364579192e-05 224.1618559 -197.8939696
-3.364579192e-05 156.9004263 186.1072826
-3.364579192e-05 176.3314215 220.6926432
41.47608765 -1.552502306e-05 220.5555323
-3.364579192e-05 105.8737017 -139.6477914
-3.364579192e-05 71.16011917 -197.3245744
-3.364579192e-05 34.57242797 -181.6054909
-2.169123246 -1.552502306e-05 -20.2768139
-3.364579192e-05 110.9367198 -51.7457224
98.08150355 -1.552502306e-05 213.4301772
-3.364579192e-05 133.2008179 -88.5129137
104.0152301 -1.552502306e-05 -145.7373719
-3.364579192e-05 229.8929413 -159.344846
18.25805285 -1.552502306e-05 148.8008215
172.6994683 -1.552502306e-05 -174.4972185
122.6128462 -1.552502306e-05 115.466599
-3.364579192e-05 201.19274 -172.889145
92.94464965 27.35319007 -250
234.8402341 -1.552502306e-05 155.3207949
122.0180899 -1.552502306e-05 20.2492805
25.35584205 74.40631307 -250
84.68129345 -1.552502306e-05 63.3960878
145.6757579 -1.552502306e-05 32.9983762
162.6625547 237.1335091 -250
99.76034525 -1.552502306e-05 -32.5699011
-3.364579192e-05 110.4326406 164.2193674
180.3778606 -1.552502306e-05 18.3116186
7.866523954 -1.552502306e-05 -49.6863408
-3.364579192e-05 32.99043557 -28.5429167
67.68928485 199.2483892 -250
39.87822415 48.45384417 -250
-3.364579192e-05 140.0956388 -222.376108
78.97451325 -1.552502306e-05 224.1319193
238.8458682 84.80156367 -250
61.17477175 91.06420097 -250
-3.364579192e-05 34.50950037 249.9926701
-3.364579192e-05 210.0779964 -18.4179322
147.8324412 249.1973256 -250
72.43739935 -1.552502306e-05 -63.6456592
-2.413785546 18.36823987 -250
-3.364579192e-05 22.36994027 -108.2351843
-3.364579192e-05 100.0114445 122.7590302
-3.364579192e-05 182.8111287 -232.6640092
38.86994775 7.281761575 -250
4.521554554 -1.552502306e-05 97.9407108
-3.364579192e-05 167.0758794 -158.3314775
227.7871882 -1.552502306e-05 65.3426161
190.5870458 -1.552502306e-05 -207.4103822
184.116806 198.7533382 -250
4.009918454 -1.552502306e-05 -189.7755693
-3.364579192e-05 148.9691929 -33.2952576
-3.364579192e-05 104.2590485 60.9083577
155.1458466 -1.552502306e-05 103.8504488
36.94304275 -1.552502306e-05 109.958014
129.322657 -1.552502306e-05 -77.2171599
252.4098874 -1.552502306e-05 50.3975017
-3.364579192e-05 220.2329036 197.2721106
107.8177547 -1.552502306e-05 34.0688429
155.5715673 -1.552502306e-05 11.5605611
189.8180313 -1.552502306e-05 -91.6179359
-3.364579192e-05 186.0709719 -46.9002428
231.317376 168.2128992 -250
-3.364579192e-05 45.07373297 -83.2977415
94.33517505 -1.552502306e-05 -87.9647564
234.9281914 -1.552502306e-05 221.2985655
88.36164055 -1.552502306e-05 2.2113717
-3.364579192e-05 137.973878 216.2042236
-3.364579192e-05 45.41221867 232.7041239
148.8013076 121.9787017 -250
-3.364579192e-05 252.0761296 98.5025679
37.57571545 -1.552502306e-05 -131.4595678
-3.364579192e-05 203.1807172 -98.0437064
-3.364579192e-05 50.22720487 -62.8097447
166.5721365 68.50560657 -250
229.4839227 233.6418039 -250
-3.364579192e-05 42.01153847 41.9306395
-3.364579192e-05 29.17235927 -45.8729958
48.36500615 159.627165 -250
179.3055824 105.4725008 -250
-3.364579192e-05 48.44187907 -20.0987029
164.2450139 140.2858667 -250
164.0581758 -1.552502306e-05 185.7399253
170.2666014 -1.552502306e-05 77.1962341
186.5316556 -1.552502306e-05 135.7556696
58.43456665 -1.552502306e-05 -15.9113111
76.21160245 139.3565308 -250
157.0118808 182.1756081 -250
222.99064 -1.190475425 -250
-3.364579192e-05 79.46554057 -156.5955055
-3.364579192e-05 174.5763282 186.1131611
-3.364579192e-05 172.4395172 153.2641132
-3.364579192e-05 239.7382489 206.0321831
116.3776887 -1.552502306e-05 3.7656206
38.05218075 -1.552502306e-05 -157.1184609
65.43883125 -1.552502306e-05 235.0843385
172.4495053 -1.552502306e-05 -22.4098035
-3.364579192e-05 245.7221601 167.7135609
100.5442304 -1.552502306e-05 249.7807366
-3.364579192e-05 220.0903236 85.3411396
-3.364579192e-05 141.9916029 134.9924304
-3.364579192e-05 162.638265 -76.0400779
125.9613531 103.6425611 -250
124.1671565 -1.552502306e-05 -54.0067119
-3.364579192e-05 24.51011977 -164.3328956
-3.364579192e-05 48.06155387 1.3091049
48.44320275 -1.552502306e-05 -192.1065555
195.9156088 219.1068837 -250
-3.364579192e-05 61.02034727 117.5671554
133.6311806 -1.552502306e-05 -143.6372019
139.7847701 -1.552502306e-05 170.943147
239.5647635 -1.552502306e-05 125.1588312
105.8743048 223.0369271 -250
22.96179355 -1.552502306e-05 -2.6335057
223.8978369 -1.552502306e-05 186.5808817
227.2188454 99.07970117 -250
96.75704515 -1.552502306e-05 -190.4429051
243.816262 19.80897257 -250
-3.364579192e-05 24.85211537 -82.9414998
181.6412172 -1.552502306e-05 111.772238
152.1112912 161.0076135 -250
5.598035754 149.2686176 -250
30.81708345 -1.552502306e-05 185.0179654
136.9599617 -1.552502306e-05 -230.7860586
-3.364579192e-05 211.6576354 231.8114937
-3.364579192e-05 36.93872777 -117.0957723
-3.364579192e-05 166.4870379 73.6056214
-3.364579192e-05 41.24078627 85.191244
207.6398988 65.67140807 -250
158.6458704 -1.552502306e-05 -114.1437248
-3.364579192e-05 24.89668357 183.8002602
173.7121363 -1.552502306e-05 163.7695972
52.61222395 234.4966721 -250
-3.364579192e-05 5.189191375 -223.9093912
-3.364579192e-05 31.78049757 123.2176529
-3.364579192e-05 238.7945056 -188.0389831
-3.364579192e-05 234.639731 -74.3127213
-3.364579192e-05 119.6979693 103.8912284
66.26819605 -1.552502306e-05 93.0416557
235.8804477 -1.552502306e-05 -85.1176088
-2.094063746 181.5826242 -250
-3.364579192e-05 55.86235367 32.7221322
116.8559222 -1.552502306e-05 -112.0088389
187.75793 -1.552502306e-05 245.0502571
12.95291275 130.6167506 -250
27.32335045 -1.552502306e-05 31.7174706
166.7727877 -1.552502306e-05 47.4155658
-3.364579192e-05 177.3137505 -123.3796894
-3.364579192e-05 107.7608773 44.8034314
-3.364579192e-05 189.6061139 -187.9280238
29.99237715 -1.552502306e-05 -100.1809056
-3.364579192e-05 95.13552227 -178.5309025
-3.364579192e-05 52.93867777 -140.9318642
-3.364579192e-05 10.84551197 123.9532038
-3.364579192e-05 161.3464326 26.3819686
-3.364579192e-05 234.0955362 -0.5774094
234.6195277 -1.552502306e-05 -52.0282547
-3.364579192e-05 19.10990047 -19.7704894
207.8729481 -1.552502306e-05 -131.4007186
-3.364579192e-05 200.8394049 184.0407972
-3.364579192e-05 170.900914 41.8823238
246.1997081 -1.552502306e-05 91.9732378
-3.364579192e-05 172.9397964 -197.9608011
128.3430931 164.4799419 -250
92.65606885 114.6017627 -250
-3.364579192e-05 186.2193818 -156.2802684
-3.364579192e-05 6.820666875 42.9215794
142.5112386 -1.552502306e-05 -48.1492324
155.8563644 40.48821617 -250
137.9828803 -1.552502306e-05 210.5898226
92.96382555 -1.552502306e-05 195.4330639
-3.364579192e-05 198.4122075 83.6566683
196.7682017 -1.552502306e-05 68.225758
-3.364579192e-05 210.8012612 53.4553388
3.133834954 49.95369907 -250
6.538146654 -1.552502306e-05 61.4034208
-3.364579192e-05 231.1796775 -234.6453391
200.2518449 -1.552502306e-05 -6.5819807
-3.364579192e-05 70.10711057 -90.159426
249.6083359 -1.552502306e-05 213.9858356
-3.364579192e-05 112.899852 -197.3881256
-3.364579192e-05 44.78458057 -228.8112397
-3.364579192e-05 236.411669 29.4767287
225.6696108 -1.552502306e-05 -140.4997858
-3.364579192e-05 227.3509103 -18.3127091
-3.364579192e-05 251.1896896 -60.6129599
-3.364579192e-05 147.3762451 -193.2818435
221.5475655 203.6015874 -250
-3.364579192e-05 117.3000103 -116.2068081
57.20494945 -1.552502306e-05 -214.5798637
-3.364579192e-05 120.4915583 188.934018
17.11323185 -1.552502306e-05 -204.3950363
-3.364579192e-05 62.12031897 16.4910977
60.48762905 -1.552502306e-05 73.2167763
-3.364579192e-05 229.053109 -119.5465147
-3.364579192e-05 244.4487439 81.9294632
66.36449805 160.5371304 -250
19.59692575 179.3324552 -250
141.7562029 16.37708147 -250
-3.364579192e-05 168.056403 119.988672
190.9553208 46.84495147 -250
-3.364579192e-05 141.0201769 -56.5318047
223.4505098 -1.552502306e-05 -214.3485317
-3.364579192e-05 15.00809407 -198.12521
43.90877875 219.9601445 -250
64.52832615 -1.552502306e-05 38.3942407
-3.364579192e-05 115.9004634 -36.7703369
94.90997165 146.2803613 -250
-3.364579192e-05 94.50880057 12.0112724
8.693141554 7.197140075 -250
210.7609622 -1.552502306e-05 -96.6502194
251.0512519 -1.552502306e-05 -201.8673997
85.10714325 -1.552502306e-05 -132.1333013
-3.364579192e-05 71.56863517 49.0810707
184.784446 -2.120382925 -250
49.22674325 177.7999374 -250
247.6729957 218.9758055 -250
-3.364579192e-05 86.16808067 37.2417228
14.11086845 -1.552502306e-05 -70.1420546
-1.580769846 202.1833076 -250
158.0456837 -1.552502306e-05 -155.5550788
-3.364579192e-05 156.9810253 -146.4067717
12.96699675 -1.552502306e-05 -130.1796571
-3.364579192e-05 196.7108533 241.2598979
196.5202549 -1.552502306e-05 -152.7932886
116.359459 128.8227694 -250
141.2257621 -1.552502306e-05 -18.6134502
-3.364579192e-05 203.2442632 -116.3892507
-3.364579192e-05 79.23792757 230.4096627
34.63723765 131.848413 -250
227.7692161 -1.552502306e-05 206.2651079
216.8304249 -1.552502306e-05 -20.958639
109.9276934 -1.552502306e-05 -246.731846
-3.364579192e-05 87.81090877 101.8466797
-3.364579192e-05 101.4183827 216.5820289
-3.364579192e-05 117.3603227 72.7884369
87.33287195 -1.552502306e-05 94.2328478
134.8697446 -1.552502306e-05 141.6136434
157.2247682 218.3297794 -250
91.57398475 -1.552502306e-05 143.9781027
-3.364579192e-05 214.9933115 -165.9739506
-3.364579192e-05 89.88446697 195.2479771
156.7737235 -1.552502306e-05 -78.3213055
213.8532866 28.25030847 -250
116.4331875 -1.552502306e-05 -208.1783363
-3.364579192e-05 83.35111517 -5.4368116
107.8855602 -1.552502306e-05 119.8740084
114.617487 -1.552502306e-05 165.6870324
40.49505065 -1.552502306e-05 132.0653566
233.940085 194.517406 -250
218.9912053 -1.552502306e-05 13.4669771
-3.364579192e-05 65.01060167 -151.6232787
156.3092558 88.32593477 -250
173.103826 -1.552502306e-05 205.1260696
52.56001745 -1.552502306e-05 -128.5673806
92.58313195 -1.552502306e-05 29.6359193
-0.1063697458 102.3316198 250
97.58883375 -1.552502306e-05 -159.7220813
-3.364579192e-05 47.72211577 66.8848905
58.40204175 67.01312807 -250
-3.364579192e-05 205.9543466 -64.8361896
172.2680863 -1.552502306e-05 -126.1368999
-3.364579192e-05 122.6882593 -218.3494027
-3.364579192e-05 72.18342727 208.1248425
210.117481 -1.552502306e-05 39.1562219
136.6872256 76.95457827 -250
-3.364579192e-05 183.1689971 234.6000218
39.86245425 -1.552502306e-05 -37.491669
37.74845925 -1.552502306e-05 -0.1527255
-3.364579192e-05 86.74731867 -41.5862777
107.3065681 23.09517377 -250
65.44714015 34.73374177 -250
-3.364579192e-05 148.3972717 2.6671314
-3.364579192e-05 53.68190617 -106.8481625
234.0138746 -1.552502306e-05 -2.5021497
-3.364579192e-05 14.70742477 -0.06805729996
178.0331991 32.72047207 -250
-3.364579192e-05 81.81355237 -118.8547142
-3.364579192e-05 38.73406697 -136.5134103
-3.364579192e-05 84.88450567 68.9413275
2.280012454 -1.552502306e-05 -84.9520149
-3.364579192e-05 171.3124326 -106.9622371
-3.364579192e-05 141.965783 -102.1792504
-3.364579192e-05 247.2403133 56.0731128
203.4450898 -1.552502306e-05 228.2164534
-3.364579192e-05 196.7897947 -211.9277461
-3.364579192e-05 90.76948197 -216.5944194
-3.364579192e-05 245.0103522 -128.6755224
-3.364579192e-05 194.4283626 33.0751085
-3.364579192e-05 142.7797081 179.3557021
193.5983611 -1.552502306e-05 -42.6188915
-3.364579192e-05 186.8434567 65.945096
98.41285115 -1.552502306e-05 -73.8711096
48.14889545 -1.552502306e-05 181.764572
206.6442936 189.2850455 -250
-3.364579192e-05 200.9186457 2.6087687
-3.364579192e-05 128.4301519 -8.6371836
31.18568085 194.5242351 -250
-3.364579192e-05 50.90886157 -178.0973345
-3.364579192e-05 100.4129318 -93.9965344
248.1431899 -1.552502306e-05 -167.8945792
214.5703473 -1.552502306e-05 98.3067188
66.26248075 -1.552502306e-05 14.977781
171.0120148 -1.552502306e-05 7.1971738
44.19576825 -1.552502306e-05 -97.1028235
-3.364579192e-05 189.6671695 117.8616078
-3.364579192e-05 192.6649647 -14.9460668
130.1379201 193.9491526 -250
148.148679 -1.552502306e-05 -143.320844
38.88269155 148.6514834 -250
185.6581776 -1.552502306e-05 -70.6207146
-3.364579192e-05 142.1428061 85.5796861
248.2184608 119.9608098 -250
203.9018556 146.8657867 -250
9.044115854 -1.552502306e-05 -30.7322906
-3.364579192e-05 142.9391824 -136.9629424
-3.364579192e-05 14.17343197 -120.1407293
99.20161445 -1.552502306e-05 -102.9673323
21.72679325 161.8736644 -250
14.15346805 -1.552502306e-05 184.9420799
-3.364579192e-05 240.1743954 -27.2403438
119.4114575 -1.552502306e-05 100.8779271
-3.364579192e-05 101.9808963 -16.6081973
140.93144 109.6299506 -250
30.28235775 105.3623825 -250
238.417203 155.7335178 -250
191.2794759 -1.552502306e-05 52.5265837
-3.364579192e-05 63.85054617 -185.0067592
-3.364579192e-05 213.9270019 164.7937103
71.69263325 -1.552502306e-05 -137.1296695
113.0672746 241.7653811 -250
-3.364579192e-05 46.69225907 176.7027043
112.8481378 -1.552502306e-05 227.3207978
70.80864785 -1.552502306e-05 118.6140064
-3.364579192e-05 102.0076253 -236.2738876
82.70460695 -1.552502306e-05 -118.0672248
219.6094605 -1.552502306e-05 148.4879441
158.6891692 -1.552502306e-05 -171.8719151
209.8250927 93.24479897 -250
-3.364579192e-05 210.6553078 -208.6520213
-3.364579192e-05 185.1156624 12.5778207
-3.364579192e-05 26.36033967 -231.8923581
-3.364579192e-05 18.62487667 -219.310883
-3.364579192e-05 222.2335092 64.4113954
-3.364579192e-05 177.1888722 -23.7315051
165.2281353 13.58770127 -250
10.78053935 -1.552502306e-05 4.5652185
-0.6000930458 133.7970491 250
29.35703405 -1.552502306e-05 -119.9698045
240.4882865 -1.552502306e-05 -106.4094627
177.2205832 -1.552502306e-05 220.1971688
-3.364579192e-05 83.52777257 -25.5955279
127.1792592 -1.552502306e-05 191.8665872
54.46511645 17.31902567 -250
142.7959678 -1.552502306e-05 -81.1615291
-3.364579192e-05 125.0515081 134.7067519
-3.364579192e-05 105.3964339 90.8326156
111.788572 94.38761407 -250
237.1355925 -1.552502306e-05 -199.2688426
-3.364579192e-05 149.0720171 198.4691524
54.38227545 -1.552502306e-05 -161.5411476
197.7947962 16.57029037 -250
-3.364579192e-05 141.9653732 107.318151
86.13434655 79.23314047 -250
12.90979665 68.10224737 -250
107.0707833 -1.552502306e-05 -53.3579993
35.21067325 -1.552502306e-05 171.3154922
67.15164875 -1.552502306e-05 157.6323836
85.97393965 -1.552502306e-05 17.3690241
5.655683954 -1.552502306e-05 214.6123375
250.1739315 -1.552502306e-05 -236.1794199
-3.364579192e-05 213.164052 -184.3657371
144.6493032 -1.552502306e-05 65.9505966
242.0284339 -1.552502306e-05 59.6060611
129.5243043 -1.552502306e-05 238.5231108
235.5165633 -1.552502306e-05 30.9531946
18.26834585 38.73072937 -250
245.8069119 49.66762017 -250
18.80511695 -1.552502306e-05 -236.6188157
108.0699587 -1.552502306e-05 71.9933947
-3.364579192e-05 116.5144371 233.5982548
-3.364579192e-05 126.3936561 22.3523308
199.5627203 -1.552502306e-05 169.8632898
-3.364579192e-05 35.32644487 6.6525498
146.7451944 -1.552502306e-05 134.2036267
172.2856518 -1.552502306e-05 -89.306806
-3.364579192e-05 22.94415317 197.464094
159.7647419 -1.552502306e-05 -204.2370103
16.39047025 -1.552502306e-05 -97.9003719
241.10181 -1.552502306e-05 238.4364997
-3.364579192e-05 81.82306127 -72.1808762
133.7661454 217.3075007 -250
-3.364579192e-05 21.09199757 246.8742784
53.68398235 249.0003457 -250
-3.364579192e-05 69.87278527 130.4924304
-0.8916966458 63.11677487 -250
199.7816432 -1.552502306e-05 -236.6274075
-3.364579192e-05 107.9787062 -167.5576307
-3.364579192e-05 13.09978417 26.149483
-3.364579192e-05 191.3367149 209.4722015
172.2139176 -1.552502306e-05 -141.9642286
-3.364579192e-05 156.7973111 58.8866926
-3.364579192e-05 70.76053647 -126.977957
-3.364579192e-05 33.60221807 108.6202817
72.51678915 218.6691344 -250
162.5101694 -1.552502306e-05 65.9119761
101.1502263 -1.552502306e-05 -217.9833297
82.92388395 245.1766287 -250
-3.364579192e-05 56.46641867 186.7401892
26.03427925 12.85666077 -250
9.527928754 -1.552502306e-05 -174.2192647
-3.364579192e-05 216.7981378 -95.5459457
125.4176649 -1.552502306e-05 -95.3599043
-2.430495846 -1.552502306e-05 -108.7876119
221.4356271 129.8507489 -250
70.39392395 -1.552502306e-05 -211.3852661
-3.364579192e-05 249.7242073 196.8582539
-3.364579192e-05 115.0088297 -6.8664671
-3.364579192e-05 45.05035447 -163.6161201
182.8707463 76.30609417 -250
-3.364579192e-05 55.03977257 89.22293
-3.364579192e-05 85.45923607 84.7615227
80.55615935 181.5811197 -250
39.96854625 -1.552502306e-05 -238.4383199
-3.364579192e-05 232.2049234 -106.4126771
128.3086603 -1.552502306e-05 -192.3088511
179.625873 -1.552502306e-05 31.7909957
6.375151954 232.4900625 -250
42.47858335 -1.552502306e-05 96.4392575
-3.364579192e-05 108.4849574 14.9709253
214.0036433 -1.552502306e-05 -83.5650741
40.71934545 -1.552502306e-05 -69.0939615
137.1749966 29.04247287 -250
187.9966699 -1.552502306e-05 -111.7546114
189.9253995 -1.552502306e-05 -176.5386228
33.14192675 -1.552502306e-05 60.2413128
-3.364579192e-05 115.2794754 -234.2220359
152.7111809 53.53154437 -250
134.9328852 -1.552502306e-05 83.1303878
-3.364579192e-05 181.0447772 168.9454907
-3.364579192e-05 158.5786288 108.0518259
91.33203605 196.553127 -250
239.3963359 -1.552502306e-05 -141.3562127
-3.364579192e-05 165.5195194 196.2942466
-3.364579192e-05 133.2774867 -168.0286533
-3.364579192e-05 53.69707017 -93.4620688
237.5743276 -1.552502306e-05 182.8500762
-3.364579192e-05 129.9111465 -70.8584689
175.9528033 -1.552502306e-05 -231.2248387
-3.364579192e-05 212.0349323 116.5017981
50.47547035 83.16732137 -250
-3.364579192e-05 172.236848 -46.6162144
-3.364579192e-05 95.65129977 135.3112052
119.4502998 -1.552502306e-05 53.193676
-3.364579192e-05 223.9813769 131.8334451
37.12284045 81.07363057 -250
194.2765064 131.8070035 -250
36.45581155 -1.552502306e-05 20.8789856
220.7657952 -1.552502306e-05 -44.325008
15.80972975 204.5317061 -250
98.32925495 -1.552502306e-05 -132.578797
-1.951790746 93.98220557 -250
-3.364579192e-05 239.3798483 148.7759494
215.3795387 -1.552502306e-05 127.609726
80.83072375 -1.552502306e-05 -190.1763629
30.35903595 -1.552502306e-05 205.2876446
-3.364579192e-05 8.651484775 236.9717808
133.881455 -1.552502306e-05 -29.552844
11.59511175 -1.552502306e-05 -220.4245565
-3.364579192e-05 237.7050593 122.6282139
39.83538765 -1.552502306e-05 -178.118921
60.46234925 -1.552502306e-05 -56.7745268
-3.364579192e-05 104.4168374 149.0946899
56.60293725 -1.552502306e-05 122.3371147
-3.364579192e-05 172.8989041 91.2800002
51.52944945 -1.552502306e-05 41.3734588
-3.364579192e-05 123.8727485 -104.8998805
-3.364579192e-05 63.40780977 68.8864259
-3.364579192e-05 119.3449656 -82.4593774
-3.364579192e-05 136.7498346 -19.423104
9.329986354 -1.552502306e-05 32.7120731
174.7576347 210.4205051 -250
-3.364579192e-05 145.2319412 34.4633131
131.36469 -1.552502306e-05 -164.7459535
36.53003685 -1.552502306e-05 77.9457694
-3.364579192e-05 186.3486168 156.0076525
-3.364579192e-05 37.04628447 -202.5843071
192.5845714 -1.552502306e-05 216.0862791
-3.364579192e-05 218.3782891 -236.8585363
193.3145892 -1.552502306e-05 182.5524635
143.4760692 -1.552502306e-05 -3.0229242
-3.364579192e-05 242.1656313 -170.6062321
180.8765959 166.1277797 -250
51.95380895 -1.552502306e-05 158.7832261
197.7231181 105.8559858 -250
223.6520136 157.2680622 -250
247.6629203 -1.552502306e-05 0.6538925
151.6365071 -1.552502306e-05 -233.1043605
-3.364579192e-05 191.8820126 101.8582641
-3.364579192e-05 221.8361799 98.1526736
-3.364579192e-05 248.6533363 237.1803719
-3.364579192e-05 55.38039467 139.6181119
212.3695667 -1.552502306e-05 -242.7364564
111.3536877 -1.552502306e-05 209.377267
12.29764975 -1.552502306e-05 247.108754
166.0873087 -1.552502306e-05 -39.8054649
-3.364579192e-05 149.6698389 221.6752332
-3.364579192e-05 149.6854258 -83.3563144
-2.000123446 -1.552502306e-05 -40.916608
65.72508885 -1.552502306e-05 -234.9220039
56.03271155 102.8993483 -250
5.994716754 -1.552502306e-05 85.132023
-3.364579192e-05 71.61715917 -236.8101233
32.24451315 63.10566667 -250
49.64947185 -1.552502306e-05 210.5640477
138.234771 -1.552502306e-05 50.8980694
-3.364579192e-05 11.92925277 99.676837
7.965039854 117.1573934 -250
-3.364579192e-05 39.05358977 29.2265336
210.0763066 -1.552502306e-05 23.3559556
175.6187207 -1.552502306e-05 -208.9169911
-3.364579192e-05 31.82249527 57.7378484
111.8617363 55.46812207 -250
49.44194435 207.3811667 -250
110.8166072 -1.552502306e-05 -233.6177039
226.2620613 -1.552502306e-05 170.027529
43.16060015 -1.552502306e-05 -84.285921
87.79032545 -1.552502306e-05 169.9361744
175.3587178 238.5263458 -250
31.65006165 29.57255837 -250
235.0285504 -1.552502306e-05 -184.1004467
247.5732351 -1.552502306e-05 154.7651944
4.657776754 -1.552502306e-05 128.7790132
232.7795906 -1.552502306e-05 -163.2562881
-3.364579192e-05 166.7230754 -216.7729936
245.8116175 -1.552502306e-05 -28.3340266
227.0263155 -1.552502306e-05 104.7036193
246.1194403 181.8482693 -250
101.0181321 171.7729119 -250
16.23816385 -1.552502306e-05 233.7717832
-3.364579192e-05 235.0423084 -217.3368103
216.9962792 -1.552502306e-05 -110.298876
64.06019325 228.9969683 -250
-3.364579192e-05 190.3537465 -200.9821455
81.49254875 -1.552502306e-05 -234.4362647
73.63557255 -1.552502306e-05 -18.1198132
144.6531615 -1.552502306e-05 -195.3124966
-3.364579192e-05 142.1766078 147.6896342
79.63770795 99.05200107 -250
12.33018465 83.16817467 -250
-3.364579192e-05 81.56997977 -204.5112089
102.7810231 70.62340387 -250
218.1929818 239.3134145 -250
137.6068758 -1.552502306e-05 183.7364363
-3.364579192e-05 2.477052775 -137.1720555
-3.364579192e-05 144.3615093 -209.230971
65.29655865 -1.552502306e-05 -176.6277473
252.3594064 -1.552502306e-05 201.6739137
-3.364579192e-05 96.35908497 -50.3378803
-3.364579192e-05 230.4617761 -146.7546079
239.2082605 -1.552502306e-05 -248.0089599
-3.364579192e-05 212.9069978 -125.5668175
64.46714485 -1.552502306e-05 -26.9811311
175.7768522 -1.552502306e-05 -57.5876223
-3.364579192e-05 68.65771697 249.6785503
-3.364579192e-05 151.3201068 242.7772242
-3.364579192e-05 106.3055356 -208.0861047
210.1952854 177.234139 -250
-3.364579192e-05 133.5531016 46.9401948
-3.364579192e-05 145.0283699 -239.5794569
208.4409456 -1.552502306e-05 -67.3028618
107.1656104 -1.552502306e-05 137.8536673
97.78436595 52.98085707 -250
160.0988906 -1.552502306e-05 -24.4887122
-3.364579192e-05 156.2047664 -23.0755301
-3.364579192e-05 116.625092 116.0247222
64.26780825 -1.552502306e-05 -81.2347573
94.44800535 -1.552502306e-05 110.4256282
25.37258815 -1.552502306e-05 83.7424684
-3.364579192e-05 176.3676806 -183.2230629
137.3384153 -1.552502306e-05 -245.2197371
119.4296747 -1.552502306e-05 -170.4196552
-3.364579192e-05 96.22329337 -69.5626575
251.9607831 153.9738993 -250
-3.364579192e-05 129.7318693 206.8587778
-3.364579192e-05 154.8110336 15.7959951
-3.364579192e-05 227.1267645 185.1515432
-3.364579192e-05 13.85871217 136.0165505
28.62165905 -1.552502306e-05 232.66744
-3.364579192e-05 75.25038367 60.9353139
-3.364579192e-05 43.23890717 -51.5544742
-1.226230746 -1.552502306e-05 108.9751101
-3.364579192e-05 220.4345475 -62.35325
227.6275782 -1.552502306e-05 -14.9427469
150.6636797 -1.552502306e-05 -103.1685636
126.295406 52.31293357 -250
-3.364579192e-05 74.88780427 -61.8422972
-3.364579192e-05 5.591720675 192.0646165
9.122031154 -1.552502306e-05 168.265931
197.8136524 -1.552502306e-05 -219.2973398
236.5318135 71.14898587 -250
-3.364579192e-05 238.5807105 -43.9388856
203.4393844 -1.552502306e-05 152.7981891
181.9783222 131.3902499 -250
87.10075395 -1.552502306e-05 -217.8183251
120.0746252 -1.552502306e-05 -25.0154984
-3.364579192e-05 232.5024885 172.270232
-3.364579192e-05 175.1295958 208.4748806
-3.364579192e-05 101.4568527 -81.771799
76.39126535 -1.552502306e-05 47.7921288
132.0066487 -1.552502306e-05 -219.5814312
-3.364579192e-05 235.2740489 110.6237132
-3.364579192e-05 167.4020049 -170.6841041
-3.364579192e-05 10.89680357 150.9634325
158.3156518 -1.552502306e-05 -192.0982906
139.4886813 239.3125836 -250
-3.364579192e-05 91.67005637 -148.5984735
161.1225827 123.2344968 -250
235.7776445 110.7224282 -250
-1.783783346 171.7126335 250
-3.364579192e-05 239.8300781 219.5643991
-3.364579192e-05 84.88815837 19.5116141
8.292531654 29.08969557 -250
-3.364579192e-05 159.1702875 83.3378409
151.8785965 -1.552502306e-05 92.1378689
-3.364579192e-05 46.35023117 -216.7635416
133.6238489 153.5391835 -250
122.5690829 77.43715577 -250
-3.364579192e-05 46.15423807 115.6836258
-3.364579192e-05 250.5017843 -88.6238376
50.69525885 -1.552502306e-05 53.4760139
-3.364579192e-05 132.3172141 99.9647114
-3.364579192e-05 215.5087671 -34.1723416
-3.364579192e-05 88.19339197 -105.5517407
142.7133235 -1.552502306e-05 -170.332988
123.4679749 -1.552502306e-05 209.247432
157.3274122 -1.552502306e-05 206.0751279
-3.364579192e-05 11.88458267 225.1126159
69.91447715 51.94534977 -250
-3.364579192e-05 34.79264057 224.3953502
87.75704535 171.8816003 -250
176.0773547 61.05606727 -250
108.8088781 -1.552502306e-05 -123.0454825
153.7581366 -1.552502306e-05 244.4643663
47.34858745 -1.552502306e-05 -26.37868
66.66039855 -1.552502306e-05 -149.4618504
159.8892135 249.3368485 -250
75.73286815 -1.552502306e-05 145.6275959
184.4100392 -1.552502306e-05 148.9468159
-3.364579192e-05 63.18784707 -210.3662736
44.66351045 110.4681646 -250
-3.364579192e-05 118.0613696 152.8569493
220.2045158 62.88547817 -250
63.56144865 123.4352062 -250
158.4217227 -1.552502306e-05 38.7934733
-3.364579192e-05 82.22518097 139.6950768
-3.364579192e-05 20.21969777 -68.4158286
128.8006772 -1.552502306e-05 -113.0605187
-3.364579192e-05 133.3006288 -126.1794332
82.74998555 -1.552502306e-05 131.9499616
153.5587835 -1.552502306e-05 179.9691261
77.39033285 -1.552502306e-05 193.2293979
167.4105543 167.4916583 -250
141.0201242 186.3271016 -250
201.4354891 -1.552502306e-05 -88.8258563
145.4437938 -1.552502306e-05 159.3666909
183.4154805 -1.552502306e-05 -192.0638136
87.40291565 -1.552502306e-05 -69.2615762
100.1511279 -1.552502306e-05 5.3715799
103.4773133 119.6214289 -250
-3.364579192e-05 127.9675518 239.4962255
175.9682729 -1.552502306e-05 232.0555584
167.1989127 224.8363417 -250
-3.364579192e-05 63.51930237 4.6674043
6.422909054 -1.552502306e-05 -153.5919831
234.251635 -1.552502306e-05 -127.4978618
216.1002063 -1.246497225 250
-3.364579192e-05 58.65022427 -35.428473
187.9109101 -1.552502306e-05 -142.8746619
210.6239391 -1.552502306e-05 -196.6299041
7.386085754 -1.552502306e-05 200.5899825
195.5652458 180.7248756 -250
-3.364579192e-05 36.96390227 200.8832109
229.3088794 -1.552502306e-05 238.1459776
185.980845 251.5453647 -250
-3.364579192e-05 39.41467097 147.8463502
108.0303597 -1.552502306e-05 45.8625682
168.1781319 26.24870127 -250
56.58053005 -1.552502306e-05 -106.9251636
37.50968585 -1.552502306e-05 -50.8617535
71.79784785 -1.552502306e-05 -36.2165501
-3.364579192e-05 158.2437307 -239.7025788
-3.364579192e-05 160.0708267 161.1162443
-3.364579192e-05 58.17400407 161.9605251
-3.364579192e-05 117.3594057 -142.1450578
-3.364579192e-05 54.33043407 -8.6260374
-3.364579192e-05 207.3244182 151.1498231
20.89237395 237.7044739 -250
87.49012795 -1.552502306e-05 -166.1783594
-3.364579192e-05 130.8872091 75.8250581
166.0711319 192.7464363 -250
-3.364579192e-05 159.0071327 -3.0100542
-3.364579192e-05 174.8629888 1.9357485
185.4592623 -1.552502306e-05 -28.9713738
215.4093902 8.641608775 -250
127.7243418 -1.552502306e-05 -1.1008598
80.09835975 14.85964697 -250
-3.364579192e-05 210.0490031 14.4936177
181.6292599 -1.552502306e-05 191.5095818
-3.364579192e-05 197.8880266 -155.772491
-3.364579192e-05 110.4508374 -128.8231069
38.84691785 183.129464 -250
-3.364579192e-05 63.43313707 -100.446897
-3.364579192e-05 208.841733 88.8709131
99.34078225 -1.552502306e-05 -44.6302044
-3.364579192e-05 136.9192485 0.624617
-3.364579192e-05 235.1242128 11.3519339
-3.364579192e-05 195.1916721 -60.3737129
117.1716324 115.8919368 -250
168.1844951 -1.552502306e-05 -161.2402463
-3.364579192e-05 226.7256862 75.3514359
76.07116575 27.07841707 -250
178.319308 -1.552502306e-05 48.6814746
89.15558375 -1.552502306e-05 247.5106201
199.0741127 249.8375538 -250
245.154357 -1.552502306e-05 22.78163
22.37306285 -1.552502306e-05 55.9519708
74.01200825 -1.552502306e-05 166.973452
224.8346988 -1.552502306e-05 -152.0559392
-3.364579192e-05 109.4453531 -154.0902299
102.7647754 -1.552502306e-05 164.8587653
-3.364579192e-05 241.8965481 -97.5522273
105.8861189 -1.552502306e-05 91.6313825
217.7854867 -1.552502306e-05 -183.1443517
200.1519684 -1.552502306e-05 -120.8673584
-3.364579192e-05 70.81441947 159.9779364
-3.364579192e-05 35.02674427 -88.9677312
76.34327385 166.5604095 -250
-3.364579192e-05 22.42860527 -8.7320838
129.1817812 -1.004495925 250
90.13291355 -1.552502306e-05 -242.0608775
244.7101552 -1.552502306e-05 -57.9870124
-3.364579192e-05 76.09838817 -46.4612695
78.73294675 -1.552502306e-05 235.6435816
-3.364579192e-05 244.1886823 -235.9049115
-3.364579192e-05 222.8226353 -50.9049677
225.7043676 50.04476117 -250
109.2202355 -1.552502306e-05 -161.1056898
-3.364579192e-05 190.0841066 176.0112513
109.6906149 138.1521524 -250
-3.364579192e-05 55.59788417 -223.53336
40.10833225 -1.552502306e-05 234.6036477
69.53104925 -1.552502306e-05 107.2358969
125.549483 -1.552502306e-05 -238.7616444
-3.364579192e-05 192.3774543 -119.9620251
35.46031785 -1.552502306e-05 146.1054927
-3.364579192e-05 18.20424447 -140.7305218
205.0367321 -1.552502306e-05 -49.0391316
213.5215845 -1.552502306e-05 173.9009564
173.4100212 -1.017249025 -250
211.7287496 -1.552502306e-05 -120.6445592
243.5865626 130.404738 -250
164.088115 -1.552502306e-05 113.5519279
-1.982271946 -1.552502306e-05 155.0474253
132.8492207 229.7079629 -250
191.2283822 208.7039571 -250
199.9305876 -1.552502306e-05 79.1752824
115.5134502 -1.552502306e-05 -181.4801068
-3.364579192e-05 235.0418103 233.197593
60.31285185 -1.552502306e-05 -188.1221813
236.3978338 242.6566916 -250
140.6576951 60.15381777 -250
-3.364579192e-05 247.993474 179.2768596
201.5613401 -1.552502306e-05 -140.8322012
119.1295033 -1.552502306e-05 33.1660498
210.7916651 215.6710904 -250
-3.364579192e-05 21.15625257 -96.9594665
78.70832425 -1.552502306e-05 8.6636603
24.70950055 -1.552502306e-05 -212.805855
222.0025554 -1.552502306e-05 216.0177834
-2.239707546 -1.552502306e-05 -178.47179
131.0473245 178.62187 -250
189.4413927 -1.552502306e-05 -11.8662797
131.4672111 86.98753007 -250
-3.364579192e-05 191.8945717 -222.1188885
28.02316955 -1.552502306e-05 116.9025474
206.5409614 -1.552502306e-05 108.6068017
-3.364579192e-05 83.58878657 183.3628044
13.52854165 102.9745774 -250
74.36502035 -1.552502306e-05 67.9973268
40.82152735 -1.552502306e-05 32.9930712
147.7267354 81.00297757 -250
123.0653409 -1.552502306e-05 144.8890324
135.7136131 130.4195372 -250
-3.364579192e-05 219.0845929 209.0743271
-3.364579192e-05 8.227778175 -12.9035978
69.68255545 -1.552502306e-05 -93.0961053
-3.364579192e-05 168.9821645 -57.5040435
162.970993 -1.552502306e-05 134.9507409
148.4452344 -1.552502306e-05 214.6936694
-3.364579192e-05 51.40607927 -74.0211111
-3.364579192e-05 97.39836347 37.2399114
93.90562655 -1.552502306e-05 -7.5474586
-3.364579192e-05 160.868821 -132.5482405
-3.364579192e-05 54.42455337 -52.4042136
205.2254652 37.44577317 -250
-3.364579192e-05 8.995334375 81.4771284
-3.364579192e-05 69.48588417 218.9926265
-3.364579192e-05 10.57572747 -82.0771661
225.4873274 -1.552502306e-05 40.6122451
93.34691165 -1.552502306e-05 72.9407763
151.2769082 -1.552502306e-05 21.8908619
127.109822 -1.552502306e-05 167.0743823
-1.395522246 129.4070459 -250
143.8136889 -1.552502306e-05 111.286517
-3.364579192e-05 109.082047 225.2664306
183.1183519 -1.552502306e-05 -49.2116096
-3.364579192e-05 199.0765368 111.9091953
97.60979185 230.4826295 -250
82.42728285 118.9697258 -250
64.60713515 -1.552502306e-05 203.9967376
240.1026624 -1.552502306e-05 207.0473628
204.3203446 -1.552502306e-05 216.1287983
205.6280137 236.8130883 -250
187.134391 -1.552502306e-05 102.1196548
-3.364579192e-05 212.1172294 -138.5923077
-3.364579192e-05 112.2614167 -106.326928
-3.364579192e-05 116.7671335 209.6569983
40.81930615 -1.552502306e-05 249.1394638
-3.364579192e-05 113.8397604 55.3516895
82.60522495 -1.552502306e-05 -201.0968785
8.012799554 -1.552502306e-05 -234.2051767
129.5341712 7.966799075 -250
60.88551945 -1.552502306e-05 -3.3055959
146.2997178 216.9229372 -250
-3.364579192e-05 67.53871017 -174.6280601
190.0212029 -1.552502306e-05 25.0827171
-3.364579192e-05 111.5260125 4.3942101
-3.364579192e-05 59.01368007 128.387616
-3.364579192e-05 162.2156778 -195.5057193
38.24511495 -1.552502306e-05 -142.4397535
203.5571296 -1.552502306e-05 -182.1523059
-3.364579192e-05 153.0294314 -216.7068154
-3.364579192e-05 169.3601189 -237.8866184
-3.364579192e-05 231.0281842 199.2165799
-3.364579192e-05 184.3582128 145.2225872
118.6889025 218.0175741 -250
-3.364579192e-05 249.6421099 213.5920811
8.973659954 213.0943188 -250
159.785206 -1.440748125 -250
243.8664237 62.34782957 -250
-3.364579192e-05 80.67864237 153.9836834
-3.364579192e-05 213.1579652 133.6482402
-3.364579192e-05 41.93247737 52.8588878
91.13492915 -1.552502306e-05 182.879476
200.5508713 -1.552502306e-05 44.4354017
106.9322157 -1.552502306e-05 240.7173289
-3.364579192e-05 145.9434923 -175.9114325
-3.364579192e-05 196.5881748 -43.9741617
