# .PCD v0.7 - Point Cloud Data file format
VERSION 0.7
FIELDS x y z
SIZE 4 4 4
TYPE F F F
COUNT 1 1 1
WIDTH 1193
HEIGHT 1
VIEWPOINT 0 0 0 1 0 0 0
POINTS 1193
DATA ascii
95.01658811 49.20823687 4.310152235e-11
-184.1998679 -1.552502931e-05 161.0333533
-247.1377879 -1.552502931e-05 229.353205
-262.6875679 -1.552502931e-05 80.604383
-287.4841079 46.37389407 70.3666883
265.9875251 91.47839387 4.310152235e-11
195.0347191 -1.552502931e-05 236.6195187
-70.29740589 187.8097055 4.310152235e-11
42.12971211 235.1796829 4.310152235e-11
44.94474011 -1.552502931e-05 159.4412782
-17.44482689 107.6824269 4.310152235e-11
-17.64006689 -1.552502931e-05 251.1692483
-203.9255799 142.5825471 4.310152235e-11
-129.5268269 -1.552502931e-05 93.8672501
-26.93539789 44.78677207 4.310152235e-11
-14.32557989 8.838391075 4.310152235e-11
-46.73959389 149.1572328 4.310152235e-11
-66.92183589 -1.552502931e-05 86.1557807
204.5716031 -2.006935825 4.310152235e-11
262.3244131 138.9432827 4.310152235e-11
92.67339711 -1.552502931e-05 93.418564
-219.7923069 -1.552502931e-05 19.54632157
-292.9989279 -1.552502931e-05 191.2009933
-90.01517889 38.42035117 4.310152235e-11
24.09915911 87.43958977 4.310152235e-11
160.3783541 -1.252986725 4.310152235e-11
135.0850801 64.70706517 4.310152235e-11
-55.56826789 -1.552502931e-05 169.473367
-292.4082229 -1.552502931e-05 230.4247725
103.5922591 -1.552502931e-05 189.684145
-287.4841079 88.35073687 69.2753831
275.7372811 118.0537733 4.310152235e-11
242.4121831 -1.552502931e-05 191.6295621
67.27543111 -1.552502931e-05 34.46542914
-287.4841079 35.46562187 101.6798389
-99.90130489 81.98827357 4.310152235e-11
-161.0292369 -1.552502931e-05 128.0873893
-101.1968529 127.6284871 4.310152235e-11
102.5637601 104.0753989 4.310152235e-11
161.4416031 130.6328901 4.310152235e-11
228.6151741 191.2452472 4.310152235e-11
-101.6095879 -1.552502931e-05 117.9771865
61.93930611 -1.552502931e-05 195.6958369
-238.4027889 14.49331187 4.310152235e-11
122.1945231 32.07214507 4.310152235e-11
-255.2884199 229.4037321 4.310152235e-11
53.19368811 -1.552502931e-05 220.5862645
186.5960041 155.4112918 4.310152235e-11
-216.2447179 105.3397671 4.310152235e-11
53.17000811 23.77006577 4.310152235e-11
195.6989151 36.12333747 4.310152235e-11
-287.4841079 59.25827667 207.7623674
-83.09827289 -1.552502931e-05 25.14742747
-287.4841079 186.2551182 46.94017925
-230.6955419 189.1240307 4.310152235e-11
-264.2064889 78.96282817 4.310152235e-11
-287.4841079 224.2554434 45.24555067
-287.4841079 170.767715 190.3349604
-287.4841079 215.479401 8.22492489
28.74804811 -1.552502931e-05 251.1180695
-287.4841079 56.81178417 170.3464026
123.2109821 99.92406177 4.310152235e-11
-143.4929789 41.26219727 4.310152235e-11
-287.4841079 135.4104798 76.6227439
-161.0524579 -1.552502931e-05 169.0198847
-287.4841079 229.1149106 83.1443668
-253.9209239 44.51873217 4.310152235e-11
-287.4841079 3.719027875 80.0583408
-128.3745899 16.37638957 4.310152235e-11
-287.4841079 31.67423497 178.8887183
159.6741531 44.44163967 4.310152235e-11
-151.8527299 218.8474129 4.310152235e-11
240.1399501 -1.552502931e-05 24.30955847
-281.4562749 -1.552502931e-05 165.8463998
-111.5001389 46.54165437 4.310152235e-11
-287.4841079 209.4974358 228.5608148
-168.1700979 17.16274817 4.310152235e-11
84.14104111 20.52950667 4.310152235e-11
-287.4841079 89.86186657 175.5270848
-203.2507399 82.80793967 4.310152235e-11
-54.44867889 31.90911897 4.310152235e-11
101.6561501 -1.552502931e-05 247.6046267
200.8822871 249.9214728 4.310152235e-11
-287.4841079 92.66542607 141.1032152
-9.386688893 167.6798395 4.310152235e-11
29.83631211 -1.552502931e-05 214.5946555
-287.4841079 20.50713967 24.39856213
254.7170421 -1.552502931e-05 36.64759724
-209.3196069 -1.552502931e-05 244.9413677
105.3463671 231.2298361 4.310152235e-11
154.5334801 79.43167047 4.310152235e-11
-169.2440339 145.8810874 4.310152235e-11
24.65042011 30.68671327 4.310152235e-11
-287.4841079 219.4592763 113.1380844
160.6739081 -1.552502931e-05 108.3879574
53.99222111 144.1401958 4.310152235e-11
-287.7423549 34.55791507 4.310152235e-11
-287.4841079 157.1538823 232.224195
-236.1668649 110.0653229 4.310152235e-11
-76.63758689 -1.552502931e-05 251.621776
162.2068791 -1.552502931e-05 70.24167
85.97800711 -1.552502931e-05 111.3766566
72.23461311 236.1249567 4.310152235e-11
-99.34988589 -1.552502931e-05 153.2312388
51.61167211 199.106498 4.310152235e-11
-287.4841079 130.3250298 234.2792379
-287.4841079 136.2537552 199.4592465
30.74205011 -1.552502931e-05 24.64126162
-287.4841079 20.78791797 65.0851689
217.7552211 65.17757027 4.310152235e-11
287.4840321 201.4121801 -0.11001224
-198.2042259 177.129479 4.310152235e-11
241.5249291 132.4432449 4.310152235e-11
-140.3590279 -1.552502931e-05 200.7454229
112.3521571 139.7384416 4.310152235e-11
183.9274771 51.16098217 4.310152235e-11
-86.90354389 18.83162547 4.310152235e-11
-0.1977988928 132.2057576 4.310152235e-11
-287.4841079 172.6745034 9.30534422
-0.3269588928 -1.552502931e-05 217.8375175
-287.4841079 58.54086157 152.0165365
-129.5682889 251.7942657 4.310152235e-11
-112.8215419 143.0568104 4.310152235e-11
67.00282411 -1.552502931e-05 15.54135025
-130.0274029 112.5826268 4.310152235e-11
130.1741911 -1.552502931e-05 213.9881691
175.2128551 204.3046047 4.310152235e-11
49.01851311 -1.954927325 4.310152235e-11
-287.4841079 111.8639019 108.6088473
-78.38526389 77.07386417 4.310152235e-11
-241.8533649 -1.552502931e-05 13.78804019
128.7666731 -1.552502931e-05 181.2398308
-287.4841079 149.6259674 164.9351823
-173.1470489 63.79623357 4.310152235e-11
-189.4040039 -1.552502931e-05 194.6091403
-270.6126259 -1.552502931e-05 7.61428969
161.4618671 -1.552502931e-05 145.454338
-226.4949379 -1.552502931e-05 65.5005354
-287.4841079 248.6839432 56.87317648
108.9947971 -1.552502931e-05 12.87576444
-197.2744289 -1.552502931e-05 226.7390796
-147.8790709 -1.552502931e-05 142.9925849
-76.22571089 -1.552502931e-05 122.8508754
-24.28242689 -1.552502931e-05 192.6204942
207.3584281 157.911407 4.310152235e-11
-235.5961439 166.2768557 4.310152235e-11
-37.35123689 237.1680919 4.310152235e-11
-213.0474699 52.54010587 4.310152235e-11
-287.4841079 188.9963666 209.9213418
-287.4841079 95.47494627 199.6935462
238.1836001 -1.552502931e-05 76.4713522
-259.2027649 -1.552502931e-05 132.3379275
-287.4841079 206.0139047 195.9556343
-11.48296189 241.3863621 4.310152235e-11
40.71899711 166.4000245 4.310152235e-11
123.5057601 -1.552502931e-05 144.6008711
-287.4841079 71.85577047 16.83248422
-287.4841079 8.854174475 133.0298876
-92.59149489 -1.552502931e-05 86.0900502
285.5613841 -1.552502931e-05 141.6654375
-296.7791499 -1.552502931e-05 172.9529588
284.4174981 156.902601 4.310152235e-11
137.6571361 241.2613125 4.310152235e-11
195.8651491 -1.552502931e-05 209.809466
-116.5919929 -1.552502931e-05 35.31537099
-287.4841079 81.96367897 124.406194
-65.56844689 230.4098314 4.310152235e-11
-272.5391319 27.03433697 4.310152235e-11
3.963795107 -1.552502931e-05 53.15051395
187.8173701 101.7027317 4.310152235e-11
-1.397848893 -1.855685925 4.310152235e-11
-39.50704989 -1.552502931e-05 48.44698567
-287.4841079 209.979707 75.9658042
271.1042841 36.40807277 4.310152235e-11
-160.6990589 -1.552502931e-05 197.8130838
241.8046481 111.9405088 4.310152235e-11
137.9829761 -1.552502931e-05 120.5881783
55.95182311 79.28747407 4.310152235e-11
-27.81374089 -1.552502931e-05 16.96282261
196.6898511 -1.552502931e-05 65.9277618
-287.4841079 221.9655558 250.4363601
-35.72798489 214.0671015 4.310152235e-11
-287.4841079 66.75313017 190.9075866
142.2501211 184.4285357 4.310152235e-11
-42.63149189 -1.552502931e-05 231.9815915
50.18062711 -1.552502931e-05 62.9429864
-300.7247729 11.98384607 4.310152235e-11
98.74362211 -1.552502931e-05 48.54184941
-158.5641519 -1.552502931e-05 37.66435145
176.7371451 136.9617073 4.310152235e-11
136.8232581 17.20017507 4.310152235e-11
-287.4841079 155.2459898 204.303198
159.3619731 107.4919681 4.310152235e-11
265.8410591 -1.552502931e-05 127.4669108
200.7144561 69.31459717 4.310152235e-11
17.49560611 -1.552502931e-05 167.2105497
183.6343651 -1.552502931e-05 179.0474089
-244.5608789 -1.552502931e-05 160.1726872
-50.37806089 114.8951079 4.310152235e-11
-21.27128389 -1.552502931e-05 162.5342559
271.5556081 -1.552502931e-05 18.74320864
-63.13820289 145.3283245 4.310152235e-11
31.14833211 -1.552502931e-05 194.0557068
-309.3342279 -1.552502931e-05 104.2093639
147.0809431 138.3959312 4.310152235e-11
52.31088811 -1.552502931e-05 95.7323066
-180.7625709 35.51108197 4.310152235e-11
287.4840321 3.996488775 -0.54782586
37.60894211 76.24109717 4.310152235e-11
-124.9787229 -1.552502931e-05 15.6173939
-287.4841079 69.44437437 249.1551399
-287.4841079 57.75326157 104.1648789
-220.2603369 -1.552502931e-05 202.7399459
185.1672691 -1.552502931e-05 106.6720176
132.3306741 -1.552502931e-05 50.53221653
-287.4841079 185.8148687 250.8501299
-148.1493289 -1.552502931e-05 71.4601852
7.067615107 -1.552502931e-05 105.3007888
-192.3287009 -1.552502931e-05 122.3885277
-106.0208809 -1.552502931e-05 49.95272391
-143.2446399 -1.552502931e-05 240.3836868
219.7489301 -1.552502931e-05 129.9424617
-287.4841079 247.4236579 162.1618691
-205.3474649 231.6194243 4.310152235e-11
-234.1655069 -1.552502931e-05 110.2252856
107.8812501 77.01354867 4.310152235e-11
-287.4841079 101.3467075 35.56501033
281.2664471 -1.552502931e-05 226.5570155
-287.4841079 190.0380145 123.9678651
-287.4841079 136.0673107 131.5070921
214.1642431 -1.552502931e-05 178.7513918
-260.8170029 140.1590174 4.310152235e-11
78.74350311 -1.552502931e-05 168.1003134
82.96083811 -1.552502931e-05 73.2359621
-287.4841079 98.10629677 237.3600886
-176.1612839 -1.552502931e-05 56.03810934
-287.4841079 191.2476474 175.3877124
-153.1982699 59.24668387 4.310152235e-11
21.47145911 233.9072979 4.310152235e-11
-240.5085599 54.35538907 4.310152235e-11
-15.13593989 182.5170419 4.310152235e-11
-138.7701559 -1.552502931e-05 53.48649529
-162.3010749 32.55459657 4.310152235e-11
-78.16899789 163.3773946 4.310152235e-11
-75.70391489 -1.552502931e-05 56.97112887
144.7834501 -1.552502931e-05 200.1502488
-163.6893869 114.4147576 4.310152235e-11
122.7145291 -1.552502931e-05 20.77489788
-245.8598499 -1.552502931e-05 42.70747143
217.4865421 44.92964487 4.310152235e-11
-200.3946949 61.97032667 4.310152235e-11
-287.4841079 238.9139807 193.6404895
-287.4841079 115.3499419 11.94899771
-287.4841079 198.5905855 26.89610627
-287.4841079 71.87577887 217.2123749
66.79465811 -1.552502931e-05 52.78736116
249.7791831 166.5454525 4.310152235e-11
131.0590161 121.8952154 4.310152235e-11
-30.28968889 141.0163241 4.310152235e-11
235.7350951 -1.552502931e-05 59.63184245
-127.3006669 166.0752764 4.310152235e-11
106.1720101 -1.552502931e-05 159.2629207
-289.2018079 241.4358023 4.310152235e-11
-287.4841079 149.7761157 70.2903758
-193.1093099 209.5749337 4.310152235e-11
-26.13781689 -1.552502931e-05 99.2123572
259.2149501 226.3398435 4.310152235e-11
-287.4841079 174.7921983 118.5777101
254.6991231 195.2869015 4.310152235e-11
105.6881401 248.4816899 4.310152235e-11
-287.4841079 46.17147357 137.3071122
267.3310951 21.30399097 4.310152235e-11
-225.4415699 -1.552502931e-05 125.6683489
-297.7334789 47.21806687 4.310152235e-11
-302.4736769 193.4144802 4.310152235e-11
-127.9544659 219.0679802 4.310152235e-11
-137.3911619 136.3419592 4.310152235e-11
186.5716671 -1.552502931e-05 223.6422008
109.9022151 -1.552502931e-05 175.5380559
-289.9049509 -1.552502931e-05 55.61267987
-189.0847499 133.3837578 4.310152235e-11
-287.4841079 105.0404164 212.6762156
-287.4841079 228.0910976 100.3578512
132.7697151 197.9329779 4.310152235e-11
-164.3230289 235.6840372 4.310152235e-11
-235.2831519 -1.552502931e-05 78.1497499
268.6428631 -1.552502931e-05 55.72394295
-309.1423869 -1.552502931e-05 73.8848185
231.0385431 145.8908751 4.310152235e-11
119.5679741 -1.552502931e-05 110.8872386
-287.4841079 55.51334927 57.17961958
179.2529031 -1.552502931e-05 15.34256936
-119.8821299 -1.552502931e-05 130.8980603
-248.5425209 86.91435687 4.310152235e-11
82.92886211 2.607513375 4.310152235e-11
-287.4841079 251.8723967 115.8295062
-77.64471289 137.1284012 4.310152235e-11
65.97474211 -1.552502931e-05 132.3144719
-199.4153059 -1.552502931e-05 43.1874603
-287.4841079 4.383292675 28.64876984
42.74821011 252.1001717 4.310152235e-11
-214.6518739 16.41750207 4.310152235e-11
-189.7034189 -1.857423625 4.310152235e-11
33.58326811 -1.552502931e-05 60.0183222
-95.06154989 191.3223546 4.310152235e-11
-287.4841079 233.6837309 138.1297586
149.1581011 -1.552502931e-05 59.30842377
-287.4841079 235.8588395 213.5214194
-104.5974099 -1.552502931e-05 181.8990491
-254.6947309 117.9030996 4.310152235e-11
-230.0795079 213.1953862 4.310152235e-11
-287.4841079 173.3664931 148.6890621
-287.4841079 212.53227 151.5336289
-221.0611309 -1.552502931e-05 36.16341568
175.4054861 14.15594707 4.310152235e-11
22.21101911 12.94810867 4.310152235e-11
237.5742221 23.48986947 4.310152235e-11
-19.24444289 -1.552502931e-05 32.91205651
252.1547161 -1.552502931e-05 237.1722746
146.4413091 -1.552502931e-05 26.44409109
99.84897811 64.40961047 4.310152235e-11
201.4475811 -1.552502931e-05 100.5461353
239.0062631 -1.552502931e-05 105.0774608
19.85175811 187.2062166 4.310152235e-11
-38.97009889 88.24463727 4.310152235e-11
-2.650358893 -1.552502931e-05 32.17946602
-90.40722089 -1.552502931e-05 12.21730348
202.2505251 208.6701883 4.310152235e-11
-83.05443289 219.1225191 4.310152235e-11
33.86467011 -1.552502931e-05 149.5804783
32.17739711 -1.552502931e-05 86.1106139
-296.5806509 62.18277657 4.310152235e-11
181.4025401 86.55948167 4.310152235e-11
-50.74806689 76.02032067 4.310152235e-11
-287.4841079 114.1637249 57.47997937
173.2310431 234.4930176 4.310152235e-11
3.934742107 56.63306827 4.310152235e-11
-64.66561089 -1.552502931e-05 204.7966404
-300.3723609 163.4318595 4.310152235e-11
-206.0026529 -1.552502931e-05 88.821149
126.4409201 222.9065011 4.310152235e-11
-287.4841079 92.80859197 5.71592113
-287.4841079 116.932504 159.8236257
66.36403711 53.20577717 4.310152235e-11
-230.5289939 66.51034427 4.310152235e-11
264.8316761 210.5744757 4.310152235e-11
-287.4841079 157.8354294 246.8871891
216.1302911 -1.552502931e-05 209.4955063
91.01909811 -1.552502931e-05 34.39277518
264.9856781 -1.552502931e-05 180.5873064
99.85889111 -1.552502931e-05 233.0698965
-215.5348119 151.5147048 4.310152235e-11
189.8364041 129.537076 4.310152235e-11
41.96954111 212.9168263 4.310152235e-11
-287.4841079 13.28455237 98.5724981
101.2794081 -1.552502931e-05 123.3981248
-188.3672719 -1.552502931e-05 212.8857612
260.6727691 179.5137146 4.310152235e-11
211.3779451 196.754331 4.310152235e-11
-50.93709689 176.1059293 4.310152235e-11
-11.55965689 76.55974347 4.310152235e-11
187.0733711 -1.552502931e-05 85.7423189
-56.80358389 -1.552502931e-05 30.23206271
-59.12151489 -1.552502931e-05 247.0080548
251.9166391 -1.552502931e-05 148.6281678
-287.4841079 134.6403412 146.821651
-148.8823729 154.4436611 4.310152235e-11
13.90055111 97.76757187 4.310152235e-11
-96.39523989 166.7058668 4.310152235e-11
-60.85111489 104.8542904 4.310152235e-11
-54.38317789 -1.552502931e-05 139.8188451
76.16444711 180.2162183 4.310152235e-11
-178.6279749 83.24337197 4.310152235e-11
-170.5152609 -1.552502931e-05 86.6965964
-70.08466789 -1.552502931e-05 140.2382637
237.6620081 78.62730697 4.310152235e-11
-197.9890759 160.5869289 4.310152235e-11
-287.4841079 158.8254484 134.656494
-39.18381189 -1.552502931e-05 135.1503368
31.30911011 -1.552502931e-05 5.21484455
-287.4841079 232.1404577 18.79171525
123.0013481 -1.156947525 4.310152235e-11
-133.9291779 29.70894017 4.310152235e-11
-82.57372889 233.8792035 4.310152235e-11
-265.6051569 -1.552502931e-05 163.2588338
-287.4841079 40.15758687 238.5235874
173.4362901 162.6731727 4.310152235e-11
-180.8301779 113.5510915 4.310152235e-11
-310.3169879 -1.552502931e-05 14.30669222
-287.4841079 226.2357916 168.7445056
-273.6671519 -1.552502931e-05 89.8556439
211.2181711 13.25916817 4.310152235e-11
252.1042281 -2.427676425 4.310152235e-11
-125.9433279 200.9500087 4.310152235e-11
-64.81612289 17.58326007 4.310152235e-11
284.5850201 -1.552502931e-05 79.708225
234.5875291 204.2577858 4.310152235e-11
-126.3960819 97.78543287 4.310152235e-11
-117.3010679 -1.552502931e-05 86.4723739
-287.4841079 85.91875197 19.31669215
286.7278511 -1.552502931e-05 47.56986309
-175.9369169 -1.552502931e-05 131.6264368
287.4840321 86.86987937 -1.69003311
215.4108481 -1.552502931e-05 81.5052032
64.47719911 205.8910102 4.310152235e-11
285.4874011 235.1495873 4.310152235e-11
-121.0597799 -1.552502931e-05 180.1762206
-269.5823309 238.9370359 4.310152235e-11
-258.5085149 -1.552502931e-05 61.7891313
-159.0698709 -1.552502931e-05 183.7089007
131.1890701 154.9013638 4.310152235e-11
161.9051421 -1.552502931e-05 209.7450547
-4.258757893 -1.552502931e-05 86.0177661
78.45325111 252.1911297 4.310152235e-11
-257.9358589 -1.552502931e-05 13.80496471
62.16126711 -1.552502931e-05 145.8846886
18.09505111 -1.552502931e-05 114.9630699
84.07604611 77.47266067 4.310152235e-11
-295.4386439 -1.552502931e-05 69.0447314
-300.4281889 -1.552502931e-05 45.77590887
192.7696451 -1.552502931e-05 146.9298286
174.2139051 -1.552502931e-05 49.48211149
149.5083901 -1.552502931e-05 97.6641377
-157.1828219 184.2775568 4.310152235e-11
135.3791671 211.7244691 4.310152235e-11
-93.52640089 -1.552502931e-05 63.6587446
115.0938711 -1.552502931e-05 211.7886532
287.4840321 61.91016487 -1.24624879
-19.16872889 -1.552502931e-05 66.6773052
189.6989741 170.2610341 4.310152235e-11
-281.9947239 126.0817628 4.310152235e-11
-302.8810709 -1.552502931e-05 252.4713427
209.3683121 104.7202802 4.310152235e-11
-246.5953019 -1.552502931e-05 248.3077116
-287.5001539 183.360782 4.310152235e-11
232.9553371 -1.552502931e-05 181.3930355
214.9910781 -1.552502931e-05 95.4614958
-178.7591449 -1.552502931e-05 244.3595915
231.6063651 175.3094788 4.310152235e-11
32.45246911 136.9889904 4.310152235e-11
-195.6913299 -1.552502931e-05 75.4897047
-260.9465769 56.52242177 4.310152235e-11
-287.4841079 128.0766203 210.7046552
-256.5774669 -1.552502931e-05 191.7595184
-287.4841079 79.36927327 185.1169692
-287.4841079 235.2421503 65.2957349
-258.2973089 189.1546652 4.310152235e-11
-241.6876159 148.1942235 4.310152235e-11
-294.6201249 206.9006779 4.310152235e-11
-278.2345029 -1.552502931e-05 243.0579233
-173.7906439 206.3821344 4.310152235e-11
-86.25485189 -1.552502931e-05 158.8080764
200.6656451 -1.552502931e-05 175.726616
-62.46671189 -1.552502931e-05 71.8424217
169.6269961 -1.552502931e-05 243.6040602
-123.1266209 72.23911087 4.310152235e-11
-287.4841079 31.22788867 119.0210944
211.3514681 -1.552502931e-05 61.2463944
-287.4841079 163.9170691 45.28802772
-287.4841079 193.1204674 137.4322672
-287.4841079 22.65495007 8.57666051
38.12926011 -1.552502931e-05 115.2664625
50.91110211 -1.552502931e-05 187.4266251
-66.82041689 -1.552502931e-05 177.4131377
-141.0894039 -1.552502931e-05 12.35856886
150.7473801 237.0271589 4.310152235e-11
67.31110511 -1.552502931e-05 112.3920002
99.22387111 215.6499889 4.310152235e-11
-287.4841079 164.3366483 29.09755612
173.0094531 105.8696254 4.310152235e-11
-173.8546829 186.8711102 4.310152235e-11
-1.070079893 -1.552502931e-05 139.4713476
-287.4841079 73.53822277 151.5770901
-310.1616329 -1.552502931e-05 182.4285605
-204.3608889 -1.552502931e-05 140.211285
163.9531601 -1.552502931e-05 180.4094656
-177.1596909 -1.552502931e-05 145.8796297
2.958677107 -1.552502931e-05 237.1009315
-287.4841079 204.6529683 62.7353023
-287.4841079 12.63251187 191.8220476
-287.4841079 69.22984617 96.6944677
-299.3143469 110.8922438 4.310152235e-11
269.6237741 -1.552502931e-05 251.6460894
-287.4841079 56.22082797 235.1106235
-229.2186759 252.3177932 4.310152235e-11
-181.2434819 -1.552502931e-05 104.2044472
-51.01112989 -1.552502931e-05 182.3367738
-287.4841079 101.7573545 64.8544274
-232.6980099 -1.552502931e-05 225.3596819
145.8672921 27.39384607 4.310152235e-11
174.6703361 189.9656506 4.310152235e-11
-297.0900619 -1.552502931e-05 110.1546538
-271.5054519 -1.552502931e-05 215.1422949
-311.9695069 241.4378414 4.310152235e-11
239.5300001 220.8031823 4.310152235e-11
-187.4218779 238.2526941 4.310152235e-11
-233.4077469 -1.552502931e-05 52.42969843
-163.8543139 -1.552502931e-05 113.8121346
209.0531091 33.76879197 4.310152235e-11
-215.3715469 -1.552502931e-05 166.9994489
-256.3574309 -1.552502931e-05 216.2232037
-287.4841079 36.96467447 37.34920722
13.26918911 -1.552502931e-05 22.93294589
69.99446111 73.47597737 4.310152235e-11
-276.8259269 200.0794523 4.310152235e-11
108.0395481 -1.552502931e-05 96.1157216
221.9087451 222.7904811 4.310152235e-11
119.7870541 -1.552502931e-05 72.1703486
76.90925411 -1.552502931e-05 236.9657094
166.2829621 247.1310915 4.310152235e-11
-287.4841079 201.2319964 215.532838
-287.4841079 84.18951617 83.5710779
-275.7319979 89.64852437 4.310152235e-11
-8.053397893 121.2993086 4.310152235e-11
-287.4841079 31.91462897 221.3051923
107.1470051 -1.552502931e-05 82.722988
-28.61286189 -1.552502931e-05 124.2959508
27.29577911 -1.552502931e-05 73.6287373
-68.34668689 -1.552502931e-05 220.6837956
273.9132671 181.5379201 4.310152235e-11
-240.3315039 -2.040991425 4.310152235e-11
247.2350601 45.36470247 4.310152235e-11
69.20241711 -1.552502931e-05 224.3961755
92.90049811 -1.552502931e-05 157.7510445
215.0542041 146.9941558 4.310152235e-11
-217.3016129 82.67449567 4.310152235e-11
151.7994921 212.7879008 4.310152235e-11
-276.5631339 -1.552502931e-05 193.9636462
-51.24480089 207.6504021 4.310152235e-11
-17.20298389 213.449845 4.310152235e-11
-287.4841079 32.48194457 72.0419389
265.5120131 77.90780917 4.310152235e-11
266.4392241 151.6109015 4.310152235e-11
-116.8990889 229.3649415 4.310152235e-11
-301.6026129 88.77029547 4.310152235e-11
-95.35808489 -1.552502931e-05 106.2396213
4.681067107 -1.552502931e-05 196.5045955
217.7682121 -1.552502931e-05 165.9550485
-287.4841079 177.5655122 79.9075453
-273.9036879 -1.552502931e-05 44.19626202
-63.42003489 243.5518069 4.310152235e-11
209.0191071 131.9882624 4.310152235e-11
-291.6646419 2.276689575 4.310152235e-11
134.3380691 109.0287905 4.310152235e-11
-138.3947439 84.94109167 4.310152235e-11
-199.2308589 32.62100707 4.310152235e-11
25.74885511 70.34842187 4.310152235e-11
186.6275161 24.59688577 4.310152235e-11
-311.5105539 220.7165367 4.310152235e-11
-65.99551089 81.70938537 4.310152235e-11
-206.5668089 -1.552502931e-05 189.3214835
-100.1600699 213.9328024 4.310152235e-11
-69.58580089 126.6556248 4.310152235e-11
-261.9684989 251.8747172 4.310152235e-11
-203.9057419 -1.552502931e-05 60.7488015
171.7829961 77.02212927 4.310152235e-11
65.64123711 112.8627254 4.310152235e-11
-83.63802989 -1.552502931e-05 190.3773029
-235.2219489 240.0365878 4.310152235e-11
-186.7565239 -1.552502931e-05 48.21491862
-215.3693049 204.3491557 4.310152235e-11
-287.4841079 117.3785179 218.3503387
182.0949181 -1.552502931e-05 238.8922883
73.27013711 221.4382972 4.310152235e-11
254.8096291 -1.552502931e-05 134.5655204
204.3479621 -1.552502931e-05 199.6237487
-46.97266689 -1.552502931e-05 121.6984769
-223.5397429 -1.552502931e-05 215.4254773
18.71244911 150.2993708 4.310152235e-11
-287.4841079 109.1899708 146.4953443
164.9037511 29.70330047 4.310152235e-11
-135.1796519 -1.552502931e-05 117.1249423
-287.4841079 88.70029847 38.88464987
-148.5107709 236.6293609 4.310152235e-11
203.0265261 -1.552502931e-05 32.17977849
54.86833411 -1.552502931e-05 30.38139443
-244.0163609 -1.552502931e-05 188.244608
-287.4841079 13.59797647 207.7854796
268.4375761 -1.552502931e-05 213.2258934
18.58737011 -1.552502931e-05 48.17184254
-145.0884119 -1.552502931e-05 34.07219656
9.727181107 168.6139484 4.310152235e-11
-152.4037849 202.2877987 4.310152235e-11
216.8020511 -1.552502931e-05 36.15606629
71.11721511 -1.552502931e-05 185.9595788
-287.4841079 37.24766647 167.1555661
-287.4841079 166.2830186 178.1479999
-241.3489299 27.73825417 4.310152235e-11
-204.2738509 128.2396656 4.310152235e-11
115.1974071 172.2610553 4.310152235e-11
264.0429171 -1.552502931e-05 157.1499528
-296.7244859 -1.552502931e-05 136.3143655
287.1605491 -1.552502931e-05 163.2912185
-6.725601893 152.5829417 4.310152235e-11
147.4089741 60.80533437 4.310152235e-11
-287.4841079 169.4505671 224.1745724
-126.9418999 40.60964357 4.310152235e-11
-287.4841079 231.692014 34.68472995
41.19106511 114.6047091 4.310152235e-11
26.80188611 44.45840037 4.310152235e-11
57.71955711 -1.552502931e-05 161.2903289
-287.4841079 81.98472347 237.0016644
287.4840321 -1.078629725 198.2738437
-107.2675919 -1.552502931e-05 224.8449948
-182.9709269 -1.552502931e-05 73.4251387
-173.5393609 -1.552502931e-05 20.69695392
-88.40177389 101.8443457 4.310152235e-11
59.40700811 235.1291806 4.310152235e-11
-150.8293739 -1.552502931e-05 250.7694409
-287.4841079 173.2085252 60.9389543
273.7993841 -1.552502931e-05 68.5638049
91.25101911 32.50860327 4.310152235e-11
216.3300811 93.92772677 4.310152235e-11
232.5435331 -1.552502931e-05 13.9561988
10.19157611 8.460512075 4.310152235e-11
-42.76799889 -1.552502931e-05 168.63492
-272.6971139 -1.552502931e-05 140.9513445
189.9679931 -1.552502931e-05 8.23035482
-74.55743989 54.73437597 4.310152235e-11
-142.4006479 -1.552502931e-05 219.7164224
237.8543701 160.0416951 4.310152235e-11
-134.4120899 -1.552502931e-05 1.23802562
-18.03831389 129.906311 4.310152235e-11
121.8579661 65.63062557 4.310152235e-11
-287.4841079 67.83445517 176.7852347
85.74986311 203.0910027 4.310152235e-11
-15.82622489 -1.552502931e-05 216.3410989
-308.7158669 133.1400256 4.310152235e-11
252.5969541 -1.552502931e-05 107.0767412
-23.76668989 173.1506567 4.310152235e-11
-287.4841079 113.6766167 124.4406465
-287.4841079 149.6921585 7.33946483
-42.95858589 -1.552502931e-05 16.96707671
-238.1320189 -1.552502931e-05 126.2398228
3.292263107 195.2860285 4.310152235e-11
-22.92522289 -1.552502931e-05 5.24602448
109.4036371 2.899036575 4.310152235e-11
-287.4841079 185.4867496 155.7690738
37.76134411 25.95686027 4.310152235e-11
15.34101511 246.4670698 4.310152235e-11
-42.28876189 165.1158409 4.310152235e-11
133.5040661 -1.552502931e-05 166.6369452
-263.4038539 -1.552502931e-05 116.5001618
122.3328951 206.3452402 4.310152235e-11
-278.6004099 54.86157417 4.310152235e-11
-38.71637389 -1.552502931e-05 100.5022472
-287.4841079 59.05361777 124.3240527
-120.3585069 -1.552502931e-05 217.0726318
-287.4841079 84.88279437 157.7460693
-25.51144189 22.47250517 4.310152235e-11
-262.8318469 163.5983372 4.310152235e-11
-208.3112079 115.1067355 4.310152235e-11
-179.7522589 53.08792007 4.310152235e-11
111.0891631 -1.552502931e-05 63.1023197
131.3939901 252.146197 4.310152235e-11
86.98785411 -1.552502931e-05 144.3274307
-64.88183589 -1.552502931e-05 5.45446808
-30.15752089 -1.552502931e-05 233.3203468
-174.0934939 161.6724575 4.310152235e-11
-287.4841079 120.1590748 171.9376144
14.76810411 -1.552502931e-05 214.3075612
-287.4841079 35.34494757 88.416817
-287.4841079 153.6775912 216.7121938
-100.0031019 178.9852615 4.310152235e-11
-287.4841079 143.33462 52.85282078
109.8812371 201.5454881 4.310152235e-11
-86.70644889 4.709837675 4.310152235e-11
99.00506411 -1.552502931e-05 22.26271398
-114.1604339 8.661279575 4.310152235e-11
2.332298107 -1.552502931e-05 16.94237025
-152.1772439 -1.552502931e-05 156.3257245
155.2589171 184.0550945 4.310152235e-11
175.3722171 -1.552502931e-05 188.3637347
-40.72333989 134.238491 4.310152235e-11
-287.4841079 201.1487799 92.0894179
-235.2354999 79.32015727 4.310152235e-11
191.1393681 -1.552502931e-05 161.0378153
76.12078111 156.958495 4.310152235e-11
189.3117251 -1.552502931e-05 131.2658616
-287.4841079 197.6305194 77.2725741
-287.4841079 238.4750839 107.1623759
-287.4841079 59.34696457 80.9120256
-287.4841079 247.4711822 184.6518149
57.54983111 128.2720117 4.310152235e-11
-112.7007739 -1.552502931e-05 18.79803087
-39.68569589 188.2521657 4.310152235e-11
-107.6425569 94.16350997 4.310152235e-11
-78.90122089 -1.552502931e-05 90.8987914
-255.9583849 -1.552502931e-05 27.75952854
-81.11737089 -1.552502931e-05 41.01153367
-20.58543289 -1.552502931e-05 110.2550156
71.46174411 -1.552502931e-05 251.6156051
-78.34838489 -1.552502931e-05 232.1246353
-287.4841079 162.5172457 155.4458408
-70.22186789 200.1362466 4.310152235e-11
87.67497611 -1.552502931e-05 61.8643329
254.2267401 11.04619757 4.310152235e-11
-287.4841079 204.5991836 15.33945089
216.2325181 118.3259563 4.310152235e-11
193.2215791 184.1946732 4.310152235e-11
-287.4841079 128.9106423 39.18672882
0.7511211072 240.3683522 4.310152235e-11
-92.81328289 50.34280857 4.310152235e-11
-228.2707619 54.01294707 4.310152235e-11
17.29721011 112.2808973 4.310152235e-11
171.3676741 -1.552502931e-05 137.3469107
-287.4841079 49.14481817 199.5935944
-288.4380229 -1.552502931e-05 124.6634103
4.293327107 213.6938214 4.310152235e-11
-287.4841079 76.61897197 65.89432
224.4564671 16.98863767 4.310152235e-11
99.89829911 160.9867043 4.310152235e-11
-224.1196179 226.771831 4.310152235e-11
42.27884911 180.7485334 4.310152235e-11
-159.2994269 125.7910502 4.310152235e-11
-75.02069489 151.6010323 4.310152235e-11
-287.4841079 249.1716284 127.710777
263.1916411 -1.552502931e-05 90.9063129
-231.2811419 -1.552502931e-05 91.198102
-7.584632893 -1.552502931e-05 57.02425732
-250.6033799 -1.552502931e-05 102.9263999
92.92914411 111.5009687 4.310152235e-11
-287.4841079 234.1253264 250.7169232
175.5626211 -1.552502931e-05 80.442014
-121.7386129 155.2664601 4.310152235e-11
104.7316601 149.2045765 4.310152235e-11
-13.13590189 -1.552502931e-05 187.7873073
231.9355401 -1.552502931e-05 130.7952235
100.4284611 137.4538116 4.310152235e-11
31.96812611 -1.552502931e-05 231.4220471
-287.4841079 26.33928127 146.4248076
231.4969361 -1.552502931e-05 117.3392683
-178.1471299 6.873458175 4.310152235e-11
-102.5907989 149.556823 4.310152235e-11
-287.4841079 51.86645447 29.22807049
-277.0674259 213.5969302 4.310152235e-11
33.23418911 202.180127 4.310152235e-11
-287.4841079 103.9835777 99.4129962
113.9818011 43.53156957 4.310152235e-11
-38.58738389 -1.552502931e-05 207.1016179
46.74900511 153.8355218 4.310152235e-11
-121.4619649 178.0285252 4.310152235e-11
88.75487311 -1.552502931e-05 202.0866239
-112.4997269 -1.552502931e-05 249.9005804
-105.7493859 234.3758163 4.310152235e-11
-287.4841079 101.5296023 248.9345369
-248.3695469 -1.552502931e-05 82.1231395
94.52567211 14.38997187 4.310152235e-11
-11.44050889 226.543771 4.310152235e-11
-287.4841079 14.68860497 54.6816793
-287.4841079 178.1928798 180.8444311
63.14495211 96.36941177 4.310152235e-11
276.2303421 130.5638722 4.310152235e-11
189.8232081 -1.552502931e-05 56.0405152
-287.4841079 140.2040427 115.2890112
-172.7204269 -1.552502931e-05 171.9699521
225.9188821 -1.552502931e-05 155.1230035
-311.0712869 65.59191987 4.310152235e-11
206.4290551 80.23163357 4.310152235e-11
-287.4841079 241.7273281 86.7928175
172.2252721 -1.552502931e-05 104.0837251
258.1452191 37.06327437 4.310152235e-11
-169.9588749 -1.552502931e-05 44.51448829
247.7674171 -1.552502931e-05 57.84081796
-287.4841079 142.8337743 28.02289582
-140.6892689 163.194686 4.310152235e-11
239.7564341 -1.552502931e-05 246.6496867
60.99664911 -2.283614625 4.310152235e-11
-287.4841079 239.7974272 230.7541085
-287.4841079 119.7342201 190.2128881
-43.50975189 65.17000167 4.310152235e-11
148.6153051 4.559855675 4.310152235e-11
-56.40504789 -1.552502931e-05 155.100911
-99.81772789 -1.552502931e-05 36.56977823
146.4394771 -1.552502931e-05 46.20069478
-287.4841079 228.8221968 202.5613011
5.393731107 -1.552502931e-05 64.967212
184.8672821 -1.552502931e-05 25.82914216
-264.5854519 111.3008393 4.310152235e-11
-75.70485089 174.9878921 4.310152235e-11
-70.99108789 -1.552502931e-05 28.67770612
263.2524221 -1.552502931e-05 27.2175436
69.74210411 170.242723 4.310152235e-11
-287.4841079 141.7243438 231.0093335
-287.4841079 133.9426927 99.5398666
286.2397961 123.5372606 4.310152235e-11
-234.6157619 -1.552502931e-05 174.2793995
236.4903501 -1.789963525 4.310152235e-11
-254.3557059 211.7077604 4.310152235e-11
-283.4340169 -1.552502931e-05 177.4993712
82.08443311 -1.552502931e-05 88.185753
-287.4841079 8.992065875 65.6875446
208.8028181 -1.552502931e-05 13.40411166
40.56303911 -1.552502931e-05 96.8780167
276.1227071 -1.552502931e-05 186.6435555
-76.44180189 10.49618027 4.310152235e-11
-53.98637389 -1.552502931e-05 228.5376913
-287.4841079 204.9633322 36.79766254
156.7198611 -1.552502931e-05 11.11878093
-311.1324589 168.4896294 4.310152235e-11
-287.4841079 97.91248697 76.1280651
-101.0282099 -1.552502931e-05 170.7011442
-116.0369909 106.6610613 4.310152235e-11
273.6342811 102.1862817 4.310152235e-11
-46.64027589 -1.552502931e-05 66.1105202
-310.7696019 -1.552502931e-05 40.22690575
-70.91584089 -1.552502931e-05 166.417326
134.0281261 -1.552502931e-05 244.9121328
209.1147151 -1.552502931e-05 245.0184988
-287.4841079 161.9110898 98.9723199
-111.2973019 -1.552502931e-05 201.0185212
-287.4841079 189.4423848 19.57402084
-134.5676939 -1.552502931e-05 176.9315537
-19.36853889 -1.552502931e-05 205.1982946
-169.1876359 -1.552502931e-05 233.6544062
-7.424378893 101.6665598 4.310152235e-11
-287.4841079 141.1863454 90.1762134
205.9923621 219.7377761 4.310152235e-11
-287.4841079 64.95386847 64.9018648
217.6339051 186.9039993 4.310152235e-11
-108.3910389 -1.552502931e-05 128.9537823
-233.2072409 -1.552502931e-05 194.0226315
-276.3591469 -1.552502931e-05 112.0922104
-157.2346399 13.18234167 4.310152235e-11
-287.4841079 82.16686157 95.0256681
-299.9391849 -1.552502931e-05 8.08883861
190.4833001 -1.552502931e-05 36.29790304
82.50145011 123.8635319 4.310152235e-11
-223.6716769 -1.552502931e-05 78.5182291
22.55905611 -1.552502931e-05 95.4247282
-247.2702849 164.1785445 4.310152235e-11
-222.0755259 -1.552502931e-05 114.5802383
-153.6169419 -1.552502931e-05 10.28131065
138.7547131 -1.552502931e-05 82.2666356
263.3350531 60.12655107 4.310152235e-11
-229.4149619 200.6257248 4.310152235e-11
-74.39058589 106.8528049 4.310152235e-11
-6.387174893 -1.552502931e-05 114.5910599
-190.7308889 -1.552502931e-05 27.50140589
242.1942701 34.09151807 4.310152235e-11
148.7220531 -1.552502931e-05 116.303935
-136.7388859 -1.552502931e-05 102.9007254
-267.6489339 149.4830166 4.310152235e-11
23.17959311 -1.552502931e-05 180.1980699
-79.56116589 43.33274337 4.310152235e-11
-88.82607189 247.2961361 4.310152235e-11
191.1710441 62.84184807 4.310152235e-11
66.78760211 143.4630377 4.310152235e-11
-252.3665519 240.5495219 4.310152235e-11
-248.6676299 7.417367775 4.310152235e-11
134.5587331 -1.552502931e-05 155.1683472
-168.7816029 172.350225 4.310152235e-11
282.5592761 33.21138707 4.310152235e-11
241.1899291 -1.552502931e-05 152.7648712
-140.8193399 193.6950593 4.310152235e-11
-287.4841079 235.0885558 49.0561595
-110.0687929 120.3379411 4.310152235e-11
134.5086011 29.07791617 4.310152235e-11
-300.6638029 -1.552502931e-05 210.1464895
-204.8514879 -1.552502931e-05 16.8767553
-52.96602189 17.19029487 4.310152235e-11
-22.95538089 -1.552502931e-05 150.5989739
-287.4841079 130.7116989 8.94041236
-248.7165799 -1.552502931e-05 146.1074092
-162.5851579 102.2168277 4.310152235e-11
144.7341921 -1.552502931e-05 133.7789992
195.0021371 79.42239947 4.310152235e-11
91.28294811 -1.552502931e-05 81.3718466
-266.0580559 -1.552502931e-05 239.1877427
22.43501211 -1.552502931e-05 241.5770828
150.3549441 -1.552502931e-05 150.5496503
-287.4841079 20.70301987 42.37800482
84.52024711 191.5503657 4.310152235e-11
-287.4841079 81.28116927 140.3507381
168.6996251 -1.552502931e-05 120.0234183
-287.4841079 86.44057687 50.06051571
-289.3211329 166.3643525 4.310152235e-11
-94.62917089 27.20093827 4.310152235e-11
-160.2611089 153.9513191 4.310152235e-11
159.5113931 -1.552502931e-05 220.8699162
58.23191111 12.92623417 4.310152235e-11
-148.2627769 171.6734428 4.310152235e-11
-52.86548989 158.7337653 4.310152235e-11
228.0106121 -1.552502931e-05 233.1820313
-159.8272939 -1.552502931e-05 82.8328656
116.9046801 -1.552502931e-05 188.1049368
287.2327761 188.7980132 4.310152235e-11
-287.4841079 35.88077197 249.0433635
-118.7469509 61.75389547 4.310152235e-11
-169.5557789 74.56429917 4.310152235e-11
-287.4841079 152.6603685 175.8718622
-235.3161159 -1.552502931e-05 153.6005979
126.3715751 -1.552502931e-05 224.6736052
-184.7537889 93.17020127 4.310152235e-11
180.1312761 -1.552502931e-05 165.5342838
279.0057721 -1.552502931e-05 106.9211462
-287.7766909 229.2450985 4.310152235e-11
88.83747811 66.93362327 4.310152235e-11
-64.77793289 -1.552502931e-05 109.8149073
-287.4841079 217.9939773 198.7435242
271.2981671 -1.552502931e-05 240.1896291
-279.2715449 -1.552502931e-05 17.45528681
-127.9151889 -1.552502931e-05 235.4888542
86.34976211 232.758166 4.310152235e-11
-10.00418289 -1.552502931e-05 132.6255923
41.45772611 -1.552502931e-05 28.08016061
152.3838771 95.57083247 4.310152235e-11
-287.4841079 217.8212321 124.2626118
41.98809011 51.88525687 4.310152235e-11
-287.4841079 57.01903207 218.7727651
-52.24728089 42.92550397 4.310152235e-11
-287.4841079 12.97315317 235.2971261
113.2209111 94.80439167 4.310152235e-11
-287.4841079 92.01548877 210.3683547
162.7753491 192.3792846 4.310152235e-11
-87.94698589 132.7024365 4.310152235e-11
15.94780111 -1.552502931e-05 74.5424352
-289.0471879 -1.552502931e-05 93.7377478
-203.5554639 218.2572175 4.310152235e-11
-101.0965289 40.03779867 4.310152235e-11
279.2581031 166.8348075 4.310152235e-11
101.8320111 -1.552502931e-05 222.055844
89.63290011 177.2539335 4.310152235e-11
191.5397031 211.8687545 4.310152235e-11
-287.4841079 8.725998375 116.6849809
168.1881891 -1.552502931e-05 12.92380334
-79.99265889 194.7376416 4.310152235e-11
-260.9573049 17.17083807 4.310152235e-11
-214.3254869 -1.552502931e-05 181.3156692
-166.2820059 134.4801338 4.310152235e-11
-123.8240919 -1.552502931e-05 169.3780554
-50.60064189 -1.552502931e-05 49.52587518
-287.4841079 89.98798677 110.9458598
-189.5626869 -1.552502931e-05 151.2747476
-3.480145893 11.32654587 4.310152235e-11
-232.2013709 -1.552502931e-05 41.36981438
287.4840321 -1.234399225 26.06179307
176.7303461 59.62774027 4.310152235e-11
-287.4841079 252.4596489 33.80828758
-118.7344279 -1.552502931e-05 97.4896423
-126.6760299 -1.552502931e-05 146.3008311
187.7059871 -1.552502931e-05 74.662785
59.43024511 68.75104817 4.310152235e-11
105.7523991 126.0088137 4.310152235e-11
-286.9364359 -1.552502931e-05 200.5387207
-294.0269169 25.21553787 4.310152235e-11
-250.5975409 135.8876614 4.310152235e-11
-295.1792529 152.7883663 4.310152235e-11
-151.3790689 -1.552502931e-05 174.4012152
-287.4841079 20.84308997 170.0275995
-287.4841079 252.1628592 172.1619773
-105.5552749 248.7443659 4.310152235e-11
249.3905671 -1.552502931e-05 46.8956984
-287.4841079 217.2219107 140.4432246
-287.4841079 201.2520761 185.9768395
-109.9682449 -1.552502931e-05 110.1454291
-287.4841079 184.5532823 34.88868434
41.98366911 -1.552502931e-05 42.5173909
-178.9646209 140.6487595 4.310152235e-11
-287.4841079 57.86993927 182.2715799
-94.29182989 119.0214472 4.310152235e-11
-7.324968893 192.3474091 4.310152235e-11
-146.1710649 -1.552502931e-05 23.11792592
-217.5201509 -1.552502931e-05 5.53106613
-90.33012589 -1.552502931e-05 207.683668
-75.58953689 -1.552502931e-05 14.67148831
-287.4841079 62.37259537 32.48112882
-287.4841079 30.52725237 16.47574835
109.1549141 185.5277339 4.310152235e-11
147.4903261 149.3759909 4.310152235e-11
-183.0562199 -1.552502931e-05 175.6835687
-33.17387189 -1.552502931e-05 76.3581556
-287.4841079 121.9717872 242.3934132
-48.51888689 -1.552502931e-05 6.66986615
117.8719131 -1.552502931e-05 30.83722119
-310.3635519 122.2908107 4.310152235e-11
276.2701991 -1.552502931e-05 130.8563699
-287.4841079 45.49151367 14.02217777
-287.4841079 14.11543477 86.6619378
-291.0468279 -1.552502931e-05 39.00151184
78.19865511 -1.552502931e-05 33.76949078
220.8414551 -1.552502931e-05 219.3698774
52.12087111 -1.552502931e-05 128.7357095
-287.4841079 8.747615475 163.2538596
-287.4841079 251.7857739 8.14615767
40.06005811 -1.552502931e-05 186.1509073
-223.8861819 -1.552502931e-05 231.8053544
-126.5009759 137.0712017 4.310152235e-11
135.0612691 86.05127047 4.310152235e-11
-136.7851249 121.1493368 4.310152235e-11
238.2276571 -1.552502931e-05 219.1736068
-294.6749609 141.8177642 4.310152235e-11
-297.2407309 -1.552502931e-05 240.1931975
160.1448681 -1.552502931e-05 95.3110385
-79.14023989 -1.552502931e-05 134.1867217
253.4268381 132.6643959 4.310152235e-11
-42.98835889 122.890678 4.310152235e-11
-136.9025929 61.14725887 4.310152235e-11
274.8376001 251.8477769 4.310152235e-11
82.69137311 -1.552502931e-05 215.5173745
-287.4841079 143.683257 139.2720528
-54.70282189 -1.552502931e-05 114.0680937
252.0632161 -1.552502931e-05 186.650527
-287.4841079 205.1674516 142.6248454
-139.6698829 -1.552502931e-05 80.8240498
127.4789011 -1.552502931e-05 11.04426134
-287.4841079 103.4983607 225.0610142
16.06380211 -1.552502931e-05 191.1686855
-29.34376689 -1.552502931e-05 52.13294825
138.0782411 -1.552502931e-05 93.0533336
-272.1199009 -1.552502931e-05 154.574839
-287.4841079 17.35311987 126.367645
-287.4841079 160.5138414 122.4256892
-287.4841079 153.2168092 80.507729
126.0057481 -1.552502931e-05 236.492854
-110.8508989 179.9291669 4.310152235e-11
19.12523011 61.84423327 4.310152235e-11
248.9433541 -1.552502931e-05 76.0593317
-88.08573789 72.41175867 4.310152235e-11
-295.3809929 -1.552502931e-05 219.9697318
22.05104411 211.5519488 4.310152235e-11
-270.3311759 -1.552502931e-05 54.32476036
134.6958771 -1.552502931e-05 203.8192283
-268.8659629 192.8791837 4.310152235e-11
-287.4841079 203.8119661 102.4843489
205.5892801 -1.552502931e-05 188.9662593
-89.58561589 -1.552502931e-05 242.5458987
-287.4841079 108.7143829 166.7130951
108.1268611 -1.552502931e-05 43.35701605
-300.6861019 239.9695534 4.310152235e-11
170.3845921 44.06406977 4.310152235e-11
-202.1956759 8.695991275 4.310152235e-11
238.5676461 -1.552502931e-05 88.4312334
-278.1165929 0.609802775 4.310152235e-11
144.8100141 -1.552502931e-05 73.4364723
-166.1818679 249.6684319 4.310152235e-11
276.3545991 -1.552502931e-05 9.18437044
173.3921401 151.9796493 4.310152235e-11
-287.4841079 124.4759758 72.0991727
168.5276831 -1.552502931e-05 31.96556827
155.4904671 -1.552502931e-05 173.902473
271.6135961 218.8100117 4.310152235e-11
-145.6558749 10.83450517 4.310152235e-11
-259.9657319 173.8709255 4.310152235e-11
23.12012911 122.0557292 4.310152235e-11
-307.9980269 38.75838187 4.310152235e-11
-113.1441619 -1.552502931e-05 156.064569
-20.29166989 -1.552502931e-05 240.8464678
-47.03671289 -1.552502931e-05 243.1654126
158.3387341 229.5664089 4.310152235e-11
-302.6376139 -1.552502931e-05 159.5893052
-78.01482089 207.3734687 4.310152235e-11
-21.00380989 97.18290137 4.310152235e-11
-287.4841079 44.78713237 2.81754646
-290.7227129 103.684996 4.310152235e-11
-226.4033419 160.3405859 4.310152235e-11
230.7360021 36.46257977 4.310152235e-11
-260.2770609 -1.552502931e-05 226.0674181
158.9791081 -1.552502931e-05 238.3108267
-287.4841079 81.77708987 213.493581
-287.4841079 245.9747088 240.5130626
128.4369271 -1.552502931e-05 191.8453061
-151.8532639 69.72917257 4.310152235e-11
-302.9252069 -1.552502931e-05 229.5374955
52.68716211 -1.552502931e-05 172.5292742
-287.4841079 218.0014411 178.0281749
-265.6247679 -1.552502931e-05 37.6543834
1.413412107 29.72628787 4.310152235e-11
-143.9415939 144.6082594 4.310152235e-11
-203.4612639 207.6019124 4.310152235e-11
-150.1940559 -1.552502931e-05 44.06654215
-137.6268119 -1.552502931e-05 140.5591248
-149.7550629 -1.552502931e-05 132.6244623
-101.5182559 -1.552502931e-05 14.30722
243.4659381 -1.552502931e-05 34.30114014
-86.57780889 -1.552502931e-05 124.7726829
114.2349131 25.18137297 4.310152235e-11
11.52585311 -1.552502931e-05 177.1170461
-221.4815449 -1.552502931e-05 153.8178906
-205.3946459 104.9929111 4.310152235e-11
-189.1680969 -1.552502931e-05 233.4500294
-136.0036429 243.471188 4.310152235e-11
-287.4841079 223.2224076 74.137406
35.82101711 243.5856864 4.310152235e-11
18.70540311 221.5151994 4.310152235e-11
-287.4841079 94.56767107 166.1366734
281.3503061 -1.552502931e-05 174.9931195
-111.3551669 132.6767991 4.310152235e-11
-84.21842289 29.68905297 4.310152235e-11
-173.7288499 -1.552502931e-05 160.6102846
-158.6201209 -1.552502931e-05 71.2291088
-287.4841079 130.172076 87.5231088
-89.50997489 -1.552502931e-05 34.72586601
190.8198671 247.0244622 4.310152235e-11
-216.6359529 252.2642983 4.310152235e-11
-259.1057579 -1.552502931e-05 92.3025696
-105.1203579 223.3942256 4.310152235e-11
-42.17394589 -1.552502931e-05 90.2750768
-287.4841079 32.15533917 157.589819
-287.4841079 149.2450508 110.0635396
185.2419671 -1.552502931e-05 206.7760881
-287.4841079 10.01903627 148.6854701
259.2956371 -1.552502931e-05 166.4393926
-287.4841079 5.958784475 243.450571
-254.6154929 -1.552502931e-05 157.41862
229.1789961 -1.552502931e-05 81.722955
195.0599211 -1.552502931e-05 247.0379185
-287.4841079 77.85648437 43.3709945
-287.4841079 47.49933867 105.971128
-287.4841079 182.3434465 239.6159067
183.5225731 236.0333181 4.310152235e-11
-159.2972149 226.5749479 4.310152235e-11
112.5099241 -1.552502931e-05 123.8838406
-287.4841079 237.0722031 163.1225305
-278.1546889 -1.552502931e-05 77.376879
-41.03217189 249.3512551 4.310152235e-11
277.9476681 57.99251077 4.310152235e-11
-94.63172489 -1.552502931e-05 178.9801185
-194.3119989 88.08730247 4.310152235e-11
-287.4841079 27.82167757 211.5806522
131.1573051 233.173934 4.310152235e-11
-287.4841079 132.3530669 223.1283287
-287.4841079 212.1984076 238.5689002
-166.5342309 -1.552502931e-05 215.137543
-287.4841079 0.06063937497 157.4197969
199.3572571 -1.552502931e-05 125.6154441
-287.4841079 139.0589133 18.38621251
-225.8621909 111.0268432 4.310152235e-11
-295.7249839 -1.552502931e-05 24.04310766
-292.7233449 218.9183989 4.310152235e-11
34.30902511 99.89063757 4.310152235e-11
161.0753411 -1.552502931e-05 161.080227
-287.4841079 113.1427556 91.9183224
84.72720311 49.80838207 4.310152235e-11
221.6529191 198.8292848 4.310152235e-11
-97.41192789 -1.552502931e-05 215.5080831
126.1409181 -1.552502931e-05 96.644407
211.9701291 -1.552502931e-05 107.2421646
-287.4841079 160.1556131 195.2789963
-287.4841079 42.16981117 179.0313443
-101.5792259 139.3364813 4.310152235e-11
-220.5369599 195.4634754 4.310152235e-11
-211.4343329 -1.552502931e-05 215.4235793
63.07727011 -1.552502931e-05 77.7383056
-287.4841079 14.05725747 34.37554293
-222.2215549 38.85228827 4.310152235e-11
-287.4841079 108.5464464 134.0694118
-25.52122589 12.22112507 4.310152235e-11
-287.4841079 164.231188 165.6101715
203.3788701 167.3506575 4.310152235e-11
24.39296911 -1.552502931e-05 223.2697264
3.240398107 39.80247307 4.310152235e-11
-276.3422179 -1.552502931e-05 206.1187505
-287.4841079 116.8628181 1.8351998
37.44049111 -1.552502931e-05 69.4881386
95.40712811 188.3379207 4.310152235e-11
-287.4841079 103.7867442 188.3717828
-229.9536349 -1.552502931e-05 20.6029037
-208.1381329 40.73146987 4.310152235e-11
-302.1253009 -1.552502931e-05 198.9653283
-32.65486889 203.3810599 4.310152235e-11
-287.4841079 73.33676927 118.9768398
50.34465311 -1.552502931e-05 149.9637332
-287.4841079 198.8052161 233.7264905
52.08720411 211.789078 4.310152235e-11
-153.5180289 37.69774567 4.310152235e-11
-287.4841079 67.71550967 202.1120933
92.74830211 -1.552502931e-05 242.6979955
163.2733831 164.4981562 4.310152235e-11
-97.89840589 17.57470597 4.310152235e-11
233.2085431 -1.552502931e-05 31.74026594
-161.2353899 214.9456529 4.310152235e-11
100.0283601 -1.552502931e-05 180.1688809
-287.4841079 9.702041475 12.74800193
-284.1741929 -1.552502931e-05 224.486016
-1.830382893 73.66080977 4.310152235e-11
115.9890771 129.2150751 4.310152235e-11
177.0386831 96.57574307 4.310152235e-11
-287.4841079 217.7048535 222.6243039
213.9673731 165.583254 4.310152235e-11
-130.0671819 -1.552502931e-05 46.12642418
144.2089531 -1.552502931e-05 225.3026507
-287.4841079 45.46534717 210.2924328
16.85605211 -1.552502931e-05 137.9030187
-102.6074539 52.82305047 4.310152235e-11
-149.8667489 -1.552502931e-05 211.6026626
-140.8668689 -1.552502931e-05 63.3689807
-287.4841079 110.744781 20.94022468
11.46544911 232.6092357 4.310152235e-11
-260.1592269 6.687548375 4.310152235e-11
44.20934611 -1.552502931e-05 106.2756307
193.0035761 -1.552502931e-05 93.8911099
-249.3879199 -1.552502931e-05 130.0605367
