# .PCD v0.7 - Point Cloud Data file format
VERSION 0.7
FIELDS x y z
SIZE 4 4 4
TYPE F F F
COUNT 1 1 1
WIDTH 1243
HEIGHT 1
VIEWPOINT 0 0 0 1 0 0 0
POINTS 1243
DATA ascii
-69.18922301 -208.7143523 3.676348115e-11
-194.179852 -127.8646437 71.9650566
105.203645 6.241407391e-11 5.49009438
-24.56667801 -104.5078081 3.676348115e-11
-79.96476101 6.241407391e-11 94.3118841
156.006254 6.241407391e-11 232.5165737
-194.179852 -36.1686035 18.93922345
-194.179852 -67.0709149 57.85331535
-163.864355 -156.6838258 3.676348115e-11
-33.21480801 6.241407391e-11 212.9622156
-194.179852 -36.7521721 138.2829307
-194.179852 -203.1952444 115.7091641
27.57645399 -235.0473835 3.676348115e-11
194.179889 -105.9372317 218.1431789
-138.597473 -19.7459247 3.676348115e-11
-194.179852 -167.2297759 111.2007301
-194.179852 -28.2326219 51.63110307
194.179889 -235.5517597 242.7786746
-194.179852 -144.6953917 102.3293912
-179.486975 6.241407391e-11 58.51790757
-194.179852 -56.6108464 196.7070056
194.179889 -172.2077795 66.8694409
-194.179852 -178.7993115 94.2528667
-194.179852 -1.0007718 112.4238732
56.61382799 6.241407391e-11 135.7588825
194.179889 -167.4896967 159.7661302
-1.534227011 6.241407391e-11 71.7585608
163.136597 6.241407391e-11 21.90455137
-169.811577 2.315002 3.676348115e-11
13.03999899 -195.658693 3.676348115e-11
194.179889 -99.7747553 139.7051514
-126.980253 -2.9583267 3.676348115e-11
26.61705099 -84.5537194 3.676348115e-11
-194.179852 -74.983807 159.1645858
66.01918299 -139.0497713 3.676348115e-11
-194.179852 -114.4758763 19.33996663
-117.149396 6.241407391e-11 33.84845773
-68.56283901 -76.9085661 3.676348115e-11
205.947251 6.241407391e-11 126.2837759
-194.179852 -173.3856296 157.7454557
-21.81088801 6.241407391e-11 62.8073481
-13.65209201 6.241407391e-11 246.6213305
194.179889 -117.7908174 122.4879293
-108.518908 6.241407391e-11 198.0496265
48.97849999 6.241407391e-11 34.75401116
-146.254279 6.241407391e-11 107.9247427
201.188509 6.241407391e-11 234.6430308
-33.62503801 -72.8829587 3.676348115e-11
194.179889 -89.6746638 199.5789112
194.179889 -182.8311199 180.9819181
130.718892 6.241407391e-11 12.30488238
73.65026299 -37.2949292 3.676348115e-11
159.942717 6.241407391e-11 46.06002792
-194.179852 -138.2165476 179.5850791
86.90570399 6.241407391e-11 149.4805418
-3.473469011 6.241407391e-11 227.8262345
-139.883599 6.241407391e-11 16.31007595
194.179889 -158.4507729 216.2255538
194.179889 -238.0434748 156.4181579
84.95810099 6.241407391e-11 132.9569731
185.597122 6.241407391e-11 17.32393715
-194.179852 -68.4201706 127.0587021
-194.179852 -231.5376654 200.0744098
-190.530494 -24.3226337 3.676348115e-11
194.179889 -20.9170948 152.7405726
214.230603 -90.2540251 3.676348115e-11
-194.179852 -146.7596313 14.33313364
105.737915 6.241407391e-11 223.1099564
151.492534 -180.7750588 3.676348115e-11
-86.79622601 6.241407391e-11 168.1090787
-119.734981 -127.456523 3.676348115e-11
-194.179852 -97.2340315 48.50843754
172.867743 -158.8887615 3.676348115e-11
-41.57555501 6.241407391e-11 151.1547264
-194.179852 -113.0736117 99.3599626
214.191524 -237.9902231 3.676348115e-11
194.179889 -154.4186294 17.7278913
171.846695 6.241407391e-11 110.835964
176.137508 -14.797378 3.676348115e-11
119.665666 -193.9971942 3.676348115e-11
-137.913599 6.241407391e-11 173.1965856
-63.71080401 -11.7432692 3.676348115e-11
-123.475724 -163.2075195 3.676348115e-11
148.377928 6.241407391e-11 210.4807539
106.682297 6.241407391e-11 37.84531579
-2.047438011 6.241407391e-11 40.06803746
147.828051 -236.7683251 3.676348115e-11
-194.179852 -77.9906829 15.60423578
123.639537 -164.4587327 3.676348115e-11
-20.16983401 -122.1442283 3.676348115e-11
194.179889 -97.4989753 15.78053231
194.179889 -150.2679195 71.4574174
194.179889 -174.955186 125.3919191
-107.26571 6.241407391e-11 178.683295
-162.03809 -190.2461365 3.676348115e-11
194.179889 -232.7374989 48.19799815
-194.179852 -154.7475942 201.3504602
-131.686609 -61.3301792 3.676348115e-11
45.84477399 -63.5584024 3.676348115e-11
-141.920044 -136.6431438 3.676348115e-11
206.963727 6.241407391e-11 60.8526159
-149.475847 -95.2944987 3.676348115e-11
-41.22591901 6.241407391e-11 231.8163042
-36.33394801 6.241407391e-11 14.94912858
-28.35203301 -252.2165768 3.676348115e-11
-148.216855 6.241407391e-11 237.0484399
-212.3033282 -231.5255031 3.676348115e-11
-73.76482701 -160.5814942 3.676348115e-11
194.179889 -80.7539293 235.5229776
194.179889 -185.0300312 92.6250589
151.305687 6.241407391e-11 143.0773301
-66.14495601 -45.3214376 3.676348115e-11
-194.179852 -31.4778934 76.7621754
-70.99854201 -131.3083485 3.676348115e-11
-90.61127701 -234.0062548 3.676348115e-11
194.179889 -75.1319777 120.0079493
194.179889 -148.1873398 45.74236074
-51.62785501 6.241407391e-11 116.2630428
-194.179852 -137.0710316 41.84190469
-39.58239701 -184.1120002 3.676348115e-11
-194.179852 -165.4081124 74.1536688
76.22713799 6.241407391e-11 84.4960603
51.81986999 -32.1296249 3.676348115e-11
-168.267907 -251.5357389 3.676348115e-11
86.25545999 -115.2465275 3.676348115e-11
194.179889 -232.9229075 210.7081323
53.99703599 -101.8758009 3.676348115e-11
-80.42991601 -88.1191695 3.676348115e-11
194.179889 -113.9673044 176.70444
-38.00464401 6.241407391e-11 133.1355385
194.179889 -102.5239038 118.6833649
76.16232099 6.241407391e-11 239.5318961
-185.714399 6.241407391e-11 192.399711
-85.09029201 6.241407391e-11 204.1350881
194.179889 -186.6640676 235.214624
-186.527462 6.241407391e-11 12.25680636
194.179889 -3.4285738 196.6845524
-4.782828011 6.241407391e-11 134.4884437
-51.50809701 6.241407391e-11 204.881534
-194.179852 -12.5949833 29.90228588
-31.43141701 -17.4063059 3.676348115e-11
-194.179852 -93.451358 72.9380179
194.179889 -107.8379491 89.1628025
75.77002799 6.241407391e-11 11.34870007
110.326929 6.241407391e-11 161.1881137
62.60524699 6.241407391e-11 166.4720104
194.179889 -54.3535507 77.0241473
194.179889 -53.9782532 61.1067408
186.873361 6.241407391e-11 103.5178486
215.389263 6.241407391e-11 94.9537302
-194.179852 -217.3193092 91.5864281
-194.179852 -108.7488422 166.3172188
-205.8300093 6.241407391e-11 35.3004917
218.432537 6.241407391e-11 211.9290346
194.179889 -13.3285344 226.8295637
194.179889 -83.4896657 69.0247444
-179.514237 -92.4967143 3.676348115e-11
46.17909899 6.241407391e-11 244.3080468
194.179889 -75.8474534 36.82764658
198.513241 6.241407391e-11 252.2472054
-59.31961301 6.241407391e-11 67.2572163
22.34308399 -21.1613514 3.676348115e-11
-194.179852 -201.7550972 75.431446
-194.179852 -13.2090756 101.1216972
-194.179852 -192.1806801 191.2285027
-194.179852 -237.0148456 110.4338194
42.01822899 -120.1310595 3.676348115e-11
32.26983799 6.241407391e-11 86.1264295
17.07891199 6.241407391e-11 248.397039
-194.179852 -181.6564105 241.8088752
-179.476783 -222.6356335 3.676348115e-11
17.06609399 -165.3918654 3.676348115e-11
194.179889 -34.2690045 53.30791685
-217.6623795 -31.8249461 3.676348115e-11
30.05313999 6.241407391e-11 216.1843275
-162.429747 6.241407391e-11 102.129716
-194.179852 -149.0645802 156.2476439
194.179889 -13.6315276 36.86134552
131.801339 -72.9471363 3.676348115e-11
194.179889 -191.471196 148.7665323
-18.92609501 6.241407391e-11 40.94019463
194.179889 -113.2778155 68.4119761
-56.18145801 -59.1025476 3.676348115e-11
105.342359 -198.9201418 3.676348115e-11
19.15419999 6.241407391e-11 66.2636936
-194.179852 -230.3831399 225.3563233
185.039559 6.241407391e-11 243.8223082
66.02845099 -243.1678842 3.676348115e-11
-157.50361 6.241407391e-11 59.57504692
-99.78436601 6.241407391e-11 99.4675718
-173.522166 -27.6937141 3.676348115e-11
177.247722 6.241407391e-11 77.7258949
109.327563 -14.6815403 3.676348115e-11
30.25477499 -201.3808547 3.676348115e-11
-109.709201 -138.664809 3.676348115e-11
194.179889 -26.2575072 249.6512672
-217.66781 6.241407391e-11 131.9315184
194.179889 -188.3933673 35.52289258
-42.24491101 -207.2621905 3.676348115e-11
128.71502 6.241407391e-11 63.8237721
173.306406 -120.2235514 3.676348115e-11
196.281273 -80.488388 3.676348115e-11
87.49737099 6.241407391e-11 180.8270259
170.091453 -69.4906014 3.676348115e-11
194.179889 -219.5288863 68.4222636
-107.409467 -71.2822693 3.676348115e-11
-182.781304 6.241407391e-11 212.6270396
131.623357 -102.2082573 3.676348115e-11
109.421003 -40.0634153 3.676348115e-11
197.34208 -151.0972402 3.676348115e-11
-148.850289 -151.2318756 3.676348115e-11
-194.179852 -27.5724799 152.2592744
-204.4331668 6.241407391e-11 169.3557984
90.93916199 -70.3715735 3.676348115e-11
-44.63122301 6.241407391e-11 60.8053377
198.012564 -236.4985904 3.676348115e-11
-187.667977 6.241407391e-11 144.8691564
-105.768098 6.241407391e-11 146.2334357
161.185561 -96.934692 3.676348115e-11
-9.079736011 -226.8763662 3.676348115e-11
135.783233 -153.7681237 3.676348115e-11
-202.7713043 -90.8620588 3.676348115e-11
-113.603931 6.241407391e-11 48.66138495
-110.824202 -226.5490496 3.676348115e-11
51.91724799 -194.2862683 3.676348115e-11
-194.179852 -154.6929532 132.3349871
-194.179852 -108.7654311 215.4601452
-199.8098013 6.241407391e-11 218.5931279
-18.81033501 -150.1568775 3.676348115e-11
194.179889 -132.8276956 43.58631244
-194.179852 -89.2577202 174.1438269
-217.905113 6.241407391e-11 225.9915652
120.084348 -240.1206149 3.676348115e-11
63.73820099 -164.2352888 3.676348115e-11
-194.179852 -71.3555716 99.1308701
194.179889 -107.6198285 152.0554296
-46.58075701 6.241407391e-11 175.1198726
-7.345768011 -77.4016362 3.676348115e-11
-62.61379401 6.241407391e-11 149.9021898
56.45234899 -222.6627735 3.676348115e-11
-62.43475801 6.241407391e-11 17.19638567
-38.67680901 -93.1065555 3.676348115e-11
68.91638999 -115.2116055 3.676348115e-11
-159.239373 6.241407391e-11 211.392764
47.60435999 6.241407391e-11 67.2022712
-154.366868 -13.7589169 3.676348115e-11
194.179889 -109.3659018 5.27530014
-194.179852 -18.2080239 82.2856523
194.179889 -211.3389555 192.7278145
-103.902247 -196.2159009 3.676348115e-11
-164.902118 6.241407391e-11 85.5538737
115.4991 6.241407391e-11 15.48326221
-149.713455 6.241407391e-11 143.2562857
135.128513 6.241407391e-11 82.830472
-194.179852 -133.9764189 165.8979557
194.179889 -64.8150942 134.6707578
-30.22807901 -231.3723658 3.676348115e-11
114.415841 6.241407391e-11 125.6098877
194.179889 -212.9382491 130.9869482
-152.924602 -251.8863214 3.676348115e-11
200.192816 -135.7582142 3.676348115e-11
-49.22848701 -112.108324 3.676348115e-11
94.93824199 -11.6048642 3.676348115e-11
100.940654 -146.8638274 3.676348115e-11
194.179889 -247.8895479 184.0240512
-194.179852 -12.657436 237.272426
18.04056399 6.241407391e-11 131.8569059
194.179889 -31.9281883 14.12263592
-22.65288801 -54.2366142 3.676348115e-11
-4.494964011 6.241407391e-11 168.5685126
194.179889 -99.2549104 100.5001916
-194.179852 -210.6243305 47.26833411
-94.61405001 -158.7199814 3.676348115e-11
194.179889 -235.9417171 112.4224815
-194.179852 -8.8490838 126.3941144
194.179889 -211.3626446 10.38369433
194.179889 -52.6935552 157.7355503
166.961451 6.241407391e-11 187.2924055
-194.179852 -128.155571 207.4782196
-17.77113901 -208.1509576 3.676348115e-11
-202.5422426 6.241407391e-11 80.0647268
194.179889 -14.5077179 209.6332815
214.109633 6.241407391e-11 32.77636537
-21.62709601 6.241407391e-11 203.1882305
192.740111 6.241407391e-11 172.3855829
-194.179852 -108.8948601 34.00317115
-194.179852 -25.018858 205.0343507
73.37797699 6.241407391e-11 41.48432117
215.921511 6.241407391e-11 155.8687338
153.357757 -1.9342655 3.676348115e-11
9.012715989 -137.2393558 3.676348115e-11
-152.103401 -206.9307648 3.676348115e-11
48.20344999 6.241407391e-11 200.3704162
-83.14141101 6.241407391e-11 12.46966463
109.724075 -94.3480827 3.676348115e-11
-194.179852 -243.2484381 83.154971
94.53804699 -243.4040985 3.676348115e-11
-194.179852 -94.5547923 109.2614955
32.48217899 6.241407391e-11 112.4930672
-199.9894565 -242.2258236 3.676348115e-11
-119.427684 -251.1972625 3.676348115e-11
-194.179852 -219.5182504 143.2478895
-194.179852 -185.7203462 61.3982644
-79.79987901 -42.8373414 3.676348115e-11
194.179889 -234.3430678 137.155513
181.990406 6.241407391e-11 54.43659481
9.458181989 6.241407391e-11 9.87513568
58.75777299 6.241407391e-11 89.6801307
-90.19292901 -205.875099 3.676348115e-11
-72.94233201 6.241407391e-11 82.3714472
194.179889 -168.5454643 189.6565075
-162.697545 6.241407391e-11 187.9405768
-194.179852 -241.5029218 138.9249216
34.27209399 -173.0823901 3.676348115e-11
94.22923499 6.241407391e-11 77.9571273
102.701245 6.241407391e-11 190.7311324
-194.179852 -244.7328178 189.3634677
50.34690399 6.241407391e-11 231.1794415
194.179889 -81.1420832 153.4307708
-196.3536203 -189.0801679 3.676348115e-11
194.179889 -34.7336306 182.5185994
-165.625604 6.241407391e-11 132.5418371
-194.179852 -221.890509 119.995664
194.179889 -129.2410397 144.5521182
194.179889 -229.0555379 12.57660553
132.330212 -218.1835713 3.676348115e-11
-28.66006401 -136.1003462 3.676348115e-11
-194.179852 -11.2664741 191.6959113
-194.179852 -89.3264808 195.0936359
-14.09725901 -36.9192333 3.676348115e-11
4.287495989 6.241407391e-11 97.8853702
165.325747 6.241407391e-11 124.6569705
-121.528113 6.241407391e-11 247.2971291
-194.179852 -186.9269611 34.31597429
-207.6758339 -107.9259627 3.676348115e-11
-194.179852 -230.1592766 169.2349676
-64.10681201 1.8683749 3.676348115e-11
19.48041799 6.241407391e-11 39.21143428
-73.23903401 -243.1564114 3.676348115e-11
88.28124399 -228.6320843 3.676348115e-11
-194.179852 -151.9354056 64.8360141
207.112539 -34.1948599 3.676348115e-11
-194.179852 -121.3631674 132.8829739
182.120671 6.241407391e-11 139.5525557
-160.979182 6.241407391e-11 34.56603021
-194.179852 -230.7081419 95.1989349
-19.98646301 6.241407391e-11 109.6426386
-179.744353 -209.1148852 3.676348115e-11
-194.179852 -36.0869718 246.7937189
194.179889 -127.0989097 30.32156858
-194.179852 -36.2455634 107.5155118
7.415760989 -210.9664516 3.676348115e-11
194.179889 -126.6037275 100.2799761
-194.179852 -138.5234088 114.3601019
-194.179852 -215.2511416 197.5692404
66.77433999 -187.0279318 3.676348115e-11
27.75254999 -144.1968653 3.676348115e-11
-194.179852 -85.0020916 236.0020807
194.179889 -82.8054948 87.5103583
-63.69529901 6.241407391e-11 230.4372561
-131.059356 -174.8367402 3.676348115e-11
211.816143 -60.6124044 3.676348115e-11
-102.495809 -20.0630181 3.676348115e-11
75.35701099 -86.3272069 3.676348115e-11
46.08632399 6.241407391e-11 85.2872603
-66.26800701 6.241407391e-11 39.99303177
-116.529965 6.241407391e-11 122.1537374
-194.179852 -197.7484433 139.3769914
197.713483 6.241407391e-11 148.4681608
-92.64151701 6.241407391e-11 118.505231
102.640098 6.241407391e-11 241.3515991
-194.179852 -57.5296789 135.2233739
194.179889 -33.8173788 85.951852
62.88893599 6.241407391e-11 238.3204065
-90.77217501 6.241407391e-11 223.0447913
-203.7175965 -73.9501494 3.676348115e-11
-165.221606 -116.132392 3.676348115e-11
48.89125799 6.241407391e-11 52.48417681
194.179889 -59.1958284 90.7670232
-131.917296 -121.9474877 3.676348115e-11
69.64088099 -50.1988997 3.676348115e-11
21.07958999 -109.7185651 3.676348115e-11
49.39509899 6.241407391e-11 165.1671567
-194.179852 -142.7564921 251.171355
-194.179852 -131.9836589 237.1180099
194.179889 -38.9266656 141.9063898
-120.052893 -46.2512804 3.676348115e-11
-205.6328179 -174.5973271 3.676348115e-11
-26.92737701 6.241407391e-11 155.5811558
194.179889 -2.6363287 120.6164433
207.010978 -223.272025 3.676348115e-11
-114.882792 6.241407391e-11 76.4021865
-73.80098401 6.241407391e-11 214.7323012
-194.179852 -105.262581 59.08237936
-53.79563601 -236.7064501 3.676348115e-11
-194.179852 -50.1239418 167.2478539
147.993346 -201.4361423 3.676348115e-11
-143.506744 -107.0739042 3.676348115e-11
38.18693999 6.241407391e-11 188.9405969
-194.179852 -247.7639886 44.2676277
194.179889 -216.2802123 84.990581
194.179889 -159.5825021 237.6846615
-194.179852 -219.6973395 17.54671333
-194.179852 -63.8655313 111.2752819
194.179889 -250.0222716 4.47057557
-85.86160401 6.241407391e-11 34.33323395
-144.349062 -177.4941653 3.676348115e-11
-37.51982601 -29.018568 3.676348115e-11
-194.179852 -126.0971285 52.81997678
93.48527199 6.241407391e-11 122.6181019
-194.179852 -196.9572293 236.6322043
-139.767647 -240.2694878 3.676348115e-11
40.64928699 6.241407391e-11 135.3754963
-123.229961 -94.0691938 3.676348115e-11
-65.23744001 -196.2344811 3.676348115e-11
194.179889 -143.4657986 189.3651165
123.045573 6.241407391e-11 191.6865209
181.213463 -27.0508955 3.676348115e-11
140.000759 -24.0451473 3.676348115e-11
100.848442 6.241407391e-11 210.3887328
-194.179852 -184.9549938 164.8088979
-42.53561101 -6.1961061 3.676348115e-11
117.297466 -75.6272592 3.676348115e-11
-179.4404 6.241407391e-11 236.9808206
-163.548193 6.241407391e-11 237.7855134
-147.059996 -226.1106935 3.676348115e-11
175.37262 -246.9760388 3.676348115e-11
-135.532768 6.241407391e-11 95.5518327
-194.179852 -75.3619711 75.4283314
-195.2531066 6.241407391e-11 56.40864966
194.179889 -203.9391203 59.41726442
74.69637899 6.241407391e-11 58.66181547
12.17311799 6.241407391e-11 156.8932222
-194.179852 -113.7656958 184.529887
-194.179852 -198.8166741 58.10505134
194.179889 -218.9141472 38.89916478
-194.179852 -96.3072184 146.2853063
-104.87048 -105.4300161 3.676348115e-11
-15.45308601 -252.2240677 3.676348115e-11
94.83741399 6.241407391e-11 54.2941121
118.426635 -227.3332118 3.676348115e-11
42.32658799 -224.4642087 3.676348115e-11
194.179889 -195.2210971 174.6587347
183.105745 6.241407391e-11 2.34530548
194.179889 -211.7965923 106.0399515
-194.179852 -124.766012 193.6319477
151.116661 6.241407391e-11 248.5508099
-194.179852 -11.6551752 152.1284344
162.620456 6.241407391e-11 74.9993422
-74.24578501 6.241407391e-11 165.5697171
27.06104899 6.241407391e-11 15.22382942
-111.482363 -167.6812266 3.676348115e-11
-173.239263 -147.9729301 3.676348115e-11
194.179889 -73.8117026 209.4206324
-143.146826 -44.6522236 3.676348115e-11
124.262003 -41.5415709 3.676348115e-11
61.74685799 6.241407391e-11 34.39294514
-13.24394901 6.241407391e-11 29.50166591
-182.971705 0.1688181001 3.676348115e-11
-99.51572201 -220.6511519 3.676348115e-11
188.918364 6.241407391e-11 38.34138881
-174.197405 -78.8815195 3.676348115e-11
-194.179852 -91.3115507 12.37734982
3.807618989 6.241407391e-11 211.630205
218.957484 -181.6940549 3.676348115e-11
-194.179852 -142.839368 127.2070458
77.01776199 -195.3220128 3.676348115e-11
-143.795089 6.241407391e-11 161.4259752
-138.669139 6.241407391e-11 59.10724541
-194.179852 -164.164672 215.0752084
-194.179852 -185.0091308 137.4509263
60.09228599 -9.1616577 3.676348115e-11
0.9854659888 6.241407391e-11 84.1938607
194.179889 -75.3337169 182.3710694
133.408835 6.241407391e-11 27.54383261
-166.559702 -90.6947579 3.676348115e-11
103.359621 6.241407391e-11 94.7747253
194.179889 -130.1108755 119.6075943
-35.35209001 -160.8534506 3.676348115e-11
194.179889 -45.4160226 21.07774276
-207.7448179 -40.2598984 3.676348115e-11
-47.30703101 -155.4710218 3.676348115e-11
-218.7307641 6.241407391e-11 196.6563941
194.179889 -182.4589713 216.5815412
124.912896 -129.2042179 3.676348115e-11
208.443539 6.241407391e-11 7.32523275
-210.2811922 -128.0523352 3.676348115e-11
-13.27284901 -96.1305556 3.676348115e-11
144.200774 -109.0382348 3.676348115e-11
-104.295458 6.241407391e-11 125.1777787
194.179889 -97.8662478 251.2176923
123.268496 6.241407391e-11 78.6145091
203.512162 -165.3501278 3.676348115e-11
194.179889 -71.9664725 18.20066407
-213.9356389 6.241407391e-11 11.80829144
125.825522 6.241407391e-11 206.202593
140.251538 -186.3702015 3.676348115e-11
-194.179852 -197.3439913 10.67016899
-194.179852 -164.9253304 169.0881988
35.24936299 -9.4735929 3.676348115e-11
136.537842 6.241407391e-11 164.1502413
84.64659199 6.241407391e-11 20.19121256
194.179889 -38.6873946 210.807521
138.573097 6.241407391e-11 225.4742141
-194.179852 -80.1180312 48.22022801
39.45895199 -34.0002159 3.676348115e-11
-95.06132901 6.241407391e-11 237.0602358
58.20055399 -65.420592 3.676348115e-11
-48.03670201 6.241407391e-11 92.7315406
-6.736841011 -123.3291344 3.676348115e-11
194.179889 -152.6127555 137.4488349
194.179889 -11.517457 98.3734298
194.179889 -51.7353724 176.9780811
-77.60870801 6.241407391e-11 189.9466838
-2.056584011 6.241407391e-11 112.2223818
194.179889 -90.1768174 171.7608119
160.868015 -125.461998 3.676348115e-11
-129.108871 6.241407391e-11 137.8405158
12.68311999 -8.4003084 3.676348115e-11
163.000522 -148.7768742 3.676348115e-11
194.179889 -239.2231506 37.68216825
217.717335 6.241407391e-11 66.9294274
147.255374 -130.726987 3.676348115e-11
-194.179852 -241.9045522 165.2968798
-194.179852 -91.3071479 121.615767
199.847592 6.241407391e-11 107.2439649
175.383627 -194.4495433 3.676348115e-11
-194.179852 -91.3166437 221.9567514
66.65699799 -229.5530814 3.676348115e-11
194.179889 -117.8541073 207.1680334
-194.179852 -124.2976807 34.71005752
-194.179852 -13.4649094 54.17638389
-109.565861 6.241407391e-11 92.0174142
0.6247179888 -29.818361 3.676348115e-11
18.81491999 6.241407391e-11 113.976971
194.179889 -33.0077716 40.62281348
194.179889 -114.6278079 188.9648279
-150.907032 -70.7397607 3.676348115e-11
215.284614 6.241407391e-11 239.3562644
4.401674989 -161.06076 3.676348115e-11
-98.61946501 -146.3266032 3.676348115e-11
146.303518 -147.4763392 3.676348115e-11
-124.882217 6.241407391e-11 62.0183602
-184.788618 -53.8204122 3.676348115e-11
-194.179852 -36.1539314 65.4587693
-194.179852 -60.713316 229.9942647
-57.39592001 6.241407391e-11 31.13474165
-175.398266 6.241407391e-11 116.0452494
22.98133399 6.241407391e-11 229.8894992
-95.31429001 6.241407391e-11 54.72308519
-194.179852 -64.3130265 70.2756731
64.63268899 -80.5293607 3.676348115e-11
194.179889 -170.8181262 39.45554679
-92.17536401 -192.894498 3.676348115e-11
-73.67295101 6.241407391e-11 55.90209852
121.001947 6.241407391e-11 146.0675564
194.179889 -248.3980715 70.2803074
-151.346931 -166.7387681 3.676348115e-11
-194.179852 -166.0015354 44.79489844
-194.179852 -137.3806041 220.0009318
-194.179852 -0.3469666999 31.93579909
-56.20081601 -180.089313 3.676348115e-11
-194.179852 -155.3247987 244.7883558
100.619649 -56.5788243 3.676348115e-11
194.179889 -191.8382597 5.79441393
194.179889 -30.1376698 238.216841
-194.179852 -44.5249469 95.7387326
-2.964036011 -10.3458073 3.676348115e-11
-6.134842011 -172.4746376 3.676348115e-11
-212.6220789 -57.6433022 3.676348115e-11
194.179889 -7.6980981 7.49459173
180.238882 -92.2952266 3.676348115e-11
-166.858285 -128.952719 3.676348115e-11
96.86982099 -120.9090352 3.676348115e-11
-166.005408 -59.9045258 3.676348115e-11
194.179889 -239.2587569 220.9223898
194.179889 -207.2070803 226.77265
-194.179852 -141.9486923 27.99161944
-200.3893017 -201.9958095 3.676348115e-11
-90.17421601 1.978755 3.676348115e-11
-32.80210601 -174.2244136 3.676348115e-11
194.179889 -153.486507 168.1331136
194.179889 -93.1764453 129.7056316
-194.179852 -239.0041521 12.17943914
-10.15319201 -51.6736627 3.676348115e-11
194.179889 -241.9096015 93.4743812
-194.179852 -168.232367 0.93859933
-194.179852 -248.9389084 109.890998
181.803399 -67.1961248 3.676348115e-11
-153.212251 6.241407391e-11 222.819548
-194.179852 -36.2984793 125.76637
-194.179852 -61.874561 251.7284175
195.335032 -174.301366 3.676348115e-11
-194.179852 -64.974292 40.59878946
137.709812 6.241407391e-11 127.4765281
79.13084499 -251.8539331 3.676348115e-11
148.907904 -82.0353103 3.676348115e-11
-36.39172201 6.241407391e-11 181.2960477
-201.2664054 6.241407391e-11 244.3943666
200.826599 6.241407391e-11 36.11495442
-172.705273 -199.2373595 3.676348115e-11
-63.93821601 6.241407391e-11 108.4121138
-84.79827801 6.241407391e-11 81.6402907
194.179889 -183.4536605 135.6522821
-194.179852 -109.2115331 83.088359
-128.922241 6.241407391e-11 224.2206623
-87.77074201 -67.843198 3.676348115e-11
11.97438299 6.241407391e-11 235.7802033
194.179889 -60.4872307 190.7465012
194.179889 -52.0271506 8.48017135
81.64088599 -163.3826158 3.676348115e-11
-194.179852 -119.1364759 109.5061954
189.08975 -205.8303455 3.676348115e-11
194.179889 -25.1048646 109.109679
-121.386268 -28.9597225 3.676348115e-11
194.179889 -235.6470358 190.0244879
194.179889 -244.7153512 210.1835316
194.179889 -168.6785477 210.3353942
-4.921267011 -246.8984088 3.676348115e-11
194.179889 -87.3036247 9.39688451
39.33338399 -236.013588 3.676348115e-11
-172.897766 -164.2694226 3.676348115e-11
65.32760699 -152.5474012 3.676348115e-11
-194.179852 -57.3873636 9.27386947
-194.179852 -158.8790474 101.7525379
194.179889 -187.8201498 60.3868937
-175.322501 6.241407391e-11 80.0805508
-194.179852 -13.3331293 2.14140929
-194.179852 -237.2651384 35.57322873
-15.59508501 6.241407391e-11 175.5921348
-194.179852 -84.5631537 102.983448
52.42171399 -20.4057802 3.676348115e-11
194.179889 -105.6907443 163.6223418
194.179889 -24.5366143 175.5971138
-183.668563 -103.4432398 3.676348115e-11
123.527756 -182.9462249 3.676348115e-11
204.332994 -191.5042719 3.676348115e-11
-194.179852 -18.8468925 41.5696707
-18.87660201 6.241407391e-11 95.8386094
-194.179852 -151.0793541 144.6904936
194.179889 -248.357833 115.6015891
194.179889 -226.0275705 158.6124148
194.179889 -163.874158 10.90277856
194.179889 -171.9098987 237.0822987
-198.3896103 6.241407391e-11 205.7781588
194.179889 -41.0239618 107.216258
107.878206 6.241407391e-11 49.42755666
-80.29893601 -23.5784015 3.676348115e-11
176.767675 6.241407391e-11 193.5452198
194.179889 -181.2700789 245.5120079
-122.249904 6.241407391e-11 106.9556054
26.44699099 -57.0446362 3.676348115e-11
-205.4795908 6.241407391e-11 50.11485716
166.826892 6.241407391e-11 203.5989139
194.179889 -158.494305 40.41562075
194.179889 -218.218342 181.5685924
-94.70155101 -130.953456 3.676348115e-11
-187.958595 6.241407391e-11 101.0220987
139.840923 6.241407391e-11 53.98761303
-142.176907 6.241407391e-11 185.4413895
-136.407413 -71.8924439 3.676348115e-11
-145.243145 6.241407391e-11 208.2239848
194.179889 -201.7462412 143.2119678
-118.707938 6.241407391e-11 177.0043677
-152.220037 6.241407391e-11 247.8826196
-194.179852 -5.5443374 85.7833262
-126.764824 6.241407391e-11 75.4129412
-194.179852 -149.265907 49.55489
-154.114502 6.241407391e-11 131.8592816
-188.259401 -235.6348513 3.676348115e-11
-194.179852 -68.7343583 5.81028878
194.179889 -168.6545477 77.8340435
206.082006 -50.6199514 3.676348115e-11
-107.362841 6.241407391e-11 235.4247939
-194.179852 -35.75773 189.6367745
65.98214799 6.241407391e-11 17.40778895
-194.179852 -241.917774 71.433004
130.208468 1.6500075 3.676348115e-11
-29.98851201 6.241407391e-11 241.1246753
-194.179852 -117.725036 231.2353704
42.19594199 6.241407391e-11 118.601164
194.179889 -133.8828386 162.909398
9.345630989 -109.4714978 3.676348115e-11
-202.7449941 6.241407391e-11 9.30338722
-100.339112 6.241407391e-11 7.71551852
-41.31137901 -218.6826041 3.676348115e-11
174.935844 -137.6795531 3.676348115e-11
-18.50087901 -72.7352207 3.676348115e-11
-197.1201536 6.241407391e-11 188.9360197
-206.9473229 -142.7471851 3.676348115e-11
194.179889 -132.8409709 74.9247274
-77.64626001 -227.0321035 3.676348115e-11
-5.275721011 6.241407391e-11 181.6622642
-49.10067401 6.241407391e-11 104.062446
56.12291099 -144.6446165 3.676348115e-11
39.17594099 6.241407391e-11 160.2099818
194.179889 -84.5584336 188.9574261
201.61056 6.241407391e-11 79.2540509
143.580174 6.241407391e-11 99.2960287
-212.5968146 -80.9825677 3.676348115e-11
-111.225118 6.241407391e-11 215.5559864
218.827088 6.241407391e-11 185.1984717
194.179889 -123.4402444 60.8339511
194.179889 -195.5535197 100.0181092
194.179889 -174.4061587 96.4564364
194.179889 -58.98276 46.56989628
194.179889 -27.0797686 162.2009104
-194.179852 -241.4290179 56.30665799
-194.179852 -205.7608241 37.08086489
-194.179852 -40.1695828 153.1966132
194.179889 -48.4354678 118.2307374
120.343915 6.241407391e-11 116.0042827
-194.179852 -209.3701651 99.5993254
-194.179852 -219.7885069 155.3719297
194.179889 -74.8898656 246.127795
57.89239699 6.241407391e-11 209.5861635
-131.187986 -47.981588 3.676348115e-11
-194.179852 -57.6201161 95.9901235
-79.97142401 -75.9725564 3.676348115e-11
194.179889 -221.6659723 211.2792922
145.124266 6.241407391e-11 235.4056311
-194.179852 -21.5600404 93.5736798
135.917835 -87.1184035 3.676348115e-11
136.506496 6.241407391e-11 211.0430818
194.179889 -148.5030738 241.8612299
170.521761 6.241407391e-11 175.8478488
-194.179852 -95.189192 243.8491457
-27.21116701 6.241407391e-11 88.3296757
194.179889 -202.0329664 183.8182397
181.685827 6.241407391e-11 28.69115517
194.179889 -103.0767204 25.51217305
-165.797692 -225.775223 3.676348115e-11
125.838609 6.241407391e-11 246.2014812
-44.88212401 -138.0321956 3.676348115e-11
194.179889 -156.2384274 97.3310458
142.695677 -211.7026483 3.676348115e-11
160.03717 6.241407391e-11 8.77397691
-24.04507201 6.241407391e-11 11.33194728
-194.179852 -122.5638962 8.9858089
-99.34157301 -95.5607569 3.676348115e-11
183.341061 -49.1771024 3.676348115e-11
194.179889 -197.2961575 83.5536118
179.772309 -220.6859152 3.676348115e-11
60.16797099 6.241407391e-11 150.663821
173.207735 6.241407391e-11 239.0800898
-84.39278901 6.241407391e-11 58.955171
-108.78088 -8.8715277 3.676348115e-11
-194.179852 -51.5590098 206.6297852
205.126281 -113.9937939 3.676348115e-11
194.179889 -10.5998783 187.2388945
-179.2334 -249.6533992 3.676348115e-11
-175.780915 -187.118018 3.676348115e-11
218.949938 -227.9381234 3.676348115e-11
-183.604805 6.241407391e-11 170.6006509
-194.179852 -186.7524504 86.3751013
194.179889 -12.3063421 84.4219924
-194.179852 -242.8545768 212.8059931
-64.23445601 -232.705328 3.676348115e-11
-194.179852 -46.6641817 191.79821
61.92375099 6.241407391e-11 188.8130715
-194.179852 -145.2244353 188.1683914
63.08973899 -176.1396793 3.676348115e-11
111.213922 6.241407391e-11 174.3818183
140.264424 6.241407391e-11 142.3199162
-57.26686401 -212.9376283 3.676348115e-11
112.218972 -25.715493 3.676348115e-11
-194.179852 -39.2853081 51.62384014
202.644416 -6.9630024 3.676348115e-11
23.88726599 6.241407391e-11 197.8164886
78.13566899 6.241407391e-11 107.1187855
-176.507959 6.241407391e-11 137.7408397
-194.179852 -120.7163141 87.3431756
205.294143 6.241407391e-11 222.1004989
180.293877 6.241407391e-11 165.7603473
207.016181 6.241407391e-11 194.6727624
-153.612892 6.241407391e-11 80.3400453
155.947546 -229.3310285 3.676348115e-11
6.627638989 6.241407391e-11 188.9318863
-215.2420262 6.241407391e-11 237.4271303
194.179889 -140.2209531 214.2820814
-194.179852 -112.0998299 126.960004
-84.22570101 -57.4375201 3.676348115e-11
-194.179852 -148.5155927 88.6699584
194.179889 -238.3471088 232.174286
-208.8366688 6.241407391e-11 89.4380756
194.179889 -40.2470463 195.9248787
-52.80819301 6.241407391e-11 127.1521161
194.179889 -226.0674742 57.59276712
71.21179399 6.241407391e-11 249.6384683
56.88924899 6.241407391e-11 124.7327715
-97.14536801 -39.0261039 3.676348115e-11
-2.094817011 -192.874094 3.676348115e-11
-194.179852 -45.5741414 24.52200765
129.075971 -62.1292686 3.676348115e-11
74.14555499 6.241407391e-11 228.7940412
74.15414299 -207.1350266 3.676348115e-11
-194.179852 -43.2008607 84.8666703
185.500288 6.241407391e-11 114.3375786
-194.179852 -23.5443605 236.6388893
-129.074283 -133.0865466 3.676348115e-11
26.67447899 6.241407391e-11 242.7750353
-20.65015801 -221.908286 3.676348115e-11
194.179889 -15.3982967 61.3792916
-203.0351441 6.241407391e-11 130.4883615
-194.179852 -54.7143266 47.35435394
-194.179852 -90.4233214 40.02346926
-137.280988 6.241407391e-11 43.42620527
-201.6726785 -29.1974684 3.676348115e-11
116.43634 -102.9027152 3.676348115e-11
194.179889 -119.0302844 37.60920127
85.38242399 -203.512778 3.676348115e-11
194.179889 -193.8211395 160.3594172
-194.179852 -178.5506319 221.0002502
41.46155099 -108.6486663 3.676348115e-11
194.179889 -62.7790511 201.361165
194.179889 -225.829882 237.9480603
-194.179852 -205.8154781 213.0903009
158.407421 6.241407391e-11 31.66984879
-17.68638101 6.241407391e-11 1.3820994
-212.3090651 -10.3503258 3.676348115e-11
-1.573839011 -134.8830398 3.676348115e-11
-178.002398 6.241407391e-11 43.63581444
-25.48005301 6.241407391e-11 120.6048342
20.79942299 -176.7564847 3.676348115e-11
38.04787099 -75.4113682 3.676348115e-11
194.179889 -62.6910108 67.5276207
194.179889 -204.9161514 48.64582664
188.633514 -99.3293974 3.676348115e-11
170.699889 -102.5470894 3.676348115e-11
-55.11769001 6.241407391e-11 251.6001966
85.61927699 -178.2152049 3.676348115e-11
194.179889 -200.4410041 211.9509356
-114.434112 -193.8114901 3.676348115e-11
194.179889 -42.2732195 78.799644
-45.36329101 6.241407391e-11 47.75438948
-136.834103 6.241407391e-11 5.95313837
-66.62829901 -141.1789031 3.676348115e-11
194.179889 -88.6128743 41.18091751
194.179889 -96.7411033 70.4374518
194.179889 -32.369396 127.6225149
185.176929 -128.5751296 3.676348115e-11
-84.13849401 6.241407391e-11 127.5829176
-145.528949 6.241407391e-11 27.6165307
17.35495599 6.241407391e-11 172.5702738
194.179889 -123.9580397 172.6957882
5.802284989 6.241407391e-11 63.8808517
113.385859 6.241407391e-11 240.249522
158.55694 6.241407391e-11 213.9771139
110.933232 -137.9245366 3.676348115e-11
-194.179852 -132.3055756 129.2785792
-194.179852 -197.6829489 155.2107159
194.179889 -27.5345846 62.8699844
77.58958199 6.241407391e-11 200.3073955
107.98918 -241.099831 3.676348115e-11
157.965973 -170.0975719 3.676348115e-11
-194.179852 -57.9969079 121.2169116
-194.179852 -168.4513435 241.0111039
194.179889 -108.8750697 242.5848074
-78.75533301 -178.1877572 3.676348115e-11
-194.179852 -136.3447105 155.4576069
-194.179852 -196.3331688 128.7669551
-99.77272001 -168.0921372 3.676348115e-11
-206.958192 -185.4116214 3.676348115e-11
-46.74807201 6.241407391e-11 17.36558505
124.856209 -153.8432478 3.676348115e-11
18.43537299 6.241407391e-11 208.9723344
194.179889 -63.9189994 180.4231726
97.22303599 6.241407391e-11 103.504346
194.179889 -61.6119251 221.7000669
58.23326199 6.241407391e-11 9.10253717
194.179889 -91.4244173 241.2617977
92.33091899 6.241407391e-11 165.8361196
194.179889 -245.979649 135.7011167
194.179889 -178.6441726 31.2229834
-218.6792604 -159.2072128 3.676348115e-11
-24.65628001 6.241407391e-11 187.6161003
194.179889 -141.2132239 53.7930849
44.72581899 -184.5902852 3.676348115e-11
-207.3918844 6.241407391e-11 151.5552246
194.179889 -8.370012 25.89489795
-87.12465201 6.241407391e-11 178.7242525
209.378885 -209.7504231 3.676348115e-11
194.179889 -116.9881792 225.9723477
-194.179852 -128.7144096 0.03619467004
194.179889 -28.8213905 99.1712603
140.453494 -118.9627075 3.676348115e-11
-214.9679027 6.241407391e-11 170.5907292
204.801973 6.241407391e-11 94.8466448
194.179889 -91.2979026 146.045424
-24.45669401 6.241407391e-11 52.1874234
194.179889 -154.7232708 117.1111658
-102.54342 -208.0894608 3.676348115e-11
49.29294199 6.241407391e-11 189.863956
20.12960099 -204.3610928 3.676348115e-11
194.179889 -51.0763593 104.0131177
-194.179852 -176.3737865 24.89462413
55.40898799 -246.9012542 3.676348115e-11
-194.179852 -228.1104281 251.1744477
194.179889 -103.5870447 47.15939308
-30.56334601 -241.9202044 3.676348115e-11
194.179889 -236.4129703 200.7785167
-139.02172 -9.2371227 3.676348115e-11
-194.179852 -160.789582 122.9096315
106.606614 -164.2919846 3.676348115e-11
-67.65369101 -221.875832 3.676348115e-11
157.860628 -28.1278136 3.676348115e-11
194.179889 -153.1275746 185.2241002
-194.179852 -176.8407557 147.8186687
-185.046643 6.241407391e-11 85.1531143
179.348331 -167.1544991 3.676348115e-11
194.179889 -176.0494489 171.5716023
-12.29143301 -197.3243423 3.676348115e-11
194.179889 -58.3210672 142.9118783
-194.179852 -26.2734829 138.7624818
171.536613 6.241407391e-11 53.57400192
194.179889 -42.3255497 31.09632126
-64.34835901 6.241407391e-11 169.0278949
-118.928347 -237.2873838 3.676348115e-11
194.179889 -19.2794525 198.5555824
-194.179852 -2.7609693 135.3695139
40.11906199 -162.9276877 3.676348115e-11
117.902712 6.241407391e-11 216.3193261
-1.556919011 -66.1210644 3.676348115e-11
145.560247 -53.6020834 3.676348115e-11
175.056061 -39.6854089 3.676348115e-11
-204.9297068 -211.4339068 3.676348115e-11
83.30597999 -78.9027658 3.676348115e-11
-105.908291 6.241407391e-11 224.8479597
20.79721599 -225.5814804 3.676348115e-11
194.179889 -135.2228998 228.3735391
37.51290899 6.241407391e-11 15.47557104
72.00090399 6.241407391e-11 68.7623307
194.179889 -70.9729399 7.79412856
74.92501799 -14.1661747 3.676348115e-11
-194.179852 -148.7642951 3.60083839
-40.90666901 6.241407391e-11 161.5790133
-49.02661801 -66.6948117 3.676348115e-11
-194.179852 -191.5265478 101.807364
-149.763831 -129.7754658 3.676348115e-11
-141.375693 -203.4793777 3.676348115e-11
-61.44823501 6.241407391e-11 208.7247668
194.179889 -30.868573 3.76077099
216.345607 6.241407391e-11 125.9877579
194.179889 -236.3910013 174.8009048
38.19858999 6.241407391e-11 35.71766116
-34.90769401 6.241407391e-11 143.1764483
209.657929 6.241407391e-11 42.1705614
-194.179852 -176.3545839 104.3653703
-158.030646 -108.6368067 3.676348115e-11
194.179889 -154.1990839 251.3329172
-23.18744901 -11.1027617 3.676348115e-11
175.292631 6.241407391e-11 16.14698254
-205.000128 6.241407391e-11 110.2513551
-194.179852 -173.3324929 184.53092
-194.179852 -3.621698 166.8675681
-194.179852 -62.8088809 212.965933
90.43947899 6.241407391e-11 29.91454776
-163.278469 -35.1965038 3.676348115e-11
-194.179852 -241.762128 25.66728204
-194.179852 -182.6213744 209.3045277
-194.179852 -7.7645338 225.2439175
-132.551196 6.241407391e-11 195.5674305
-194.179852 -16.2805458 119.1292326
-194.179852 -160.784868 154.8154124
148.926047 6.241407391e-11 117.3551846
-42.13121901 6.241407391e-11 218.1860707
7.553592989 6.241407391e-11 252.4031752
-130.044454 -216.7405358 3.676348115e-11
-194.179852 -38.3854143 37.39878377
-119.534679 -221.0065258 3.676348115e-11
-194.179852 -44.4510159 215.5324376
-194.179852 -209.3791067 17.58019908
-194.179852 -238.6998674 127.2475801
-194.179852 -204.5133301 245.9318651
103.730293 6.241407391e-11 123.8233354
-172.471825 6.241407391e-11 212.93617
-167.941377 -7.8229042 3.676348115e-11
125.093342 6.241407391e-11 165.6154732
204.536903 -86.7789055 3.676348115e-11
110.337384 -115.1693595 3.676348115e-11
194.179889 -203.8269799 164.4729826
-15.05064701 -84.2134267 3.676348115e-11
-194.179852 -170.3069112 86.6486772
67.90605999 6.241407391e-11 157.429524
155.402777 6.241407391e-11 61.5264141
-153.822001 -196.4059158 3.676348115e-11
146.641554 -169.8431035 3.676348115e-11
-132.226083 6.241407391e-11 85.6665169
-38.99895501 -81.6216441 3.676348115e-11
-95.05488301 -243.2479174 3.676348115e-11
-91.35695801 -115.2617301 3.676348115e-11
194.179889 -191.0453939 114.16867
194.179889 -168.9612612 113.9793185
-105.753002 6.241407391e-11 28.68325897
52.35519899 6.241407391e-11 102.4561881
112.877009 6.241407391e-11 74.535296
-194.179852 -251.2642999 17.88343009
-218.3944707 -107.7833203 3.676348115e-11
-108.990078 -114.7718975 3.676348115e-11
194.179889 -38.7035811 221.5346164
96.12762199 6.241407391e-11 132.4759568
3.337397989 -98.7660477 3.676348115e-11
-194.179852 -9.4479873 246.9500458
-3.533761011 6.241407391e-11 144.9939433
-194.179852 -251.1893393 135.7600979
-78.31471201 6.241407391e-11 242.4255348
64.62449099 -91.8905225 3.676348115e-11
84.09544899 6.241407391e-11 77.0482674
19.85926099 6.241407391e-11 22.40670833
161.095039 -238.7386192 3.676348115e-11
-16.19696701 6.241407391e-11 214.7472416
194.179889 -202.6271151 23.83622488
-89.40658901 -17.790198 3.676348115e-11
-218.9922573 6.241407391e-11 89.6413087
43.50747499 -251.5599212 3.676348115e-11
-35.74300501 -47.5184566 3.676348115e-11
194.179889 -180.0198263 155.0056522
194.179889 -164.6964881 142.3870403
-194.179852 -64.5901633 202.9908051
-203.4869706 -51.354172 3.676348115e-11
-194.179852 -197.0744771 220.0179009
194.179889 -58.6570055 166.3201553
81.58608399 -218.2866055 3.676348115e-11
194.179889 -119.8610418 242.9120061
168.76644 -21.7209452 3.676348115e-11
67.78575599 6.241407391e-11 136.9582491
-129.626932 6.241407391e-11 24.33700503
-134.458979 -186.397257 3.676348115e-11
-137.754182 6.241407391e-11 238.1632543
194.179889 -50.9174928 198.8858622
-158.772026 6.241407391e-11 199.6215083
194.179889 -42.4139361 240.9114297
-157.317358 2.4389646 3.676348115e-11
27.60974499 6.241407391e-11 154.7856022
194.179889 -108.1796028 127.0334564
-42.72617101 6.241407391e-11 82.4095574
194.179889 -123.152581 10.07329634
185.425258 -195.345246 3.676348115e-11
82.08916399 6.241407391e-11 49.80456788
-198.0348752 -158.6145267 3.676348115e-11
194.179889 -215.3069974 151.7699147
127.55102 -209.340455 3.676348115e-11
218.474155 -34.8232572 3.676348115e-11
-83.21947501 -157.212301 3.676348115e-11
-215.9473335 -21.3873594 3.676348115e-11
-77.13657501 -33.1814941 3.676348115e-11
-70.41410901 6.241407391e-11 116.0452707
-34.10346801 6.241407391e-11 106.5269947
95.23868599 6.241407391e-11 249.1491858
25.52291099 -94.4922109 3.676348115e-11
183.474764 -116.6564209 3.676348115e-11
-194.179852 -175.2504383 72.4037144
23.09211799 -135.3590666 3.676348115e-11
14.88144499 -119.635713 3.676348115e-11
194.179889 -30.093976 192.4393641
194.179889 -148.7656705 9.18083554
-194.179852 -226.6308693 210.7936746
-194.179852 -248.8727843 237.3298352
204.224961 -104.0595528 3.676348115e-11
194.179889 -28.1489841 77.40378
-129.805587 -240.2471779 3.676348115e-11
80.19315599 -44.8052179 3.676348115e-11
-194.179852 -132.1579493 106.7015142
-62.64522401 6.241407391e-11 139.5508935
-91.94760301 6.241407391e-11 26.07586098
194.179889 -42.2312384 128.957353
194.179889 -126.0019832 90.347031
-0.3861000112 -114.466902 3.676348115e-11
185.966084 -246.6281362 3.676348115e-11
171.173552 -82.6469064 3.676348115e-11
-194.179852 -40.6352385 237.9585911
-12.80504901 -164.4670278 3.676348115e-11
-194.179852 -227.8346591 38.69121332
194.179889 -137.4627983 240.6682196
194.179889 -183.0835663 50.15431047
-194.179852 -43.0200595 182.5634365
-120.065078 6.241407391e-11 203.6958969
2.422446989 6.241407391e-11 158.7339196
194.179889 -89.0934908 60.4149111
206.974934 6.241407391e-11 244.7546029
177.430408 6.241407391e-11 216.0598603
-116.431025 -145.9364713 3.676348115e-11
4.007860989 -170.9544201 3.676348115e-11
-20.97930101 -177.2388028 3.676348115e-11
194.179889 -77.7253463 169.5831081
-101.422846 -235.138237 3.676348115e-11
-194.179852 -106.2570991 176.1094507
-194.179852 -239.8360806 176.8451907
10.81358299 -27.1601898 3.676348115e-11
-58.82527001 -81.6093494 3.676348115e-11
-194.179852 -180.0850361 119.5213178
197.021868 -184.3756814 3.676348115e-11
160.01748 -38.6377995 3.676348115e-11
-194.179852 -9.4311176 72.1008699
-117.075447 -3.5627906 3.676348115e-11
-194.179852 -98.8729223 197.4733852
181.379088 -153.9567505 3.676348115e-11
-194.179852 -175.5325844 167.6346089
-194.179852 -59.392428 31.85746187
194.179889 -169.757865 133.9579881
-42.79064501 6.241407391e-11 246.6215272
-77.46130601 -139.4346231 3.676348115e-11
-60.84861001 6.241407391e-11 194.9316738
-5.119671011 6.241407391e-11 92.6752443
-64.15769001 6.241407391e-11 240.9388748
-186.85906 6.241407391e-11 39.41211786
-194.179852 -129.9948106 147.3106748
-148.704112 6.241407391e-11 9.57852947
-142.355981 6.241407391e-11 85.5357823
92.54253999 -104.3352261 3.676348115e-11
4.617604989 6.241407391e-11 18.40271966
194.179889 -191.5671708 203.2196752
96.63277999 6.241407391e-11 199.7477911
86.13457799 6.241407391e-11 100.0285892
-15.80372201 6.241407391e-11 130.6752434
171.124224 -235.9555286 3.676348115e-11
-59.70796201 -159.4798104 3.676348115e-11
-194.179852 -208.5501004 87.2360196
-42.21223201 6.241407391e-11 208.3997809
-61.15710201 -70.528477 3.676348115e-11
-217.8651019 -149.3509174 3.676348115e-11
76.39475299 -230.3773288 3.676348115e-11
-5.545458011 -213.2836558 3.676348115e-11
124.631677 6.241407391e-11 124.765698
24.71274099 -9.2600197 3.676348115e-11
-148.177667 -21.5547855 3.676348115e-11
-169.762673 6.241407391e-11 9.46939416
-118.078473 -104.3673783 3.676348115e-11
35.70366699 6.241407391e-11 2.24428913
-26.12249501 -114.1255095 3.676348115e-11
-76.64394101 -115.5911958 3.676348115e-11
-48.39583101 -228.6067595 3.676348115e-11
-194.179852 -184.7009527 19.85756426
201.555361 -16.7921326 3.676348115e-11
-163.95268 -16.6988068 3.676348115e-11
194.179889 -3.8963746 162.6673399
-65.30665101 6.241407391e-11 76.3502971
46.84922599 -53.886655 3.676348115e-11
-35.52930201 6.241407391e-11 64.2136766
-51.58889901 6.241407391e-11 229.7440706
-68.19804001 6.241407391e-11 9.37641375
196.334121 6.241407391e-11 60.0432088
-45.51322501 6.241407391e-11 70.4721898
-156.055228 6.241407391e-11 25.7261469
-81.91926301 6.241407391e-11 143.9822124
194.179889 -23.2773952 37.83303302
-16.34533501 6.241407391e-11 165.9299555
95.37481099 6.241407391e-11 220.9663982
-59.47953601 -26.3850998 3.676348115e-11
194.179889 -238.0754371 60.5973162
-185.067032 6.241407391e-11 161.0363867
-190.551024 -220.5836091 3.676348115e-11
-30.07063501 -126.5438023 3.676348115e-11
143.92999 6.241407391e-11 174.9572865
194.179889 -141.9281381 18.69246701
119.27056 6.241407391e-11 58.96301632
194.179889 -252.4818982 46.65555596
142.370222 6.241407391e-11 89.2163161
123.472391 6.241407391e-11 20.92743254
194.179889 -103.8590629 78.3603306
139.772559 0.3884982001 3.676348115e-11
88.61999299 6.241407391e-11 9.56680857
202.856402 6.241407391e-11 116.4075113
-217.5475238 -203.0809872 3.676348115e-11
-194.179852 -156.1414993 12.11107395
-194.179852 -8.0995086 62.1842631
162.758924 -56.3700727 3.676348115e-11
-207.2824591 6.241407391e-11 183.9216356
134.478737 6.241407391e-11 200.9689035
-192.743316 6.241407391e-11 122.9218708
-90.93930401 -181.7284766 3.676348115e-11
194.179889 -54.7010923 236.188525
-101.56676 6.241407391e-11 71.899616
-69.21258401 -187.1702639 3.676348115e-11
-202.7602514 -9.4635555 3.676348115e-11
-194.179852 -175.4292729 137.0406431
-194.179852 -10.4868053 215.5368043
53.53564999 6.241407391e-11 43.1798166
-194.179852 -170.2181146 14.50409363
-16.38639601 6.241407391e-11 152.6141268
194.179889 -186.6952346 189.741413
146.989437 6.241407391e-11 7.94718022
-163.285693 6.241407391e-11 111.7758226
-38.73912001 -235.7283342 3.676348115e-11
-45.87933901 -47.4100735 3.676348115e-11
194.179889 -217.9684896 168.1349742
17.61706599 -65.599043 3.676348115e-11
-194.179852 -26.9527006 214.3807337
194.179889 -65.5520442 103.7025387
-194.179852 -60.6767609 144.226765
-194.179852 -55.7466594 81.6882874
194.179889 -9.9363188 69.1946826
-98.43624501 6.241407391e-11 248.1844545
-194.179852 -239.2833312 99.3540596
-170.198076 -69.7901896 3.676348115e-11
194.179889 -81.783418 226.0554671
-62.81352401 6.241407391e-11 58.39850622
198.350025 6.241407391e-11 11.23223394
194.179889 -224.5365178 80.2521502
-153.440906 6.241407391e-11 185.7203518
217.412733 -116.2744715 3.676348115e-11
194.179889 -149.0629138 82.3721666
10.59061999 6.241407391e-11 73.9052413
-194.179852 -153.7314405 183.3447625
202.227068 6.241407391e-11 172.0116905
194.179889 -245.6895734 162.0450569
-21.34792401 -63.6894254 3.676348115e-11
75.29079699 -140.9980992 3.676348115e-11
-194.179852 -16.6050418 181.7859014
-194.179852 -85.162991 205.0370266
-194.179852 -205.7153451 196.3441325
55.18138899 6.241407391e-11 61.538571
36.96269899 -213.0127107 3.676348115e-11
-194.179852 -146.133261 205.2392563
185.853486 -8.7331822 3.676348115e-11
196.552769 6.241407391e-11 242.8708677
141.066447 -76.7797254 3.676348115e-11
7.640113989 6.241407391e-11 227.3989199
-65.87904501 6.241407391e-11 221.2648824
-107.663459 6.241407391e-11 134.1447895
-159.406867 -66.6676666 3.676348115e-11
194.179889 -163.4404879 63.4133821
-194.179852 -205.9633554 66.4614326
-194.179852 -70.2864912 49.0091972
132.017786 6.241407391e-11 172.4039571
15.48678499 -129.8229416 3.676348115e-11
-172.271357 6.241407391e-11 230.9026104
-3.761662011 6.241407391e-11 217.2014611
194.179889 -173.4523734 181.5484893
-194.179852 -222.5113404 220.2301268
-194.179852 -210.3506122 109.6240308
-137.321765 -145.4941264 3.676348115e-11
132.545113 6.241407391e-11 106.3193337
28.93892899 6.241407391e-11 37.26855631
160.007382 6.241407391e-11 146.5983412
-65.07453501 6.241407391e-11 158.9470682
194.179889 -73.2329669 110.8335464
129.229752 6.241407391e-11 184.6530282
-194.179852 -50.1537522 114.9151878
0.6414779888 -179.6890206 3.676348115e-11
-194.179852 -158.8557145 50.83579076
74.31160599 6.241407391e-11 1.47013629
-194.179852 -81.8307889 133.182471
