# .PCD v0.7 - Point Cloud Data file format
VERSION 0.7
FIELDS x y z
SIZE 4 4 4
TYPE F F F
COUNT 1 1 1
WIDTH 1255
HEIGHT 1
VIEWPOINT 0 0 0 1 0 0 0
POINTS 1255
DATA ascii
3.697746411e-05 72.56003747 -69.3989818
3.697746411e-05 0.786572375 -16.3423256
-95.15115202 -1.552502295e-05 35.2598738
3.697746411e-05 17.94587997 175.5608041
-193.215649 -1.552502295e-05 122.5567956
3.697746411e-05 104.7180795 -141.9247222
-33.27729102 21.84984227 -250
-239.230956 81.86430817 -250
-234.649974 10.62625147 -250
-252.076845 101.7297539 -250
3.697746411e-05 217.2141827 -92.8544081
-19.77567102 146.0458379 -250
0.2567039775 -1.552502295e-05 -138.5102782
-66.48515002 34.11823227 -250
-29.68547902 -1.552502295e-05 157.3857451
-205.013979 231.2187423 -250
3.697746411e-05 72.64149347 136.488204
-92.69683702 -1.552502295e-05 -129.446679
-88.80659302 -1.552502295e-05 -165.5610994
-108.250749 -1.552502295e-05 -144.1551248
2.243362977 28.41014897 -250
-217.958418 -0.176724425 250
-176.977435 56.60111967 -250
3.697746411e-05 200.5225128 195.7010363
-37.86261302 -1.552502295e-05 -180.8535451
-129.463141 -1.552502295e-05 191.2482615
3.697746411e-05 72.45107137 235.4877501
-91.88306902 200.659444 -250
3.697746411e-05 9.550939475 -103.0027445
3.697746411e-05 52.89907047 146.7873958
-96.03196702 -1.552502295e-05 125.7927227
3.697746411e-05 184.4961764 0.4479435
-157.341244 25.68217147 -250
-130.417327 142.7646887 -250
3.697746411e-05 213.1230166 -131.3748643
-156.096833 -1.552502295e-05 118.8207063
3.697746411e-05 132.5775367 -117.3944711
3.697746411e-05 176.7190473 -178.9485285
-183.056177 93.87464067 -250
3.697746411e-05 214.4784842 223.1610289
-109.09787 -1.052420225 -250
-40.47511502 -1.552502295e-05 -88.8893872
-122.894298 -1.552502295e-05 -57.9955423
3.697746411e-05 219.1811524 2.6428526
3.697746411e-05 185.287778 48.9937666
-245.525055 -1.552502295e-05 189.8303595
3.697746411e-05 4.610941275 48.1745117
3.697746411e-05 249.8400317 169.8729712
-202.366915 -1.552502295e-05 50.174464
-115.334626 -1.195401125 250
3.697746411e-05 18.12907837 74.2125795
-224.091483 -1.552502295e-05 29.1598981
-185.048964 190.0214832 -250
-228.774557 -1.552502295e-05 -2.5633135
3.697746411e-05 209.8610708 -157.4843005
-238.79419 115.0684877 -250
3.697746411e-05 60.41988477 -162.5650415
-151.097489 -1.552502295e-05 194.5246486
-78.64888002 165.1802472 -250
3.697746411e-05 79.15540007 193.1344442
-97.14259302 94.80445797 -250
3.697746411e-05 142.4100375 -199.8214744
3.697746411e-05 252.1190705 -82.7461753
-9.411819023 -1.552502295e-05 124.9761132
-15.95107502 186.1364893 -250
-143.939935 -1.552502295e-05 -60.0309474
3.697746411e-05 192.5166329 -36.9147501
-83.71916902 -1.552502295e-05 2.1847819
1.965301977 -1.552502295e-05 147.6225495
-113.054699 62.30655247 -250
-108.48416 -1.552502295e-05 214.2215705
-41.81158802 -1.552502295e-05 229.7991961
-116.333667 241.1101594 -250
-83.37275702 -1.552502295e-05 -183.6213889
-90.09420602 -1.552502295e-05 -50.7230182
-38.74338202 -1.552502295e-05 196.0843451
-77.73960602 138.3147525 -250
3.697746411e-05 27.35468937 33.4334829
-35.30051902 -1.552502295e-05 137.3103085
-197.061197 -1.552502295e-05 155.5144325
-188.631126 20.60425317 -250
-72.00366202 -1.552502295e-05 -240.9736112
3.697746411e-05 70.62242977 103.477537
-77.49633602 -1.552502295e-05 235.982652
3.697746411e-05 178.9919591 -143.6580299
-195.740659 -1.552502295e-05 223.9796563
-201.820076 -1.552502295e-05 -6.5259513
3.697746411e-05 141.6573954 144.9391209
-153.425392 -1.552502295e-05 -39.4016382
-30.67508902 82.15968857 -250
0.9813019775 105.0887834 250
-126.239562 -1.552502295e-05 13.3337124
-126.444313 -1.552502295e-05 175.5275132
-48.21949802 13.96789167 -250
3.697746411e-05 78.96158807 -162.0963167
3.697746411e-05 171.4376385 36.2195742
3.697746411e-05 126.9992316 -173.1740293
-159.523737 -1.552502295e-05 68.3149708
-74.03682902 223.148241 -250
-139.899917 -1.552502295e-05 233.8737737
-43.28028602 -1.552502295e-05 -65.770929
-136.625977 195.1109158 -250
3.697746411e-05 121.7638962 210.04236
-102.544557 -1.552502295e-05 111.2906924
3.697746411e-05 23.35354757 210.2270616
-216.964739 -1.552502295e-05 141.1374336
-177.674362 109.931558 -250
3.697746411e-05 237.8063343 141.7114968
3.697746411e-05 167.40678 76.7890873
3.697746411e-05 221.3876978 87.2558002
3.697746411e-05 99.41868417 21.4038564
-242.512633 -1.552502295e-05 229.3680959
-55.60324902 -1.552502295e-05 -84.3206725
3.697746411e-05 72.49441727 47.426335
3.697746411e-05 191.2783616 -84.3513592
-150.436701 11.49114887 -250
3.697746411e-05 217.4296597 139.6669556
-35.54630002 198.4357856 -250
-201.740274 162.993574 -250
3.697746411e-05 212.6299162 35.1486451
0.5849729775 166.1512168 -250
-37.49971902 -1.552502295e-05 -142.7123706
3.697746411e-05 198.6765987 -141.8728168
-92.67601502 -1.552502295e-05 156.2457613
-27.91363202 -1.552502295e-05 -208.511848
-201.757812 -1.552502295e-05 -104.742045
-71.42844502 -1.552502295e-05 62.6002833
-205.107168 -1.552502295e-05 -47.3660174
-181.958998 134.4680984 -250
-209.014225 -1.552502295e-05 25.2824578
-242.129037 -1.552502295e-05 -83.6323373
-204.19273 -1.552502295e-05 -28.1712152
3.697746411e-05 120.6844591 69.7849968
3.697746411e-05 15.91317547 1.2597107
-233.606337 -1.552502295e-05 12.1711384
3.697746411e-05 165.9635999 -19.8601217
-168.592653 -1.552502295e-05 102.3523095
3.697746411e-05 203.9323682 14.2182681
-174.286919 -1.552502295e-05 137.1987038
-175.693707 165.1938006 -250
3.697746411e-05 94.50594947 -192.7478476
-96.60506102 -1.552502295e-05 186.989526
3.697746411e-05 153.6881771 -157.0246159
-57.82576202 -1.552502295e-05 -34.0146367
-142.132441 -1.552502295e-05 -18.5439796
3.697746411e-05 192.939158 243.7714313
3.697746411e-05 119.5470985 -45.0898458
-11.96150902 -1.552502295e-05 171.8595788
-191.240414 62.12345627 -250
3.697746411e-05 59.19024307 -39.7009849
-129.896927 -1.552502295e-05 143.4607692
-180.632093 -1.552502295e-05 205.4706304
1.383925977 -1.552502295e-05 225.8257697
-156.577354 -1.552502295e-05 22.8866078
3.697746411e-05 146.9319271 53.259513
-126.950643 35.84000547 -250
3.697746411e-05 140.851521 -234.9531207
3.697746411e-05 60.11326567 -97.9344475
3.697746411e-05 153.9674594 5.2458146
-57.72957702 -1.552502295e-05 -50.3542648
-124.239187 -0.434796125 -250
-18.41348802 -1.552502295e-05 216.4480814
3.697746411e-05 41.60967547 94.5322721
3.697746411e-05 57.67497987 -124.1487545
-160.719269 -1.552502295e-05 -173.0696397
-135.388599 109.8990323 -250
-82.20507602 -1.552502295e-05 -118.5176477
3.697746411e-05 33.39678477 -133.1555088
-10.50375702 81.70749147 -250
-44.91922102 174.5064034 -250
3.697746411e-05 40.82713387 177.7326808
-239.759336 -1.552502295e-05 -113.9057637
3.697746411e-05 124.3112917 -59.4274387
-10.97644302 -1.552502295e-05 -106.9465409
3.697746411e-05 156.5829591 160.2807753
3.697746411e-05 151.1323142 131.0275157
3.697746411e-05 108.0515306 -98.8383265
3.697746411e-05 202.7656663 151.0545421
-237.878964 -1.552502295e-05 -161.236897
3.697746411e-05 12.29722247 102.1328857
-147.299422 -1.552502295e-05 87.8274181
-145.956362 39.86520627 -250
3.697746411e-05 244.4019356 26.4526677
3.697746411e-05 206.4068878 -64.5362614
3.697746411e-05 110.4907883 158.3520101
-48.67872702 87.05574227 -250
3.697746411e-05 36.23281057 -41.5511833
-22.78512102 -1.552502295e-05 108.8354007
-206.764063 115.167442 -250
2.414525977 45.61599317 -250
-62.05086402 -1.552502295e-05 16.6132045
-10.45112502 -1.552502295e-05 -237.2399338
-146.793231 242.7550281 -250
-216.821308 45.25529087 -250
3.697746411e-05 157.0055804 -76.1097838
-23.41469102 -1.552502295e-05 -120.5414815
3.697746411e-05 198.2230835 211.9160922
3.697746411e-05 101.6806665 -119.9437422
3.697746411e-05 241.4885133 51.6770708
-229.298643 139.8044768 -250
3.697746411e-05 24.30893927 -103.9605538
-10.81947402 -1.552502295e-05 -178.5063663
-185.560628 -1.552502295e-05 -120.2703795
3.697746411e-05 104.4844294 96.0148879
-171.179985 -1.552502295e-05 -203.7766326
3.697746411e-05 135.6507177 -135.4387539
3.697746411e-05 52.28625247 -67.590782
3.697746411e-05 163.9738562 -112.1027916
-208.059366 -1.552502295e-05 125.9974252
3.697746411e-05 171.7060895 155.7685304
-94.12046902 -1.552502295e-05 81.2791414
-238.684439 236.885512 -250
-105.500827 148.1698895 -250
3.697746411e-05 185.9206776 -97.9367628
-62.60600102 -1.552502295e-05 -204.8575633
-221.295854 109.8225172 -250
3.697746411e-05 237.2876171 -108.1079524
-101.55026 236.2259795 -250
-38.96368102 137.2997947 -250
-244.839862 -1.552502295e-05 76.8177945
-187.47816 -1.552502295e-05 -79.1511565
-130.968157 -1.552502295e-05 61.1866198
3.697746411e-05 59.61093517 -22.1752757
-106.28596 202.4150876 -250
-29.92713102 -1.552502295e-05 18.7307648
3.697746411e-05 239.7599617 -18.6983629
3.697746411e-05 216.9720253 -32.9612378
3.697746411e-05 84.44067597 -113.8948486
3.697746411e-05 37.79719197 145.4303677
-135.28953 -1.552502295e-05 -191.763205
3.697746411e-05 71.18142847 174.7059796
-116.706145 -1.552502295e-05 -109.0071185
3.697746411e-05 143.824494 223.0045112
3.697746411e-05 3.982691375 -78.0639773
3.697746411e-05 211.0542659 121.5326003
-96.53708002 10.68866237 -250
3.697746411e-05 73.56598327 89.4401854
-84.00264702 -1.552502295e-05 -28.2211361
-177.205868 -1.552502295e-05 65.0800072
3.697746411e-05 237.1511726 81.6291573
-0.05932302254 233.3410331 -250
-164.871078 213.3698731 -250
3.697746411e-05 222.638284 -78.8000293
3.697746411e-05 33.75482647 73.291524
-19.53743602 110.7643965 -250
3.697746411e-05 104.8011035 6.0474823
3.697746411e-05 104.9085553 188.9161135
3.697746411e-05 64.12621517 -191.4409997
-162.542189 64.74261047 -250
3.697746411e-05 14.57928877 -23.2519832
3.697746411e-05 96.34125537 -21.889532
3.697746411e-05 142.9620597 186.2672667
-131.763984 -1.552502295e-05 94.0589516
-230.753689 70.29149697 -250
-110.65269 178.9005829 -250
-226.323587 -1.552502295e-05 -222.4070159
3.697746411e-05 164.012642 -185.1527339
3.697746411e-05 94.96907617 -61.6693948
3.697746411e-05 195.5145096 69.8898037
-101.659703 -1.552502295e-05 -102.5962476
-236.794117 172.9772646 -250
3.697746411e-05 30.71094097 128.6074427
-210.948948 -1.552502295e-05 -154.4018185
-182.092322 -1.552502295e-05 -219.5263893
3.697746411e-05 73.00941917 -125.2783556
-75.43797202 -1.552502295e-05 136.0268912
-170.206939 -0.499789625 250
-119.174766 123.4967885 -250
-125.254442 230.296469 -250
-156.007877 -1.552502295e-05 145.7348497
-237.310206 -1.552502295e-05 42.294078
3.697746411e-05 224.3207851 112.8040344
3.697746411e-05 136.6645436 207.3944975
-201.190713 252.0960301 -250
-239.976666 156.5092959 -250
-200.20642 -1.552502295e-05 -200.253777
-166.598005 136.9551948 -250
3.697746411e-05 218.6656955 191.3540787
-230.845875 -1.552502295e-05 140.2730195
3.697746411e-05 203.9732489 232.2437678
-159.747872 41.38602757 -250
-153.818554 90.47760457 -250
-128.059528 -1.552502295e-05 -216.7419868
3.697746411e-05 120.4415959 -90.6694719
3.697746411e-05 55.62322977 47.3514119
-54.32913202 -1.552502295e-05 -15.3072691
3.697746411e-05 121.240065 -218.8430344
3.697746411e-05 185.04218 80.9749332
3.697746411e-05 99.69723787 -166.9664235
-208.321935 -1.552502295e-05 -241.1045206
-141.036511 -1.552502295e-05 -161.2234763
3.697746411e-05 156.0291261 115.7807327
3.697746411e-05 51.46281217 214.6967335
-9.297354023 -1.552502295e-05 -126.1256825
-9.571601023 202.6761142 -250
-11.37117902 -1.552502295e-05 -7.0524721
3.697746411e-05 194.7277079 90.8853166
3.697746411e-05 154.9321414 -213.5902055
3.697746411e-05 30.68601927 230.1364992
3.697746411e-05 81.13281257 206.7633612
-239.025935 194.5458219 -250
3.697746411e-05 100.9684506 -227.0827065
3.697746411e-05 231.2027464 -197.3729707
3.697746411e-05 220.5143231 174.477104
-236.021861 -1.552502295e-05 247.9124401
-208.297452 -1.552502295e-05 196.9576877
-144.449453 170.1169246 -250
-28.78715602 -1.552502295e-05 238.5593957
-231.62424 -1.552502295e-05 -97.5182455
-208.619085 135.4934966 -250
3.697746411e-05 205.03913 -192.9428295
-175.511306 -1.552502295e-05 -130.0865239
-49.93319802 -1.552502295e-05 -238.192658
-9.920398023 -1.552502295e-05 102.089466
-29.13859502 -1.552502295e-05 -154.3228704
3.697746411e-05 13.08782707 -207.0497078
-64.21784402 -1.552502295e-05 -124.3843156
-25.72085502 160.4007253 -250
-191.032993 -1.552502295e-05 59.1149664
3.697746411e-05 191.8569549 -111.3074746
-24.39220502 223.151841 -250
3.697746411e-05 173.0535537 226.8959203
-179.510413 -1.552502295e-05 -47.0781427
-16.24847702 37.56808147 -250
-155.653734 -1.552502295e-05 -66.84516
-124.432061 -1.552502295e-05 -143.7983533
3.697746411e-05 10.61222787 193.0546947
-95.94428102 -1.552502295e-05 -62.9437975
3.697746411e-05 236.5981626 -2.8787024
3.697746411e-05 188.3220487 133.1383512
3.697746411e-05 142.1514161 -58.6707777
-178.723586 -1.552502295e-05 23.3206268
-228.353888 248.0027896 -250
3.697746411e-05 130.2476264 -208.2296886
-213.026699 149.3506494 -250
3.697746411e-05 92.33265587 -89.1793287
-42.59799402 -1.552502295e-05 183.1600775
3.697746411e-05 203.6684494 182.5896421
-187.073091 -1.552502295e-05 -187.486627
-151.308086 -1.552502295e-05 -113.0003078
-75.66029602 -1.552502295e-05 222.6303015
-48.43463502 -1.552502295e-05 -208.2924109
3.697746411e-05 237.5699311 -152.9746069
3.697746411e-05 16.56791347 117.6611531
3.697746411e-05 53.52117887 24.255873
3.697746411e-05 166.4036073 61.2428903
-133.490511 -1.552502295e-05 44.2144413
3.697746411e-05 17.84869767 43.9176475
3.697746411e-05 248.3366173 -232.3181184
-132.330558 -1.552502295e-05 222.8117392
-231.345469 -2.330246025 -250
3.697746411e-05 120.983055 -17.941929
-207.213717 209.503744 -250
3.697746411e-05 119.1768853 97.1065794
3.697746411e-05 129.3060456 138.0102955
-102.543072 42.24828257 -250
3.697746411e-05 74.71334597 -15.0513425
3.697746411e-05 195.2578162 -201.9476057
3.697746411e-05 237.9843505 163.9202096
-200.783253 15.33766707 -250
-5.480283023 -1.552502295e-05 81.8439839
-235.198819 -1.552502295e-05 121.0907897
-129.389776 -1.552502295e-05 -92.966063
3.697746411e-05 154.0492492 -235.8552361
-50.62024102 -1.552502295e-05 50.3802611
-10.02832402 -1.552502295e-05 -163.6649267
3.697746411e-05 185.3851236 -70.7506093
-214.857411 -1.552502295e-05 63.0143782
-239.138375 128.8395907 -250
3.697746411e-05 41.84638027 55.7990694
3.697746411e-05 179.7055394 -225.4601054
3.697746411e-05 69.44993147 62.5139669
-91.63654402 -1.552502295e-05 -236.9759675
-129.321586 13.63825207 -250
-186.163341 -1.552502295e-05 146.2311386
-82.53865202 -1.552502295e-05 94.4623414
-141.689254 66.03538387 -250
-47.75041002 161.426843 -250
-37.54008602 61.68172357 -250
-24.60735402 -1.552502295e-05 -92.9995156
-250.088724 -1.552502295e-05 -12.8496212
3.697746411e-05 118.001893 188.4352702
-145.457834 -1.552502295e-05 -137.6087515
-107.080018 -1.552502295e-05 -14.4839621
-173.090634 -1.552502295e-05 -22.521649
3.697746411e-05 12.13052437 -133.598131
3.697746411e-05 80.30574187 -214.5401563
3.697746411e-05 109.9123766 122.4085921
-111.484919 -1.552502295e-05 -237.0394947
-10.20142202 -1.552502295e-05 202.1707791
3.697746411e-05 87.71171257 -172.1432168
-10.95329302 -1.552502295e-05 6.2819181
-122.50086 -1.552502295e-05 -80.1901067
2.034548977 196.8119321 -250
-153.497465 -1.552502295e-05 39.5969473
-232.780198 -1.552502295e-05 212.3248474
3.697746411e-05 78.67222467 -140.8276161
3.697746411e-05 239.4889157 -71.3102754
3.697746411e-05 211.1006645 -111.53195
-225.253831 -1.552502295e-05 -164.5932012
-67.85903102 78.41109487 -250
-198.414923 -1.552502295e-05 -164.0679069
3.697746411e-05 14.85729797 61.6833887
3.697746411e-05 229.4599517 56.4500566
1.453127977 -1.552502295e-05 131.9945569
3.697746411e-05 102.7308906 214.0015236
-84.33938802 21.68729087 -250
-227.040715 86.12281727 -250
3.697746411e-05 28.81250727 0.7275171
-173.746728 -1.552502295e-05 -102.4334111
-35.31464402 252.3608592 -250
3.697746411e-05 118.0844367 -182.4751761
-21.46840302 -1.552502295e-05 76.2079541
-175.955734 236.4331848 -250
3.697746411e-05 149.3876764 -42.6417177
-119.049578 207.6772707 -250
3.697746411e-05 4.444220975 175.1503428
3.697746411e-05 9.318472875 -162.0565893
-75.20380502 -1.552502295e-05 -99.8907577
-197.361424 -1.552502295e-05 -212.7964526
-214.101547 -1.552502295e-05 229.5053271
-18.44329802 -1.552502295e-05 -44.0917246
-30.85506602 103.233279 -250
-13.77322502 -1.552502295e-05 157.5632984
-52.45009102 -1.552502295e-05 -178.7879817
-150.740439 -1.552502295e-05 -211.6673657
3.697746411e-05 177.9271598 -109.7589677
-182.295071 209.8954449 -250
-90.82686102 -1.552502295e-05 14.1830407
-76.98803502 120.8654453 -250
2.231155977 -1.552502295e-05 -36.8854212
-51.11671502 -1.552502295e-05 -225.4646074
3.697746411e-05 165.8951495 203.2314745
-235.895658 -1.552502295e-05 -141.6296772
-23.49980402 -1.552502295e-05 -180.0143452
3.697746411e-05 37.19071227 -178.3472645
3.697746411e-05 85.15172307 234.5267377
-177.768588 -1.552502295e-05 2.9472268
-124.879695 88.60846497 -250
-6.624822023 -1.552502295e-05 241.3049878
3.697746411e-05 86.77568867 160.4155146
3.697746411e-05 164.994431 -168.3745401
-185.56378 32.93382057 -250
-36.12034402 -1.552502295e-05 112.6141344
3.697746411e-05 128.2547294 -5.9053885
-217.192674 -1.552502295e-05 -65.83989
-93.52520502 182.7748427 -250
-83.59771102 -1.552502295e-05 -82.0426196
-61.81305302 -1.552502295e-05 -164.4391976
-66.81193002 -1.552502295e-05 -143.1963953
3.697746411e-05 91.19752037 68.9325953
-168.1729 -1.552502295e-05 237.5131411
-206.879518 85.00445677 -250
-160.164167 194.2800042 -250
3.697746411e-05 230.8726939 9.9979941
3.697746411e-05 128.3656213 -236.8098448
3.697746411e-05 155.7294106 84.1911486
3.697746411e-05 111.2165419 -71.3712924
-94.57288302 -1.552502295e-05 206.7547559
-159.370295 -1.552502295e-05 81.9881801
-214.898675 -1.552502295e-05 -4.3937707
-162.721843 14.26220327 -250
3.697746411e-05 244.0577292 185.7637722
3.697746411e-05 88.21620057 45.1182631
-109.626746 -1.552502295e-05 -217.6004181
-237.6284 -1.552502295e-05 96.9320141
-159.025113 -1.552502295e-05 133.567047
-203.248147 -1.552502295e-05 -139.2221651
-63.10113202 -1.552502295e-05 49.3397496
3.697746411e-05 197.03713 -15.5891826
3.697746411e-05 97.95580187 239.0661714
-3.566448023 13.10684567 -250
-101.773059 -1.552502295e-05 51.363647
3.697746411e-05 53.01603917 122.499103
-217.344122 32.65259537 -250
-29.34482802 -1.552502295e-05 -227.459083
3.697746411e-05 123.9288035 -148.9359468
-37.99359402 36.30573777 -250
-27.51652702 -1.552502295e-05 226.1760822
3.697746411e-05 147.0070656 39.1610777
3.697746411e-05 163.0894399 13.6975407
3.697746411e-05 110.5980231 -194.8552964
-79.92613202 -1.552502295e-05 -143.9568703
-240.053773 -1.552502295e-05 22.9785586
3.697746411e-05 183.1887004 106.1874251
-210.747769 -1.552502295e-05 40.5790189
-116.759745 74.10235087 -250
-201.843198 181.0001462 -250
-50.82414402 236.486575 -250
-140.940919 -1.552502295e-05 -122.0991337
2.411259977 -1.552502295e-05 -95.5736949
3.697746411e-05 150.4565638 -17.5836092
3.697746411e-05 71.06459207 3.7561901
-43.25725002 -1.552502295e-05 -34.3858919
-38.17967802 -1.552502295e-05 31.8645158
3.697746411e-05 237.7328939 116.6415763
3.697746411e-05 189.3722011 12.1868249
-61.80233802 -1.552502295e-05 -99.8414889
-92.24499002 51.23274077 -250
3.697746411e-05 32.83267397 -94.9771721
-57.98464902 96.77730017 -250
-189.773977 -1.552502295e-05 -107.1527071
-104.495834 -1.552502295e-05 159.3169196
3.697746411e-05 178.3850727 117.4109043
3.697746411e-05 161.4867766 223.0077945
3.697746411e-05 72.75730667 -35.4933029
3.697746411e-05 109.8635692 -130.0041983
3.697746411e-05 99.63956357 114.3535054
3.697746411e-05 113.8330168 199.8614181
-135.787995 -1.552502295e-05 -236.8582208
-246.624677 -1.552502295e-05 125.7338315
-80.93774602 -1.552502295e-05 -214.2465495
-100.092208 -1.552502295e-05 -90.5631895
-191.739666 -1.552502295e-05 -51.4624602
3.697746411e-05 125.183186 -104.7644373
-213.28904 -1.552502295e-05 -38.0828006
3.697746411e-05 105.483096 -9.056117
-192.90085 -1.552502295e-05 19.6228765
3.697746411e-05 163.2222905 93.6294724
3.697746411e-05 27.31896407 -232.2768014
3.697746411e-05 245.7086978 92.2194017
-33.28311302 -1.552502295e-05 -130.3791096
3.697746411e-05 182.1957945 -162.5002376
-65.03643802 -1.552502295e-05 83.7069726
-6.760833023 -1.552502295e-05 59.3746646
3.697746411e-05 144.2293459 -187.9391513
3.697746411e-05 201.5350692 27.6740096
3.697746411e-05 226.8643622 -26.152102
-108.516059 -1.552502295e-05 -161.3345286
3.697746411e-05 140.0803201 -31.6879714
-34.55206802 168.5103813 -250
-118.885816 -1.552502295e-05 184.8141339
3.697746411e-05 241.3831692 227.9397237
3.697746411e-05 43.31137647 -154.9419157
3.697746411e-05 246.4448757 -162.1368011
-31.49186602 -1.552502295e-05 -9.414905
3.697746411e-05 212.4354456 95.2363573
3.697746411e-05 84.52261937 137.719936
-145.147761 -1.552502295e-05 -73.4437338
-123.311775 -1.552502295e-05 129.7771782
3.697746411e-05 226.0615026 -100.7966218
-10.67436002 -1.552502295e-05 45.7196492
3.697746411e-05 218.6172053 48.4138267
-54.20677302 116.7555849 -250
-248.921616 -1.552502295e-05 48.8003852
3.697746411e-05 127.9610327 165.7336907
-109.70651 166.7045543 -250
-71.16788402 238.3447547 -250
-83.41056702 43.36460457 -250
-252.288581 -1.552502295e-05 -57.7891971
2.008577977 -1.552502295e-05 12.7657826
3.697746411e-05 147.3039979 -222.8002847
-68.13713502 48.25313167 -250
1.620810977 -1.552502295e-05 197.9613289
-194.213589 90.04279947 -250
-111.529097 -1.552502295e-05 -132.8241276
-23.82667302 14.79339257 -250
-9.323951023 62.29425527 -250
3.697746411e-05 14.58559617 218.0939173
-91.08374102 -1.552502295e-05 46.3077975
3.697746411e-05 197.0598196 56.3657986
3.697746411e-05 213.5215448 -146.2958251
-55.99592302 -1.552502295e-05 -133.3197204
-91.56133002 248.9093889 -250
3.697746411e-05 137.5233636 -106.7339843
-130.733969 205.2574242 -250
-152.717792 -0.01447772502 -250
3.697746411e-05 91.92370187 12.3867055
-189.620378 -1.552502295e-05 72.4633875
-79.31768102 66.08773317 -250
-145.138892 228.3442578 -250
-182.952241 -1.552502295e-05 129.3228954
-213.467187 -1.552502295e-05 -118.5872346
3.697746411e-05 18.31246117 -52.3213849
-234.654382 -1.552502295e-05 -36.8384095
3.697746411e-05 37.84090387 -21.9124476
-212.43191 -1.552502295e-05 166.3536542
-230.944114 -1.552502295e-05 155.5392697
3.697746411e-05 173.9239736 -201.5336488
-221.282861 -1.552502295e-05 -235.5910614
3.697746411e-05 168.8389429 244.7135253
-53.26002702 -1.552502295e-05 213.6600245
-233.653676 -1.552502295e-05 197.7519965
3.697746411e-05 51.03223497 -12.9644925
-11.21303602 248.7658814 -250
-82.08831002 -1.552502295e-05 36.0263907
-95.92216302 22.69599327 -250
3.697746411e-05 16.95161357 245.9651743
3.697746411e-05 50.26166777 -202.9786444
-177.721987 -1.386620225 -250
3.697746411e-05 227.0795336 228.2872828
-138.849502 -1.552502295e-05 -221.011922
3.697746411e-05 243.4099245 203.3710803
3.697746411e-05 238.7256289 -141.4505037
-185.268662 -1.552502295e-05 -149.4139536
-52.04010902 214.3159104 -250
-158.409184 -1.552502295e-05 -100.4535589
3.697746411e-05 3.363308675 -223.9114289
-177.341538 23.06358407 -250
-218.508871 56.68138517 -250
-244.379027 -1.552502295e-05 -239.7469613
-81.94369002 7.614386475 -250
3.697746411e-05 163.2363016 -123.6051614
-76.79615102 -1.552502295e-05 124.581473
3.697746411e-05 57.16072717 -242.4353524
3.697746411e-05 201.4217529 -44.2122201
-233.727273 -1.552502295e-05 185.196131
-115.344012 -1.552502295e-05 17.0214918
-127.363974 -1.552502295e-05 -38.2608229
-120.473065 -1.552502295e-05 45.3925139
3.697746411e-05 13.58240507 204.1744039
-36.98554802 -1.552502295e-05 8.0630194
-189.155817 110.4218846 -250
-26.97140802 240.1316709 -250
-219.807267 -1.552502295e-05 -77.024034
1.757336977 -1.552502295e-05 28.5856317
-146.000902 -1.552502295e-05 -196.2227434
-252.485851 222.5667921 -250
-68.69327402 157.4652237 -250
-42.00055002 -1.552502295e-05 -77.149216
-135.191825 -1.552502295e-05 -132.5571185
-143.949003 82.52407047 -250
3.697746411e-05 241.5741056 -48.2456708
-46.71397102 -1.552502295e-05 -155.4585851
3.697746411e-05 239.0059207 -222.6803916
3.697746411e-05 213.7938225 -7.3982057
-99.56375302 224.4463297 -250
-108.73688 -1.552502295e-05 -175.8573643
-61.10165002 -1.552502295e-05 -236.0136182
-207.300165 -1.552502295e-05 -179.3573405
3.697746411e-05 63.02907727 224.601751
3.697746411e-05 180.7813046 -55.9424836
3.697746411e-05 202.0658841 99.8712864
-28.72304302 -1.552502295e-05 -61.1990537
-248.475241 -1.552502295e-05 -156.3162187
-43.30765102 -1.552502295e-05 68.1559067
3.697746411e-05 225.2938182 -176.1569156
-45.93779602 -1.552502295e-05 133.4101015
3.697746411e-05 160.7549034 -43.0622928
3.697746411e-05 12.95122507 90.8281279
-215.536499 21.48768767 -250
-72.59699002 -1.552502295e-05 -71.8764748
-226.996175 -1.552502295e-05 -197.9320195
3.697746411e-05 104.2579992 -42.6819421
3.697746411e-05 114.5622024 60.2992478
-195.665908 -1.552502295e-05 -20.7781151
-53.02613902 -1.552502295e-05 246.4873076
-159.029693 147.3783386 -250
3.697746411e-05 143.2668179 -124.1783581
3.697746411e-05 26.34584647 -200.3366755
-240.635053 -1.552502295e-05 -192.5288001
3.697746411e-05 114.5986764 147.8809928
-31.17498702 -1.552502295e-05 187.7717032
-228.152248 -1.552502295e-05 -175.4380515
-26.71371402 33.51250597 -250
3.697746411e-05 125.1343137 80.0852915
-109.728647 -1.552502295e-05 -34.4630621
-172.257219 -1.552502295e-05 197.5490011
-105.600078 -1.552502295e-05 83.0177831
-140.833463 137.0266937 -250
-220.857869 -1.552502295e-05 94.1612163
-112.92002 -1.552502295e-05 102.1450456
3.697746411e-05 3.283873375 -150.2788089
3.697746411e-05 157.1198951 247.966571
3.697746411e-05 100.3446298 84.0666186
3.697746411e-05 165.9985113 -144.4358951
3.697746411e-05 191.6973353 -178.2914891
-225.977454 170.2502398 -250
3.697746411e-05 56.12600507 -108.3505998
-160.246347 -1.552502295e-05 -188.4142623
3.697746411e-05 65.82901777 -173.7219968
-216.677285 239.0446725 -250
3.697746411e-05 79.29146917 -246.086933
3.697746411e-05 119.7550708 35.8344586
-189.651922 223.6307617 -250
3.697746411e-05 41.36775757 -69.643769
-69.79130202 -1.552502295e-05 -56.497922
-84.22312302 -1.552502295e-05 -10.4810819
3.697746411e-05 45.20093267 -128.6676687
3.697746411e-05 35.80787957 118.6754425
-55.83168002 -1.552502295e-05 2.3446848
3.697746411e-05 139.1598332 -248.5142562
-152.977843 -1.552502295e-05 182.888958
3.697746411e-05 74.53317447 -100.2761718
3.697746411e-05 116.2566985 24.1282016
3.697746411e-05 217.5674994 -59.3464375
3.697746411e-05 224.7100835 208.558444
3.697746411e-05 141.3418109 77.3568094
-180.874806 -1.552502295e-05 111.3229353
3.697746411e-05 75.11435607 246.2120331
-163.839508 109.2699527 -250
-126.056076 -1.552502295e-05 -199.2990158
3.697746411e-05 38.07658407 6.6927025
-71.06321902 -1.552502295e-05 197.1204763
3.697746411e-05 153.1387833 176.0535072
3.697746411e-05 167.7541231 -86.2593442
-40.25254602 -1.552502295e-05 88.685376
-192.619602 -1.552502295e-05 203.1667715
3.697746411e-05 205.1690938 248.0540096
-169.331231 83.44583947 -250
3.697746411e-05 104.6741776 -209.10338
-103.173122 -1.552502295e-05 -54.6791048
-145.470849 -1.552502295e-05 -98.9279091
-150.678094 -1.552502295e-05 155.3271822
-156.263546 -1.552502295e-05 107.8502981
-23.53526502 -1.552502295e-05 206.7318953
-35.24309002 -1.552502295e-05 -99.6265839
-92.04230402 82.69420577 -250
3.697746411e-05 136.179118 -80.9953225
-189.585628 -1.552502295e-05 -237.4661516
-86.11830302 173.15971 -250
-152.304594 101.2983047 -250
-134.075758 166.6883748 -250
3.697746411e-05 250.5823911 239.2269196
-31.36645902 117.5206509 -250
-5.640168023 -1.552502295e-05 -202.5857341
-135.336325 -1.552502295e-05 207.6970622
-155.980668 -1.552502295e-05 50.2116452
3.697746411e-05 14.99648597 -180.4602
3.697746411e-05 138.72822 99.0338632
3.697746411e-05 135.2659726 -162.6176445
-194.346284 -1.552502295e-05 182.7967976
-238.128807 21.32161427 -250
-47.86802702 -1.553778325 -250
3.697746411e-05 181.2606997 -132.6929395
1.955558977 207.6749749 -250
-29.44406002 -1.552502295e-05 57.1765115
-215.080778 186.8481548 -250
-240.696539 49.01190537 -250
-4.592483023 37.31817827 -250
-31.21590802 -1.552502295e-05 -191.4203784
-9.081475023 1.522487275 -250
-249.631707 -1.552502295e-05 149.8068424
-205.377274 -1.552502295e-05 -82.7415512
-186.23308 -1.552502295e-05 214.7642744
-124.143606 110.3541283 -250
3.697746411e-05 122.7663293 113.500258
3.697746411e-05 76.25227867 165.1465468
3.697746411e-05 169.3467058 -132.5355107
-180.255761 -1.552502295e-05 230.183569
3.697746411e-05 67.58206967 -58.0504514
-131.368626 -1.552502295e-05 -166.0608021
3.697746411e-05 48.65497057 156.7261213
-10.01012002 -1.552502295e-05 72.0410519
-52.38193002 -1.552502295e-05 224.8850705
3.697746411e-05 228.7593525 70.9982759
3.697746411e-05 190.8265617 -234.2179964
3.697746411e-05 161.1988203 32.8694874
3.697746411e-05 81.77961247 -151.1391241
-76.34129202 -1.552502295e-05 -168.4407579
-250.514039 -1.552502295e-05 -113.5103558
-24.00960202 193.2688213 -250
-94.36882602 -1.552502295e-05 -116.6560738
-95.30383402 158.6644907 -250
-164.763319 241.1179195 -250
3.697746411e-05 119.6341249 -243.0840076
1.253725977 -1.552502295e-05 -237.4916314
-215.341552 -1.552502295e-05 -222.8673721
-240.324471 -1.552502295e-05 -227.1460079
3.697746411e-05 89.17107937 187.7834236
3.697746411e-05 214.1065371 154.1372803
-49.62004602 136.0617504 -250
-112.743067 -1.552502295e-05 -188.6319868
-187.556229 -1.552502295e-05 -164.120095
3.697746411e-05 239.4149104 -173.0568612
3.697746411e-05 165.4760379 -69.5514686
3.697746411e-05 223.5097284 -133.9784819
3.697746411e-05 30.63064947 -70.9529062
3.697746411e-05 52.68444537 3.7417487
-250.993235 56.62549587 -250
3.697746411e-05 147.3208049 154.9556648
-21.95313702 53.34696087 -250
-8.281000023 159.2144827 -250
-210.253291 -1.552502295e-05 73.8228856
-133.320815 -1.552502295e-05 83.525094
3.697746411e-05 249.8135941 -208.3370987
-151.142533 128.0001275 -250
-141.378645 -1.552502295e-05 198.8408105
3.697746411e-05 145.4305801 114.9136168
-98.34294902 -1.552502295e-05 240.9904417
3.697746411e-05 250.6668046 -135.0940315
-60.13663802 25.59682727 -250
3.697746411e-05 202.824346 39.9585785
3.697746411e-05 225.3702195 -48.1399336
3.697746411e-05 35.90251237 103.4809438
3.697746411e-05 56.64380617 194.9574581
-106.796844 -1.552502295e-05 33.7503628
3.697746411e-05 190.2020246 143.5764667
-102.360946 214.2240589 -250
3.697746411e-05 110.6641786 -219.2542487
-224.735998 -1.552502295e-05 203.7618654
-204.214477 219.6488005 -250
3.697746411e-05 9.922995775 -7.4528715
-98.14949502 -1.552502295e-05 136.7230246
-228.754788 197.0335288 -250
-189.075004 151.4015019 -250
-133.483207 -1.552502295e-05 -58.5216665
3.697746411e-05 248.3210785 59.729937
3.697746411e-05 9.261201475 -59.2835448
-183.477172 -1.552502295e-05 32.7299859
3.697746411e-05 178.4035793 167.8890012
-201.134044 65.74119747 -250
3.697746411e-05 154.5859776 61.8939403
3.697746411e-05 141.1061764 23.6456283
-64.81877502 138.5134789 -250
3.697746411e-05 12.42360407 -34.2118941
-156.744396 -1.552502295e-05 11.1873864
-166.046115 -1.552502295e-05 -125.5561025
-8.463716023 -1.552502295e-05 30.935637
-167.337382 -1.552502295e-05 -249.5331664
-172.51826 -1.552502295e-05 -92.0222778
3.697746411e-05 179.1918631 184.9889027
-77.43625302 98.75727427 -250
-85.02503102 -1.552502295e-05 -71.2109765
-52.57800402 -1.552502295e-05 74.2023515
3.697746411e-05 40.50358807 -51.1000004
-203.520008 241.5651024 -250
-77.67080902 -1.552502295e-05 72.0521105
3.697746411e-05 82.58244497 -1.8750335
-35.24514402 93.76714507 -250
-6.589660023 94.36834807 -250
-98.57210202 -1.552502295e-05 217.8949938
3.697746411e-05 185.1113917 -199.5605195
-57.95049602 40.33553097 -250
3.697746411e-05 9.217095775 -196.4021341
-149.387705 -1.552502295e-05 -167.4188052
-41.73779602 -1.552502295e-05 207.2670985
-114.629396 -1.552502295e-05 -227.1337864
-164.663346 -1.552502295e-05 -230.7823933
-227.156712 43.24299047 -250
-158.197697 168.959117 -250
3.697746411e-05 202.1422233 -116.7406083
-249.503335 111.7643075 -250
-70.85423502 -1.552502295e-05 167.8481053
3.697746411e-05 144.827946 -211.3323189
-29.43114202 142.318313 -250
3.697746411e-05 28.12711637 138.6282364
-175.20233 -1.552502295e-05 -175.1722128
3.697746411e-05 26.53823977 -45.1409337
-125.597577 -1.552502295e-05 28.0347436
-226.179363 -1.552502295e-05 -209.6470113
-34.72511302 -1.552502295e-05 169.3332436
3.697746411e-05 250.7428421 -105.2721119
3.697746411e-05 187.417969 -45.8802461
3.697746411e-05 124.3300558 -199.7867055
3.697746411e-05 98.88305677 141.9019068
-230.755011 221.4460584 -250
3.697746411e-05 113.7854373 -147.1331043
3.697746411e-05 180.7532321 -89.0244301
3.697746411e-05 144.8992967 -143.948368
3.697746411e-05 99.13812057 37.855389
-15.13045502 -1.552502295e-05 133.5374474
-178.080934 -1.552502295e-05 -140.7151269
-65.34349002 -1.552502295e-05 -79.1972019
3.697746411e-05 150.3349528 -4.380039
3.697746411e-05 10.03678177 -116.9415081
-212.580844 -1.552502295e-05 -202.5150674
3.697746411e-05 248.8309243 212.099659
-43.18581202 -1.552502295e-05 -134.1593444
-110.28874 103.7947916 -250
-161.098997 -1.552502295e-05 214.8892478
-161.83166 -1.552502295e-05 -33.5179658
3.697746411e-05 247.3804278 -181.6021027
-59.61660402 -1.552502295e-05 93.5673936
-68.76518702 -1.552502295e-05 144.179842
-161.493955 -1.552502295e-05 -112.066649
-42.39421902 206.4351895 -250
-191.388914 -1.552502295e-05 -223.7779546
3.697746411e-05 238.1104537 -30.5112267
-148.169582 -1.552502295e-05 243.6944476
-70.35891102 181.7111895 -250
3.697746411e-05 7.396943775 238.9244466
3.697746411e-05 49.33543477 -84.8854076
3.697746411e-05 14.11676467 145.6575173
-122.13333 -1.552502295e-05 222.7377382
-115.356833 -1.552502295e-05 76.9427728
3.697746411e-05 93.20677697 168.3184333
-89.53814902 116.3699609 -250
-9.537404023 223.2698965 -250
3.697746411e-05 179.4204399 -33.5280348
-164.266485 -1.552502295e-05 159.7732921
3.697746411e-05 228.3372345 145.3925252
3.697746411e-05 5.004207275 121.4841138
3.697746411e-05 46.22900077 69.4067108
3.697746411e-05 84.85233827 -97.302135
-24.75457902 -1.552502295e-05 -241.8306107
3.697746411e-05 39.69202347 187.8164698
3.697746411e-05 200.9456545 120.6965334
-128.071236 186.8349849 -250
-121.095197 -1.552502295e-05 -240.2624835
-113.231444 252.028876 -250
3.697746411e-05 37.55999467 239.5274622
-187.104861 -1.552502295e-05 175.6173538
-219.205841 140.0472785 -250
3.697746411e-05 80.20897857 25.2528178
1.676895977 177.7441791 -250
-9.143593023 -1.552502295e-05 -226.5332094
-180.337983 -1.552502295e-05 156.4772898
-7.251017023 120.764104 -250
-13.58710202 211.9802385 -250
-163.211934 -1.552502295e-05 42.2844075
3.697746411e-05 9.475608175 22.6123359
3.697746411e-05 48.99537837 -232.3821246
-98.51770702 -1.552502295e-05 -141.2369554
3.697746411e-05 53.15918617 -148.4609776
-99.03461302 -1.706227825 -250
3.697746411e-05 26.68036577 22.8061861
3.697746411e-05 213.1183698 -213.2869329
3.697746411e-05 240.5273634 -204.5047364
-107.832127 53.72817667 -250
-59.21624802 -1.552502295e-05 178.2036241
-140.751376 204.6031266 -250
-235.028536 -1.552502295e-05 56.294526
3.697746411e-05 204.4095731 219.8153373
-197.140176 32.80359057 -250
-229.993598 -1.552502295e-05 224.8012769
-91.14531002 72.62165567 -250
-15.44923802 -1.552502295e-05 -82.5788805
-7.747412023 -1.552502295e-05 -212.3750248
3.697746411e-05 9.905437775 -90.5702609
-208.684881 -1.552502295e-05 -56.708271
3.697746411e-05 201.2445337 -91.6720198
-81.83970802 -1.552502295e-05 -243.1635286
-75.80823502 -1.552502295e-05 249.4316967
3.697746411e-05 110.8078285 71.346784
3.697746411e-05 76.15391337 122.0908371
-180.954037 119.3701913 -250
-216.30355 164.4272038 -250
3.697746411e-05 83.73405047 -186.348925
3.697746411e-05 138.2315546 48.3645646
-113.670684 -1.552502295e-05 114.0918607
-72.98548002 194.5393259 -250
3.697746411e-05 98.63488527 181.1652027
3.697746411e-05 95.25503447 -179.7238638
-103.533411 -1.552502295e-05 -198.0525029
3.697746411e-05 50.62948607 175.9839735
-178.979097 182.1284372 -250
3.697746411e-05 213.7868391 -233.5664382
-242.837044 -1.552502295e-05 203.8285117
3.697746411e-05 34.73750687 -31.7188162
-14.84754602 -1.552502295e-05 182.5688116
-137.582036 -1.552502295e-05 -33.1795069
-49.25331602 -1.552502295e-05 94.217885
-62.63733402 14.59091567 -250
-167.716884 187.8135606 -250
-243.014451 37.58681997 -250
3.697746411e-05 147.041005 -103.8906269
3.697746411e-05 192.5407884 233.8641226
3.697746411e-05 95.98200397 -37.2222285
-31.54733902 5.508131275 -250
-88.84917202 -1.552502295e-05 -139.0773765
3.697746411e-05 188.4095304 204.8276546
-111.134107 231.1227211 -250
3.697746411e-05 25.94582267 64.8330389
-14.25078602 -1.552502295e-05 -22.7816524
3.697746411e-05 231.4538292 105.9450861
3.697746411e-05 93.72338977 -144.8876648
-86.08255802 -1.552502295e-05 120.6404581
-151.32873 219.0120288 -250
3.697746411e-05 227.7689734 -122.901764
1.499850977 35.82193347 250
-51.92062702 -1.552502295e-05 160.2970134
-78.92977502 -1.552502295e-05 180.0908208
-12.06112202 139.8953148 -250
3.697746411e-05 61.01523417 112.1708066
-100.689973 -1.552502295e-05 -22.9398862
-118.472802 -1.552502295e-05 -213.267006
-185.903619 70.39576287 -250
3.697746411e-05 37.08958747 207.2480229
-225.986238 -1.552502295e-05 -87.6043659
3.697746411e-05 78.95656897 -76.8790868
3.697746411e-05 155.1071647 -180.9644448
-137.334725 -1.552502295e-05 4.0247313
-151.296127 63.93752517 -250
-235.143952 -1.552502295e-05 -59.9098153
3.697746411e-05 166.9140399 135.806227
3.697746411e-05 107.8968742 46.0067414
-116.648336 -1.552502295e-05 -16.6852833
-212.406867 -1.552502295e-05 216.0479957
-54.34794102 -1.552502295e-05 -123.6430062
-190.525379 7.382571975 -250
3.697746411e-05 248.4295306 2.1695303
-72.27320402 -1.552502295e-05 -206.5029569
-72.48300802 3.800790175 -250
-174.146909 -1.552502295e-05 74.3958121
3.697746411e-05 62.41317457 234.3865965
-55.46444502 -1.552502295e-05 146.436026
-221.559428 209.2747965 -250
-180.19688 -1.552502295e-05 -29.2706111
-252.20484 -1.552502295e-05 220.8391809
3.697746411e-05 184.9295142 90.8561012
3.697746411e-05 123.2184675 233.7400143
-35.86074002 -1.552502295e-05 -114.4452117
3.697746411e-05 116.2794869 178.7642736
-9.688791023 108.2008568 -250
-108.442771 -1.552502295e-05 -80.1303458
-177.61619 42.95047657 -250
3.697746411e-05 36.62354557 -226.8860053
-137.761524 239.0037565 -250
3.697746411e-05 118.8199169 130.3665066
3.697746411e-05 241.041169 218.178085
-196.821401 -1.552502295e-05 -188.0041894
-78.02381002 -1.552502295e-05 -109.7012973
3.697746411e-05 25.95429137 183.0089098
3.697746411e-05 80.56990707 152.3647391
3.697746411e-05 36.88739417 83.0052772
3.697746411e-05 214.1567389 232.8859148
3.697746411e-05 169.9298074 194.3828437
3.697746411e-05 41.70573277 -108.2319801
-26.80279402 -1.552502295e-05 142.5172692
3.697746411e-05 70.35768947 -201.7284202
3.697746411e-05 33.77476997 46.3850471
3.697746411e-05 71.10869177 -235.3613341
-96.62128802 -1.552502295e-05 -175.929399
-134.309762 81.64800847 -250
-21.72650402 -1.552502295e-05 48.0467921
3.697746411e-05 28.54748737 -112.6339731
1.640753977 99.41261277 -250
3.697746411e-05 132.3693556 -19.1231046
-87.38018102 138.180041 -250
3.697746411e-05 241.0556672 150.786976
-58.55646902 75.88515527 -250
3.697746411e-05 190.5673028 194.4193159
-206.74724 -1.552502295e-05 -214.974122
-205.387909 126.4222451 -250
3.697746411e-05 155.4265646 -52.8415976
3.697746411e-05 62.80894307 248.7050462
3.697746411e-05 83.71656027 113.9473977
3.697746411e-05 0.304514075 103.1235731
-96.32572702 -1.552502295e-05 -157.0490478
3.697746411e-05 154.7316981 -147.4647223
3.697746411e-05 168.3850759 -209.3949147
3.697746411e-05 2.026136075 -25.8764364
-145.457348 -1.552502295e-05 -27.6717673
3.697746411e-05 26.16249767 96.834071
-117.845297 -1.552502295e-05 64.1884707
-101.035064 -1.552502295e-05 -45.0896744
-110.030724 36.24924697 -250
-47.64347802 -1.552502295e-05 12.7525311
-0.04263602254 -1.552502295e-05 -54.7030503
3.697746411e-05 76.13303767 182.9092977
-235.897621 147.2907551 -250
-207.614272 -1.552502295e-05 158.0771259
-171.596938 67.85431887 -250
-202.158527 -1.552502295e-05 189.6117164
3.697746411e-05 234.6159573 -58.6904661
-107.893286 -1.552502295e-05 10.2569998
3.697746411e-05 180.7955856 34.2153122
3.697746411e-05 151.1200286 -67.6692601
-251.176849 -1.552502295e-05 -80.5224817
-71.59258902 145.6432004 -250
3.697746411e-05 35.13820437 -6.9474357
-207.882814 41.85904887 -250
-155.301788 -1.552502295e-05 -232.7528648
-129.286883 -1.552502295e-05 159.6137166
3.697746411e-05 169.4884162 -219.023372
-213.8813 -1.552502295e-05 204.7060716
-149.157796 -1.552502295e-05 -221.3142792
-90.45951202 -1.552502295e-05 111.9937278
-168.21734 -1.552502295e-05 129.8327107
3.697746411e-05 190.3938221 -7.0548664
3.697746411e-05 23.86896787 -183.9679593
-27.60044202 -1.552502295e-05 68.2453231
-143.658433 -1.552502295e-05 126.5294866
3.697746411e-05 17.46903637 -242.3133381
-160.643908 -1.552502295e-05 196.0571081
3.697746411e-05 63.34195327 215.1095665
-242.059358 -1.552502295e-05 -25.7480968
3.697746411e-05 91.05104307 -223.7497962
-225.633668 -1.552502295e-05 -61.4987898
-187.899997 -1.552502295e-05 248.1737778
-98.26782402 -1.552502295e-05 198.0173465
3.697746411e-05 221.6122899 124.6096878
3.697746411e-05 213.4841301 -22.7578141
3.697746411e-05 205.7912287 60.0533258
-58.63596002 -1.552502295e-05 -112.8137172
-138.640564 15.29584117 -250
-40.08015802 188.2941891 -250
3.697746411e-05 127.2330751 -226.1605076
-63.24569002 -1.552502295e-05 69.3455031
3.697746411e-05 8.024946375 -242.7918051
-251.7314 134.7773067 -250
-119.644447 217.1099756 -250
-92.24749402 -1.552502295e-05 -1.8350761
3.697746411e-05 160.6117188 127.9380414
-213.409496 -1.552502295e-05 241.7512279
-126.045728 26.46798977 -250
3.697746411e-05 243.4544426 -96.9488683
-47.92006502 145.6756683 -250
-228.463537 -1.552502295e-05 164.6166425
-32.91759602 -1.552502295e-05 -24.424285
-226.185532 14.73104537 -250
-102.098725 -1.552502295e-05 -129.3719193
-6.650417023 193.2128126 -250
-148.430194 192.8490361 -250
0.6259659775 -1.552502295e-05 -160.9971516
3.697746411e-05 205.3484633 -207.998741
3.697746411e-05 62.35532867 -217.2135404
3.697746411e-05 242.1742387 40.4876587
3.697746411e-05 53.07760927 -190.924889
3.697746411e-05 119.8812921 158.4680232
3.697746411e-05 29.97040407 164.4389976
3.697746411e-05 230.5978277 246.7168562
-176.260201 -1.552502295e-05 40.7910473
3.697746411e-05 132.5419109 235.5110897
3.697746411e-05 134.81424 -181.7138393
-60.79756002 -1.552502295e-05 239.5400641
-105.290484 136.264429 -250
-226.312769 -1.552502295e-05 -43.9576507
-58.03585902 174.3579591 -250
3.697746411e-05 35.44697037 -197.0953852
3.697746411e-05 97.91556787 62.414508
-225.019267 101.2368594 -250
-246.814052 -1.552502295e-05 -138.0879703
3.697746411e-05 100.5444713 -74.755635
-47.22594802 110.5611649 -250
3.697746411e-05 12.05857927 10.0998659
3.697746411e-05 70.91577247 -23.5752154
3.697746411e-05 176.7582251 132.7954072
3.697746411e-05 191.2864582 -136.1914102
3.697746411e-05 27.13312267 -143.3705454
-63.58171102 -1.552502295e-05 -41.3337478
3.697746411e-05 228.4876779 169.6682945
-131.800588 133.348887 -250
3.697746411e-05 96.99620187 -111.2425754
3.697746411e-05 68.59819607 -93.114935
-206.472376 -1.552502295e-05 -128.4829563
-196.202871 234.1731549 -250
3.697746411e-05 126.5498017 -68.4428714
-114.31591 83.57035107 -250
3.697746411e-05 121.7061273 219.3270129
3.697746411e-05 65.89709527 -138.5446143
-182.028114 83.98922697 -250
-30.59444802 -1.552502295e-05 200.5151667
3.697746411e-05 76.55663387 -60.3673966
-204.736157 -1.552502295e-05 221.2487784
-131.933278 -1.552502295e-05 110.1926798
-84.92893002 -1.552502295e-05 165.5793579
3.697746411e-05 193.8815814 -169.148092
-21.42278002 82.22582297 -250
-123.341646 -1.552502295e-05 152.5246874
-149.945224 160.4396206 -250
3.697746411e-05 77.24610467 227.5809967
-131.697493 -1.552502295e-05 -15.2310095
-238.944212 185.3057166 -250
-17.93559302 -1.552502295e-05 -113.1015005
-22.56209602 -1.552502295e-05 167.6308875
3.697746411e-05 74.56964237 -170.3438322
-164.542278 73.81231467 -250
3.697746411e-05 86.43636857 -19.4109018
-134.796868 -1.552502295e-05 27.3893453
3.697746411e-05 45.53567007 -59.950219
3.697746411e-05 243.3351831 -248.8444624
-231.216774 231.4988459 -250
-198.664091 -1.552502295e-05 -66.1571829
-165.05694 -1.552502295e-05 144.0559794
3.697746411e-05 151.8185133 195.6993404
-222.590074 -1.552502295e-05 54.8518262
-92.84705302 -1.552502295e-05 72.1755635
-184.41158 -1.552502295e-05 -5.41052
-83.02209002 -1.552502295e-05 -127.8711945
-37.27894102 75.76703777 -250
3.697746411e-05 193.0589267 171.8564279
-96.12942702 -1.552502295e-05 -192.0652975
-251.057919 30.07570107 -250
-83.07574002 245.3889099 -250
3.697746411e-05 152.5554375 228.9154653
3.697746411e-05 151.0967385 -204.6186505
-113.957138 -1.552502295e-05 -55.8834264
-77.37909302 -1.552502295e-05 -51.3252511
-34.71875002 -1.552502295e-05 149.7054153
3.697746411e-05 182.1575511 24.4750555
-120.879777 -1.552502295e-05 -7.2234352
-242.112523 4.752107075 -250
-184.639141 -1.552502295e-05 166.2286026
3.697746411e-05 66.64579817 -76.59935
-64.66015402 220.0142046 -250
-45.66475802 57.44624397 -250
-156.127035 -1.552502295e-05 0.9603794
-177.198056 -1.552502295e-05 181.4890041
-104.354489 -1.552502295e-05 234.0917592
3.697746411e-05 95.46969727 50.6965387
-74.22916802 -1.552502295e-05 -183.2953394
3.697746411e-05 247.4250479 -55.2615314
-136.805889 180.5728947 -250
-222.807427 -1.552502295e-05 -245.3127428
3.697746411e-05 32.00393617 175.379784
3.697746411e-05 193.5852731 -222.496239
-224.990207 63.11059567 -250
3.697746411e-05 88.33546437 -247.2882119
3.697746411e-05 185.3987913 -153.1043571
-8.438365023 -1.552502295e-05 -189.9025212
3.697746411e-05 196.3249338 163.0063932
3.697746411e-05 149.2292248 94.5177598
-59.82090802 -1.552502295e-05 -152.1880474
3.697746411e-05 64.20547617 83.6392231
3.697746411e-05 219.8487899 29.3551637
-162.133247 -1.552502295e-05 -209.8226162
-177.389717 -1.552502295e-05 93.4533457
-203.806992 -1.552502295e-05 94.1727727
3.697746411e-05 105.3982616 -20.9765255
3.697746411e-05 30.65534337 154.8558389
-249.946698 92.88810577 -250
3.697746411e-05 211.9594593 -100.2709324
3.697746411e-05 191.0572625 21.1166644
3.697746411e-05 130.494183 186.8734596
3.697746411e-05 80.73115107 100.9746925
-132.178099 151.6735694 -250
-85.54653602 -1.552502295e-05 54.4033517
-104.922383 90.15481127 -250
-193.751754 -1.552502295e-05 -85.6824437
-125.780633 -1.552502295e-05 37.724457
3.697746411e-05 180.0074278 57.4753574
3.697746411e-05 134.8083284 15.3628655
-135.035516 39.90339897 -250
-202.410039 -1.552502295e-05 178.4654365
-60.66769802 202.0187518 -250
-52.82289002 193.0950007 -250
-127.512594 -1.552502295e-05 -29.0064513
3.697746411e-05 196.2710202 128.8651236
-102.24417 -1.552502295e-05 2.7541547
-194.517434 204.6236475 -250
-113.859002 187.3231352 -250
-73.05286502 -1.552502295e-05 186.9144553
-53.95305802 -1.552502295e-05 -197.8297589
3.697746411e-05 123.8063092 -119.4028212
3.697746411e-05 176.4735412 -3.6212013
-178.574058 -1.552502295e-05 11.9012792
3.697746411e-05 24.86045737 -156.9797484
3.697746411e-05 225.6095757 134.1262989
-237.379296 -1.552502295e-05 146.4418629
-72.61154002 -1.552502295e-05 206.5443791
-241.538005 -1.552502295e-05 7.9621417
3.697746411e-05 77.56751187 75.3250605
-174.598273 141.0296279 -250
3.697746411e-05 225.503389 237.1246695
-76.76056602 152.9822517 -250
-239.312192 -1.552502295e-05 69.7500363
3.697746411e-05 173.2046137 -14.5863309
-229.876804 -1.552502295e-05 131.0430933
-0.3227840225 -1.552502295e-05 156.279963
-72.09684302 -1.552502295e-05 110.6661314
-49.68669502 -1.552502295e-05 234.0554351
-72.40171002 -1.552502295e-05 -29.8900531
3.697746411e-05 12.92992887 -78.0202158
3.697746411e-05 187.1852551 -212.0397979
-222.284253 -1.552502295e-05 -9.4399759
3.697746411e-05 29.74099207 221.1529974
-219.025515 82.16267427 -250
3.697746411e-05 203.0341362 -151.7185551
3.697746411e-05 129.2436138 2.9713233
-65.28148702 -1.552502295e-05 29.8267467
-58.15202402 -1.552502295e-05 -23.3776277
-30.24387202 -1.552502295e-05 -43.8686899
3.697746411e-05 51.70198787 -116.1001333
