# .PCD v0.7 - Point Cloud Data file format
VERSION 0.7
FIELDS x y z
SIZE 4 4 4
TYPE F F F
COUNT 1 1 1
WIDTH 1239
HEIGHT 1
VIEWPOINT 0 0 0 1 0 0 0
POINTS 1239
DATA ascii
-78.85396394 76.68611487 -250
-54.70431694 102.1924547 -250
-48.23614064 -1.552508058e-05 199.9028911
5.156304314e-05 104.7363038 -186.4571632
5.156304314e-05 225.9994274 232.3833622
-41.29006554 -1.552508058e-05 -216.1260621
5.156304314e-05 165.9480484 28.3898381
-211.5409488 -1.552508058e-05 181.8121901
-71.07593324 -1.552508058e-05 2.9219273
-16.39963024 -1.552508058e-05 230.4555519
5.156304314e-05 137.0441161 196.0973126
-98.07306504 -1.552508058e-05 -205.1395618
5.156304314e-05 226.5398281 34.3107763
-208.8970746 -1.552508058e-05 -216.5884879
5.156304314e-05 138.7734973 50.2764938
5.156304314e-05 229.463147 -138.7350687
-175.5719096 -1.552508058e-05 -165.7800251
-208.56864 -1.552508058e-05 128.1952216
-99.41184144 -1.552508058e-05 112.397529
-90.35638824 -1.552508058e-05 78.4575519
-237.8431264 195.538194 -250
-39.78070514 231.7487479 -250
-122.1579607 -1.552508058e-05 -154.3073259
5.156304314e-05 13.03301307 -91.017986
-152.4717126 -1.552508058e-05 -67.65243
5.156304314e-05 31.23529467 29.6865364
-191.3342867 -1.552508058e-05 27.6094688
-240.3160138 131.59656 -250
5.156304314e-05 106.1845288 -7.1329928
5.156304314e-05 181.1514704 -98.5090354
-239.44387 13.29111107 -250
-137.0835988 -1.552508058e-05 -105.3327691
-226.2795757 -1.552508058e-05 -182.9756035
5.156304314e-05 48.27503877 22.8303793
-195.0329034 -1.552508058e-05 -22.2722269
-94.89919654 -1.552508058e-05 -145.248746
-175.224533 -1.552508058e-05 -51.3043128
-153.1995945 -1.552508058e-05 -135.698727
-233.5965458 -1.552508058e-05 -152.0895421
-110.7183334 -1.552508058e-05 178.1065735
-23.81802394 -1.552508058e-05 123.3195374
5.156304314e-05 209.5862757 118.7077849
-88.86553744 -1.552508058e-05 26.1077989
-33.75619264 -1.552508058e-05 -49.4618022
-87.96372144 191.169605 -250
-8.110605837 100.9127559 -250
-109.5115351 -1.552508058e-05 160.3889889
1.702054663 184.8114832 -250
5.156304314e-05 70.46051007 173.6518046
5.156304314e-05 38.39752307 233.989638
-245.6306207 -1.552508058e-05 201.6739137
5.156304314e-05 204.5606689 -168.5343966
-229.4237866 162.0951923 -250
-111.6650863 -1.552508058e-05 10.1641933
-210.272855 -1.552508058e-05 80.8343727
5.156304314e-05 59.98331987 128.7901086
-47.88212434 -1.552508058e-05 74.0141775
5.156304314e-05 242.9103688 -125.4061604
-180.962168 14.73628967 -250
-11.84120094 -1.552508058e-05 -101.8408575
-75.42234924 14.48561157 -250
5.156304314e-05 180.0295219 13.6870216
-51.99598464 14.12100177 -250
5.156304314e-05 140.4907653 -177.5670235
-32.24521434 216.390902 -250
5.156304314e-05 112.3786349 55.0060437
-105.745672 144.0695547 -250
-138.3808632 -1.552508058e-05 68.5278849
5.156304314e-05 37.15159117 186.7415947
-109.671161 76.70331977 -250
5.156304314e-05 187.0384758 -212.8204908
-38.44229694 -1.552508058e-05 17.2992296
-166.445433 -1.552508058e-05 -1.647758
-135.0237895 -1.552508058e-05 -213.9171677
-128.8174059 -1.552508058e-05 -123.0106172
5.156304314e-05 93.88774047 -108.1651682
-242.3613508 -1.552508058e-05 -12.701168
-125.4645129 -1.552508058e-05 213.3387507
5.156304314e-05 140.8176159 3.4418367
-136.2953205 137.9095243 -250
5.156304314e-05 100.6141152 200.3424907
-238.6475499 -1.552508058e-05 -238.1053114
5.156304314e-05 176.835549 -137.7084355
5.156304314e-05 209.1526099 231.0534909
5.156304314e-05 245.2277481 -193.3112831
-149.9058562 -1.552508058e-05 -249.9313784
5.156304314e-05 161.9747898 -15.4358602
0.656419463 108.8073618 250
5.156304314e-05 103.0139267 -127.825919
5.156304314e-05 175.4875005 -169.8381337
-62.42879554 -1.552508058e-05 -96.7789478
-125.484015 -1.552508058e-05 150.7315227
5.156304314e-05 240.90101 -95.0725832
5.156304314e-05 13.62835837 -38.0201439
-114.0076589 -1.552508058e-05 -233.8702267
-14.68611804 21.59044857 -250
5.156304314e-05 60.82560957 -30.2623272
5.156304314e-05 36.50094137 -213.0729963
5.156304314e-05 75.10598747 -19.2823336
-85.42164024 -1.552508058e-05 233.6582155
5.156304314e-05 107.5846878 163.8423489
-226.4844303 -1.552508058e-05 166.7175253
-59.29894144 170.1356542 -250
5.156304314e-05 15.08400517 62.0770819
5.156304314e-05 216.1476437 -196.1708706
-192.5370162 -1.552508058e-05 -66.8950267
-209.4179429 -1.552508058e-05 -64.6065002
5.156304314e-05 68.23461797 -81.7806465
5.156304314e-05 230.1132902 152.1316348
-167.8785908 203.4939481 -250
-54.77029354 -1.552508058e-05 -225.5097107
5.156304314e-05 154.286641 -228.8313556
5.156304314e-05 126.5611638 -102.6210489
5.156304314e-05 54.65889427 224.9612946
5.156304314e-05 81.86438217 56.5276437
-61.89045254 46.73460387 -250
-180.1211155 -1.552508058e-05 -15.5448385
5.156304314e-05 126.8028303 -122.065287
5.156304314e-05 62.77141647 206.8548675
-72.22486584 -1.552508058e-05 218.3469577
-43.77716174 60.45709157 -250
5.156304314e-05 75.20673737 8.1784582
-98.34658514 -1.552508058e-05 -34.3176953
-216.5403596 -1.552508058e-05 205.1933411
5.156304314e-05 164.8124245 202.4398808
-202.3511961 86.51321877 -250
5.156304314e-05 14.65686817 -74.9813365
5.156304314e-05 37.22568517 -141.7228589
-11.14952114 -1.552508058e-05 -155.0624214
-18.09560664 -1.552508058e-05 159.3633719
-57.65306864 -1.552508058e-05 -81.4016213
-193.64221 -1.552508058e-05 150.7869851
-11.52761864 66.63038647 -250
5.156304314e-05 39.52977507 -101.4713039
5.156304314e-05 153.9561704 -120.287883
-158.1933529 -1.552508058e-05 113.3124239
-174.4870157 -1.552508058e-05 15.9499845
5.156304314e-05 110.8105124 116.6338645
-161.5639222 -1.588130125 250
-187.1205664 -1.552508058e-05 64.7593715
5.156304314e-05 141.7523751 -153.7852351
-117.0410653 243.6159325 -250
5.156304314e-05 13.26619557 -199.595901
5.156304314e-05 124.7010316 -208.3197843
-112.1276714 -1.552508058e-05 -75.914505
5.156304314e-05 88.95290917 -34.3111456
5.156304314e-05 137.5469473 -62.0361404
5.156304314e-05 77.47185617 242.4751666
5.156304314e-05 188.1275251 134.858291
5.156304314e-05 88.47824527 112.4300159
5.156304314e-05 206.6052631 64.9633773
5.156304314e-05 108.1722717 -151.8885748
5.156304314e-05 64.37335477 -55.8955033
-52.47728274 -1.552508058e-05 -66.2262615
5.156304314e-05 15.81211227 -142.6591947
-77.62301934 -1.552508058e-05 -239.769964
-202.9206419 -1.552508058e-05 -176.8696707
5.156304314e-05 185.3390113 -115.3758901
1.716054263 132.5409096 -250
-173.2407649 105.9594413 -250
-45.17955684 -1.552508058e-05 -132.7039867
-149.7902052 -1.552508058e-05 -28.6312845
-198.4051961 -1.552508058e-05 -0.9613718
-20.50094314 -1.552508058e-05 -132.8464574
5.156304314e-05 46.83447587 247.285017
5.156304314e-05 205.1347165 17.8961082
5.156304314e-05 39.62213107 -170.9410561
-141.9823988 157.6883673 -250
-179.831199 50.95633817 -250
5.156304314e-05 63.95902037 -177.3380889
-197.2328926 160.47809 -250
-11.91838834 197.8452221 -250
-84.24703274 156.1164172 -250
-205.7146842 147.1363398 -250
5.156304314e-05 170.4697833 105.0326581
-245.5801397 -1.552508058e-05 50.3975017
5.156304314e-05 212.9357053 -27.7033315
-230.8775801 -1.552508058e-05 213.934141
5.156304314e-05 75.67546877 -129.8710676
-142.598791 54.02336627 -250
-58.71144894 78.81695337 -250
-249.3487375 -1.552508058e-05 -66.5887245
-179.9454267 -1.552508058e-05 143.4128325
5.156304314e-05 140.5885932 83.4639904
-16.30652554 -1.552508058e-05 -18.5266802
5.156304314e-05 144.3023703 106.2977394
-38.71015944 -1.552508058e-05 61.0788046
-182.5059081 -1.552508058e-05 -83.0317768
5.156304314e-05 110.4776029 7.7183829
-121.3271381 -1.552508058e-05 69.8973227
5.156304314e-05 85.10307457 -212.3697818
-160.54456 -1.552508058e-05 146.3919876
-47.46294574 119.8152853 -250
-200.2542939 -1.552508058e-05 234.7351172
5.156304314e-05 14.41320307 -162.5519527
-111.5491502 25.55543027 -250
5.156304314e-05 171.57884 233.1775498
-97.83505134 -1.552508058e-05 145.4887776
-179.6099353 -1.552508058e-05 93.8732597
-73.11398114 194.9219304 -250
5.156304314e-05 131.1199533 -85.9839453
-83.28082744 -1.552508058e-05 -7.3304754
5.156304314e-05 49.20140037 157.6441012
-51.19818804 -1.552508058e-05 -191.1022727
-27.58455604 170.2313659 -250
-195.86178 -1.552508058e-05 182.4949574
-193.076763 -1.552508058e-05 -97.4003272
5.156304314e-05 87.37310967 -161.5981588
5.156304314e-05 211.2955013 84.392233
-31.80705404 122.2559813 -250
-36.46049214 -1.552508058e-05 -179.6698571
5.156304314e-05 207.7559377 -57.2979026
-168.3417024 136.0818202 -250
5.156304314e-05 8.174970475 83.3220705
5.156304314e-05 185.9461658 -33.4381963
-43.87727834 -1.552508058e-05 172.504562
-222.5953209 -1.552508058e-05 95.3582631
5.156304314e-05 75.06307997 128.1528629
-65.66768134 247.8703229 -250
-23.02112954 -1.552508058e-05 -193.995299
-170.6788801 -1.552508058e-05 228.3625965
-9.821161837 231.5158156 -250
5.156304314e-05 15.73185047 181.9130755
5.156304314e-05 146.7434018 158.4278862
-109.368534 -1.552508058e-05 125.3345344
5.156304314e-05 249.7313892 -156.9070449
5.156304314e-05 61.53956167 -112.1418858
-68.88672894 -1.552508058e-05 -49.5497956
5.156304314e-05 209.5641049 -131.1129127
-202.2629046 -1.552508058e-05 219.7215618
-114.4314362 160.0619103 -250
-51.04341484 151.5915771 -250
5.156304314e-05 37.42578187 98.7595903
-206.7001723 -1.552508058e-05 -35.3096562
5.156304314e-05 33.87112287 144.134109
5.156304314e-05 154.0757092 -87.2683374
-41.80419804 94.75855587 -250
-95.43653194 43.32701947 -250
-92.27642464 70.34210967 -250
5.156304314e-05 251.9140861 140.4735445
5.156304314e-05 156.4144099 185.8150046
-52.64607974 -1.552508058e-05 158.2090453
-242.2248253 -1.552508058e-05 -187.8414531
-162.7014709 -1.552508058e-05 -95.9535245
-214.6476079 -1.552508058e-05 -94.5588845
5.156304314e-05 59.50320077 99.6654541
-97.34511504 -1.552508058e-05 -110.9851128
5.156304314e-05 225.3173609 -18.9928432
5.156304314e-05 168.0420485 54.1109822
5.156304314e-05 185.2723728 210.6840723
5.156304314e-05 59.46361967 -235.7916932
-62.94646414 -1.552508058e-05 189.3622075
5.156304314e-05 181.2429956 -5.1707808
-127.5772482 11.59089057 -250
5.156304314e-05 82.27907567 21.8781185
5.156304314e-05 131.0948454 -140.9320338
-162.3523356 60.02403917 -250
-227.879238 -1.552508058e-05 -165.6308477
-13.36045054 -1.552508058e-05 -181.2104923
5.156304314e-05 161.1921703 -133.0523791
-76.95450994 -1.552508058e-05 113.6804434
5.156304314e-05 134.887213 179.6429084
5.156304314e-05 247.256459 -65.8122012
5.156304314e-05 86.15142737 -5.7589204
-236.3894362 223.4746865 -250
-242.6331951 -1.552508058e-05 234.8135194
5.156304314e-05 108.4472186 -23.6084326
-17.90568344 -1.552508058e-05 175.4989536
-102.9600281 -1.552508058e-05 -191.2992085
-149.3291694 210.4759151 -250
-162.8899697 -1.552508058e-05 192.1963151
-204.3764746 205.0711499 -250
5.156304314e-05 31.49683747 51.0394567
-121.5921869 -1.552508058e-05 -172.0137501
-10.30898434 -1.552508058e-05 -239.2589501
5.156304314e-05 135.1530598 126.9229102
5.156304314e-05 40.81224447 -65.7550352
5.156304314e-05 238.2303978 -52.1687918
5.156304314e-05 201.8864016 -183.6338325
-236.4170558 -1.552508058e-05 61.6656045
-32.31664354 -1.552508058e-05 232.3870528
5.156304314e-05 247.0576792 -21.9989263
-123.1001965 -1.552508058e-05 -109.1236058
-182.5654796 189.42629 -250
5.156304314e-05 2.373287075 199.6498732
-76.51680914 -1.552508058e-05 -132.8691043
5.156304314e-05 16.27914887 210.1461663
-171.8810473 -1.552508058e-05 -185.5768348
5.156304314e-05 142.6722415 221.2146506
5.156304314e-05 115.1955743 -176.6047305
5.156304314e-05 56.32137187 171.0938349
-51.18685614 -1.552508058e-05 130.6226459
5.156304314e-05 49.38107927 -82.3746083
-82.88068754 -1.552508058e-05 -63.141287
5.156304314e-05 230.4816825 179.5227121
5.156304314e-05 154.3171169 -67.6353595
5.156304314e-05 41.08840287 -115.6652361
2.248042963 -1.552508058e-05 56.6477493
5.156304314e-05 144.8078148 35.5136662
5.156304314e-05 110.0316888 211.0560277
1.886162063 -1.552508058e-05 -185.5920754
-167.0325223 -1.552508058e-05 -132.2669449
-234.5164773 -1.552508058e-05 141.6241597
0.885720063 123.0288713 250
-214.9262602 108.8595062 -250
-64.24750984 -1.552508058e-05 -181.837339
-103.793291 175.6123274 -250
-32.18902854 -1.552508058e-05 105.5887763
-196.9392159 -1.552508058e-05 119.748608
5.156304314e-05 160.1484419 15.5026543
5.156304314e-05 115.7118248 181.9407122
-73.07804464 -1.552508058e-05 142.2879175
5.156304314e-05 205.6967995 -117.2375806
-191.3416188 -1.552508058e-05 -126.8818478
5.156304314e-05 88.32340827 -121.7131024
-173.7723929 -1.552508058e-05 51.5749054
5.156304314e-05 14.04381557 25.8121617
5.156304314e-05 128.4872998 -234.3397742
-113.9724837 -1.552508058e-05 -204.5205905
-193.6638982 -1.552508058e-05 -147.4651672
-156.7663433 231.8693698 -250
5.156304314e-05 95.35530407 86.9833103
5.156304314e-05 196.0330257 146.4838457
-225.865442 -1.552508058e-05 -206.5067191
5.156304314e-05 133.457947 -44.5217715
5.156304314e-05 86.67916447 -55.7659518
5.156304314e-05 31.61656447 113.750137
-105.3452366 -1.552508058e-05 -11.9379117
-49.78404394 -1.552508058e-05 96.7641567
-25.52195824 -1.552508058e-05 -154.5291625
5.156304314e-05 225.5178619 64.1400242
-57.05407874 136.4191716 -250
-73.55697844 137.0109105 -250
-136.3053591 104.7179917 -250
-110.5947022 -1.552508058e-05 214.5729097
5.156304314e-05 189.7073898 -78.4099805
-91.43734554 -1.552508058e-05 -95.2610138
5.156304314e-05 158.7831204 -36.8527152
-138.2956303 -1.552508058e-05 -152.2723064
5.156304314e-05 96.61267837 140.9335205
-196.5475422 -1.552508058e-05 101.7347613
-232.4112179 66.51034697 -250
-6.533852937 -1.552508058e-05 -130.811042
-237.6168172 -1.552508058e-05 10.3409188
5.156304314e-05 234.4867665 -82.1919085
-24.45097424 203.8973052 -250
-239.2859061 209.641265 -250
-174.7161993 -0.1976456251 -250
-189.1596352 238.1965638 -250
-233.3194099 -1.552508058e-05 180.8175977
-119.621294 -1.552508058e-05 40.9897057
-241.7609301 -1.552508058e-05 124.5889379
5.156304314e-05 216.3029862 151.0345148
5.156304314e-05 133.8876272 -9.7904029
-178.2565775 150.5117227 -250
-39.45423894 8.286007775 -250
5.156304314e-05 41.22418027 -246.9652223
-71.53922014 109.561959 -250
5.156304314e-05 210.5310846 -229.3682826
5.156304314e-05 82.60288537 140.4969586
-242.9121315 -1.552508058e-05 -215.0156277
5.156304314e-05 117.3110687 104.56116
-130.1821638 -1.552508058e-05 200.4806218
-15.35454904 -1.552508058e-05 28.2015126
-64.95203794 -1.552508058e-05 29.8133496
-227.322747 100.690794 -250
5.156304314e-05 26.10664537 -235.9210093
-170.8977502 -1.552508058e-05 108.3176762
-139.9522021 -1.552508058e-05 174.2728775
-96.55608034 -1.552508058e-05 94.3412514
-39.93539184 -1.552508058e-05 -18.2985154
-50.03905994 -1.552508058e-05 184.9978144
-9.585730237 162.3738566 -250
5.156304314e-05 178.2491401 -152.6844836
5.156304314e-05 165.1098283 -184.0870003
-88.20585054 -1.552508058e-05 -216.6559316
-226.2678251 -1.552508058e-05 -14.9128387
5.156304314e-05 209.4695806 1.3763233
5.156304314e-05 53.22750787 -206.9927136
-101.2964253 105.3592775 -250
5.156304314e-05 185.8217829 177.4108976
-88.60890364 249.3912416 -250
-188.604445 -1.552508058e-05 -112.4467467
-12.86218214 -1.552508058e-05 -4.6770142
-39.14879584 158.1111271 -250
5.156304314e-05 6.807749475 -103.0634508
5.156304314e-05 106.5328187 42.1731088
-38.40076084 -1.552508058e-05 -103.4541021
-238.9615704 109.849777 -250
5.156304314e-05 195.2683649 123.3825614
-16.74173954 251.0354004 -250
-35.81414124 -1.552508058e-05 2.9290105
-99.99213654 7.414877175 -250
-75.52649824 -1.552508058e-05 -211.1018755
-221.2592724 -1.552508058e-05 -74.1660457
-186.7167843 75.44415877 -250
-154.917153 -1.552508058e-05 168.0878412
-111.7060662 -1.552508058e-05 97.9666892
-178.6860741 215.46586 -250
5.156304314e-05 50.83837837 0.6600505
-119.2431955 86.09267487 -250
-140.6511001 -1.552508058e-05 -92.3306883
-163.680567 -1.552508058e-05 -145.229434
-176.6939643 -1.552508058e-05 29.1482354
-189.0344352 -1.552508058e-05 14.4313386
-14.60247534 -1.552508058e-05 243.6983504
-123.3628599 -1.552508058e-05 122.787872
5.156304314e-05 113.3240892 -45.9839426
-22.40439074 -1.552508058e-05 -78.8734691
5.156304314e-05 230.4975789 123.3744849
5.156304314e-05 69.35109407 160.3759126
5.156304314e-05 199.2329625 -143.6102551
5.156304314e-05 55.07445637 34.9592439
5.156304314e-05 161.8835736 -202.2599469
5.156304314e-05 93.78442707 155.531927
-220.2479002 190.3061424 -250
5.156304314e-05 13.18422207 -54.139548
-166.3422207 -1.552508058e-05 -115.7327755
-65.01783154 -1.552508058e-05 -117.207275
-249.1672104 235.9155278 -250
-239.8422713 -1.552508058e-05 74.4749621
-208.0074072 -1.552508058e-05 -149.1441433
5.156304314e-05 235.9502106 89.3264624
-151.6498165 128.7711758 -250
-238.9027346 -1.552508058e-05 -104.0814946
-98.42002494 -1.552508058e-05 237.4203662
5.156304314e-05 29.46417147 205.7773545
5.156304314e-05 187.3360855 65.3190767
-240.8010717 172.0139326 -250
5.156304314e-05 50.34647467 71.0635456
5.156304314e-05 17.33964797 240.9658028
-251.790319 -1.552508058e-05 91.9732378
5.156304314e-05 110.9534488 232.2160804
5.156304314e-05 154.7157145 57.6668664
-118.4449801 -1.552508058e-05 248.4712242
-34.78380564 -1.552508058e-05 202.5593543
5.156304314e-05 140.218304 -33.2239604
5.156304314e-05 154.826335 80.2469574
-70.45392844 222.0404198 -250
-214.8962667 -1.552508058e-05 52.6020923
-12.30288894 -1.552508058e-05 -66.9134651
-174.1940003 -1.552508058e-05 80.2262892
-165.5349438 -1.552508058e-05 -83.1342976
-167.8407967 -1.552508058e-05 -32.6152004
-43.91093194 186.4743526 -250
-153.6712495 -1.552508058e-05 -170.4692865
-213.4205836 -1.552508058e-05 4.8171871
-20.85860774 -1.552508058e-05 -51.5323167
-235.6567222 82.95700087 -250
-205.0422659 7.632353175 -250
-139.749416 -1.552508058e-05 145.3794408
-53.17248294 -1.552508058e-05 -244.7656939
-82.16311644 -1.552508058e-05 50.1324829
-240.8507643 -1.552508058e-05 101.7740755
-129.8117065 -1.552508058e-05 28.8056069
5.156304314e-05 180.6988076 -68.414626
5.156304314e-05 13.55113637 -249.8631629
-167.4562886 21.94170747 -250
-34.06057254 -1.552508058e-05 76.309528
-97.16523204 -1.552508058e-05 129.6687645
-238.0920007 -1.552508058e-05 -38.6340098
-178.7772097 -1.552508058e-05 213.7961248
-251.2566269 138.4436549 -250
5.156304314e-05 60.02389587 -129.8734006
-64.99400894 204.9518876 -250
-104.581913 -1.552508058e-05 22.1923326
-194.9851528 45.14243737 -250
5.156304314e-05 178.5647435 -228.482971
-122.7152236 140.1127044 -250
-177.2034931 -1.552508058e-05 -217.906681
5.156304314e-05 115.2990242 -162.6187219
5.156304314e-05 206.2213617 -71.6270502
-80.39321954 -1.552508058e-05 15.6741793
5.156304314e-05 232.1881344 164.810737
-188.6172963 -1.552508058e-05 -54.7154817
5.156304314e-05 2.838052975 -9.2655672
-49.76072794 -1.552508058e-05 8.2025501
-24.57932164 -1.552508058e-05 -230.4448764
5.156304314e-05 229.043661 -185.9158829
5.156304314e-05 67.81200777 -99.3698546
-88.35912314 221.2945723 -250
-118.076408 116.9666316 -250
5.156304314e-05 68.68390037 -245.0286664
-213.4150945 28.48042457 -250
5.156304314e-05 221.1042277 -37.4368727
5.156304314e-05 231.3038506 208.4060842
-14.96105854 -1.552508058e-05 -34.2430927
-10.99708074 -1.552508058e-05 7.8839072
-11.97034054 -1.552508058e-05 131.5531039
5.156304314e-05 222.3919693 92.5674696
-130.9813745 -1.552508058e-05 -81.3848831
-225.9247951 -1.552508058e-05 -58.1419319
-155.9028672 78.95970347 -250
-16.45848174 118.5790734 -250
-104.0879949 -1.552508058e-05 -216.2841562
5.156304314e-05 141.0382517 -96.3533016
5.156304314e-05 51.17659037 -140.5571269
5.156304314e-05 212.8704883 -209.6564649
-46.85371184 -1.552508058e-05 246.0008985
-207.5488515 -1.552508058e-05 140.7242519
-165.2720888 -1.552508058e-05 178.4441612
5.156304314e-05 68.66251197 193.5381052
5.156304314e-05 197.1822542 -27.877592
-129.6778767 -1.552508058e-05 -183.1349751
-21.05668574 -1.552508058e-05 -206.3663058
5.156304314e-05 72.53554957 91.3605018
-219.8387774 -1.552508058e-05 -34.4251339
-11.18880184 -1.552508058e-05 -117.4624089
-94.63197404 -1.552508058e-05 160.0425293
-53.11902684 -1.552508058e-05 108.8137116
-243.2566021 36.21166087 -250
-175.9670339 83.87107097 -250
-36.17282394 -1.552508058e-05 48.8451704
-189.199248 -1.552508058e-05 193.2997371
-120.2950105 196.1667083 -250
5.156304314e-05 234.3583309 -218.9820102
5.156304314e-05 94.42985347 -151.3154289
5.156304314e-05 85.36608497 180.5035587
-70.49414064 -1.552508058e-05 -193.3681197
5.156304314e-05 109.3008397 128.9708503
-127.6157441 -1.552508058e-05 -226.2609626
-110.244331 206.2294537 -250
-165.5844374 -1.552508058e-05 -174.8689182
-46.77722494 -1.552508058e-05 -158.9853502
5.156304314e-05 39.94198307 221.6864009
5.156304314e-05 18.27710717 -26.5339884
5.156304314e-05 130.8836057 100.1158823
5.156304314e-05 28.66592787 -223.8132104
-81.87332394 -1.552508058e-05 208.8246039
-127.9090297 -1.552508058e-05 104.5431535
5.156304314e-05 104.9806817 -241.602899
5.156304314e-05 238.794892 238.0561455
5.156304314e-05 158.9603574 140.677467
-70.37391854 -1.552508058e-05 -158.1161998
-133.5446987 40.30963457 -250
-30.21461544 -1.552508058e-05 174.7468056
2.202988263 -1.552508058e-05 181.6722651
-84.72705484 -1.552508058e-05 -33.5411473
5.156304314e-05 181.62349 226.096904
-174.5101842 250.2498039 -250
5.156304314e-05 38.31902857 -49.2892295
5.156304314e-05 163.8143062 165.7047114
5.156304314e-05 85.40456057 207.1943507
-29.33407774 251.5913661 -250
-42.67997934 -1.552508058e-05 -73.6018918
-211.779083 -1.552508058e-05 -185.3231208
-144.5509059 240.1762809 -250
-161.1634246 102.9859251 -250
-152.7108547 183.2484273 -250
5.156304314e-05 36.99439117 18.1231136
-28.62096034 31.09813757 -250
-139.4567093 74.18073977 -250
2.326682163 232.6715687 -250
-193.4464368 -1.552508058e-05 170.2614941
5.156304314e-05 133.7153814 -194.9767699
5.156304314e-05 16.10301517 -2.0247429
-47.95177624 26.99390757 -250
-223.5520109 -1.552508058e-05 35.3644346
-28.48031274 137.6814969 -250
-85.29754714 -1.552508058e-05 -166.9848961
-223.5639177 -1.552508058e-05 -237.9485422
-241.6899353 -1.552508058e-05 -132.779206
5.156304314e-05 99.27746517 235.5497029
-58.85581614 215.675726 -250
-130.5946424 217.475003 -250
5.156304314e-05 74.46045127 -206.5501408
5.156304314e-05 212.3151575 179.807599
-169.1042079 119.355854 -250
5.156304314e-05 212.6545385 -46.2386009
-16.79681904 51.79269697 -250
-118.5838498 -1.552508058e-05 -45.5240424
5.156304314e-05 230.1725996 -106.0017087
5.156304314e-05 137.628925 237.6884112
-144.4508452 -1.552508058e-05 -127.3763309
5.156304314e-05 186.8344723 -194.8559586
5.156304314e-05 75.60952147 -150.2184022
-163.7524712 -1.552508058e-05 -57.2790652
5.156304314e-05 202.6310885 -216.0181767
-94.89506034 -1.552508058e-05 -62.4325767
-8.781634037 -1.552508058e-05 -208.0062287
5.156304314e-05 153.3962717 -156.7931563
5.156304314e-05 237.2357376 -15.0635255
5.156304314e-05 25.84752107 134.324997
0.257620863 -1.552508058e-05 -33.6986891
-29.76845434 -1.552508058e-05 -249.809363
5.156304314e-05 244.2112888 -34.6290025
-147.4202984 97.71174457 -250
-9.330790837 -1.552508058e-05 151.1979891
5.156304314e-05 24.18746327 -86.6640456
5.156304314e-05 233.0432096 44.3493887
-88.47934694 19.59311887 -250
-133.6059147 166.2139739 -250
-78.01452814 -1.552508058e-05 -184.0810299
-111.4112071 -1.552508058e-05 58.1565559
-87.24670154 -1.552508058e-05 -154.4244206
5.156304314e-05 162.3239871 -110.8367082
-214.4596471 -1.552508058e-05 -135.6446821
5.156304314e-05 189.7551431 160.3183671
-229.424496 236.4238628 -250
-203.8544951 -1.552508058e-05 -194.2181774
5.156304314e-05 10.70752017 -131.8387893
-194.9452999 -1.552508058e-05 52.5881388
-160.6638515 152.8984815 -250
-139.4874803 -1.552508058e-05 48.2396745
-124.5989078 97.03109967 -250
5.156304314e-05 166.1925599 -67.2331891
-227.5925513 12.51787857 -250
-143.6336207 -1.552508058e-05 -38.779079
-195.8245273 186.6168397 -250
5.156304314e-05 122.1598132 144.654489
-75.15665404 -1.552508058e-05 89.0977821
-104.3287482 -1.552508058e-05 -128.2389846
-228.5725299 -1.552508058e-05 -194.9755202
-219.851087 -1.552508058e-05 115.3003861
5.156304314e-05 1.227238475 43.856832
5.156304314e-05 52.17865097 -58.5995558
-235.1230134 -1.552508058e-05 153.4227094
-148.9444603 -1.552508058e-05 -216.10875
-153.3613493 -1.552508058e-05 -9.5729246
-15.70386554 -1.552508058e-05 218.6711097
-156.2413313 200.925076 -250
5.156304314e-05 239.3389473 -114.1712225
5.156304314e-05 113.3424349 70.8331955
-190.3602212 130.0217649 -250
-251.2244982 -1.552508058e-05 77.3945063
-76.90072834 166.915541 -250
-47.69374684 219.2568108 -250
-1.043654237 -1.552508058e-05 119.3230837
5.156304314e-05 16.42960577 -188.3126109
5.156304314e-05 216.8001586 27.7958223
2.178038263 -1.552508058e-05 -87.5730644
5.156304314e-05 248.9155374 47.6404454
-152.0235439 -1.552508058e-05 28.7977242
-157.3681066 -1.552508058e-05 -240.9569533
-58.44341854 -1.552508058e-05 -159.0303821
5.156304314e-05 151.9553709 243.4975348
-156.1157894 24.57390157 -250
-100.1628845 -1.552508058e-05 184.1395465
5.156304314e-05 215.2166351 -241.3271092
-191.8216586 -1.552508058e-05 75.4004632
-212.3254907 59.24478907 -250
-27.96022544 89.54659857 -250
-144.4243944 -1.552508058e-05 234.9020927
-120.7119281 -1.552508058e-05 87.2432032
5.156304314e-05 104.1047345 -68.7387044
5.156304314e-05 14.14941087 109.9224467
5.156304314e-05 237.1364076 29.6177236
5.156304314e-05 126.636176 -178.4259614
5.156304314e-05 91.44214687 217.0754239
5.156304314e-05 193.2024469 190.5986556
-56.70067044 -1.552508058e-05 -14.9639366
-40.97208134 -1.552508058e-05 221.6046817
-120.9496482 -1.552508058e-05 -23.0759109
-87.59197254 101.806001 -250
5.156304314e-05 42.86898507 -195.7166783
-74.79935854 60.57046657 -250
5.156304314e-05 219.3630134 195.6341941
5.156304314e-05 96.07046447 -178.168523
-61.61472064 -1.552508058e-05 47.8890421
-204.7000635 231.2917637 -250
-188.4919435 118.6520898 -250
-236.3393905 -1.552508058e-05 -79.5882268
-222.9174523 -1.552508058e-05 83.610793
5.156304314e-05 238.4225793 -240.2579919
0.776228163 -1.552508058e-05 14.2163407
-21.39953344 -1.552508058e-05 77.6601118
-125.9684735 227.9531207 -250
5.156304314e-05 252.1123388 -236.8157851
5.156304314e-05 236.9868833 -172.9388799
-173.593534 -1.552508058e-05 -152.7740232
5.156304314e-05 60.11596177 11.4923966
-212.801541 -1.552508058e-05 -227.3372589
-245.3972824 -1.552508058e-05 -155.7362993
5.156304314e-05 201.9567151 -17.4117978
5.156304314e-05 49.54954467 59.1102235
5.156304314e-05 110.9697804 -34.8040709
5.156304314e-05 18.33762487 -117.13275
5.156304314e-05 93.54644827 -243.0539687
-213.4327293 -1.552508058e-05 -46.071909
5.156304314e-05 44.44360707 195.5106273
-68.80706064 -1.552508058e-05 70.8201262
-217.7838007 -1.552508058e-05 191.3479517
-23.13707964 225.2137312 -250
-143.7056012 -1.552508058e-05 -232.3172091
-234.5160858 2.098652275 -250
-235.6817092 44.69173007 -250
5.156304314e-05 118.2847768 25.1695738
5.156304314e-05 10.12864477 161.7421093
-172.5305121 32.10692707 -250
5.156304314e-05 34.82734327 -125.1438535
5.156304314e-05 17.54948057 -226.1383741
5.156304314e-05 7.105895175 -153.888993
5.156304314e-05 220.1642033 -2.3597613
-50.51045374 86.62482827 -250
5.156304314e-05 223.1053654 131.9447941
-107.5117226 -1.552508058e-05 -40.9507427
-49.70811814 -1.552508058e-05 -103.178728
5.156304314e-05 170.939347 117.7196999
5.156304314e-05 193.7919492 15.7494703
5.156304314e-05 226.0142441 -169.2462972
5.156304314e-05 185.5473465 -164.5409798
5.156304314e-05 216.6849601 71.1180889
-62.89564514 -1.552508058e-05 163.3819086
5.156304314e-05 12.10213797 93.8591721
-132.4704779 240.3735733 -250
-224.6741431 219.8645003 -250
5.156304314e-05 101.1571628 55.5347591
-216.2360996 200.7936504 -250
-40.76031774 -1.552508058e-05 -122.3868006
-248.8845289 197.5481529 -250
-16.10814924 -1.552508058e-05 -143.1717455
5.156304314e-05 116.9095859 219.906037
-201.3572334 176.8744239 -250
-131.6209118 201.4805877 -250
-167.3465932 -1.552508058e-05 134.9818546
5.156304314e-05 239.65318 215.8648058
5.156304314e-05 29.43353247 69.3422927
5.156304314e-05 143.291573 -241.9216491
5.156304314e-05 74.89065867 -193.730628
-248.888412 -1.552508058e-05 133.71554
-76.18491324 -1.552508058e-05 160.8081482
-60.53664294 -1.552508058e-05 -0.8325204
5.156304314e-05 92.47316007 192.6685301
5.156304314e-05 121.0967206 11.2305436
5.156304314e-05 49.70670657 92.0047127
-79.57726864 -1.552508058e-05 -19.7905271
-220.3260823 -1.552508058e-05 62.4430853
-28.35294844 -1.552508058e-05 95.0979787
-14.98320424 -1.552508058e-05 -88.5036714
-156.7085873 -1.552508058e-05 156.8766401
-217.9577699 -1.552508058e-05 -171.4266481
-215.6147022 -1.552508058e-05 -9.2416102
-131.2474145 62.44763227 -250
-137.0068619 187.4611574 -250
5.156304314e-05 154.7653801 -142.1304679
-86.88851594 177.7682486 -250
-69.23524794 82.40772597 -250
-152.8628162 -1.552508058e-05 -147.8021062
5.156304314e-05 119.8247693 -93.7920938
5.156304314e-05 139.7268329 -211.4787124
5.156304314e-05 209.2078744 47.9458153
5.156304314e-05 157.8454406 129.6671327
-214.4847832 252.0408417 -250
5.156304314e-05 59.57936577 117.7568514
5.156304314e-05 215.1057364 -165.2942028
-134.3770344 -1.552508058e-05 123.3293037
5.156304314e-05 181.5760377 -43.5519282
-20.73681774 -1.552508058e-05 108.6591288
-154.0619524 -1.552508058e-05 -102.7613474
5.156304314e-05 152.2265996 -105.9181484
-155.1195965 -1.552508058e-05 46.0072255
-43.03362554 109.560666 -250
-66.95220024 -1.552508058e-05 -237.1300071
-251.7070124 -1.552508058e-05 161.4531942
5.156304314e-05 69.05082507 -217.8932969
-123.010185 -1.552508058e-05 -244.7931806
5.156304314e-05 216.6875212 -114.4543199
5.156304314e-05 155.9143721 -52.1385844
5.156304314e-05 202.3325991 -157.5833522
-181.0060187 -1.552508058e-05 123.8210987
-26.95777744 -1.552508058e-05 152.6342601
-63.54635554 -1.552508058e-05 92.7836379
5.156304314e-05 137.9181318 -119.3062304
-153.3892473 -1.552508058e-05 92.341212
5.156304314e-05 25.74886437 155.8839142
5.156304314e-05 127.7197426 201.8591323
-67.53275474 233.1405931 -250
5.156304314e-05 134.8468922 -130.6445555
-123.3478309 -1.552508058e-05 6.7611632
-78.90854104 146.5667244 -250
-200.8808438 68.12801927 -250
5.156304314e-05 53.76204027 -119.8655789
-28.69401404 -1.552508058e-05 -20.8073417
-239.9931322 -1.552508058e-05 -91.1125968
-105.9790301 239.9914071 -250
5.156304314e-05 212.0554838 96.0529777
-93.96148144 200.2652191 -250
-197.1667984 -1.552508058e-05 40.3583294
-93.31926864 -1.552508058e-05 36.0469361
-252.4173389 208.2900394 -250
-80.99565644 87.35507577 -250
5.156304314e-05 27.98976007 -185.3951731
5.156304314e-05 247.319738 68.9819923
5.156304314e-05 179.7436721 32.0497951
5.156304314e-05 250.0097773 -221.422426
-101.4897366 -1.552508058e-05 6.24632
-223.3805262 -1.552508058e-05 234.7093096
-120.8996476 -1.552508058e-05 -69.5599777
-148.0992343 -1.552508058e-05 197.4851097
-67.96172194 -1.552508058e-05 57.6524255
-60.85279294 -1.552508058e-05 200.132383
5.156304314e-05 99.68419517 -29.9479628
-78.67143874 -1.552508058e-05 -99.8433827
5.156304314e-05 153.1079931 28.5944163
-215.4985874 -1.552508058e-05 248.1352274
-53.12596464 198.4944673 -250
-175.3548955 170.7799516 -250
-94.78653994 -1.552508058e-05 -238.2617728
5.156304314e-05 139.3139581 207.354739
-192.2666293 -1.552508058e-05 -77.6615378
-25.40426334 -1.552508058e-05 48.7978672
5.156304314e-05 58.32682457 -150.6424512
5.156304314e-05 242.1631845 181.2930977
-107.4944724 15.12571907 -250
-68.28019724 -1.552508058e-05 -83.2917036
5.156304314e-05 11.79396217 -17.9521506
5.156304314e-05 62.43595057 73.5814677
5.156304314e-05 235.2674381 -71.4706371
-212.9443155 221.3275022 -250
-163.1892139 -1.552508058e-05 -202.4704607
5.156304314e-05 126.6077834 -20.7717464
5.156304314e-05 124.9078702 -66.7440731
5.156304314e-05 25.03682047 -42.4940292
5.156304314e-05 1.457865575 129.90534
-151.9619743 -1.552508058e-05 245.4837762
-199.6407418 136.0913204 -250
-101.9980823 -1.552508058e-05 168.0354894
5.156304314e-05 197.522672 -54.1384262
5.156304314e-05 159.7639448 104.8026298
5.156304314e-05 176.8181053 -182.1377867
-145.6348837 -1.552508058e-05 -50.7221478
-170.6828958 224.0529407 -250
-185.2242708 -1.552508058e-05 204.1475723
5.156304314e-05 179.7825856 -87.91517
5.156304314e-05 76.95894027 103.4991618
5.156304314e-05 220.2104748 -130.2844035
-89.09837074 -1.552508058e-05 115.1374916
5.156304314e-05 26.76900487 -139.5982478
-150.7555171 221.0502749 -250
5.156304314e-05 144.7794088 116.9535722
-111.9882855 -1.552508058e-05 -166.5196534
-72.69199804 125.2866061 -250
5.156304314e-05 33.00949117 -13.2183026
-219.6412251 152.6269436 -250
-98.70627694 -1.552508058e-05 208.7552242
-155.1584178 -1.552508058e-05 207.2537523
-31.66125374 -1.552508058e-05 -222.5229603
5.156304314e-05 74.86433677 66.3163491
-133.0473792 -1.552508058e-05 59.3422359
-22.97894884 -1.691154125 250
-107.6114049 87.11876767 -250
5.156304314e-05 187.515262 83.7388094
5.156304314e-05 82.79233497 85.7915779
5.156304314e-05 23.50610247 120.5715953
-43.33055394 -1.552508058e-05 -231.0180258
5.156304314e-05 116.5629379 -127.5036042
-156.2641587 168.6162214 -250
-239.9406538 160.9398442 -250
5.156304314e-05 123.1284655 120.6060057
5.156304314e-05 58.52493737 -19.4085799
5.156304314e-05 203.7894307 221.9350164
-5.385066037 -1.552508058e-05 235.4948614
-236.7935174 -1.552508058e-05 36.9237172
5.156304314e-05 123.1274191 -219.3900486
5.156304314e-05 134.2714733 34.7973161
5.156304314e-05 75.45390957 -2.3786806
-13.62880644 152.2520406 -250
-90.33720954 147.4914764 -250
5.156304314e-05 59.52458467 -162.7008463
-8.534283237 125.5525957 -250
5.156304314e-05 72.39126167 51.69428
5.156304314e-05 96.59800187 -2.7516066
5.156304314e-05 44.94224147 -219.4270969
-185.1813767 -1.552508058e-05 157.0390363
5.156304314e-05 14.85706827 8.5909437
-53.93207934 -1.552508058e-05 -214.2406842
5.156304314e-05 201.5384468 90.4892621
5.156304314e-05 77.43478127 -29.5284915
5.156304314e-05 83.30155307 154.8333676
-174.8919094 -1.552508058e-05 40.4635145
-119.9667337 -1.552508058e-05 183.0634662
-140.3361943 -1.552508058e-05 10.6495528
-216.3976964 -1.552508058e-05 169.5915327
-92.44808254 -1.552508058e-05 -191.1833298
5.156304314e-05 29.62877757 40.7243861
5.156304314e-05 65.11316687 225.41149
5.156304314e-05 252.4802115 18.6018072
-217.8777148 -1.552508058e-05 -119.3224591
5.156304314e-05 96.22172877 170.1642108
-10.35058394 -1.552508058e-05 -165.4918643
-181.2724831 135.9935815 -250
5.156304314e-05 40.03678667 -33.6105799
5.156304314e-05 235.9056491 -146.9541824
-204.0476445 -1.552508058e-05 151.6279729
-249.6853212 15.30180027 -250
-239.40932 -1.552508058e-05 114.4229585
-148.7554972 -1.552508058e-05 67.4623187
5.156304314e-05 186.3323886 -235.4367241
5.156304314e-05 176.258148 79.1927834
5.156304314e-05 241.9102012 145.2262659
-51.12857814 -1.552508058e-05 119.0352397
-86.25997704 61.84534197 -250
5.156304314e-05 135.3782026 167.0310358
5.156304314e-05 149.5474086 -28.4024058
-73.93079214 -1.552508058e-05 128.8457395
5.156304314e-05 13.68769197 72.3744014
5.156304314e-05 236.5369533 7.9202958
5.156304314e-05 81.64823107 32.7810194
5.156304314e-05 7.979068975 190.9171528
-63.62411614 -1.552508058e-05 -40.3835365
5.156304314e-05 98.60740897 -82.9992777
5.156304314e-05 55.91433537 214.6684384
5.156304314e-05 119.5293259 79.4422115
-122.7039167 -1.552508058e-05 236.8795831
5.156304314e-05 138.3674434 -231.2576475
5.156304314e-05 44.13387647 179.0791095
-164.9585946 -1.552508058e-05 59.2636323
5.156304314e-05 192.2251178 202.3985384
5.156304314e-05 210.649923 -96.3915924
-115.9507846 -1.552508058e-05 -126.7379136
-73.14303814 -1.552508058e-05 174.4202346
-181.563324 -1.552508058e-05 235.2687893
-79.18843294 -1.552508058e-05 79.5934707
5.156304314e-05 168.1628118 188.1129722
-67.60667074 72.21359737 -250
-162.5603177 -1.552508058e-05 -69.8382682
-66.03332294 -1.552508058e-05 -59.4684444
-21.10720644 145.1394668 -250
5.156304314e-05 125.0777124 189.5830034
5.156304314e-05 170.7435694 245.5144522
0.540848363 -1.552508058e-05 -239.3733043
5.156304314e-05 184.8877048 -126.8091275
-128.7933276 -1.552508058e-05 -205.7095888
-134.8735559 -1.552508058e-05 -10.3693946
-149.033677 -1.552508058e-05 118.8970999
-31.96536354 179.5454644 -250
-250.4830476 -1.552508058e-05 -122.8570447
5.156304314e-05 161.6828748 212.2436337
-220.3251414 241.9016332 -250
-183.176731 -1.552508058e-05 170.8107097
5.156304314e-05 0.6501519749 -223.9111133
5.156304314e-05 53.02183687 -192.8481146
-209.8357172 137.3599231 -250
5.156304314e-05 44.74257757 131.7848876
-232.7676155 148.6410931 -250
-69.49119744 39.86669937 -250
-97.51552184 135.3420139 -250
-240.8403529 -1.552508058e-05 -60.8956758
-87.78761624 -1.552508058e-05 -83.6075463
-85.96620384 -1.552508058e-05 198.3626227
5.156304314e-05 43.63194957 120.9738808
-185.5116565 25.68743067 -250
5.156304314e-05 158.8758737 -238.5575704
-155.8177042 36.75207347 -250
-75.31472264 0.3912743749 -250
-139.2361335 9.846113875 -250
-65.63202954 11.61897557 -250
5.156304314e-05 198.2743385 -238.9469786
-7.639587337 -1.552508058e-05 161.2340794
-224.7093433 83.24984227 -250
-144.0614808 26.33290727 -250
5.156304314e-05 222.7732135 -249.8558054
1.303239363 -1.552508058e-05 -52.5715802
-129.7176957 -1.552508058e-05 -29.0831158
-105.1309003 -1.552508058e-05 -26.758213
5.156304314e-05 240.8987007 194.3216592
5.156304314e-05 80.63811457 232.8274969
5.156304314e-05 215.4003199 246.2026776
-199.8064591 -1.552508058e-05 9.545518
5.156304314e-05 138.5517868 93.4803924
-56.68238074 -1.552508058e-05 243.5410631
5.156304314e-05 201.6739881 160.7412304
-241.160325 25.40438997 -250
-187.1366826 160.9894348 -250
5.156304314e-05 153.7003833 7.7177621
5.156304314e-05 0.3540577749 109.2800986
5.156304314e-05 233.7563755 -41.8854244
5.156304314e-05 122.2648976 52.9762146
5.156304314e-05 108.2278949 191.0230244
-8.598817537 -1.552508058e-05 20.7131529
-67.86176244 -1.552508058e-05 -26.0752036
-78.84034604 251.8658424 -250
-5.734513437 -1.552508058e-05 79.5514435
5.156304314e-05 104.5204813 -137.7845489
-8.708877037 244.2909118 -250
5.156304314e-05 223.9209971 144.1962531
5.156304314e-05 95.13896787 -61.2166155
-82.79779824 230.9972099 -250
-6.784768637 208.5940527 -250
-140.4890608 -1.552508058e-05 24.1943393
5.156304314e-05 117.2607413 -8.2204382
-9.118548737 5.676598475 -250
-163.4544645 -1.552508058e-05 73.6257547
-175.7253469 -1.552508058e-05 -111.6861821
-62.56630024 -1.552508058e-05 -145.3916585
5.156304314e-05 182.8826442 -23.8951843
-57.26764374 34.68207957 -250
5.156304314e-05 201.7849486 -193.9665859
5.156304314e-05 13.97978437 222.9560291
-206.8729947 -1.552508058e-05 -100.8446166
5.156304314e-05 98.30008917 114.2819309
5.156304314e-05 171.9553021 -108.1770654
-9.441682737 142.4885911 -250
-197.0318398 -1.552508058e-05 63.614163
-20.58315864 70.81752797 -250
5.156304314e-05 21.97383317 33.3888477
5.156304314e-05 76.71373527 -55.4909255
-7.723654237 -1.552508058e-05 96.7753402
-81.62751384 -1.552508058e-05 -224.3379214
5.156304314e-05 148.4058566 -198.5840838
5.156304314e-05 170.8638445 -159.3598649
-35.40847524 -1.552508058e-05 -208.1173929
5.156304314e-05 59.07403497 -43.6131884
-120.8784131 -1.552508058e-05 16.3813017
-25.23792164 -1.552508058e-05 27.2990407
5.156304314e-05 218.9289836 115.3675442
-116.4234539 49.99698447 -250
-88.35143024 -1.552508058e-05 -72.0299305
5.156304314e-05 231.8478883 56.5264549
5.156304314e-05 195.8090787 -117.6805559
5.156304314e-05 16.24666807 -236.7763841
-6.520930137 48.01546927 -250
-242.0748442 -1.552508058e-05 192.4437421
-55.86521364 -1.552508058e-05 80.6008531
5.156304314e-05 167.1514595 92.0297938
5.156304314e-05 151.4098555 -219.1300263
-143.1592111 -1.552508058e-05 128.7390695
-186.696582 -1.552508058e-05 -171.3561311
5.156304314e-05 42.73543607 149.7300644
-43.77757304 -1.552508058e-05 25.586606
5.156304314e-05 31.82580817 -92.8867548
5.156304314e-05 158.4050392 -2.5235065
5.156304314e-05 247.5224046 115.4467305
-31.40476434 -1.552508058e-05 -162.4166245
-33.03124164 242.0558799 -250
5.156304314e-05 94.91590347 -211.6777983
5.156304314e-05 112.8934763 -64.3206067
5.156304314e-05 121.5380511 -40.5790782
5.156304314e-05 24.94055097 185.3534188
-30.85684114 13.05011047 -250
-136.1993278 175.6874546 -250
5.156304314e-05 208.7827324 105.3013403
-165.9412221 -1.552508058e-05 29.7107513
5.156304314e-05 198.285633 35.0452026
-118.1045587 -1.552508058e-05 -58.7837505
-231.7389803 -1.552508058e-05 -174.6221237
-92.96391064 126.4806646 -250
-197.5585092 -1.552508058e-05 -244.1925081
-202.838154 -1.552508058e-05 91.3454489
5.156304314e-05 30.02545617 -63.3928896
-36.43935964 -1.552508058e-05 128.8293264
5.156304314e-05 203.7350596 129.9261588
-106.8386907 -1.552508058e-05 -240.4893582
5.156304314e-05 31.77295187 5.5892322
-197.3479402 -1.552508058e-05 -106.1725548
5.156304314e-05 141.5732742 -187.2570867
-204.8645207 -1.552508058e-05 -73.7314274
5.156304314e-05 180.6534074 106.7664469
-69.21546854 -1.552508058e-05 227.656958
-165.6444178 242.2851792 -250
-112.6797021 -1.552508058e-05 -156.568454
-54.31444514 -1.552508058e-05 -180.3265005
-142.8010533 -1.552508058e-05 -117.7864565
-115.1243186 146.660199 -250
-201.1091286 -1.552508058e-05 -123.9853905
-8.899609137 -1.552508058e-05 56.2237673
-178.7214049 180.4960327 -250
5.156304314e-05 93.32509647 73.2091555
-98.31806054 -1.552508058e-05 -87.4498386
5.156304314e-05 251.7662817 60.3399076
-227.5926637 -1.552508058e-05 -119.1107399
-181.4812597 60.53226197 -250
5.156304314e-05 221.2121597 -147.7564413
-86.59586434 -1.552508058e-05 -109.0254871
5.156304314e-05 196.494921 248.300228
0.795793163 -1.552508058e-05 -72.0769448
-171.2829533 56.25655167 -250
-195.4506117 -1.552508058e-05 -213.5518652
5.156304314e-05 93.81989567 19.7341029
-215.1515253 2.850075775 -250
-92.65138974 -1.552508058e-05 245.1911422
-73.30540204 -1.552508058e-05 248.613588
-62.29218794 -1.552508058e-05 8.6825522
5.156304314e-05 60.28559117 156.9974471
-184.3950392 -1.552508058e-05 -208.8268394
-66.14477654 -1.552508058e-05 20.2186439
-43.36772624 -1.552508058e-05 155.5082882
5.156304314e-05 211.5465845 -80.4837736
-172.933486 -1.552508058e-05 169.3391763
-199.3605153 -1.552508058e-05 21.8499854
-162.1327028 -1.552508058e-05 86.7305062
-84.39672394 -1.552508058e-05 -207.2877795
5.156304314e-05 186.1685749 49.9849208
-140.0073228 207.9654453 -250
-41.49414284 -1.552508058e-05 40.7940079
-192.9592327 -1.552508058e-05 217.2082503
-202.505886 -1.552508058e-05 -16.1891066
5.156304314e-05 251.4813425 212.5315941
-50.93319304 248.0164866 -250
5.156304314e-05 112.9270281 -191.5206192
-252.3569156 59.29281027 -250
-207.6249878 102.588849 -250
-136.5771966 -1.552508058e-05 1.7944903
5.156304314e-05 48.35881767 -240.5141666
5.156304314e-05 178.6182705 203.7387832
-39.19855854 -1.880345325 -250
5.156304314e-05 250.4037093 -96.5429569
-80.17400634 -1.552508058e-05 223.7390127
-236.7527521 -1.552508058e-05 -51.8973245
5.156304314e-05 85.50466577 -147.7691805
5.156304314e-05 24.15574187 92.869508
-25.50259234 -1.552508058e-05 239.1449155
-99.21768564 152.8554536 -250
5.156304314e-05 102.6825702 80.7916379
-224.7412697 72.27001667 -250
-53.89426234 70.53084017 -250
-86.78518804 39.21095267 -250
5.156304314e-05 101.1283987 -40.063259
-140.2044345 -1.552508058e-05 -190.3124181
5.156304314e-05 92.96586177 103.9877204
-126.9196158 106.5199587 -250
-111.7454458 170.317562 -250
-37.82739434 -1.552508058e-05 -155.3465168
-126.6920435 -1.552508058e-05 77.7962283
-249.0669804 -1.552508058e-05 -37.3538517
-62.80777414 161.2670012 -250
-128.15757 -1.552508058e-05 -61.6065762
5.156304314e-05 247.2836544 9.8444595
5.156304314e-05 144.1458612 149.2767621
-26.88854174 -1.552508058e-05 -180.0687511
-158.6426841 -1.552508058e-05 -38.9103133
5.156304314e-05 120.4881633 63.1394657
-77.06070414 -1.552508058e-05 238.177129
-79.28278944 118.4409474 -250
5.156304314e-05 227.0882355 8.8837336
-104.9481597 -1.552508058e-05 151.7776131
5.156304314e-05 162.3363748 -75.9057165
-232.6597791 -1.552508058e-05 96.9798978
-114.5684231 -1.552508058e-05 -14.1490447
-176.0304502 -1.552508058e-05 -240.6129526
5.156304314e-05 48.18291527 -12.9906341
5.156304314e-05 72.15960217 205.5908704
-250.3648456 -1.552508058e-05 101.3369321
-176.22188 -1.552508058e-05 -41.7749618
-23.29139794 -1.552508058e-05 -239.8250661
-142.624641 -1.552508058e-05 77.6616289
-129.808056 82.16912307 -250
-212.1460339 175.2536165 -250
-201.8122143 37.41707947 -250
-209.8617653 116.8404426 -250
5.156304314e-05 214.655833 -139.0730436
-142.2037757 128.9999269 -250
5.156304314e-05 111.6138733 -234.8663255
-37.67544424 49.35803187 -250
-26.08112204 -1.552508058e-05 85.8574044
-80.03055224 -1.552508058e-05 6.2417224
-27.34347944 -1.552508058e-05 208.3629653
-213.343046 -1.552508058e-05 -84.1932492
-71.02592194 -1.552508058e-05 48.4983072
-219.022285 -1.552508058e-05 127.4280138
-226.066052 197.7195016 -250
5.156304314e-05 239.83637 122.1169175
-70.72092604 -1.552508058e-05 -202.996451
-143.5217996 -1.552508058e-05 218.8063523
-154.9550906 241.1154518 -250
-225.4312493 -1.552508058e-05 -147.3995284
5.156304314e-05 109.7527288 17.8124282
-191.5579905 66.86211657 -250
5.156304314e-05 169.914845 -10.3924697
-233.6164399 -1.552508058e-05 -213.5797202
5.156304314e-05 244.4862282 -1.9542206
5.156304314e-05 139.5225879 139.6919222
5.156304314e-05 223.9791089 219.0153612
-202.5904297 -1.552508058e-05 -156.8125619
5.156304314e-05 189.914932 101.116659
-208.4288606 -1.552508058e-05 118.8114255
0.886941963 -1.552508058e-05 -125.0672455
-131.5145731 -1.552508058e-05 -158.7569926
-42.05421704 -1.552508058e-05 -45.0828268
-97.30563724 -1.552508058e-05 -43.6323936
5.156304314e-05 86.79085827 239.8940001
-247.8160956 -1.552508058e-05 -236.1794199
5.156304314e-05 43.70547927 -89.8276734
5.156304314e-05 115.7716936 240.248733
-163.6152491 -1.552508058e-05 11.1388374
5.156304314e-05 250.3829144 88.7752608
5.156304314e-05 60.24229687 144.1002371
-140.4423811 -1.552508058e-05 -176.1376662
-122.5203581 126.0357953 -250
-84.50570034 -1.552508058e-05 89.1607367
-182.0846157 108.9866089 -250
5.156304314e-05 68.18825267 184.2028316
5.156304314e-05 233.912407 227.414535
5.156304314e-05 62.48942247 -0.0478474
-18.37041464 -1.552508058e-05 -123.4269576
-119.2792894 -1.552508058e-05 192.3712507
5.156304314e-05 84.87152207 -46.6136055
-240.7361481 181.3324004 -250
-13.52191954 -1.552508058e-05 37.3353726
5.156304314e-05 166.2069238 -85.3553659
-102.0855053 -1.552508058e-05 218.3331755
-233.9694289 -1.552508058e-05 -8.6868981
-114.0206835 94.46622387 -250
5.156304314e-05 101.2771802 148.9772131
5.156304314e-05 221.9992006 -207.9015891
5.156304314e-05 84.64746037 224.0578984
-180.7052566 -1.552508058e-05 134.1494729
-34.35338344 -1.552508058e-05 29.1058963
-177.3607061 -1.552508058e-05 -5.0043132
5.156304314e-05 122.0828208 -110.761434
-63.11725394 89.39744277 -250
1.563039063 194.0982279 -250
-86.29220434 206.8811062 -250
0.09137276304 173.6554748 -250
5.156304314e-05 58.14856937 65.3497545
5.156304314e-05 76.39847787 -173.1515167
5.156304314e-05 213.9752505 58.2600121
5.156304314e-05 245.6853491 231.849304
-128.0529655 -1.552508058e-05 95.0445336
5.156304314e-05 86.99355137 121.70832
5.156304314e-05 126.125806 -148.754159
-103.3617645 -1.552508058e-05 71.0768107
-116.3681009 -1.552508058e-05 152.3429116
5.156304314e-05 9.189385775 -114.4304656
-11.75635664 75.87748877 -250
-195.2414214 -1.552508058e-05 -190.84587
-251.2446966 -1.552508058e-05 -15.2750641
-145.6123106 -1.552508058e-05 -165.9339783
-30.32279074 231.0252335 -250
5.156304314e-05 30.38685147 -170.7114529
5.156304314e-05 84.98452977 -64.8458562
-220.7610148 -1.552508058e-05 182.3279137
-131.8999491 -1.552508058e-05 161.7641421
5.156304314e-05 84.94224067 -24.157802
-250.3271068 -1.552508058e-05 0.6538925
-104.1424677 128.9186029 -250
-156.5483181 -1.552508058e-05 -195.7035579
-159.1476098 -1.552508058e-05 -210.7590524
-26.16872654 -1.552508058e-05 192.4125373
-226.0619054 125.4113644 -250
5.156304314e-05 111.3547679 93.26365
-31.59514394 -1.552508058e-05 -78.4541184
5.156304314e-05 218.3617909 227.2587154
-118.2637287 31.83527047 -250
-241.5188934 51.79401027 -250
5.156304314e-05 151.5663886 217.8898514
-46.23834384 -1.552508058e-05 -201.5663033
-164.2346209 144.4434028 -250
5.156304314e-05 240.512695 -203.7340877
