# .PCD v0.7 - Point Cloud Data file format
VERSION 0.7
FIELDS x y z
SIZE 4 4 4
TYPE F F F
COUNT 1 1 1
WIDTH 1267
HEIGHT 1
VIEWPOINT 0 0 0 1 0 0 0
POINTS 1267
DATA ascii
-3.364579112e-05 9.078843 146.8336313
232.8870409 92.1345032 6.292566468e-11
55.74348165 69.8684846 6.292566468e-11
30.67434475 250 58.79809506
-1.138568646 -250 146.7446714
-3.364579112e-05 -45.4475416 215.4465542
59.40617095 250 36.37746877
8.551823354 -8.3757761 6.292566468e-11
207.4301805 -14.9686598 6.292566468e-11
84.69361315 -85.5376436 6.292566468e-11
219.9141515 -49.1539717 6.292566468e-11
111.14164 -178.9605667 6.292566468e-11
138.2956482 -142.7235247 6.292566468e-11
-3.364579112e-05 135.4373684 217.7196184
172.0490276 -16.5088478 6.292566468e-11
91.46402325 250 208.7253736
30.71016915 -223.9948096 6.292566468e-11
160.5260861 153.36302 6.292566468e-11
207.8662585 250 135.9457895
145.2969661 134.4119127 6.292566468e-11
37.10894085 -151.2088405 6.292566468e-11
146.3079173 -95.330508 6.292566468e-11
67.39192175 186.4623205 6.292566468e-11
202.4412633 -183.0759117 6.292566468e-11
-3.364579112e-05 22.4899531 7.96297625
-3.364579112e-05 113.9407146 4.88162704
75.72597935 -47.5833633 6.292566468e-11
-2.384579746 250 152.889794
194.9329968 250 16.47758654
-3.364579112e-05 -38.5418912 54.21973121
-3.364579112e-05 205.2870821 201.5421891
-3.364579112e-05 157.6349914 77.8833906
120.6363405 250 16.66767726
-3.364579112e-05 -159.2524065 158.5414342
70.07389035 -206.0601932 6.292566468e-11
-3.364579112e-05 158.2566559 112.0381443
-3.364579112e-05 125.9846114 126.7618628
24.20055115 250 27.70879549
110.5776822 250 51.60450519
62.97046625 264.728645 6.292566468e-11
-3.364579112e-05 6.8860288 252.0819188
139.8261879 250 44.1143133
80.87231995 250 192.7660499
173.4741282 -141.1242662 6.292566468e-11
-3.364579112e-05 -113.2453114 15.16066638
-3.364579112e-05 -224.2055682 150.7604639
-3.364579112e-05 62.2554978 153.836389
-3.364579112e-05 -16.7830481 118.1551127
-3.364579112e-05 112.6664095 203.2116814
-3.364579112e-05 -86.0560848 178.0288752
44.07662085 250 137.5872418
81.57001955 -15.5903255 6.292566468e-11
194.7486245 250 198.1620918
-3.364579112e-05 191.9184366 132.9343314
-3.364579112e-05 -78.0290285 203.9289365
133.2360198 255.5057698 6.292566468e-11
232.3998063 145.5249569 6.292566468e-11
96.91811455 -43.7025428 6.292566468e-11
-3.364579112e-05 -108.6114789 90.8244434
-3.364579112e-05 -220.6025389 216.43171
-3.364579112e-05 112.869934 142.3773763
25.31643865 -124.7520615 6.292566468e-11
212.5078705 230.3784814 6.292566468e-11
137.2681185 250 155.6412978
98.21745765 48.427901 6.292566468e-11
170.0679491 -211.4764174 6.292566468e-11
27.64448675 90.5635854 6.292566468e-11
-3.364579112e-05 84.0046197 154.600065
-3.364579112e-05 -212.6233283 127.7252346
114.7605295 -92.2729422 6.292566468e-11
80.34961495 -186.1092984 6.292566468e-11
76.32757855 36.8078021 6.292566468e-11
61.11430165 -104.0251719 6.292566468e-11
-3.364579112e-05 -122.1040556 61.4146135
97.58240945 -206.6484198 6.292566468e-11
105.8362974 128.5496842 6.292566468e-11
234.2599656 231.7119845 6.292566468e-11
33.53939715 250 154.4521097
-3.364579112e-05 243.9857679 38.06868237
-3.364579112e-05 -40.1284947 147.9253346
150.6684755 -229.1902082 6.292566468e-11
182.3470768 -91.2322352 6.292566468e-11
57.52502055 -126.1083246 6.292566468e-11
192.8756769 272.8919144 6.292566468e-11
86.47929925 250 112.6889411
83.03672145 92.3830036 6.292566468e-11
157.2366725 264.0452753 6.292566468e-11
89.49026425 250 145.8048802
-3.364579112e-05 217.5407583 83.912375
-3.364579112e-05 2.3904849 49.70129568
133.4266045 170.520747 6.292566468e-11
41.09357715 -67.5032164 6.292566468e-11
-3.364579112e-05 3.9380697 20.92503708
-3.364579112e-05 46.8075844 193.6799178
41.09280245 35.3754209 6.292566468e-11
240.7641474 -59.8385547 6.292566468e-11
-3.364579112e-05 -27.3133545 178.6222186
55.33921685 96.5838137 6.292566468e-11
236.4232129 250 104.1812211
15.39389665 -193.2488788 6.292566468e-11
-3.364579112e-05 -166.7805393 242.7385728
-3.364579112e-05 126.7328303 52.58163405
232.8157477 -205.1928672 6.292566468e-11
-3.364579112e-05 33.0891933 66.9496006
-3.364579112e-05 93.2847304 174.4015155
27.91196235 122.8682294 6.292566468e-11
-3.364579112e-05 -96.8706429 59.56141991
-3.364579112e-05 184.9143048 53.87383806
125.706572 250 33.21975939
-3.364579112e-05 -203.4402388 57.63130935
-3.364579112e-05 -148.5238466 226.858379
44.88750035 250 49.1651944
249.6237828 81.9619932 6.292566468e-11
236.7404066 -238.1988603 6.292566468e-11
-3.364579112e-05 206.880219 165.2039175
160.8171125 120.1068152 6.292566468e-11
-3.364579112e-05 149.207747 128.6934204
-3.364579112e-05 42.6321769 143.9454892
-3.364579112e-05 76.1333805 196.1510601
153.7444864 250 34.08172095
-0.3190653458 250 190.7409141
-3.364579112e-05 15.8409702 233.4546963
14.04009865 53.0926512 6.292566468e-11
-3.364579112e-05 95.0853825 49.75684972
17.89187425 187.7246674 6.292566468e-11
67.47523675 250 79.9651938
168.9064974 250 7.88879119
125.2860893 41.0234061 6.292566468e-11
-3.364579112e-05 37.141084 174.2044593
149.5024317 250 137.3740735
83.64788975 250 91.1342296
177.1922644 250 138.2064338
-3.364579112e-05 217.8917743 60.8073003
242.7361861 -18.9077067 6.292566468e-11
179.462493 146.981297 6.292566468e-11
-3.364579112e-05 -144.8253703 116.0025495
76.90003065 14.3778017 6.292566468e-11
1.499768654 250 232.0967926
-3.364579112e-05 101.0561566 102.3120898
-3.364579112e-05 -183.5860444 18.3615369
-3.364579112e-05 -88.4149486 111.4613695
149.800464 40.369073 6.292566468e-11
-3.364579112e-05 141.1468138 199.0643816
-0.6677540458 263.2157914 6.292566468e-11
-3.364579112e-05 227.865597 243.6421536
135.1508007 250 252.3379841
-3.364579112e-05 84.0763654 83.1575989
57.00766535 250 112.4418861
121.9184669 149.2471738 6.292566468e-11
51.92725615 232.7875749 6.292566468e-11
114.8917032 -122.2437594 6.292566468e-11
-3.364579112e-05 -234.0940307 32.41480507
-3.364579112e-05 197.9258087 252.1128662
105.4621409 70.5745687 6.292566468e-11
52.24187145 250 189.9430732
-3.364579112e-05 -11.8935042 12.74081453
63.88588335 250 14.87545103
81.28115095 255.9616429 6.292566468e-11
-3.364579112e-05 -130.9592413 251.4836014
186.4547908 250 247.2596844
226.7778962 178.374962 6.292566468e-11
179.2991044 250 190.2091618
-3.364579112e-05 116.0551479 41.1634943
-3.364579112e-05 136.9559106 89.4724121
-3.364579112e-05 -55.5102263 25.19588193
236.3608542 205.1236722 6.292566468e-11
69.66131815 205.6295963 6.292566468e-11
183.2338972 250 81.7550297
-3.364579112e-05 46.8496881 222.1485423
170.8478982 -250 -1.59825904
146.5893792 -158.0114945 6.292566468e-11
-3.364579112e-05 -207.3398561 12.40313066
143.2964315 250 189.8100939
212.0582705 -207.4483984 6.292566468e-11
10.93165745 -116.2819511 6.292566468e-11
-3.364579112e-05 -85.8651068 6.64148777
-3.364579112e-05 -176.4674668 84.4128641
141.0989469 250 223.4966
69.21509255 250 219.5293872
206.45942 -67.9506195 6.292566468e-11
26.94007885 273.3495109 6.292566468e-11
201.0483665 74.2941961 6.292566468e-11
-3.364579112e-05 124.6192623 235.9423794
100.5523943 15.4370138 6.292566468e-11
-3.364579112e-05 122.7945743 67.4004353
-3.364579112e-05 171.7347171 45.40515428
-3.364579112e-05 -117.1862558 136.7693237
-3.364579112e-05 -191.7204634 184.3314853
-3.364579112e-05 18.6844559 41.08186668
-3.364579112e-05 -152.4617412 178.6923609
141.9221287 8.1987078 6.292566468e-11
62.74401925 250 163.5007152
-3.364579112e-05 58.1988611 48.35940527
193.7937427 53.5725665 6.292566468e-11
36.17084265 -3.2176041 6.292566468e-11
15.15614005 239.4983952 6.292566468e-11
174.0421028 85.0362726 6.292566468e-11
-3.364579112e-05 -115.7141062 31.89680005
-3.364579112e-05 57.5430768 172.5881976
158.0575159 -39.2664188 6.292566468e-11
186.3335329 250 166.101448
162.3760804 250 232.3190547
127.3124209 -53.4153694 6.292566468e-11
91.31713135 -175.6666708 6.292566468e-11
-3.364579112e-05 -166.6152306 197.918578
94.22336405 -138.1174061 6.292566468e-11
206.1099977 129.3359534 6.292566468e-11
53.43922405 -76.6848293 6.292566468e-11
146.714952 74.9629037 6.292566468e-11
-3.364579112e-05 62.468538 116.5640045
241.7692553 -162.7505415 6.292566468e-11
-3.364579112e-05 245.2370618 106.4888508
-3.364579112e-05 106.7651735 73.1436682
-3.364579112e-05 -73.337547 103.9281978
13.43582605 8.8881928 6.292566468e-11
60.89768855 -44.9104886 6.292566468e-11
99.12226455 250 64.0575998
-3.364579112e-05 36.5930516 204.6856819
38.32174055 146.9915561 6.292566468e-11
-3.364579112e-05 -114.7234132 246.7975828
-3.364579112e-05 -13.302718 221.0759738
45.81801405 248.7164575 6.292566468e-11
102.7767487 203.1335836 6.292566468e-11
92.31687075 250 34.9936699
-3.364579112e-05 -87.1515294 229.6674911
117.1474493 250 207.1010958
163.1940703 250 85.5438086
251.0965816 250 180.2244018
-3.364579112e-05 -19.1273666 43.87545573
-3.364579112e-05 176.1166404 206.0277098
183.807548 113.5452618 6.292566468e-11
-3.364579112e-05 -19.1210598 166.2382972
216.4412745 -82.7188291 6.292566468e-11
163.4203001 250 247.7633067
231.4935931 250 40.35532018
236.6449095 -74.0842105 6.292566468e-11
235.692019 250 8.53182569
-3.364579112e-05 -50.5952856 158.4113238
87.61215445 118.1535671 6.292566468e-11
73.66835335 250 120.1171114
0.1988780542 58.3528427 6.292566468e-11
9.681716054 -94.8738969 6.292566468e-11
-3.364579112e-05 -67.30251 170.8638047
67.79402325 232.7565974 6.292566468e-11
211.2642445 250 234.2067462
-3.364579112e-05 -152.0312464 211.3190702
44.14835155 59.5739756 6.292566468e-11
105.0019075 250 178.8705066
-3.364579112e-05 -154.6029799 55.68391263
199.7082633 -111.3213326 6.292566468e-11
-3.364579112e-05 -247.5960921 122.3270128
63.07777415 250 143.0766157
153.5840456 250 111.0917281
-3.364579112e-05 -249.0108129 212.8276048
-3.364579112e-05 191.1373823 196.5112924
-3.364579112e-05 36.5727091 242.6496433
-3.364579112e-05 -196.6493996 240.5982266
151.6576673 250 158.2004651
217.0517148 151.6904758 6.292566468e-11
251.8877489 250 108.8831603
-3.364579112e-05 28.0120765 118.6590482
181.1319421 249.0501086 6.292566468e-11
-3.364579112e-05 -106.7234968 202.5626849
-3.364579112e-05 -156.5415845 144.2619966
231.4832523 250 88.0650651
-3.364579112e-05 234.1071682 208.8873336
35.58290775 -100.0292951 6.292566468e-11
65.56838345 -138.1651723 6.292566468e-11
131.6390636 250 72.118193
60.26736245 -164.7503043 6.292566468e-11
-3.364579112e-05 -45.8202513 124.7375886
-3.364579112e-05 -197.2638797 199.0461055
89.96690975 -112.2077002 6.292566468e-11
50.45338865 250 22.76177655
-3.364579112e-05 234.4198899 178.3896114
141.3001222 184.6978769 6.292566468e-11
200.6177584 250 48.91241151
187.6330281 250 216.5215962
182.3769799 250 30.195594
245.6395921 261.6473587 6.292566468e-11
-3.364579112e-05 -24.4006296 74.6714975
118.1633687 250 67.0424254
-3.364579112e-05 -183.53522 110.6163166
-3.364579112e-05 -75.7275158 59.73288185
-3.364579112e-05 42.9481691 20.36060579
-3.364579112e-05 49.8989888 71.0981782
166.0656828 219.8201578 6.292566468e-11
9.609955454 -237.646069 6.292566468e-11
156.7004864 -9.3368441 6.292566468e-11
224.8116273 -175.7768046 6.292566468e-11
-3.364579112e-05 246.523191 73.0763594
44.56602795 -25.3490201 6.292566468e-11
29.38442525 250 112.8704033
31.04278025 250 43.86288746
208.7354798 250 28.83031438
197.2256839 102.1879835 6.292566468e-11
99.68705995 250 238.0722009
125.7489179 -149.2143197 6.292566468e-11
33.32377245 259.020477 6.292566468e-11
-3.364579112e-05 204.0697386 230.0387641
49.03268155 -182.3738443 6.292566468e-11
140.1297177 -170.6145772 6.292566468e-11
-3.364579112e-05 -209.80675 75.4566005
131.339991 250 181.0634598
191.3404419 -148.8283406 6.292566468e-11
125.1465021 -179.946993 6.292566468e-11
98.66462635 250 119.662001
219.2644171 259.2527299 6.292566468e-11
230.2964408 250 213.014244
-3.364579112e-05 -62.0971296 246.4272594
51.08096805 205.066815 6.292566468e-11
137.9618798 47.8023724 6.292566468e-11
-3.364579112e-05 116.4282922 109.8824013
36.90639825 -209.1474275 6.292566468e-11
-3.364579112e-05 -150.6093768 24.92123028
-3.364579112e-05 -199.0922178 85.5723377
-3.364579112e-05 150.6877556 161.9499592
182.1823423 -121.1715661 6.292566468e-11
-3.364579112e-05 -224.3556726 246.502287
228.2955711 -119.3755141 6.292566468e-11
-3.364579112e-05 74.1026038 50.64112776
234.0962649 250 196.4935356
-3.364579112e-05 209.4915051 12.84273456
-3.364579112e-05 -133.6391415 161.8198487
105.8708929 -111.7043158 6.292566468e-11
-3.364579112e-05 227.6304365 31.40305223
218.168688 -4.4897187 6.292566468e-11
55.23101855 -205.5510939 6.292566468e-11
-3.364579112e-05 -86.565926 126.9993981
32.21656575 250 247.9354724
-3.364579112e-05 -14.69349 237.4034597
218.8607124 19.5610361 6.292566468e-11
10.89594375 250 80.7512679
135.7390102 -23.960778 6.292566468e-11
113.9926795 250 100.4704076
238.643859 -190.9697322 6.292566468e-11
-3.364579112e-05 63.9165447 27.73042941
-3.364579112e-05 -210.1644484 35.64806433
184.2848272 -44.2128253 6.292566468e-11
237.61296 -143.2771052 6.292566468e-11
7.647297254 175.5075128 6.292566468e-11
234.8720531 250 151.043255
127.1504203 250 217.5603787
205.0559398 243.4837436 6.292566468e-11
33.22118725 -43.3314435 6.292566468e-11
-3.364579112e-05 172.6774602 74.1149017
167.5422402 171.6742091 6.292566468e-11
103.6394208 -13.4037329 6.292566468e-11
207.2579824 183.3430884 6.292566468e-11
-3.364579112e-05 177.2631983 136.3111862
152.2645227 -73.1890083 6.292566468e-11
-3.364579112e-05 189.3500126 85.5598853
113.8333083 -164.0453288 6.292566468e-11
158.4423538 236.3681572 6.292566468e-11
-3.364579112e-05 -36.5354297 241.3868394
123.3806451 179.6117762 6.292566468e-11
163.6819307 -232.9401275 6.292566468e-11
13.39457905 250 131.138839
-3.364579112e-05 -236.7515369 72.3223552
15.52644345 150.4809902 6.292566468e-11
191.2180322 165.5888557 6.292566468e-11
232.101184 -104.1816417 6.292566468e-11
142.191099 250 82.5115085
12.39291915 73.4457784 6.292566468e-11
142.3833584 -203.113553 6.292566468e-11
80.17375405 182.1685602 6.292566468e-11
-3.364579112e-05 -163.0892075 86.0315033
15.70293495 250 220.8591002
-3.364579112e-05 -249.7702843 91.4347679
-3.364579112e-05 -177.7164812 233.470576
213.0899351 -232.2037441 6.292566468e-11
-3.364579112e-05 149.4482487 33.3290193
-3.364579112e-05 66.8949285 221.9929207
215.4321259 250 66.1282206
107.5235356 250 146.953502
84.00209765 75.7712722 6.292566468e-11
204.904151 198.6362337 6.292566468e-11
-3.364579112e-05 -173.9557502 212.60625
-3.364579112e-05 28.3661507 146.1144915
-3.364579112e-05 199.2934081 114.7808771
19.24402755 250 164.9794047
252.3761132 126.8325731 6.292566468e-11
57.94785815 114.4788832 6.292566468e-11
22.35397805 -1.0780489 6.292566468e-11
-3.364579112e-05 -170.9104488 134.783734
183.3109947 0.6809309001 6.292566468e-11
-3.364579112e-05 -137.7028683 87.4690072
180.4213687 -202.0777423 6.292566468e-11
113.7655471 117.821462 6.292566468e-11
32.54344085 158.9871734 6.292566468e-11
-3.364579112e-05 138.3598131 186.0650583
-3.364579112e-05 -191.4260949 148.9360351
-3.364579112e-05 -190.0043456 134.1421625
78.71068115 -233.2199869 6.292566468e-11
-3.364579112e-05 -217.6566534 172.8614238
-3.364579112e-05 -152.4997378 105.1785578
-3.364579112e-05 -56.0021416 75.4275202
-3.364579112e-05 240.00344 141.6095353
-3.364579112e-05 -138.6987246 69.6559999
181.3739753 48.8647536 6.292566468e-11
84.08046545 250 11.48389839
-3.364579112e-05 -72.5353006 90.0046707
-3.364579112e-05 -130.1774154 187.5280212
-3.364579112e-05 101.4461353 251.7876294
116.5828705 -27.9139643 6.292566468e-11
45.45127475 -88.820025 6.292566468e-11
-3.364579112e-05 -104.0255368 230.5598154
122.640401 -74.3205262 6.292566468e-11
123.2678893 250 149.3518907
-3.364579112e-05 -229.1386158 114.7947716
144.6002737 250 123.6992265
-3.364579112e-05 75.1910976 94.9774184
229.2133037 -39.8687511 6.292566468e-11
-3.364579112e-05 233.8989638 155.730906
-3.364579112e-05 -237.3759274 219.5417862
23.93603265 -70.1240578 6.292566468e-11
-3.364579112e-05 -82.942643 191.7828183
76.09685375 250 167.7905501
-3.364579112e-05 23.740054 86.4152392
34.91810625 250 192.0310989
214.1321976 250 179.3648024
-3.364579112e-05 92.1364455 29.22352935
-3.364579112e-05 -179.1293233 180.7473666
41.87156785 96.8616987 6.292566468e-11
-3.364579112e-05 -21.9960664 106.1617723
-3.364579112e-05 217.0543318 43.35674006
152.6105431 -188.2877661 6.292566468e-11
-3.364579112e-05 -36.422659 114.0720452
-3.364579112e-05 -229.6031745 12.3541583
-3.364579112e-05 221.4572953 179.7082697
11.37942985 -60.249822 6.292566468e-11
139.4045592 223.7675131 6.292566468e-11
173.0758548 -101.517591 6.292566468e-11
64.40598315 -17.1389453 6.292566468e-11
202.2279285 250 106.928358
235.4101848 250 169.8986238
162.8673122 183.7639111 6.292566468e-11
127.7495539 9.4247241 6.292566468e-11
-3.364579112e-05 -238.6962307 241.8758714
-3.364579112e-05 10.6368316 99.1355043
91.84624785 103.4638374 6.292566468e-11
-3.364579112e-05 214.8091817 192.6348064
114.7334543 86.8770792 6.292566468e-11
20.90232435 -88.4809155 6.292566468e-11
17.80687525 250 205.0206638
117.0238445 20.1416539 6.292566468e-11
-3.364579112e-05 33.4797544 37.95400716
131.4352808 140.5894748 6.292566468e-11
168.6341312 250 218.7919937
239.7873106 250 116.7722486
34.62458605 250 226.6001149
106.0198009 250 89.7470163
-3.364579112e-05 -52.5259322 0.3645631301
190.2075254 -219.7967986 6.292566468e-11
187.0203819 250 129.2413831
239.4281729 219.9856784 6.292566468e-11
-3.364579112e-05 17.8156085 192.1785797
108.4095447 -199.8014848 6.292566468e-11
-3.364579112e-05 103.3417073 187.8215487
52.84802465 175.4881419 6.292566468e-11
-3.364579112e-05 104.9567462 13.94032695
13.33780985 95.919213 6.292566468e-11
179.7841846 250 150.6888686
-3.364579112e-05 -128.1204399 117.356005
-3.364579112e-05 170.9507001 103.0392645
-3.364579112e-05 -127.4657262 36.73039242
-3.364579112e-05 -31.6910906 41.98241268
33.50486465 22.6753383 6.292566468e-11
-3.364579112e-05 -17.2860594 194.7199221
-3.364579112e-05 146.8669277 63.2818685
126.6208269 250 99.3360834
139.8428175 -215.8083185 6.292566468e-11
49.49346235 -55.7592336 6.292566468e-11
-3.364579112e-05 -145.3057751 135.9184093
118.1268048 224.9946666 6.292566468e-11
-3.364579112e-05 -89.9120222 148.2374703
-3.364579112e-05 162.1776999 234.4545693
155.6327305 -128.1680986 6.292566468e-11
172.8205933 -176.7982826 6.292566468e-11
97.75038525 224.1528311 6.292566468e-11
40.64211375 250 94.2403273
56.32690165 -31.9147049 6.292566468e-11
69.65365645 -154.6946309 6.292566468e-11
9.742244754 21.7359655 6.292566468e-11
76.32055515 250 62.8115539
252.245611 -98.359558 6.292566468e-11
-3.364579112e-05 1.9373936 86.9780973
15.53517655 125.2161003 6.292566468e-11
26.29725575 250 100.6584395
-3.364579112e-05 197.7836201 102.2887893
-3.364579112e-05 170.7513796 32.87115883
-3.364579112e-05 -88.9193103 250.8931604
149.4385812 210.927766 6.292566468e-11
-3.364579112e-05 147.9563289 216.9269892
24.25521135 42.779114 6.292566468e-11
-3.364579112e-05 125.4371696 205.3435878
123.7469417 250 45.60205662
9.128704654 -204.1060767 6.292566468e-11
34.01491885 250 77.5081922
20.00362565 250 250.7327907
64.37426045 14.5170833 6.292566468e-11
67.56754795 -73.6553432 6.292566468e-11
-3.364579112e-05 9.2512312 134.3254403
-3.364579112e-05 82.3541115 180.4732927
-3.364579112e-05 197.1909021 58.1615579
-3.364579112e-05 -92.2417533 39.85549165
-3.364579112e-05 70.4595127 238.0971076
-3.364579112e-05 219.820713 122.9762959
-3.364579112e-05 -232.3040963 47.70890836
125.7824262 -212.6284268 6.292566468e-11
174.8844654 68.4974024 6.292566468e-11
-3.364579112e-05 -24.2129975 32.04848164
168.9862919 250 112.410665
-3.364579112e-05 105.6537152 226.8660794
71.49477415 250 133.9339953
-3.364579112e-05 132.4548786 162.7869958
213.8377706 250 111.8041398
-3.364579112e-05 -109.819479 123.6980182
-3.364579112e-05 48.5934223 87.0615736
-3.364579112e-05 -90.5932932 205.2487354
-3.364579112e-05 83.4819464 246.3212114
206.6977902 -196.2758641 6.292566468e-11
149.2104096 -47.9431051 6.292566468e-11
216.2075239 -137.4628143 6.292566468e-11
47.82713885 -230.7209022 6.292566468e-11
191.7935863 202.1774288 6.292566468e-11
237.4582647 250 225.4330263
98.99745495 -228.2873419 6.292566468e-11
245.2929042 250 18.6683044
-3.364579112e-05 223.5701663 110.4896078
-3.364579112e-05 -221.0619177 99.0161191
-3.364579112e-05 183.2120028 25.64298139
82.78507065 250 237.3181215
-3.364579112e-05 -184.4068406 66.0058926
153.3846846 59.2426766 6.292566468e-11
103.4780695 167.9162902 6.292566468e-11
91.11439605 207.0998637 6.292566468e-11
246.2523111 250 199.805704
123.4067818 250 248.678024
-3.364579112e-05 -243.0626666 24.00722319
183.4302347 -237.3458908 6.292566468e-11
122.5969513 -2.1772683 6.292566468e-11
-3.364579112e-05 77.6396008 128.5080798
9.906491054 -136.0588773 6.292566468e-11
-3.364579112e-05 -194.1828393 12.18647014
-3.364579112e-05 31.1012679 97.2128993
109.0704988 250 20.67580809
97.23044155 186.5073389 6.292566468e-11
-3.364579112e-05 -127.1359749 143.8488596
211.662961 38.2077397 6.292566468e-11
-1.329053746 -250 49.11145442
83.77768475 -157.6901307 6.292566468e-11
-3.364579112e-05 176.2927571 122.0847518
216.0425111 139.5443645 6.292566468e-11
-3.364579112e-05 33.554078 129.5123857
-3.364579112e-05 -170.68403 56.43567213
-3.364579112e-05 -224.7443888 192.338794
-3.364579112e-05 48.0186682 56.2080439
195.5295108 -236.3162687 6.292566468e-11
-3.364579112e-05 -99.1796359 105.8555597
248.7036338 -236.1622228 6.292566468e-11
-3.364579112e-05 -62.0891126 108.4811268
-3.364579112e-05 87.7747396 103.3291611
221.6099905 274.8338166 6.292566468e-11
-3.364579112e-05 77.1518812 69.3266706
-3.364579112e-05 240.9563937 239.9969574
77.62342965 124.9806397 6.292566468e-11
224.2652121 81.4100999 6.292566468e-11
-3.364579112e-05 -163.0151317 112.8071987
96.95700155 157.0639317 6.292566468e-11
55.17475775 250 202.6636595
-3.364579112e-05 -60.3129475 127.6095047
131.0693651 -236.8761694 6.292566468e-11
232.9916172 250 127.3214024
237.2028315 131.2878303 6.292566468e-11
114.4610572 250 240.5981625
-3.364579112e-05 70.1165133 14.57004698
37.35764785 250 125.5397167
208.4368014 -99.375902 6.292566468e-11
-3.364579112e-05 -48.8908792 94.8093632
235.7418268 -3.1289404 6.292566468e-11
241.4898374 243.8382587 6.292566468e-11
-3.364579112e-05 129.0284204 80.4521044
120.6359388 250 125.8834714
-3.364579112e-05 -76.374417 13.98492851
150.0807973 250 231.4408999
-3.364579112e-05 -202.1535329 107.4197629
-3.364579112e-05 167.769908 196.8297434
146.417929 250 13.72904771
-3.364579112e-05 -101.5039383 12.86077609
32.28953495 -238.6495743 6.292566468e-11
-3.364579112e-05 -30.1505009 211.9924918
-3.364579112e-05 238.0812192 8.05240136
-3.364579112e-05 -65.2262174 143.000899
233.5037353 -217.1028329 6.292566468e-11
37.55768875 198.5568976 6.292566468e-11
202.0354957 62.4087732 6.292566468e-11
-3.364579112e-05 -178.1167669 46.45469214
-3.364579112e-05 -207.7203626 219.756354
-3.364579112e-05 -245.6845602 176.3824372
146.126431 250 201.3615416
41.41067725 250 216.7670233
228.5509417 -26.7878807 6.292566468e-11
101.7746739 250 8.42895129
185.2975346 250 179.9513214
-3.364579112e-05 -228.6588382 161.7620967
164.5940165 250 182.7489499
-3.364579112e-05 238.3543271 83.8885644
-3.364579112e-05 -28.9136689 144.0735969
19.54623075 250 16.80711552
-3.364579112e-05 -121.9475403 7.11433629
149.5622957 159.5727352 6.292566468e-11
194.7360037 -66.3213318 6.292566468e-11
207.8545115 107.3360835 6.292566468e-11
200.2327127 -40.5487607 6.292566468e-11
168.1426596 250 57.78080339
-2.482982946 -212.1859116 6.292566468e-11
-3.364579112e-05 -45.4874304 229.787131
170.9560157 273.7378969 6.292566468e-11
171.909642 250 35.58918329
-3.364579112e-05 -173.6799211 10.65173763
-3.364579112e-05 52.8880983 138.2192837
37.77743535 74.4283853 6.292566468e-11
-3.364579112e-05 165.0397318 211.8232701
-3.364579112e-05 -42.0751298 20.37381818
110.1534284 97.781691 6.292566468e-11
-3.364579112e-05 -198.9891001 39.18238937
-3.364579112e-05 198.0709431 31.0503676
64.78539865 38.8117946 6.292566468e-11
-3.364579112e-05 144.8922751 139.5832461
-3.364579112e-05 47.6134924 238.7390139
211.0655681 -250 -1.8460803
69.80069775 -112.5081492 6.292566468e-11
123.4443294 -137.7463952 6.292566468e-11
229.7073375 41.8240577 6.292566468e-11
-3.364579112e-05 -13.9627382 138.3342964
71.60349905 250 45.53964117
197.17469 42.4337999 6.292566468e-11
-3.364579112e-05 -112.718398 68.2906797
132.4872967 115.5220175 6.292566468e-11
161.1167779 -204.0797085 6.292566468e-11
-3.364579112e-05 234.2929276 57.39420986
-3.364579112e-05 171.9026951 241.7262523
-3.364579112e-05 171.3110804 13.99179887
83.06349135 -72.9285705 6.292566468e-11
165.1011 -48.4591217 6.292566468e-11
69.37903885 91.2981618 6.292566468e-11
-3.364579112e-05 93.6963528 121.3502034
138.8595044 250 234.8292738
217.1882779 59.3235429 6.292566468e-11
62.31580745 250 248.5705841
77.65328905 -245.9400514 6.292566468e-11
199.4278735 250 79.2415815
161.9332731 -221.5470964 6.292566468e-11
147.9078229 250 64.0094671
65.69330195 250 67.2454933
168.8476006 111.8566127 6.292566468e-11
242.2754222 250 57.84341379
-3.364579112e-05 -14.0903284 249.4779038
-3.364579112e-05 148.2620718 243.7125701
233.2650222 -50.6230706 6.292566468e-11
150.8426428 107.2909171 6.292566468e-11
96.61312765 250 83.1527942
220.257758 250 128.7819312
42.20167055 121.1689441 6.292566468e-11
89.45803715 250 185.1616549
-3.364579112e-05 239.0146544 165.9883162
-3.364579112e-05 -134.9468698 229.7883095
112.4263459 264.6896606 6.292566468e-11
-3.364579112e-05 -124.2700304 172.2347713
-3.364579112e-05 -105.0884319 142.6749856
90.28214635 10.4914718 6.292566468e-11
142.8200754 -106.6895694 6.292566468e-11
237.1918887 22.8215463 6.292566468e-11
90.07585765 -33.0477198 6.292566468e-11
192.6109179 -83.1089161 6.292566468e-11
147.1017473 -36.069826 6.292566468e-11
236.4084322 108.236084 6.292566468e-11
32.41593895 -140.8068175 6.292566468e-11
224.6296819 250 185.0165346
-3.364579112e-05 38.7635445 114.9571388
169.3025521 250 198.8022382
162.9859904 88.2132125 6.292566468e-11
246.2618482 250 252.3794121
77.13491915 66.7205252 6.292566468e-11
149.4429912 -0.6021939999 6.292566468e-11
74.08660735 -58.8195385 6.292566468e-11
129.1979108 55.0131982 6.292566468e-11
0.3403688542 146.9747898 6.292566468e-11
15.81214805 206.5921782 6.292566468e-11
25.96585985 213.0590877 6.292566468e-11
57.20094675 -0.2951251999 6.292566468e-11
-3.364579112e-05 -180.4698497 168.1091643
-3.364579112e-05 -50.032422 193.0584631
99.87447605 250 220.8878283
-3.364579112e-05 -226.8855109 130.9046417
142.2949555 262.4812283 6.292566468e-11
-3.364579112e-05 146.023543 115.0619204
15.63389605 -170.5148885 6.292566468e-11
243.9552305 250 33.84021082
92.52339465 250 158.7607216
69.39208045 220.5774452 6.292566468e-11
229.1037156 195.7894487 6.292566468e-11
157.2933047 28.405237 6.292566468e-11
31.66460495 -194.4544674 6.292566468e-11
215.0574386 175.2216417 6.292566468e-11
199.9338581 -23.3610053 6.292566468e-11
222.9214294 250 222.6187885
11.90784055 261.5356168 6.292566468e-11
117.1474183 241.430194 6.292566468e-11
-3.364579112e-05 157.9104342 170.5685631
146.7570123 146.8765942 6.292566468e-11
28.00713575 250 7.05264963
-3.364579112e-05 221.1246727 150.9830835
-3.364579112e-05 -102.7046829 165.6594569
-3.364579112e-05 -43.4285747 203.7332468
123.1006159 202.6696955 6.292566468e-11
93.69879115 246.1508676 6.292566468e-11
149.3386066 87.4791773 6.292566468e-11
75.14945385 25.6545031 6.292566468e-11
-3.364579112e-05 -2.0016067 222.6616827
251.4901481 -56.588007 6.292566468e-11
191.2256809 250 55.02240029
3.792701554 84.0491512 6.292566468e-11
223.439558 205.7458758 6.292566468e-11
77.21223145 145.6995766 6.292566468e-11
194.0229402 220.4876511 6.292566468e-11
224.5815608 250 29.76111568
-3.364579112e-05 -249.875361 133.2560453
-3.364579112e-05 -102.7503828 177.3815652
-3.364579112e-05 222.5224555 11.99550098
73.69111245 250 243.74733
-3.364579112e-05 109.0385002 213.7376589
249.4107468 250 80.3564389
-3.364579112e-05 133.0598502 100.9976973
-3.364579112e-05 -134.1244014 218.5889102
72.12807885 -195.1490076 6.292566468e-11
182.0508573 77.1711342 6.292566468e-11
-3.364579112e-05 113.1322942 131.27929
188.3771167 -189.4777771 6.292566468e-11
249.3678942 -188.1436974 6.292566468e-11
-3.364579112e-05 -204.93777 171.1545144
114.692985 135.1844149 6.292566468e-11
239.8586468 51.6064664 6.292566468e-11
139.5782698 106.6393752 6.292566468e-11
237.228827 250 140.2380242
-3.364579112e-05 -187.3683517 82.5701453
191.529001 250 237.4381337
-3.364579112e-05 -185.7142412 38.22262816
7.756546554 250 100.2394265
-3.364579112e-05 -2.3506289 154.2602389
164.6621181 13.6590795 6.292566468e-11
29.93565845 -114.7411087 6.292566468e-11
-3.364579112e-05 -22.4135587 85.5031767
196.3900908 16.364251 6.292566468e-11
58.94808925 57.639509 6.292566468e-11
-3.364579112e-05 119.2376235 181.1816497
127.8929837 -92.1848169 6.292566468e-11
180.5151229 27.4840018 6.292566468e-11
68.58930765 -180.2843212 6.292566468e-11
117.7608069 250 78.5632783
9.829749454 134.9839728 6.292566468e-11
55.22672635 250 53.16591267
-3.364579112e-05 -1.3286341 7.44688511
71.03712225 272.1418175 6.292566468e-11
87.63211935 -51.8274623 6.292566468e-11
209.7396153 216.6707612 6.292566468e-11
-3.364579112e-05 -84.3753169 24.52666479
-3.364579112e-05 -30.6990899 154.9960584
130.800196 -192.0565598 6.292566468e-11
128.4150541 160.8127769 6.292566468e-11
-3.364579112e-05 148.5272697 190.0512956
52.35201035 258.4526991 6.292566468e-11
48.54481865 143.1880645 6.292566468e-11
43.41656935 250 183.5401969
-3.364579112e-05 110.4759056 86.929208
239.4757899 250 243.6723914
63.88400535 250 193.8431327
-3.364579112e-05 -26.7237283 236.7025879
81.29926155 250 138.6226231
-3.364579112e-05 -5.0469815 193.0893611
-3.364579112e-05 218.9869972 23.52224806
-3.364579112e-05 182.6375685 159.9067523
-3.364579112e-05 -6.2444594 56.28730325
115.8246539 -105.6299304 6.292566468e-11
16.08960685 -150.8736806 6.292566468e-11
-3.364579112e-05 -240.7001859 193.0523972
-1.889454946 170.335264 6.292566468e-11
-3.364579112e-05 84.8262809 139.8428923
-3.364579112e-05 95.495043 72.4803261
-3.364579112e-05 241.7841419 25.75257627
-3.364579112e-05 164.505549 157.91898
-3.364579112e-05 209.4602624 137.7556828
123.0141067 -115.1166563 6.292566468e-11
-3.364579112e-05 -239.7461835 112.2402452
-3.364579112e-05 132.6058513 10.74899131
-3.364579112e-05 35.7940148 154.3520714
55.79901455 80.6618919 6.292566468e-11
50.98075155 -100.3103899 6.292566468e-11
141.7234953 -240.46547 6.292566468e-11
-3.364579112e-05 -3.6700993 112.8909517
-3.364579112e-05 17.5941662 180.765391
-3.364579112e-05 156.8504326 58.04503573
62.02653315 160.5922772 6.292566468e-11
31.69193455 106.7491677 6.292566468e-11
-3.364579112e-05 -115.5689652 233.3259761
-3.364579112e-05 -142.3500281 190.9876516
-1.761395246 -185.5179537 6.292566468e-11
-3.364579112e-05 -168.1047909 145.1539861
98.47986125 -217.3849432 6.292566468e-11
156.8578313 -154.9063033 6.292566468e-11
-3.364579112e-05 180.7954522 173.4943817
19.38367655 62.3935217 6.292566468e-11
87.04662005 250 62.8659153
144.2009777 -80.2605452 6.292566468e-11
-3.364579112e-05 77.0445969 105.7640571
203.8739169 159.4266861 6.292566468e-11
-3.364579112e-05 -234.765301 143.6198636
119.0960845 250 228.0242751
-1.616177546 -250 157.4333624
83.64528005 -1.8205154 6.292566468e-11
182.3327167 207.1673606 6.292566468e-11
15.21277915 -228.5385521 6.292566468e-11
213.8343818 250 144.8063981
233.1986289 -169.1628983 6.292566468e-11
-3.364579112e-05 220.0535723 252.3187105
-3.364579112e-05 26.974835 213.3217763
166.7314833 250 167.6934055
52.51310865 250 240.3793536
139.5605733 18.5970857 6.292566468e-11
-3.364579112e-05 237.7551889 195.7564129
-3.364579112e-05 19.7099903 72.2008228
16.51850325 -216.3605763 6.292566468e-11
150.9089067 250 23.82414095
120.6583603 250 136.5621439
0.7480903542 -77.5947731 6.292566468e-11
238.5438806 274.0369374 6.292566468e-11
-3.364579112e-05 -71.3871781 74.3667662
140.9473034 250 101.4175181
-3.364579112e-05 -50.5917939 66.2989673
-0.7960215458 -142.8787273 6.292566468e-11
-3.364579112e-05 95.0567663 146.0432514
247.3916901 27.3410452 6.292566468e-11
-3.364579112e-05 238.719557 130.1569411
139.0611956 201.0939319 6.292566468e-11
-3.364579112e-05 57.7849806 126.0631811
7.112826854 33.6773375 6.292566468e-11
184.6501852 -63.1110514 6.292566468e-11
-3.364579112e-05 102.0830218 203.2524502
238.8879939 -35.5062518 6.292566468e-11
-3.364579112e-05 154.4866957 16.20125099
169.1454038 -152.7844613 6.292566468e-11
-3.364579112e-05 166.7739149 83.9424695
93.59909555 132.2608172 6.292566468e-11
35.84319375 -58.3522364 6.292566468e-11
-3.364579112e-05 -154.3460012 41.94718567
-3.364579112e-05 61.313099 250.3913759
202.2042065 250 8.84922717
241.7519448 -99.3713871 6.292566468e-11
196.2955282 250 134.1816638
-3.364579112e-05 -58.2553292 218.7972749
51.72961525 125.6002159 6.292566468e-11
46.77844675 -122.3193942 6.292566468e-11
135.1777746 250 13.55059026
-3.364579112e-05 195.6107151 73.9679909
33.65300615 -170.74667 6.292566468e-11
164.826151 250 208.2956275
12.94462625 -250 -0.7418692399
21.61459125 17.3332147 6.292566468e-11
27.44935765 250 200.8947247
104.8881132 -169.5151907 6.292566468e-11
124.3472302 263.4340302 6.292566468e-11
229.8227804 -250 -1.64728392
180.1560001 -214.2783174 6.292566468e-11
192.7946878 -119.1836997 6.292566468e-11
-3.364579112e-05 184.991268 103.9832898
-3.364579112e-05 178.2350776 62.9649248
-3.364579112e-05 31.4125178 165.4511864
206.8424335 264.3201296 6.292566468e-11
80.10998815 206.0930255 6.292566468e-11
-3.364579112e-05 120.7969878 149.1991901
-3.364579112e-05 113.6447707 192.8051676
206.3151891 250 214.6628478
197.7447254 178.9719453 6.292566468e-11
-3.364579112e-05 134.9990215 237.1408387
36.55902955 168.6322889 6.292566468e-11
-3.364579112e-05 -182.0033512 140.8537121
204.3301528 250 173.1167597
-3.364579112e-05 -69.9721659 48.11730089
167.9563493 256.7626931 6.292566468e-11
1.049229854 -243.6729382 6.292566468e-11
-3.364579112e-05 -56.9270625 54.44483641
-3.364579112e-05 32.865984 9.01025479
179.6458355 -132.7270598 6.292566468e-11
-3.364579112e-05 189.67076 245.7540974
-3.364579112e-05 212.5276278 174.3382022
-3.364579112e-05 -141.0230164 125.70336
250.949187 -209.8971288 6.292566468e-11
159.0750484 250 4.44255943
-3.364579112e-05 67.4211645 201.8623393
82.77765745 -196.2363157 6.292566468e-11
115.4860419 67.7554435 6.292566468e-11
252.1478513 -162.043759 6.292566468e-11
104.4285987 -89.8108846 6.292566468e-11
-3.364579112e-05 -104.8303279 30.43820876
182.1838328 250 19.81182901
-3.364579112e-05 -52.4365196 15.27641033
100.8483505 -53.3072587 6.292566468e-11
244.2534038 250 131.4936343
8.671800154 250 140.3762616
36.57614045 -31.9655308 6.292566468e-11
-3.364579112e-05 -173.6166163 29.44653332
-3.364579112e-05 -65.8563911 208.3952597
-3.364579112e-05 16.1432371 243.8094947
-3.364579112e-05 193.4146696 221.0363507
-3.364579112e-05 102.3200128 42.35331405
201.1188565 -76.8111757 6.292566468e-11
208.9658704 250 74.193481
-3.364579112e-05 -169.5785812 158.086262
-3.364579112e-05 -15.0258114 70.3234017
-3.364579112e-05 12.6499126 11.11489386
-3.364579112e-05 45.0258036 211.980072
143.7116949 169.5527297 6.292566468e-11
76.94435825 250 207.4895954
-3.364579112e-05 145.4288834 83.3050671
-3.364579112e-05 -71.5955618 194.5767519
43.08685745 -77.6139188 6.292566468e-11
77.56883135 -93.8852938 6.292566468e-11
241.3178089 -87.2648926 6.292566468e-11
205.019562 250 87.8792387
3.960513554 250 11.15186754
-3.364579112e-05 17.8041402 117.4028972
203.5691533 250 203.4509806
130.4588027 96.6514901 6.292566468e-11
220.0157439 45.2620103 6.292566468e-11
-3.364579112e-05 -214.2043183 66.1695967
114.9608573 -232.7697643 6.292566468e-11
116.8974267 210.8546895 6.292566468e-11
-3.364579112e-05 -52.1296863 35.69714086
-3.364579112e-05 14.122663 167.6635153
-0.2721760458 -230.3907405 6.292566468e-11
-3.364579112e-05 -160.7896187 67.5796479
182.9271255 -27.2041516 6.292566468e-11
151.34929 186.6037999 6.292566468e-11
109.1708373 250 231.8500915
-3.364579112e-05 -50.5121026 241.6762393
236.8691023 250 76.8141457
143.5325181 250 34.29833768
95.73660595 146.7863691 6.292566468e-11
-2.209085746 -7.9561409 6.292566468e-11
208.2523296 119.1322903 6.292566468e-11
104.2090951 -66.8072654 6.292566468e-11
170.4020138 -88.2217459 6.292566468e-11
117.2653129 250 173.9008477
-3.364579112e-05 -209.1078889 25.5055014
64.24292935 196.9908002 6.292566468e-11
5.267933554 -41.7015646 6.292566468e-11
-0.4251764458 273.4077675 6.292566468e-11
41.07708845 250 58.61903918
-3.364579112e-05 90.3747102 93.4749216
30.76108945 135.6405693 6.292566468e-11
-3.364579112e-05 -199.1590913 209.0543229
125.3077575 -64.4908662 6.292566468e-11
249.1911307 179.9288612 6.292566468e-11
-3.364579112e-05 26.4912371 175.81424
-3.364579112e-05 98.0206826 59.50517664
-3.364579112e-05 -205.0891117 192.0837262
-3.364579112e-05 -5.4369616 41.67374602
-3.364579112e-05 -38.7783673 177.0239327
11.40394585 109.6846088 6.292566468e-11
-3.364579112e-05 -70.9036778 36.6790168
152.2064339 250 84.2108033
10.83796655 197.7351684 6.292566468e-11
104.1550815 -36.5744187 6.292566468e-11
189.5114453 148.4405973 6.292566468e-11
-3.364579112e-05 -97.2373496 95.8910492
-3.364579112e-05 194.922332 142.6240098
182.3811201 250 64.8562274
-3.364579112e-05 173.4429968 145.9530425
-3.364579112e-05 35.29876 232.3825792
-3.364579112e-05 -173.2871676 189.0272957
89.29146255 53.2052133 6.292566468e-11
219.4285243 -21.499065 6.292566468e-11
210.8836467 -58.8669692 6.292566468e-11
-3.364579112e-05 50.973957 149.6375688
-3.364579112e-05 -165.1949176 126.0827915
131.0192356 250 226.8865281
-3.364579112e-05 67.8441826 125.1988195
-3.364579112e-05 -240.1398256 152.1612998
-3.364579112e-05 177.5881275 217.9723736
10.31546145 227.71777 6.292566468e-11
179.3278197 172.936367 6.292566468e-11
-0.8906166458 -168.9036812 6.292566468e-11
110.2416988 107.844524 6.292566468e-11
209.8329081 -43.5660043 6.292566468e-11
227.5820896 -144.0751651 6.292566468e-11
138.4422391 -132.2303799 6.292566468e-11
-3.364579112e-05 -47.2022741 49.11149115
148.7031488 250 48.82933378
15.56028325 -127.7655635 6.292566468e-11
175.6316127 137.6766344 6.292566468e-11
-3.364579112e-05 -223.8788555 202.3346669
170.055743 -111.0831117 6.292566468e-11
-3.364579112e-05 182.2664062 237.2084679
-3.364579112e-05 -144.1824846 240.3524573
161.338262 -181.6393402 6.292566468e-11
12.64729305 250 232.5877884
250.6113319 250 231.7210374
156.2195377 -96.6572131 6.292566468e-11
236.6854356 179.6873023 6.292566468e-11
9.184208454 250 1.64405994
-3.364579112e-05 115.6921585 31.17988743
239.324129 -123.0874042 6.292566468e-11
73.33622375 250 0.9666157301
-3.364579112e-05 -78.7163626 249.9595657
7.917422554 250 37.23431639
44.85421905 -158.8740658 6.292566468e-11
56.77045515 -247.5435434 6.292566468e-11
-3.364579112e-05 -125.4456051 211.0880588
-3.364579112e-05 -14.4728603 127.8488349
210.743855 250 48.57617292
-3.364579112e-05 49.0076471 177.714711
195.6216003 125.831286 6.292566468e-11
-3.364579112e-05 -91.8007235 15.05797491
166.4718573 63.1865177 6.292566468e-11
204.7816912 -158.0723945 6.292566468e-11
-3.364579112e-05 -76.6663418 224.3266635
243.1665807 149.5182127 6.292566468e-11
-3.364579112e-05 -9.5865799 209.7978483
-3.364579112e-05 -76.7786571 167.9692492
-3.364579112e-05 59.1895026 38.50182299
-3.364579112e-05 -218.4091307 142.7279588
98.97720555 -244.4685055 6.292566468e-11
24.58680705 250 149.0923752
90.55258525 164.8046432 6.292566468e-11
-3.364579112e-05 -2.5083112 142.4445921
172.1573352 250 125.1215453
-3.364579112e-05 -6.0281127 174.5244962
-3.364579112e-05 -146.9459303 48.51079647
-3.364579112e-05 109.5481219 159.9578522
-3.364579112e-05 113.8262637 240.974029
82.20834205 250 160.0194902
-3.364579112e-05 -17.667145 22.66421197
204.8017252 -168.1353483 6.292566468e-11
-3.364579112e-05 -66.3263832 237.5076905
92.08290995 250 71.3539749
26.10040095 250 185.3040348
-3.364579112e-05 26.5572432 16.95102624
112.3229503 250 11.36025468
9.522075754 250 194.7748878
39.63726045 241.0439438 6.292566468e-11
189.9878955 260.8028105 6.292566468e-11
-3.364579112e-05 -61.9795647 17.71545257
40.14066175 -12.2183411 6.292566468e-11
138.2383264 211.5449306 6.292566468e-11
-3.364579112e-05 -172.8479632 112.65758
217.1895647 124.316877 6.292566468e-11
-3.364579112e-05 -240.082015 81.986301
67.75858555 115.0960894 6.292566468e-11
-3.364579112e-05 162.5860242 95.2293816
106.612764 80.3359055 6.292566468e-11
-3.364579112e-05 158.8863821 40.35041268
-3.364579112e-05 192.993264 158.5755942
168.6737416 144.7685795 6.292566468e-11
76.76447495 250 36.58449816
-3.364579112e-05 128.3158384 226.8470182
-3.364579112e-05 213.0313046 156.5394995
117.5844802 250 91.3355566
231.560741 120.2196592 6.292566468e-11
-3.364579112e-05 40.4297237 73.665088
192.0906879 7.5484696 6.292566468e-11
-3.364579112e-05 -26.4322462 116.4310943
106.3006346 60.7753529 6.292566468e-11
-3.364579112e-05 -30.2689621 66.3132917
91.34719455 41.4474125 6.292566468e-11
-3.364579112e-05 -135.7539518 41.94817407
60.03008785 226.8016266 6.292566468e-11
109.9910482 250 200.4307094
183.1054634 273.3350671 6.292566468e-11
-3.364579112e-05 -116.7572434 183.8550169
57.98974525 250 77.6046603
146.4484338 -17.5939114 6.292566468e-11
-3.364579112e-05 -89.8406391 67.8520519
-3.364579112e-05 243.5202638 121.6481347
99.20374265 25.1110505 6.292566468e-11
132.6548801 -201.6453167 6.292566468e-11
-3.364579112e-05 -53.6290074 118.6053251
-3.364579112e-05 209.6501588 99.2779437
173.1635904 250 247.1830388
-3.364579112e-05 215.3198193 4.12852875
12.37045835 -106.6343774 6.292566468e-11
113.675183 200.1611189 6.292566468e-11
-3.364579112e-05 -70.5777907 131.0990541
44.89155985 16.7849505 6.292566468e-11
31.75267255 250 235.9153059
148.7025888 236.5908402 6.292566468e-11
49.73447245 250 37.49507632
50.81432265 -67.051938 6.292566468e-11
107.8147789 250 109.5160617
126.120978 -38.0564595 6.292566468e-11
-3.364579112e-05 -58.6770557 179.8333653
-3.364579112e-05 85.4247992 224.3444112
153.3764205 273.0895644 6.292566468e-11
136.8539326 -159.3666334 6.292566468e-11
-3.364579112e-05 206.5760834 60.6149194
249.6212641 199.0655346 6.292566468e-11
174.6821052 -167.193774 6.292566468e-11
72.77868095 -217.4956886 6.292566468e-11
138.5083078 250 61.665732
161.7162785 250 14.38032878
-3.364579112e-05 180.3262027 8.10415599
245.4141609 36.8231954 6.292566468e-11
75.22112225 -137.3960973 6.292566468e-11
173.4242847 210.9626057 6.292566468e-11
182.4181515 -144.8213644 6.292566468e-11
111.6400416 250 122.3259474
44.05691875 154.7812429 6.292566468e-11
-3.364579112e-05 -4.6565235 122.5132948
-3.364579112e-05 -92.1731087 77.4239801
-3.364579112e-05 55.4043412 79.8558448
173.102112 -240.7468992 6.292566468e-11
-3.364579112e-05 -239.5666206 228.9439203
-3.364579112e-05 -58.7867518 163.5098112
136.9561713 -53.401892 6.292566468e-11
168.1497515 39.2307121 6.292566468e-11
97.28541065 250 249.9218023
79.07785835 225.3215429 6.292566468e-11
-3.364579112e-05 69.4081801 180.895247
130.3038574 80.6004761 6.292566468e-11
-3.364579112e-05 -186.9989286 159.8309775
-3.364579112e-05 -159.4094387 8.60894974
38.19622445 6.1933245 6.292566468e-11
-3.364579112e-05 -181.9376855 92.3160673
79.69011645 250 183.2274265
-3.364579112e-05 115.1385724 21.14745555
-3.364579112e-05 79.1221693 8.05801364
-3.364579112e-05 -128.0650732 154.0005032
21.16071005 250 57.50712109
-3.364579112e-05 -27.1153972 193.7695027
191.61367 250 188.5887352
-3.364579112e-05 -244.304362 202.193454
-3.364579112e-05 -158.0588934 251.8331274
223.94871 235.6333306 6.292566468e-11
205.2823153 250 37.76587308
42.44329255 -48.2894255 6.292566468e-11
-3.364579112e-05 63.7336387 163.2936866
-3.364579112e-05 -153.8922733 81.5943642
157.3625694 165.1123078 6.292566468e-11
-3.364579112e-05 -25.8984381 50.62507619
171.7320913 -6.9607368 6.292566468e-11
10.44660055 165.7315859 6.292566468e-11
14.07869125 -69.5171516 6.292566468e-11
230.3687609 250 161.7087555
239.8052882 -224.3601269 6.292566468e-11
36.13769455 47.4517546 6.292566468e-11
214.182739 250 202.4016028
178.2788398 -81.9394765 6.292566468e-11
227.9165467 250 108.4421414
217.2198196 250 248.5229222
101.7720703 250 39.91743174
-3.364579112e-05 6.1922975 59.27006548
-3.364579112e-05 106.343932 110.2001723
164.8274447 250 95.8462035
-3.364579112e-05 215.6445553 223.5651031
20.52270195 250 174.3852335
189.404048 250 153.5779406
96.68673545 268.981987 6.292566468e-11
1.255907054 250 246.7951529
212.5733356 252.5460816 6.292566468e-11
-3.364579112e-05 -143.1846129 103.4578392
-3.364579112e-05 161.0906622 69.0705227
-3.364579112e-05 -108.7688017 219.3757381
-3.364579112e-05 -109.6254491 100.2319821
171.6342431 -197.9271124 6.292566468e-11
7.238585254 250 165.2661974
-3.364579112e-05 105.0234129 136.1270545
109.2136122 -153.1481028 6.292566468e-11
-3.364579112e-05 73.2505107 26.28175885
150.9607655 -173.4564666 6.292566468e-11
235.5139407 83.065923 6.292566468e-11
-3.364579112e-05 -230.3827175 100.4746752
232.0612469 251.737558 6.292566468e-11
49.71853265 250 210.3536597
107.4415804 -101.3294093 6.292566468e-11
-3.364579112e-05 121.5431648 118.4536891
-3.364579112e-05 167.6603566 112.5933169
-3.364579112e-05 222.4859433 69.0289139
78.81970415 -209.7389694 6.292566468e-11
134.3755886 -2.7794721 6.292566468e-11
-3.364579112e-05 133.4524351 25.16955007
33.79725015 250 163.8546175
-3.364579112e-05 -207.5692369 117.6630444
-3.364579112e-05 -245.3063188 67.8275639
-3.364579112e-05 -145.0545386 205.0224774
194.4511135 250 25.86144095
216.1131807 -147.7506131 6.292566468e-11
46.71075125 48.9283215 6.292566468e-11
158.8503769 250 138.2581505
112.6363424 250 162.8469849
201.9525374 250 192.1439634
-3.364579112e-05 -192.7981819 108.071643
170.1505694 250 237.5491011
-3.364579112e-05 -196.9991898 176.131455
-3.364579112e-05 108.4230911 96.5297808
163.7502222 -31.843484 6.292566468e-11
224.012516 226.2214783 6.292566468e-11
-3.364579112e-05 -156.3121229 17.43434659
-3.364579112e-05 -122.4406426 17.37929208
144.993842 250 164.749995
49.43949225 216.6229311 6.292566468e-11
189.5698998 250 207.3871473
35.10233185 268.8234383 6.292566468e-11
93.80142595 236.8187616 6.292566468e-11
173.9502494 12.8238642 6.292566468e-11
180.6453008 -10.1697193 6.292566468e-11
-3.364579112e-05 119.7363137 76.2028185
208.2757574 250 123.2461921
-3.364579112e-05 -84.8026855 57.6963034
-3.364579112e-05 138.7340074 132.6193364
-3.364579112e-05 -135.6201343 30.51326223
-3.364579112e-05 -157.9724422 239.815658
-3.364579112e-05 240.742717 186.9706485
-3.364579112e-05 5.1450269 30.10559341
-3.364579112e-05 -191.3975004 249.7434452
176.4025788 195.1090682 6.292566468e-11
-3.364579112e-05 38.4357849 30.14082429
109.9953649 -20.1259671 6.292566468e-11
201.1340596 -126.3256638 6.292566468e-11
226.0505457 250 49.55762525
191.8330829 250 100.629877
50.51474575 250 63.6066648
-3.364579112e-05 33.8219239 107.1715278
-3.364579112e-05 141.7572602 208.2643485
74.17888035 -21.1619643 6.292566468e-11
43.97195565 250 146.8036935
-3.364579112e-05 -111.2616167 59.19142309
-3.364579112e-05 68.1866749 36.51983127
79.69632135 250 99.6347896
188.27521 -228.8005111 6.292566468e-11
-3.364579112e-05 152.1610647 105.1364994
45.20609195 68.7194318 6.292566468e-11
249.2134751 -138.5624776 6.292566468e-11
64.67396895 25.0491876 6.292566468e-11
-3.364579112e-05 183.5080871 127.7861561
-3.364579112e-05 -214.7036644 241.1384133
-3.364579112e-05 -98.2586562 152.0898043
98.93688235 -146.0094323 6.292566468e-11
161.8112207 194.4258564 6.292566468e-11
-3.364579112e-05 -131.9457611 60.5753184
83.36917365 -39.3266523 6.292566468e-11
-3.364579112e-05 70.6280698 112.3521402
-3.364579112e-05 -102.0308037 39.17822039
-3.364579112e-05 43.1119402 63.9594536
172.3940328 250 16.37109233
237.6990634 250 204.9252377
203.6027798 250 19.4535483
28.07780575 221.9768011 6.292566468e-11
-3.364579112e-05 192.54289 183.0603167
-3.364579112e-05 -122.7383713 225.7339519
-3.364579112e-05 -37.3550461 80.8539592
197.1745317 250 214.1498939
-3.364579112e-05 -157.8691335 97.7668376
75.47829395 250 108.9365488
239.9769813 159.4280099 6.292566468e-11
-3.364579112e-05 225.1723497 55.281677
-3.364579112e-05 134.3707615 123.1272228
-3.364579112e-05 247.3339419 46.57238794
