# .PCD v0.7 - Point Cloud Data file format
VERSION 0.7
FIELDS x y z
SIZE 4 4 4
TYPE F F F
COUNT 1 1 1
WIDTH 1286
HEIGHT 1
VIEWPOINT 0 0 0 1 0 0 0
POINTS 1286
DATA ascii
70.152667 4.860112313e-11 28.7704761
18.947159 4.860112313e-11 119.4624082
55.158132 -9.2371227 -250
52.152716 4.860112313e-11 -69.0228314
-4.547473509e-12 -43.8210784 -231.840797
199.982137 4.860112313e-11 -186.1191483
-4.547473509e-12 -105.3536105 21.1590134
215.259442 -109.7185651 -250
-4.547473509e-12 -59.2408029 77.9475335
250.530161 -50.3812691 -250
30.315497 -156.6838258 -250
207.617777 4.860112313e-11 -19.340224
-4.547473509e-12 -170.4119082 -228.7476791
41.065219 -187.6489435 -250
206.863979 4.860112313e-11 175.5373915
50.311987 4.860112313e-11 -226.3505418
-4.547473509e-12 -150.936488 169.8461095
-4.547473509e-12 -86.6330829 -157.5190367
45.820231 4.860112313e-11 113.8243285
28.554248 4.860112313e-11 -117.4581629
-4.547473509e-12 -60.2700511 184.4709788
48.317517 -92.0312716 -250
141.838565 4.860112313e-11 83.8311542
105.22631 -230.5867128 -250
75.687881 -159.6961909 -250
-4.547473509e-12 -119.3277764 198.4397303
-4.547473509e-12 -196.3331688 -121.2330449
-4.547473509e-12 -108.2061829 86.036039
226.265215 4.860112313e-11 -128.5023198
-0.8984028 -20.0207773 250
159.433709 4.860112313e-11 -200.2697641
205.397801 4.860112313e-11 122.4374249
-4.547473509e-12 -189.4120679 237.19655
226.836804 4.860112313e-11 83.0957907
-4.547473509e-12 -148.5155927 -161.3300416
142.535047 4.860112313e-11 128.7535408
-4.547473509e-12 -147.0637844 31.1380935
-4.547473509e-12 -121.429596 -49.6060377
-4.547473509e-12 -38.4847526 -20.4952776
19.385515 4.860112313e-11 -68.7849535
195.939309 4.860112313e-11 205.8020946
189.551479 -207.7437257 -250
-4.547473509e-12 -8.0995086 -187.8157369
60.190737 -220.1086847 -250
229.683573 4.860112313e-11 182.0318434
-2.3163617 4.860112313e-11 -148.9290701
113.444212 4.860112313e-11 -100.4147208
251.532345 4.860112313e-11 28.0439424
-4.547473509e-12 -122.2788278 106.4410091
56.771821 4.860112313e-11 -143.8957282
-4.547473509e-12 -43.3609952 14.5783872
-4.547473509e-12 -224.1027312 200.22917
104.454889 4.860112313e-11 -22.7858355
-4.547473509e-12 -184.6099629 148.1631621
-4.547473509e-12 -108.7777353 -20.1684286
76.106986 -12.118043 -250
130.703303 4.860112313e-11 111.9648024
18.117528 -230.0847539 -250
136.942134 4.860112313e-11 209.8529088
176.7723 -145.9531424 -250
-4.547473509e-12 -38.2853132 118.3435997
92.367383 4.860112313e-11 204.4571352
-4.547473509e-12 -228.3785267 112.5913351
170.776545 -105.541128 -250
-4.547473509e-12 -247.4693013 213.4915018
194.81168 4.860112313e-11 50.0108984
-4.547473509e-12 -209.4869056 223.787168
119.86774 4.860112313e-11 -209.5567308
63.98882 -251.8020658 -250
-4.547473509e-12 -115.4530918 238.2128695
219.467876 -40.3557297 -250
44.784103 4.860112313e-11 79.3307921
-4.547473509e-12 -136.3507808 4.5587707
251.857731 4.860112313e-11 -20.9920824
161.755885 4.860112313e-11 -11.6569349
88.736319 -87.1676474 -250
153.273183 4.860112313e-11 -88.4209867
208.645003 4.860112313e-11 10.0910011
-0.224637 -52.7638327 -250
133.765274 4.860112313e-11 -152.9372007
-4.547473509e-12 -250.2560326 -55.0350273
162.574559 -65.541403 -250
-4.547473509e-12 -94.1064676 64.0836262
71.576024 4.860112313e-11 -28.5734535
-4.547473509e-12 -250.5043016 126.6171147
136.016768 4.860112313e-11 -181.3305275
-4.547473509e-12 -84.2233938 -229.0308297
15.68033 4.860112313e-11 -197.3113316
95.369113 4.860112313e-11 69.2951199
13.991856 4.860112313e-11 178.2533129
-4.547473509e-12 -167.023089 213.1063359
157.848998 -211.1745372 -250
-4.547473509e-12 -146.133261 -44.7607437
158.866345 -233.9080134 -250
159.781341 4.860112313e-11 77.7498514
-4.547473509e-12 -249.9833435 -157.5950406
157.468367 4.860112313e-11 -147.8248932
-4.547473509e-12 -185.8746409 23.1518822
-4.547473509e-12 -48.9674835 229.2440308
122.657155 4.860112313e-11 -81.9089478
47.261126 -142.4137648 -250
-4.547473509e-12 -176.4927515 44.2532909
206.862972 -8.4003084 -250
-4.547473509e-12 -203.8036122 -77.3308388
-4.547473509e-12 -225.8471296 13.9597977
-4.547473509e-12 -20.8341246 -113.5263144
224.434627 -201.3808547 -250
144.638458 4.860112313e-11 -235.0678747
71.70883 4.860112313e-11 -84.4802073
-4.547473509e-12 -238.5382064 59.6434465
186.246547 -23.5312366 -250
-4.547473509e-12 -17.9370946 203.4845825
191.544246 4.860112313e-11 -143.333613
-4.547473509e-12 -140.7611482 -209.9707188
-4.547473509e-12 -109.2115331 -166.911641
142.386376 4.860112313e-11 -113.5696977
175.446083 -166.3981641 -250
-4.547473509e-12 -128.0989798 -224.3746675
-4.547473509e-12 -146.1477157 139.4117346
-4.547473509e-12 -54.3100696 -213.6343114
-4.547473509e-12 -158.5741272 190.4168465
-4.547473509e-12 -121.9564792 -148.5946079
-4.547473509e-12 -76.9017647 -108.8737667
84.975645 4.860112313e-11 154.7963794
113.691999 4.860112313e-11 -54.1076411
82.530351 1.7637722 250
177.086561 4.860112313e-11 36.1150981
-4.547473509e-12 -83.9286902 200.6088234
195.211032 -234.1124842 -250
-4.547473509e-12 -185.7203462 -188.6017356
121.786446 4.860112313e-11 -16.7297208
71.174884 4.860112313e-11 62.1678691
119.684893 4.860112313e-11 -117.601868
-4.547473509e-12 -75.3619711 -174.5716686
-4.547473509e-12 -66.4470892 -16.2227717
43.27282 -70.7397607 -250
43.682623 4.860112313e-11 167.8517144
109.983335 -122.5957876 -250
35.001124 -249.6051132 -250
61.081503 4.860112313e-11 183.1268829
16.328464 4.860112313e-11 -49.0560171
175.253757 4.860112313e-11 -209.0598054
238.905671 -184.5902852 -250
96.539778 4.860112313e-11 222.0580612
91.689908 4.860112313e-11 7.0783677
-4.547473509e-12 -221.4942705 95.7242646
123.600426 4.860112313e-11 249.5213657
136.783932 4.860112313e-11 -218.8652583
-4.547473509e-12 -96.7118183 0.95981
245.154072 4.860112313e-11 116.7358303
-4.547473509e-12 -61.3772001 10.3620938
112.589854 -5.6318769 -250
66.188524 -144.4167109 -250
115.618494 4.860112313e-11 228.1188967
44.466397 4.860112313e-11 -106.7437143
231.692761 4.860112313e-11 -234.524429
230.611618 -13.7372134 -250
89.569358 4.860112313e-11 -77.5109223
3.035727 4.860112313e-11 64.5940006
190.520869 -119.8737669 -250
-4.547473509e-12 -228.127307 244.5206384
137.979036 -180.089313 -250
249.828587 -16.8351385 -250
-4.547473509e-12 -203.9940549 -231.6489469
-4.547473509e-12 -16.6697802 52.5191966
-4.547473509e-12 -103.4228375 225.214711
14.665615 -92.4967143 -250
145.886606 4.860112313e-11 7.6563681
170.992403 -11.1027617 -250
90.277605 -196.2159009 -250
235.401681 4.860112313e-11 202.4485733
17.47643 -200.5652226 -250
204.350002 -187.2271551 -250
-4.547473509e-12 -175.2128873 -11.4763021
-4.547473509e-12 -242.1306087 31.9191819
-4.547473509e-12 -245.0464982 -93.8676854
137.548912 4.860112313e-11 -31.6402657
-4.547473509e-12 -55.7393898 -178.4856599
204.627065 4.860112313e-11 249.0428939
-4.547473509e-12 -162.9286619 -105.3017769
-4.547473509e-12 -207.1911372 205.6831317
213.223412 4.860112313e-11 219.3129123
-4.547473509e-12 -12.6790582 221.0368711
-4.547473509e-12 -21.1214504 121.8628499
70.521223 4.860112313e-11 -170.435791
142.397007 -152.166356 -250
239.424281 4.860112313e-11 147.655521
113.128096 -93.7843328 -250
-4.547473509e-12 -61.6451126 167.2102144
103.161315 4.860112313e-11 117.4858633
-4.547473509e-12 -146.5294007 -140.6469033
251.238965 -223.574403 -250
-4.547473509e-12 -17.1684813 165.3175993
2.378337 -174.6788306 -250
-4.547473509e-12 -113.7656958 -65.470113
72.753185 4.860112313e-11 96.5614405
236.88342 4.860112313e-11 -63.4000666
38.731895 4.860112313e-11 -141.922561
-4.547473509e-12 -75.0763258 -54.2173175
140.383678 4.860112313e-11 -77.198121
167.071796 4.860112313e-11 104.7212244
-4.547473509e-12 -24.2618756 -193.2591336
4.583224 4.860112313e-11 0.03493770002
110.960377 -157.212301 -250
159.299336 -176.6826681 -250
-4.547473509e-12 -252.2112456 -242.2963009
126.699901 4.860112313e-11 196.314312
183.311185 4.860112313e-11 246.4949416
86.502349 4.860112313e-11 -55.184943
-4.547473509e-12 -174.1329665 79.2650116
-4.547473509e-12 -47.6238724 62.8871344
-4.547473509e-12 -224.2902053 -29.8564274
-4.547473509e-12 -234.022376 152.8688304
155.503043 -93.1065555 -250
171.236709 4.860112313e-11 190.3902844
92.108989 4.860112313e-11 187.6163722
-4.547473509e-12 -21.5047796 -23.9463121
91.494947 4.860112313e-11 -135.8364095
144.46606 1.0578559 250
-4.547473509e-12 -18.6368881 -214.4654638
158.836972 4.860112313e-11 205.2573265
230.560162 -71.9662746 -250
-4.547473509e-12 -209.0312914 169.5388455
230.474671 4.860112313e-11 49.2206243
211.984931 -85.5780723 -250
-4.547473509e-12 -12.4016692 148.8371923
-4.547473509e-12 -87.1179423 -37.1469648
-4.547473509e-12 -46.1442971 -41.2593463
95.354361 4.860112313e-11 87.4021011
11.796776 4.860112313e-11 -119.4043612
75.562422 -227.1277 -250
200.309063 -55.3308134 -250
171.114339 -197.8509337 -250
-4.547473509e-12 -196.2844116 66.7973668
23.332907 4.860112313e-11 30.329637
98.973416 -16.2975088 -250
11.045732 4.860112313e-11 -83.6216861
57.87032 -180.1775729 -250
211.245946 -165.3918654 -250
-4.547473509e-12 -12.2582731 12.5839162
-4.547473509e-12 -175.3019095 228.5605821
172.650969 4.860112313e-11 232.4581848
147.467209 4.860112313e-11 165.1732641
234.750918 -55.090397 -250
-4.547473509e-12 -76.8540336 0.3108073
131.514569 -42.0934455 -250
211.639341 4.860112313e-11 -198.2358797
81.512983 4.860112313e-11 -112.1626527
-4.547473509e-12 -41.172669 144.1026182
136.534456 -240.4102413 -250
-4.547473509e-12 -199.31072 -157.2878781
40.700699 4.860112313e-11 245.0746909
234.695447 4.860112313e-11 -218.4294446
-4.547473509e-12 -243.3068567 231.2336179
235.663957 -168.5717109 -250
181.859425 4.860112313e-11 -66.4555186
179.239645 4.860112313e-11 -8.8886919
190.41819 4.860112313e-11 -32.7985389
-4.547473509e-12 -41.3607597 -162.2173994
-4.547473509e-12 -137.0354658 71.2021221
-4.547473509e-12 -234.3694028 -125.6350452
166.201824 4.860112313e-11 23.6656589
130.434381 4.860112313e-11 57.8725368
35.514913 -230.4237995 -250
-4.547473509e-12 -185.4073879 109.8932522
232.685624 4.860112313e-11 -156.8360945
36.850054 4.860112313e-11 151.5011514
-4.547473509e-12 -76.3821289 36.6831624
-4.547473509e-12 -156.9887209 -193.6203496
-4.547473509e-12 -90.2542629 -126.1538405
-4.547473509e-12 -215.2511416 -52.4307596
205.884277 -145.7381777 -250
-4.547473509e-12 -133.9764189 -84.1020443
110.763149 4.860112313e-11 37.8730575
102.178101 4.860112313e-11 -166.5907759
210.296454 -228.8067759 -250
198.797457 4.860112313e-11 -231.5972803
193.788799 -38.5491192 -250
184.972619 4.860112313e-11 155.3972055
-4.547473509e-12 -108.8570185 -182.866432
89.073158 4.860112313e-11 127.9973072
71.753993 4.860112313e-11 214.6256774
36.042481 4.860112313e-11 212.5739518
-4.547473509e-12 -234.3444005 -232.7739488
83.427155 4.860112313e-11 -196.4643325
170.13478 4.860112313e-11 -238.6680527
-4.547473509e-12 -46.4700005 88.8190814
153.12368 4.860112313e-11 -24.9588819
-4.547473509e-12 -74.6321644 -216.413011
200.946109 4.860112313e-11 139.4827453
-4.547473509e-12 -170.8247255 139.2412881
35.190365 4.860112313e-11 60.0461202
37.897651 4.860112313e-11 -84.8823154
-4.547473509e-12 -99.1949312 142.1557743
-4.547473509e-12 -204.423074 -20.1114035
142.631473 -206.2846637 -250
219.591004 4.860112313e-11 -66.243805
-4.547473509e-12 -112.0998299 -123.039996
-4.547473509e-12 -101.5455157 123.6844139
240.358951 4.860112313e-11 -5.6919532
172.378607 4.860112313e-11 -95.5142446
-1.2977108 4.860112313e-11 29.2161612
204.528184 4.860112313e-11 -153.2355128
-4.547473509e-12 -237.444287 93.116192
-4.547473509e-12 -97.457388 -196.053459
131.595537 4.860112313e-11 141.0607
-4.547473509e-12 -176.3756568 -137.9266795
-4.547473509e-12 -81.5464747 54.9214061
145.518238 4.860112313e-11 27.5547785
-4.547473509e-12 -71.3555716 -150.8691299
-4.547473509e-12 -129.845696 135.7830098
-4.547473509e-12 -145.2244353 -61.8316086
-4.547473509e-12 -144.0529401 184.1364854
-4.547473509e-12 -230.3439637 -211.7197324
158.273983 4.860112313e-11 -132.3795262
-4.547473509e-12 -131.9836589 -12.8819901
28.426313 4.860112313e-11 12.2847571
-4.547473509e-12 -216.6295695 -102.8156383
123.594027 4.860112313e-11 2.1794987
241.82599 4.860112313e-11 235.4126583
-4.547473509e-12 -54.3963371 44.1093678
20.028733 4.860112313e-11 149.3414324
-4.547473509e-12 -140.7066173 -175.858631
12.117086 4.860112313e-11 -34.2987915
211.843725 4.860112313e-11 234.8534909
129.675067 -81.173703 -250
-4.547473509e-12 -196.2177113 98.2144836
40.284533 4.860112313e-11 99.5833442
-4.547473509e-12 -50.048817 -75.7943753
248.439095 -86.6202908 -250
141.936123 -61.2746979 -250
-4.547473509e-12 -89.7454755 218.4726713
74.114774 4.860112313e-11 -46.3041031
235.832938 -136.0410669 -250
-4.547473509e-12 -150.3554984 243.7826906
-4.547473509e-12 -19.4884483 83.5584507
7.234013 4.860112313e-11 98.7731071
43.993099 4.860112313e-11 -9.6945856
44.621169 4.860112313e-11 -185.7781763
-4.547473509e-12 -115.335147 33.5530084
59.300621 4.860112313e-11 74.9672521
192.606013 -134.8830398 -250
-4.547473509e-12 -45.3418927 174.3333676
193.781119 4.860112313e-11 190.8095225
16.336542 4.860112313e-11 -212.4432381
-4.547473509e-12 -221.3409915 178.5572786
43.492052 4.860112313e-11 -43.0186535
155.669032 -24.6148892 -250
40.56696 4.860112313e-11 -169.6599547
125.944044 -12.6452891 -250
-4.547473509e-12 -214.7779887 -183.2417424
152.386451 -140.898838 -250
-4.547473509e-12 -195.8465811 136.8469486
-4.547473509e-12 -19.3892698 -49.5389661
-4.547473509e-12 -65.9202517 231.8681383
-4.547473509e-12 -162.272144 39.7413728
12.055474 4.860112313e-11 -182.8428396
83.898859 -147.2747851 -250
-4.547473509e-12 -161.1510919 59.1127115
212.99734 4.860112313e-11 -52.9047599
-4.547473509e-12 -170.329067 169.2124691
57.919538 4.860112313e-11 45.3486286
161.314492 4.860112313e-11 158.9967341
149.548629 4.860112313e-11 -189.1946623
15.878038 4.860112313e-11 85.8128724
74.745275 -198.4991035 -250
-4.547473509e-12 -191.1061434 -10.3463025
-4.547473509e-12 -40.1695828 -96.8033868
-4.547473509e-12 -114.866348 171.1268984
-4.547473509e-12 -76.8006074 162.7264195
187.09846 4.860112313e-11 -178.146855
-4.547473509e-12 -133.3182704 233.5356148
-4.547473509e-12 -18.3563832 37.8866118
-4.547473509e-12 -135.7288292 -153.681581
-4.547473509e-12 -121.2726507 -94.3418851
-4.547473509e-12 -249.4847983 -31.0621315
-4.547473509e-12 -199.4946109 121.0941036
-4.547473509e-12 -11.6551752 -97.8715656
-4.547473509e-12 -178.0844253 -215.6828706
50.673108 -107.0739042 -250
127.365239 4.860112313e-11 82.0152224
-4.547473509e-12 -231.564538 45.5673704
-4.547473509e-12 -182.955309 -107.652155
1.770456 4.860112313e-11 191.8685199
94.203308 4.860112313e-11 37.7784922
16.204331 4.860112313e-11 -159.7710686
94.66413 -220.6511519 -250
-4.547473509e-12 -44.5241142 -112.291899
108.426415 4.860112313e-11 -86.8137726
114.296084 -173.2002637 -250
74.753082 2.3015535 -250
-4.547473509e-12 -247.0077167 -204.6229234
75.33989 -133.2087272 -250
70.53843 4.860112313e-11 -154.6318171
98.514577 -246.2939397 -250
223.60164 -26.3652252 -250
-4.547473509e-12 -153.9498728 17.9863781
-4.547473509e-12 -247.6654362 173.7510534
39.812984 -13.7589169 -250
160.737845 4.860112313e-11 51.747645
19.543831 4.860112313e-11 -17.2027352
128.649696 4.860112313e-11 222.0521055
-4.547473509e-12 -91.3823763 188.3336001
-4.547473509e-12 -234.9834588 -174.9987893
-4.547473509e-12 -129.7918079 -117.8996154
-4.547473509e-12 -145.6965576 220.0035675
209.735526 4.860112313e-11 -167.9872175
43.42104 -207.5365868 -250
-4.547473509e-12 -186.8846183 191.8752136
-4.547473509e-12 -77.1087539 248.1407401
144.968686 4.860112313e-11 49.3217517
63.328103 4.860112313e-11 236.6971043
-4.547473509e-12 -89.3264808 -54.9063641
-4.547473509e-12 -201.224078 30.9739913
35.428109 4.860112313e-11 -235.0362841
105.496598 4.860112313e-11 -236.1929992
-4.547473509e-12 -130.4723826 207.2899078
-2.06888 -3.5346238 250
79.683914 4.860112313e-11 18.2181168
232.731795 4.860112313e-11 96.0267697
30.542276 4.860112313e-11 176.9417612
55.71307 -40.5444978 -250
93.643387 -182.2663758 -250
-4.547473509e-12 -76.3627286 70.8800782
190.045079 4.860112313e-11 93.6041532
147.523187 -168.8138764 -250
191.644058 4.860112313e-11 -17.085401
-4.547473509e-12 -16.1888298 -142.1648435
29.545472 -45.594588 -250
237.010625 4.860112313e-11 -171.8716212
-4.547473509e-12 -73.602558 -94.4726499
95.357621 -121.4090541 -250
59.019212 -82.8671285 -250
-4.547473509e-12 -11.5328952 132.1757409
-4.547473509e-12 -148.8958241 -17.6944432
98.70762 4.860112313e-11 -46.9009698
150.342869 4.860112313e-11 -210.9228596
-4.547473509e-12 -182.9743964 93.6758007
114.401874 4.860112313e-11 17.2503414
188.04501 -172.4746376 -250
-4.547473509e-12 -185.6147938 -59.2593487
56.968332 4.860112313e-11 -179.2273805
-4.547473509e-12 -231.5358834 -146.1884965
165.662766 4.860112313e-11 -82.0142446
-4.547473509e-12 -172.1763312 -191.8905518
198.30413 4.860112313e-11 -52.3665891
181.906229 4.860112313e-11 118.766438
2.977257 4.860112313e-11 -221.2174924
48.756699 4.860112313e-11 -241.7928232
-4.547473509e-12 -20.4609639 -159.3066649
-4.547473509e-12 -84.9042902 -190.0691813
-4.547473509e-12 -165.2300514 -160.8907892
-4.547473509e-12 -241.9978015 -4.4880692
163.61315 4.860112313e-11 -49.2153671
32.151193 4.860112313e-11 234.144257
235.791809 -108.1449077 -250
139.438749 -92.7166151 -250
249.828223 -193.1378763 -250
-4.547473509e-12 -181.7370418 -175.329696
114.215091 4.860112313e-11 -155.6881159
2.650675 -198.271862 -250
180.907003 -96.1305556 -250
-4.547473509e-12 -196.6871257 8.1483308
57.916006 4.860112313e-11 -6.7459431
-4.547473509e-12 -196.5254 -42.5248595
116.194195 -38.8049832 -250
-4.547473509e-12 -208.4789552 91.2989991
65.423195 -236.3874995 -250
0.317614 4.860112313e-11 177.0599902
-4.547473509e-12 -156.1414993 -237.888926
180.113749 4.860112313e-11 75.9543412
212.990924 4.860112313e-11 -131.961951
214.5986 4.860112313e-11 111.8659712
87.380743 4.860112313e-11 -235.8055866
-4.547473509e-12 -72.8071708 121.5848498
165.827819 -252.2165768 -250
252.068271 4.860112313e-11 80.8237928
-4.547473509e-12 -53.1057872 -19.2094177
210.265943 4.860112313e-11 -3.4799001
246.842737 4.860112313e-11 -205.0117091
125.971346 -149.2238403 -250
160.377644 -79.0549208 -250
194.723803 4.860112313e-11 219.3820522
215.506899 4.860112313e-11 38.7539828
197.679622 4.860112313e-11 -127.8392225
141.121498 4.860112313e-11 -168.6988039
241.994206 4.860112313e-11 -129.0796302
48.687621 4.860112313e-11 207.5809631
-4.547473509e-12 -168.943066 2.3438382
42.072517 -169.0358754 -250
213.334052 4.860112313e-11 -183.7363064
64.110185 4.860112313e-11 -220.2761276
-4.547473509e-12 -97.7450611 -149.7441368
27.624299 -96.4939035 -250
-4.547473509e-12 -12.657436 -12.727574
234.829139 4.860112313e-11 -114.6245037
-4.547473509e-12 -100.2245855 -66.0507667
226.088113 -126.6632653 -250
-4.547473509e-12 -36.0869718 -3.2062811
242.926004 -235.1398724 -250
-4.547473509e-12 -64.8307013 197.1871276
148.544481 4.860112313e-11 -101.5513836
213.462946 4.860112313e-11 -213.2704285
187.675323 4.860112313e-11 -200.0435613
-4.547473509e-12 -98.0130831 94.8539694
-4.547473509e-12 -12.3741908 -174.6302923
103.610453 4.860112313e-11 -187.9197465
-4.547473509e-12 -48.1397829 201.8674658
-4.547473509e-12 -26.3246229 -133.3381214
-4.547473509e-12 -91.5550401 -244.2674757
218.777053 4.860112313e-11 -39.1681637
231.142551 -213.0127107 -250
152.089524 4.860112313e-11 -56.548218
59.468643 -59.1928283 -250
-4.547473509e-12 -112.2951127 214.7058774
65.083298 4.860112313e-11 131.856504
241.926192 4.860112313e-11 18.7101028
157.306852 4.860112313e-11 133.6308489
15.187669 4.860112313e-11 58.9790049
154.710828 4.860112313e-11 117.6495417
-4.547473509e-12 -104.3586237 51.4489914
242.383302 4.860112313e-11 -49.6295838
-4.547473509e-12 -209.4793124 43.0918462
140.64212 -118.9083491 -250
-4.547473509e-12 -160.789582 -127.0903685
235.97672 4.860112313e-11 -37.4898848
-0.5175344 4.860112313e-11 -90.176084
135.225098 4.860112313e-11 -44.7174133
-1.2618381 -15.1723143 -250
40.096818 4.860112313e-11 -22.3957838
38.996295 4.860112313e-11 42.5111837
-4.547473509e-12 -122.2136545 150.3094816
-4.547473509e-12 -95.2471384 237.6824753
-4.547473509e-12 -108.7654311 -34.5398548
67.767454 -113.2125155 -250
-4.547473509e-12 -63.8655313 -138.7247181
113.724932 -57.422434 -250
-4.547473509e-12 -71.450413 83.1726695
-4.547473509e-12 -76.5996073 -81.5821807
11.007422 4.860112313e-11 159.0233338
-4.547473509e-12 -66.9661468 -244.4701984
-4.547473509e-12 -205.7608241 -212.9191351
-4.547473509e-12 -192.951862 249.9152661
101.635866 -79.977952 -250
65.285266 4.860112313e-11 151.1608106
-4.547473509e-12 -141.0586324 42.882399
46.105167 -119.4424907 -250
140.665013 4.860112313e-11 179.4705231
9.413098 4.860112313e-11 37.0290272
161.203903 -50.0099783 -250
154.48663 4.860112313e-11 -118.7095957
213.698575 4.860112313e-11 142.6325141
-4.547473509e-12 -60.6767609 -105.773235
-4.547473509e-12 -227.8547425 67.2650102
211.613661 4.860112313e-11 163.2965529
49.464496 4.860112313e-11 31.2807407
-4.547473509e-12 -173.2879539 201.6091923
91.218389 -43.4380925 -250
-4.547473509e-12 -133.2862086 99.3832424
-4.547473509e-12 -216.5489172 -80.2208685
-4.547473509e-12 -238.3988117 8.0750097
108.318248 4.860112313e-11 -215.666766
-4.547473509e-12 -240.2500341 118.5258123
-4.547473509e-12 -130.1767652 -199.6112782
219.920471 4.860112313e-11 -92.8284375
211.009201 4.860112313e-11 74.5445917
194.080466 4.860112313e-11 -88.7055
-4.547473509e-12 -170.7115017 -81.4517719
-4.547473509e-12 -63.144392 112.3256638
-4.547473509e-12 -170.2440292 -37.8591954
-4.547473509e-12 -15.9285216 67.9369156
169.523572 4.860112313e-11 -62.3838997
161.096174 -124.6449793 -250
1.79998 4.860112313e-11 126.5159556
243.365244 4.860112313e-11 -228.8691784
-4.547473509e-12 -25.0782318 192.6597661
69.566411 2.0037986 250
160.045685 4.860112313e-11 235.46092
202.215499 4.860112313e-11 -105.3849477
184.469998 -68.0869541 -250
15.394316 -127.3328791 -250
214.405745 4.860112313e-11 -239.5735586
166.934324 4.860112313e-11 -34.0420869
120.771578 4.860112313e-11 29.7005274
173.017563 4.860112313e-11 170.8400022
114.822789 4.860112313e-11 168.7540476
-4.547473509e-12 -154.6326429 -218.6182997
167.851767 4.860112313e-11 -165.7337319
30.029979 4.860112313e-11 84.8269552
26.238475 -7.8229042 -250
35.009509 4.860112313e-11 -129.5900235
-4.547473509e-12 -7.1014151 -31.049368
33.160225 4.860112313e-11 111.5226967
189.569947 4.860112313e-11 33.0632492
-4.547473509e-12 -70.1169825 24.2133314
-4.547473509e-12 -24.8583834 214.2758609
235.984546 -2.099001 -250
14.158064 4.860112313e-11 -106.830293
230.58339 4.860112313e-11 62.0028334
-4.547473509e-12 -28.7259967 -223.121786
115.401461 4.860112313e-11 51.7454926
-4.547473509e-12 -59.8990052 -64.1753793
-4.547473509e-12 -86.78081 115.3196246
-4.547473509e-12 -40.4543555 75.661288
-4.547473509e-12 -180.3387424 160.1501346
28.519697 -69.2445747 -250
-4.547473509e-12 -151.0178583 112.721144
-4.547473509e-12 -112.7931557 117.7466739
-4.547473509e-12 -20.6614863 108.9966665
222.233984 -238.1656795 -250
242.35635 4.860112313e-11 181.2126761
102.754167 -29.6980945 -250
180.082593 -36.9192333 -250
32.087342 -200.2737153 -250
-4.547473509e-12 -233.4301118 -18.5785891
-4.547473509e-12 -52.7101465 -128.098491
-4.547473509e-12 -227.8950346 -53.2060608
-4.547473509e-12 -136.5783927 194.345834
-4.547473509e-12 -80.1180312 -201.779772
-4.547473509e-12 -29.0430083 8.3883372
223.390973 4.860112313e-11 206.8882683
-4.547473509e-12 -103.938927 193.4420327
-4.547473509e-12 -121.7801684 -31.6344343
45.923764 -223.2874299 -250
-4.547473509e-12 -235.7393124 208.8356201
181.184145 4.860112313e-11 220.1533787
187.06265 -107.1382049 -250
-1.6719538 -123.9386873 250
164.79492 4.860112313e-11 -178.3931605
251.931344 4.860112313e-11 148.9468449
-4.547473509e-12 -197.9403779 177.7281818
-4.547473509e-12 -28.556574 -103.6106348
236.640046 4.860112313e-11 35.7327987
-4.547473509e-12 -212.3883591 -64.6501618
187.336511 4.860112313e-11 61.3901735
-4.547473509e-12 -146.883659 157.869521
154.337847 4.860112313e-11 89.0454824
-4.547473509e-12 -13.8646389 -61.9629737
-4.547473509e-12 -98.6076218 169.3841854
112.549073 4.860112313e-11 85.4337872
0.179028 4.860112313e-11 -237.8109435
107.599772 4.860112313e-11 63.1971877
178.37613 4.860112313e-11 -119.3247566
7.693834 -221.1369016 -250
-4.547473509e-12 -218.8738741 122.7755764
122.951039 -129.157657 -250
247.888107 4.860112313e-11 207.0901158
146.14315 4.860112313e-11 -157.2684594
20.940589 -147.9729301 -250
-4.547473509e-12 -184.9549938 -85.1911021
47.25675 -251.8266308 -250
-4.547473509e-12 -134.5455852 31.645242
18.398937 -187.118018 -250
95.593294 4.860112313e-11 -66.4273441
-4.547473509e-12 -63.0969606 -50.8778601
185.100116 -226.8763662 -250
86.922263 4.860112313e-11 114.9457139
59.704436 4.860112313e-11 12.5320547
23.993805 4.860112313e-11 209.5722604
-4.547473509e-12 -221.890509 -130.004336
-4.547473509e-12 -195.2012439 202.4884514
97.386843 4.860112313e-11 153.1475054
-4.547473509e-12 -226.1052701 231.6737494
-4.547473509e-12 -133.6353838 -47.5826489
22.841864 4.860112313e-11 137.2982067
-4.547473509e-12 -37.9797721 -137.4614588
-4.547473509e-12 -122.5638962 -241.0141911
84.810002 4.860112313e-11 62.8827687
172.1268 -184.517548 -250
151.389207 4.860112313e-11 -3.3784728
225.416558 4.860112313e-11 -10.2677558
208.058545 4.860112313e-11 53.3841937
94.395486 4.860112313e-11 -150.5324282
124.967268 -187.1702639 -250
165.519788 -136.1003462 -250
214.864723 -17.7529864 -250
146.866817 -231.0392334 -250
199.044906 4.860112313e-11 17.7194392
-4.547473509e-12 -152.0474276 -99.6853632
-4.547473509e-12 -197.8444648 -109.0884664
-4.547473509e-12 -117.9997886 185.3072225
72.749916 -37.7064505 -250
-4.547473509e-12 -54.106314 -198.0624602
99.953771 4.860112313e-11 233.78473
197.341082 4.860112313e-11 83.8098462
10.963059 4.860112313e-11 241.1445375
65.806762 -168.8219446 -250
15.472644 -80.3363006 -250
122.934832 4.860112313e-11 184.6303853
-4.547473509e-12 -118.565689 78.6264728
11.245435 4.860112313e-11 73.5673174
-4.547473509e-12 -212.006538 66.4495804
-4.547473509e-12 -54.6865021 -238.0089288
-4.547473509e-12 -143.6069977 -76.7167393
246.37559 -161.341251 -250
-4.547473509e-12 -7.7444584 -117.6967544
-4.547473509e-12 -73.1828612 188.4043758
-4.547473509e-12 -203.9640171 -134.1416703
53.327171 4.860112313e-11 -194.2058991
-4.547473509e-12 -158.6532228 93.6604236
157.845904 4.860112313e-11 -235.0508714
-4.547473509e-12 -61.4053315 89.906502
40.738946 4.860112313e-11 -64.2796482
-4.547473509e-12 -11.7100193 26.512191
-4.547473509e-12 -234.5267866 -101.2050346
241.013838 4.860112313e-11 -82.6918112
219.855498 4.860112313e-11 -23.8764871
239.227749 4.860112313e-11 -194.9783841
-4.547473509e-12 -54.2433809 -31.2007629
108.320818 4.860112313e-11 -125.3849214
201.384721 -172.3043879 -250
-4.547473509e-12 -209.3701651 -150.4006746
65.84475 -208.9178678 -250
-4.547473509e-12 -14.6265972 -200.4578715
-4.547473509e-12 -145.4803821 -31.5950994
194.406025 4.860112313e-11 168.0840729
-4.547473509e-12 -239.7267392 -83.099949
-4.547473509e-12 -39.5173345 -81.5617394
-4.547473509e-12 -121.8777595 -75.5649185
-4.547473509e-12 -158.1229768 140.1748956
26.37594 -238.7693384 -250
11.208147 0.1688181 -250
-4.547473509e-12 -38.0191039 -242.3042238
10.247293 4.860112313e-11 210.4508135
110.204396 4.860112313e-11 137.6723734
48.467697 4.860112313e-11 17.0758279
-4.547473509e-12 -247.6364788 141.8795753
83.515642 -53.4480446 -250
194.173738 4.860112313e-11 -75.0010089
211.534808 4.860112313e-11 -77.4297262
181.215569 4.860112313e-11 49.0547804
-4.547473509e-12 -197.0744771 -29.9820991
-0.2394957 4.860112313e-11 224.2618043
-2.4014117 4.860112313e-11 17.3683799
-4.547473509e-12 -169.1487953 -66.1038737
-4.547473509e-12 -112.2301789 11.4502755
234.681349 0.6949857 250
130.241636 4.860112313e-11 -141.5878862
145.255284 -4.6770303 -250
-4.547473509e-12 -30.4614206 152.6964674
-4.547473509e-12 -98.9941367 -27.810025
219.636497 4.860112313e-11 14.5561728
251.330348 -124.7570869 -250
5.120695 -142.0802266 -250
116.533592 -227.0321035 -250
187.808216 4.860112313e-11 7.8717445
133.055352 4.860112313e-11 -237.509208
238.659574 -197.5161867 -250
201.13741 -198.6092863 -250
-4.547473509e-12 -175.046022 13.8720492
35.866826 -145.5755394 -250
63.147851 -0.5203924 -250
-4.547473509e-12 -43.6688248 -150.6249232
-4.547473509e-12 -170.0425933 -22.104688
176.493471 4.860112313e-11 -248.6179006
204.180427 4.860112313e-11 -220.5607918
-4.547473509e-12 -135.7778853 110.9001
130.508178 4.860112313e-11 123.7443105
83.666058 4.860112313e-11 212.3946697
74.070542 4.860112313e-11 159.2433981
111.468871 4.860112313e-11 -201.3086373
49.148672 4.860112313e-11 -53.3413022
-4.547473509e-12 -9.7791178 -82.0136992
190.944622 -250.9547062 -250
85.58816 4.860112313e-11 -170.5047846
105.792307 4.860112313e-11 103.9429443
132.485785 4.860112313e-11 162.7907355
203.525483 -109.4714978 -250
72.946814 4.860112313e-11 -201.7373194
132.099921 4.860112313e-11 69.4765048
-4.547473509e-12 -121.0175447 94.7906259
10.511289 -103.4432398 -250
-4.547473509e-12 -29.2801025 174.4545274
-4.547473509e-12 -163.8870318 243.9760543
221.152336 4.860112313e-11 94.1666975
58.887293 4.860112313e-11 -80.907505
3.792507 4.860112313e-11 148.8548663
0.292753 4.860112313e-11 -137.5491041
71.929948 4.860112313e-11 -143.0443946
79.607226 4.860112313e-11 -4.9133478
-4.547473509e-12 -130.2575764 -185.4809611
-4.547473509e-12 -162.1643901 -46.5118054
-4.547473509e-12 -234.4370887 181.5717321
125.034474 -26.8959349 -250
-4.547473509e-12 -49.5590384 242.9777446
-4.547473509e-12 -216.0772001 213.189828
187.826937 4.860112313e-11 -156.7806945
-0.1962907 4.860112313e-11 -196.522811
203.120772 4.860112313e-11 -242.9081502
8.465453 4.860112313e-11 -57.600289
57.340592 4.860112313e-11 115.2750798
-4.547473509e-12 -161.1427733 176.2988264
176.408713 -208.1509576 -250
-4.547473509e-12 -80.1102481 145.7245502
-4.547473509e-12 -21.6159667 -79.6160924
-4.547473509e-12 -120.2984601 -19.2264282
54.993924 4.860112313e-11 -33.0859039
29.640599 -181.4770172 -250
34.088371 4.860112313e-11 -99.7097958
18.23982 4.860112313e-11 -223.8302414
-4.547473509e-12 -35.75773 -60.3632255
125.469045 -116.1612176 -250
195.491443 -16.7159593 -250
20.654152 4.860112313e-11 234.9879897
-4.547473509e-12 -125.5715833 117.4348249
-4.547473509e-12 -64.974292 -209.4012105
-4.547473509e-12 -46.6013224 133.9985955
-4.547473509e-12 -32.7492386 -183.0704681
125.674459 4.860112313e-11 -107.838326
-4.547473509e-12 -243.2484381 -166.845029
212.135995 4.860112313e-11 186.7145926
207.961013 4.860112313e-11 -142.2252628
-4.547473509e-12 -226.6595039 -182.8291094
66.541068 4.860112313e-11 86.9836389
142.590953 4.860112313e-11 -20.2559294
-4.547473509e-12 -17.1210549 -36.498099
220.317639 -216.5807047 -250
-4.547473509e-12 -247.9932893 -42.3453063
145.079178 4.860112313e-11 -145.937554
-4.547473509e-12 -98.7575935 -89.1150907
-4.547473509e-12 -197.4099875 148.1085039
-4.547473509e-12 -128.7090786 63.4626949
231.278571 4.860112313e-11 -144.1846731
129.195839 4.860112313e-11 -192.4154212
13.000848 4.860112313e-11 47.8377573
-4.547473509e-12 -36.2000583 32.2505673
87.690219 -230.2264657 -250
95.560387 -146.3266032 -250
37.480051 4.860112313e-11 224.0811188
90.672944 4.860112313e-11 167.3747154
-4.547473509e-12 -53.3041904 211.9424719
-4.547473509e-12 -108.8948601 -215.9968288
172.015461 -236.7805485 -250
93.812193 4.860112313e-11 -107.087577
26.656938 4.860112313e-11 -203.5710468
-4.547473509e-12 -196.6738649 -86.0905418
-4.547473509e-12 -71.7039501 -28.3055359
166.787684 -93.4787987 -250
-4.547473509e-12 -125.7848041 161.1974547
-4.547473509e-12 -97.4631244 -233.1441761
38.964533 4.860112313e-11 6.2266573
19.438053 -159.664194 -250
239.122744 4.860112313e-11 -183.7015224
-4.547473509e-12 -58.9664999 -148.8818347
148.432819 4.860112313e-11 230.2852527
-4.547473509e-12 -67.3712423 43.4483492
180.940125 4.860112313e-11 103.4203399
106.40911 -67.843198 -250
8.929789 -30.1896613 -250
59.054849 4.860112313e-11 -99.9671787
33.17648 -128.5014296 -250
-4.547473509e-12 -44.2140416 -220.0761568
238.955556 4.860112313e-11 166.8001529
159.327249 4.860112313e-11 -98.3205739
27.656016 4.860112313e-11 -140.0005128
165.265522 4.860112313e-11 65.7552524
119.025131 4.860112313e-11 109.3153637
124.657594 4.860112313e-11 -69.830677
128.586957 -210.0617004 -250
99.118523 4.860112313e-11 -12.9397642
60.172 4.860112313e-11 225.9548971
25.199868 -56.2902986 -250
190.877642 4.860112313e-11 -216.8335885
-4.547473509e-12 -194.7855164 -195.1536074
176.010288 4.860112313e-11 131.7252909
-4.547473509e-12 -69.1004701 177.6194871
-4.547473509e-12 -152.6572893 -173.9275657
75.338273 4.860112313e-11 -15.873185
133.02275 -70.528477 -250
196.884624 4.860112313e-11 -115.3643391
171.526964 -54.2366142 -250
18.980693 4.860112313e-11 -170.564684
74.280691 -26.4684567 -250
89.884394 4.860112313e-11 -124.8222213
36.844657 4.860112313e-11 -210.009495
-4.547473509e-12 -35.6704087 222.8453745
-4.547473509e-12 -91.6678433 -76.5803102
172.413114 4.860112313e-11 158.4403287
239.83009 4.860112313e-11 104.5740945
-4.547473509e-12 -30.1051577 -13.1997838
166.858236 4.860112313e-11 216.0974071
160.166792 4.860112313e-11 191.1527817
66.511402 -17.9410282 -250
109.60111 4.860112313e-11 148.7345464
-4.547473509e-12 -95.4339772 -100.7123126
80.815397 -94.8919148 -250
85.335535 4.860112313e-11 -26.3992122
124.601592 4.860112313e-11 -47.7896161
103.28615 -131.4942752 -250
237.848392 -146.8939997 -250
29.828707 4.860112313e-11 187.9554401
-4.547473509e-12 -247.1761115 -187.0148526
43.629108 4.860112313e-11 -159.0715904
78.330146 4.860112313e-11 121.8639355
69.875935 -81.1125183 -250
-4.547473509e-12 -19.3120385 -238.2505384
103.869384 4.860112313e-11 128.4521209
-4.547473509e-12 -224.0051915 3.1277876
83.734742 4.860112313e-11 96.7048826
-4.547473509e-12 -184.5768692 -118.7403593
-4.547473509e-12 -4.4189311 -52.2188011
-4.547473509e-12 -146.571841 9.8890158
116.9578 -106.7231823 -250
-4.547473509e-12 -162.3407577 201.3605909
152.485803 -69.792169 -250
-4.547473509e-12 -212.0971745 29.7093934
92.759105 4.860112313e-11 246.5276131
-4.547473509e-12 -146.9771078 -89.986344
-4.547473509e-12 -160.0880036 -15.0635433
-4.547473509e-12 -58.1510419 66.6589123
120.29197 4.860112313e-11 -244.6714729
-4.547473509e-12 -238.000025 -154.9813396
-4.547473509e-12 -108.5021165 74.4063963
9.12023 4.860112313e-11 229.8638652
-4.547473509e-12 -199.3179979 232.6421375
-4.547473509e-12 -226.7455718 82.8309101
47.75878 4.860112313e-11 -215.7655827
136.951285 4.860112313e-11 93.5577603
86.356264 4.860112313e-11 26.813195
49.443419 4.860112313e-11 158.6372098
54.6351 -150.3947327 -250
19.70678 -31.5678048 -250
244.646137 4.860112313e-11 -108.1960282
102.107764 4.860112313e-11 179.646054
110.091468 4.860112313e-11 199.8659277
172.795289 4.860112313e-11 -73.8577488
186.383508 4.860112313e-11 -55.7899581
-4.547473509e-12 -185.8731976 226.1971682
-4.547473509e-12 -227.6267381 -77.1467311
-4.547473509e-12 -177.0401425 118.5151983
132.408023 -250.4134937 -250
47.82812 -22.7139197 -250
223.578246 4.860112313e-11 191.9914574
174.93455 4.860112313e-11 -174.6271086
-4.547473509e-12 -132.1579493 -143.2984858
-4.547473509e-12 -248.0086324 -126.559968
166.166029 4.860112313e-11 -141.4195023
74.752168 -251.1972625 -250
-4.547473509e-12 -156.9916497 -70.6713597
51.179198 4.860112313e-11 194.1276997
81.9554 -73.4065709 -250
52.87846 4.860112313e-11 -115.460354
28.141087 -24.8739216 -250
-2.3974402 4.860112313e-11 93.9851284
-4.547473509e-12 -136.6715365 16.9808198
162.977232 -190.8267974 -250
-4.547473509e-12 -87.1822053 25.5813773
242.981752 4.860112313e-11 129.6429866
147.523623 4.860112313e-11 207.9955232
-4.547473509e-12 -208.5501004 -162.7639804
-4.547473509e-12 -174.6754466 239.4776483
160.688235 -223.3263035 -250
-4.547473509e-12 -115.9933992 -133.0447403
218.69632 -77.2114268 -250
84.634757 -2.5026111 -250
3.013586 4.860112313e-11 -125.7337484
19.433866 -213.6393165 -250
-4.547473509e-12 -84.5631537 -147.016552
242.165301 -40.027741 -250
99.565802 -158.7199814 -250
-4.547473509e-12 -6.6479067 38.1593124
47.148847 4.860112313e-11 136.2844172
120.999832 -67.7263256 -250
13.930823 4.860112313e-11 128.8846467
-4.547473509e-12 -203.5361406 57.1045443
-4.547473509e-12 -194.3337829 -227.1404954
176.149157 4.860112313e-11 -108.9010799
83.252703 4.860112313e-11 -66.1443897
68.71368 -124.8705302 -250
-4.547473509e-12 -8.2431459 -155.2617533
63.184899 4.860112313e-11 -135.3958246
114.241565 4.860112313e-11 119.6401936
61.043668 4.860112313e-11 105.298156
-4.547473509e-12 -94.7075416 74.7056385
-4.547473509e-12 -91.6533863 103.3784735
-4.547473509e-12 -175.5221734 33.6717305
82.697489 -167.6812266 -250
-4.547473509e-12 -164.4267057 14.1371503
-4.547473509e-12 -222.6397801 153.8346726
21.921568 4.860112313e-11 -150.5791966
183.599867 4.860112313e-11 -236.2343465
226.069191 4.860112313e-11 37.7555419
249.62711 4.860112313e-11 38.9875326
-4.547473509e-12 -38.86939 239.6430034
250.928841 4.860112313e-11 -136.2086442
-4.547473509e-12 -224.7340015 -243.6702333
227.386999 4.860112313e-11 217.9685138
172.584022 4.860112313e-11 13.1847907
169.723158 4.860112313e-11 -197.8125766
91.636432 -208.0894608 -250
-4.547473509e-12 -105.9726307 -156.3747917
94.040764 -55.9948489 -250
173.320405 4.860112313e-11 -219.4450836
220.315207 -8.7042259 -250
161.321793 -15.3439518 -250
109.228214 4.860112313e-11 8.046479
-4.547473509e-12 -153.6371772 213.0451068
151.45447 4.860112313e-11 242.157978
61.628656 4.860112313e-11 -54.4325695
236.801772 -95.8673443 -250
9.639461 4.860112313e-11 114.514606
198.731444 4.860112313e-11 99.5712478
239.854016 4.860112313e-11 80.7403474
-4.547473509e-12 -219.0664914 -154.5166223
219.739221 4.860112313e-11 178.5960477
126.526161 -221.875832 -250
16.280379 4.860112313e-11 -130.4331363
34.774134 4.860112313e-11 121.8950716
180.957734 4.860112313e-11 -37.3454235
201.49275 4.860112313e-11 63.1833355
53.52859 -212.0056622 -250
204.452314 -65.6489192 -250
132.518049 4.860112313e-11 -85.449712
133.250667 4.860112313e-11 31.4156744
44.416021 -129.7754658 -250
243.595116 4.860112313e-11 -156.6070963
83.428002 4.860112313e-11 193.4467533
-4.547473509e-12 -218.5612796 248.7422751
179.808611 4.860112313e-11 142.916536
-4.547473509e-12 -130.347878 -107.4609598
-4.547473509e-12 -215.9747206 193.4188158
-4.547473509e-12 -116.5937413 21.0836714
-4.547473509e-12 -120.9089082 -216.8031798
-4.547473509e-12 -37.2419485 104.8531461
157.573063 -40.2274993 -250
-4.547473509e-12 -241.5807452 -60.8282391
-4.547473509e-12 -164.7337565 108.6985396
223.426007 4.860112313e-11 73.2439737
-4.547473509e-12 -29.5844942 -51.6701801
212.099009 4.860112313e-11 84.8924159
195.826115 4.860112313e-11 118.3768313
238.006601 4.860112313e-11 9.0815206
213.812025 -152.7848562 -250
171.375153 4.860112313e-11 45.7171654
13.816577 4.860112313e-11 188.6416514
10.02759 4.860112313e-11 -24.0753094
28.958246 -116.132392 -250
-2.1737683 -189.0801679 -250
-4.547473509e-12 -27.6867925 45.1674264
68.274056 4.860112313e-11 -7.2084401
167.401623 -116.4195775 -250
-4.547473509e-12 -208.2476363 -108.9103034
159.453489 4.860112313e-11 -157.9958405
-4.547473509e-12 -241.762128 -224.332718
30.901383 -35.1965038 -250
-0.6413102 4.860112313e-11 -181.3954578
181.043727 -136.5410744 -250
150.252334 4.860112313e-11 72.8265175
-4.547473509e-12 -71.6635801 -129.182169
24.368275 2.315002 -250
25.102008 4.860112313e-11 -231.5209348
-4.547473509e-12 -149.265907 -200.44511
172.480656 -68.3833035 -250
198.632445 4.860112313e-11 -26.5951842
-4.547473509e-12 -172.839464 -240.1574489
27.425123 -167.4435446 -250
-4.547473509e-12 -63.8003722 133.2016777
205.52331 -120.4123466 -250
94.368411 4.860112313e-11 59.0638774
238.17067 -222.1115987 -250
40.06535 4.860112313e-11 -118.1407184
-4.547473509e-12 -188.8885884 -164.8640139
41.67035 -60.5989103 -250
247.145541 4.860112313e-11 -63.2692141
147.072778 -242.8483178 -250
-4.547473509e-12 -239.8623319 161.7126616
-4.547473509e-12 -52.9387983 18.1933285
-4.547473509e-12 -251.2642999 -232.1165699
43.655773 -158.9400117 -250
165.444194 4.860112313e-11 94.6384719
150.025376 -180.9594035 -250
207.718168 -98.7922871 -250
-4.547473509e-12 -219.4777471 22.6708727
-4.547473509e-12 -9.4479873 -3.0499542
-4.547473509e-12 -8.6716311 158.3244254
185.865634 4.860112313e-11 209.9771118
233.355793 4.860112313e-11 -89.7900182
154.458526 4.860112313e-11 13.167518
-4.547473509e-12 -251.1893393 -114.2399021
115.86514 4.860112313e-11 -7.5744652
-4.547473509e-12 -98.647594 153.0304975
58.647084 4.860112313e-11 -154.4481673
-4.547473509e-12 -110.7249319 247.227576
64.544942 4.860112313e-11 193.8407814
238.740193 -65.9286882 -250
-4.547473509e-12 -228.9749384 144.0499013
201.145037 4.860112313e-11 -196.2124192
-4.547473509e-12 -109.5135006 145.8674311
237.687327 -251.5599212 -250
208.28273 4.860112313e-11 23.386414
181.888419 -197.3243423 -250
115.130652 4.860112313e-11 -65.1329019
129.850435 4.860112313e-11 -25.0344983
99.243037 4.860112313e-11 211.9083733
129.945396 -232.705328 -250
136.579975 4.860112313e-11 194.0576579
-4.547473509e-12 -245.5984906 22.3969386
-4.547473509e-12 -175.1971523 129.2690017
150.992938 4.860112313e-11 -14.6130472
243.988161 4.860112313e-11 158.0190985
151.717733 4.860112313e-11 -226.9981946
-1.6017781 -245.8483591 -250
72.816201 -60.0107656 -250
37.389178 4.860112313e-11 199.2078364
229.655219 -116.1744358 -250
-4.547473509e-12 -17.7741507 -183.1554816
-1.3759116 4.860112313e-11 136.9832398
110.159267 -200.4931851 -250
-4.547473509e-12 -95.3304895 19.6433157
135.104204 4.860112313e-11 246.4138209
24.952333 4.860112313e-11 -103.9620424
-4.547473509e-12 -133.9499818 -57.6546885
114.206646 4.860112313e-11 179.2965252
204.711653 4.860112313e-11 210.7535289
-4.547473509e-12 -173.563243 -153.3012628
-4.547473509e-12 -48.2523989 28.4782223
225.697108 -169.9793647 -250
85.849009 -14.6427057 -250
-4.547473509e-12 -10.485764 -44.0635768
133.120126 4.860112313e-11 -1.0634121
13.641659 -239.6777801 -250
-4.547473509e-12 -219.3340936 -192.2091055
22.030144 4.860112313e-11 2.1449288
83.035563 -189.2570365 -250
-4.547473509e-12 -156.7233947 -136.2694065
-4.547473509e-12 -222.265569 132.5423041
188.261398 4.860112313e-11 -188.1127164
69.393346 4.860112313e-11 15.1276348
81.660059 4.860112313e-11 -186.6001748
-4.547473509e-12 -8.564992 58.4112584
47.073177 4.860112313e-11 -134.934168
123.765743 4.860112313e-11 -133.9547293
-4.547473509e-12 -104.8664695 -104.0444199
-4.547473509e-12 -81.057677 -240.2289384
76.283649 4.860112313e-11 241.441192
-4.547473509e-12 -184.7009527 -230.1424357
115.271374 4.860112313e-11 -43.8448485
-4.547473509e-12 -123.1086693 -125.3148215
-4.547473509e-12 -88.8011755 140.8382827
-4.547473509e-12 -32.0793939 -199.4371775
61.226651 4.860112313e-11 62.6797873
171.310529 4.860112313e-11 -2.8770356
-4.547473509e-12 -179.044341 211.3595007
180.865723 4.860112313e-11 200.2428983
-4.547473509e-12 -238.3431679 222.0308327
139.793074 4.860112313e-11 107.9437476
-4.547473509e-12 -189.0061981 182.0659951
181.135588 4.860112313e-11 189.6020593
37.538901 -96.0981331 -250
-4.547473509e-12 -170.32077 -169.405856
218.419312 -134.4900979 -250
-4.547473509e-12 -104.8652218 235.2643086
159.089992 -148.2070713 -250
-4.547473509e-12 -33.1789873 18.0733749
231.196081 4.860112313e-11 141.4871653
50.528697 -190.5949635 -250
71.614014 4.860112313e-11 38.570796
177.845613 4.860112313e-11 -141.6080757
-4.547473509e-12 -100.1551486 -125.9366798
74.17805 4.860112313e-11 181.3038492
-4.547473509e-12 -201.1678813 -185.5895053
-4.547473509e-12 -106.2570991 -73.8905493
-4.547473509e-12 -239.8360806 -73.1548093
194.82133 -179.6890206 -250
90.282073 4.860112313e-11 146.0316479
-4.547473509e-12 -128.982582 -38.870779
-4.547473509e-12 -187.3957491 48.715934
-4.547473509e-12 -63.6224009 -186.2852893
75.251505 -237.2873838 -250
46.798093 4.860112313e-11 69.6769014
-4.547473509e-12 -8.6601939 99.6774254
165.64849 4.860112313e-11 -248.9156377
-4.547473509e-12 -47.8990677 116.173237
-4.547473509e-12 -151.9354056 -185.1639859
-4.547473509e-12 -95.7456966 -161.2610032
165.105961 4.860112313e-11 -125.2902132
29.621576 4.860112313e-11 -188.1079175
56.577752 4.860112313e-11 216.411275
48.790495 4.860112313e-11 88.5280702
221.932402 -144.1968653 -250
106.463674 -140.8874743 -250
-4.547473509e-12 -52.396799 193.0010083
113.553283 -242.4814984 -250
-4.547473509e-12 -160.784868 -95.1845876
209.756777 1.4694771 -250
145.593071 4.860112313e-11 39.5240141
110.578191 4.860112313e-11 -113.9378658
-4.547473509e-12 -137.7572481 -222.6360376
-4.547473509e-12 -49.3591648 -171.0301118
14.266462 -9.8698535 -250
123.230577 4.860112313e-11 205.4723677
21.708027 4.860112313e-11 -37.06383
104.198761 4.860112313e-11 -56.4971318
91.04824 4.860112313e-11 177.1562013
-4.547473509e-12 -195.4304578 21.0451094
-4.547473509e-12 -181.1179874 169.901316
-4.547473509e-12 -219.5492969 108.3805266
95.743607 4.860112313e-11 -1.8155455
-4.547473509e-12 -223.1466119 -39.5630072
166.586621 4.860112313e-11 198.9763143
119.26359 -196.5153837 -250
-4.547473509e-12 -209.804034 -223.8036239
105.489284 4.860112313e-11 159.7213148
242.079032 4.860112313e-11 225.6634497
106.382506 -252.0557314 -250
8.70573 -182.098082 -250
-4.547473509e-12 -242.1321288 -195.3563579
-4.547473509e-12 -137.8325786 -233.3829098
-4.547473509e-12 -207.7579148 75.5284848
151.975767 -203.4122406 -250
197.435227 4.860112313e-11 177.9439106
128.873201 4.860112313e-11 -173.6497029
-4.547473509e-12 -237.0860807 238.7068431
-4.547473509e-12 -168.5925689 87.2555
-4.547473509e-12 -9.8629996 -240.5287004
134.47189 -159.4798104 -250
232.425494 4.860112313e-11 237.8397755
148.666627 4.860112313e-11 -179.5278102
89.309372 -105.4300161 -250
-4.547473509e-12 -97.384141 -8.7215854
-4.547473509e-12 -32.8948474 -157.4833781
-4.547473509e-12 -190.2385437 -180.0263416
240.88969 4.860112313e-11 -72.2099797
219.702763 -94.4922109 -250
-4.547473509e-12 -182.1781517 245.6995664
60.120391 4.860112313e-11 -231.4217454
9.391234 -53.8204122 -250
10.266551 4.860112313e-11 169.3279723
223.118781 4.860112313e-11 -212.7314437
102.822894 -115.2617301 -250
154.312535 -56.7940053 -250
72.170032 4.860112313e-11 225.5605283
24.571452 -248.8969274 -250
243.391983 -8.2900753 -250
-4.547473509e-12 -38.0533029 -30.130853
187.165265 4.860112313e-11 -95.4282491
-4.547473509e-12 -196.5369966 -204.6373904
-4.547473509e-12 -110.7417221 95.3407278
124.768072 4.860112313e-11 231.1616091
45.355464 4.860112313e-11 -33.1330808
192.085035 -192.874094 -250
177.003737 -20.8015235 -250
87.015393 4.860112313e-11 223.5136745
208.491326 4.860112313e-11 -31.1706091
100.758465 4.860112313e-11 95.3763044
-4.547473509e-12 -195.915195 107.8333622
-4.547473509e-12 -138.8713178 213.2202071
34.940479 4.860112313e-11 -38.607236
102.004488 -192.894498 -250
-4.547473509e-12 -191.5465632 -94.2252154
158.65055 4.860112313e-11 -185.7863234
80.812366 -42.9393533 -250
-4.547473509e-12 -115.3360312 -42.1734107
186.834084 -77.4016362 -250
-4.547473509e-12 -75.1592696 16.0395303
126.116698 -177.6409458 -250
-4.547473509e-12 -78.5963105 89.5712416
-4.547473509e-12 -152.9082638 124.3207872
-4.547473509e-12 -190.2465353 155.919064
-4.547473509e-12 -36.9249311 -44.8920273
228.814926 -47.5644294 -250
78.506891 -85.2777765 -250
107.017528 -165.9463715 -250
-4.547473509e-12 -140.996719 -9.6393569
177.840039 -117.6318606 -250
25.913379 4.860112313e-11 57.6897775
230.119513 4.860112313e-11 153.5231044
-4.547473509e-12 -53.7555577 -48.8122133
88.916813 4.860112313e-11 233.0941905
135.258748 4.860112313e-11 149.8892416
-4.547473509e-12 -94.5547923 -140.7385045
142.796384 -39.6046488 -250
45.720661 4.860112313e-11 49.2886764
-4.547473509e-12 -234.8965921 -202.9021241
-4.547473509e-12 -124.3597528 171.8892477
201.436708 4.860112313e-11 3.871247
132.787186 4.860112313e-11 -208.7977814
251.069101 4.860112313e-11 -125.2672285
204.770472 4.860112313e-11 -176.0947587
-4.547473509e-12 -141.2278358 241.1238065
-4.547473509e-12 -127.7132975 241.2117636
-4.547473509e-12 -56.3414023 159.3258854
-4.547473509e-12 -231.8167507 -223.6154718
-4.547473509e-12 -48.6618533 6.6954482
234.599016 -155.807993 -250
68.428672 4.860112313e-11 71.2431925
