# .PCD v0.7 - Point Cloud Data file format
VERSION 0.7
FIELDS x y z
SIZE 4 4 4
TYPE F F F
COUNT 1 1 1
WIDTH 1191
HEIGHT 1
VIEWPOINT 0 0 0 1 0 0 0
POINTS 1191
DATA ascii
-6.748148237 104.9149699 6.167510946e-12
5.156304303e-05 81.27299324 26.75174105
-162.234175 -134.4889971 6.167510946e-12
-93.38135304 -225.2819597 163.0286343
-116.4234539 -175.2849597 6.167510946e-12
5.156304303e-05 215.4902128 178.959861
-171.7468925 -225.2819597 181.0100382
-241.2713313 -225.2819597 101.3939197
-54.77029354 -225.2819597 24.49028928
-8.183383837 -225.2819597 73.5227993
-195.259785 140.4455808 6.167510946e-12
-139.543561 -166.1732859 6.167510946e-12
-14.32009084 127.5817116 6.167510946e-12
5.156304303e-05 -101.2479439 50.34935184
5.156304303e-05 -78.92479816 238.8618212
-232.8486879 -225.2819597 223.1889932
5.156304303e-05 195.9903668 198.4913848
-250.6907207 -103.1421168 6.167510946e-12
-154.36527 76.77496024 6.167510946e-12
-18.53537624 -225.2819597 182.4331575
-199.0279066 65.25515274 6.167510946e-12
-193.076763 -225.2819597 152.5996728
5.156304303e-05 86.00358134 81.415945
-192.1664358 -225.2819597 16.97823401
-120.2529054 -231.4569369 6.167510946e-12
5.156304303e-05 -60.17211586 65.9129997
-77.81686274 49.95195164 6.167510946e-12
-227.9602192 -225.2819597 131.9146347
-175.6017438 49.35324784 6.167510946e-12
-10.27267414 -225.2819597 142.7854578
-205.9852202 28.25077654 6.167510946e-12
-77.70020524 -225.2819597 198.6837311
-146.9168132 -208.7125741 6.167510946e-12
5.156304303e-05 -174.7109066 153.6266467
-16.31953294 45.14845574 6.167510946e-12
-223.8966368 93.03618964 6.167510946e-12
-133.6108085 -225.2819597 202.2855293
5.156304303e-05 -180.8548589 103.4580575
5.156304303e-05 56.44297824 167.6622768
-89.92317944 113.3760252 6.167510946e-12
5.156304303e-05 73.36966084 240.3663517
2.396924163 193.2447831 6.167510946e-12
5.156304303e-05 -212.2489311 158.982014
-40.19781454 -102.3446555 6.167510946e-12
-86.37365324 186.9957011 6.167510946e-12
-71.33484534 -225.2819597 92.0611871
5.156304303e-05 30.16622904 134.9612055
5.156304303e-05 40.48400254 26.76095986
-50.39363324 167.7884078 6.167510946e-12
-74.59210374 -225.2819597 232.2108796
5.156304303e-05 122.6407823 103.4735749
5.156304303e-05 -56.04954486 225.2176237
5.156304303e-05 -69.56808966 110.8569817
5.156304303e-05 -161.3229238 72.6619111
5.156304303e-05 179.504352 165.9453416
-211.8968691 -61.31162706 6.167510946e-12
-158.0268033 -233.9182277 6.167510946e-12
5.156304303e-05 62.76662914 86.4050224
5.156304303e-05 -87.69085946 0.66089275
5.156304303e-05 101.5654833 128.1291431
-156.7116511 -225.2819597 166.9769403
-206.2203949 -156.0607571 6.167510946e-12
-88.14668814 -98.75228386 6.167510946e-12
-213.1417223 -100.6097906 6.167510946e-12
5.156304303e-05 76.64668514 45.45250445
-249.5209542 144.2639682 6.167510946e-12
5.156304303e-05 -119.4263573 57.06591701
-92.82404524 84.46313814 6.167510946e-12
-238.9529463 33.34545524 6.167510946e-12
5.156304303e-05 -60.41641046 206.4410509
5.156304303e-05 -207.0489876 235.5182677
5.156304303e-05 192.1304995 237.3521909
-166.2789915 -225.2819597 224.190231
-71.72935344 -132.6546184 6.167510946e-12
-239.9406538 -64.34209996 6.167510946e-12
-146.4760558 -225.2819597 250.0161505
-154.7450599 -225.2819597 133.1752535
-92.37590874 -141.1385675 6.167510946e-12
-232.0993427 182.6930287 6.167510946e-12
5.156304303e-05 -53.79927126 171.1318774
5.156304303e-05 -4.494556263 151.6197124
-78.99850104 5.676196137 6.167510946e-12
5.156304303e-05 212.5817128 144.8995835
5.156304303e-05 -135.8207218 160.4601648
5.156304303e-05 109.3307959 206.1648095
5.156304303e-05 -54.95318246 11.41558959
-193.4710857 -225.2819597 85.8103116
5.156304303e-05 50.04132744 107.8540387
-160.9467453 -169.1660428 6.167510946e-12
5.156304303e-05 -10.17620776 84.7057972
5.156304303e-05 115.271225 33.16909461
-144.2971425 143.5553598 6.167510946e-12
5.156304303e-05 51.81971324 67.8072281
5.156304303e-05 111.6515378 243.0012047
-206.2305133 -39.51750756 6.167510946e-12
5.156304303e-05 138.0064975 19.11121206
5.156304303e-05 52.47002564 234.8787081
-21.65868304 -245.1082369 6.167510946e-12
5.156304303e-05 -36.85475936 86.7653448
5.156304303e-05 -107.9382705 20.89163535
5.156304303e-05 -5.899403263 111.1644712
1.712264363 135.6526917 6.167510946e-12
-201.8122143 -187.8648647 6.167510946e-12
-159.2281247 -225.2819597 91.8680643
5.156304303e-05 206.4789606 126.9821895
-125.0843141 -225.2819597 24.69978484
5.156304303e-05 -207.9213988 19.91328939
-42.79211734 -225.2819597 125.9160103
-169.7159232 167.4876293 6.167510946e-12
-102.9806049 -225.2819597 219.5474669
5.156304303e-05 -185.788266 16.75410696
-120.544514 183.3770031 6.167510946e-12
-107.9006737 -118.8048231 6.167510946e-12
-124.6048387 0.4376122375 6.167510946e-12
-144.9929815 -130.6715037 6.167510946e-12
5.156304303e-05 -71.88567246 93.2068437
-120.2464508 -76.11712746 6.167510946e-12
-32.52932384 -30.83877576 6.167510946e-12
-38.63556044 -3.448575763 6.167510946e-12
5.156304303e-05 185.0085389 184.3296646
5.156304303e-05 1.198005337 241.0371448
5.156304303e-05 -211.7605679 38.0905198
-49.59021764 -225.2819597 204.1684164
5.156304303e-05 -38.80739876 141.37558
-175.8228156 -225.2819597 10.54776345
-245.4974511 195.8569606 6.167510946e-12
5.156304303e-05 -134.0632925 141.018847
-118.2637287 -193.4466737 6.167510946e-12
-208.2034233 6.624953837 6.167510946e-12
-59.04271734 -83.92895906 6.167510946e-12
5.156304303e-05 151.6432623 44.6517535
5.156304303e-05 -224.6147939 7.78854283
-53.84794004 -225.2819597 171.2912897
5.156304303e-05 -140.722505 248.8687903
-231.699054 138.4775078 6.167510946e-12
-36.21085834 -225.2819597 250.8049845
5.156304303e-05 -23.62967286 46.03264284
5.156304303e-05 -147.9636741 105.7732359
-156.5447319 -93.33528846 6.167510946e-12
-107.3373255 -225.2819597 133.7000269
-191.9347251 215.2478623 6.167510946e-12
-236.3427719 -127.3923963 6.167510946e-12
-124.5125148 94.82955344 6.167510946e-12
5.156304303e-05 65.86715984 117.5961912
-130.9518494 199.755919 6.167510946e-12
-230.1791317 -186.3506597 6.167510946e-12
-88.11050164 36.23926664 6.167510946e-12
-10.79451444 -167.376471 6.167510946e-12
-91.18308064 -225.2819597 23.34966192
-101.2145429 -225.2819597 193.8636166
-169.1042079 -105.9260902 6.167510946e-12
-42.32239464 -225.2819597 40.37545512
5.156304303e-05 143.1245412 170.4479958
5.156304303e-05 87.89842094 62.2764971
-115.7553996 56.50120494 6.167510946e-12
-16.30652554 -225.2819597 231.4733198
-15.84713674 -0.7682236625 6.167510946e-12
-8.982911337 -225.2819597 43.58497875
5.156304303e-05 -108.0212029 241.7795618
-140.1694628 -225.2819597 80.166328
-25.43754234 -225.2819597 215.3598151
5.156304303e-05 -48.88920306 106.6109258
1.897921563 -225.2819597 169.5501675
-237.3812429 -211.5459919 6.167510946e-12
5.156304303e-05 93.38697564 97.6799082
-183.9440414 -74.90198526 6.167510946e-12
-91.58031024 164.4342702 6.167510946e-12
5.156304303e-05 52.25456074 200.1313167
-238.6522503 -225.2819597 175.8625186
5.156304303e-05 25.12176514 153.4570431
-45.68999754 -180.9130933 6.167510946e-12
5.156304303e-05 101.6571479 170.0396749
5.156304303e-05 -93.67536486 168.9655553
-75.31247234 121.3940207 6.167510946e-12
5.156304303e-05 -166.5492377 42.61865946
-182.2325434 103.4817293 6.167510946e-12
-74.80831604 -10.41137416 6.167510946e-12
-182.8424925 -195.3948827 6.167510946e-12
5.156304303e-05 131.2855387 230.2975136
-20.81466084 -102.2905766 6.167510946e-12
5.156304303e-05 164.5571294 211.1967101
5.156304303e-05 -212.8364478 199.8938048
-67.20445224 -225.2819597 75.1092032
-129.9667851 -43.36573066 6.167510946e-12
5.156304303e-05 -38.24346836 37.17950921
5.156304303e-05 32.41504464 57.74076211
5.156304303e-05 -206.692499 70.8972763
-135.3878414 -225.2819597 8.72355967
-42.82500374 -53.84689836 6.167510946e-12
-27.16036744 -138.963562 6.167510946e-12
5.156304303e-05 90.37761154 153.2589028
-171.1377529 -37.86494606 6.167510946e-12
-157.578325 -7.955182063 6.167510946e-12
-168.6693076 -152.8069526 6.167510946e-12
5.156304303e-05 -186.9629156 200.7107705
-181.7359619 -225.2819597 72.5977281
-210.2114566 -225.2819597 237.2425267
-242.651253 1.416348137 6.167510946e-12
-151.1176717 -225.2819597 111.4562304
-14.21763294 -30.75145776 6.167510946e-12
-105.0521333 -225.2819597 151.6193888
5.156304303e-05 89.12416124 228.7383338
-2.008289137 209.9049218 6.167510946e-12
-61.03876004 136.5048578 6.167510946e-12
-78.28840514 -64.54884626 6.167510946e-12
5.156304303e-05 189.5585024 29.67021184
5.156304303e-05 -126.2004836 118.6079072
-216.3239789 -120.9778641 6.167510946e-12
-86.85140384 -247.049528 6.167510946e-12
-167.2988248 86.49103174 6.167510946e-12
5.156304303e-05 -55.19787366 130.0883632
-81.23940314 -174.2972636 6.167510946e-12
-39.36470074 65.63223774 6.167510946e-12
5.156304303e-05 168.1143185 177.3229706
5.156304303e-05 -224.369303 227.9383148
-26.75768154 -225.2819597 142.4452544
-134.6380506 -146.5105747 6.167510946e-12
-147.3542221 41.74895014 6.167510946e-12
-121.8630461 -247.3760106 6.167510946e-12
-132.7889867 225.2819441 -0.11252049
-215.1749399 199.1492007 6.167510946e-12
5.156304303e-05 -79.43002386 176.9969424
5.156304303e-05 -120.128148 79.5742559
5.156304303e-05 117.111923 49.74438958
-165.0204201 182.8544351 6.167510946e-12
-201.7337643 123.5891017 6.167510946e-12
-92.24548194 209.3745282 6.167510946e-12
-35.69611104 30.55613224 6.167510946e-12
5.156304303e-05 -73.87208866 30.86997366
5.156304303e-05 183.5512096 217.5622527
-183.002362 -225.2819597 252.3785466
5.156304303e-05 -210.625076 175.0186635
-65.12472064 -53.90203406 6.167510946e-12
-87.03801824 -199.1762504 6.167510946e-12
5.156304303e-05 212.5265363 230.5363961
-171.305564 124.1909718 6.167510946e-12
-92.75893334 -225.2819597 98.4242104
-215.6320749 -225.2819597 44.77120914
-97.88204024 -81.21337656 6.167510946e-12
-62.34387964 78.49493914 6.167510946e-12
-102.4914728 -225.2819597 0.10426114
-45.90927134 -221.1998791 6.167510946e-12
-151.9783524 -74.12173906 6.167510946e-12
5.156304303e-05 161.7171417 77.0803425
-60.35444374 95.23044554 6.167510946e-12
5.156304303e-05 -77.81945256 198.7032414
-242.3613508 -225.2819597 237.298832
-107.6114049 -138.1631765 6.167510946e-12
5.156304303e-05 52.28231224 14.44283648
-72.35388564 -225.2819597 180.6696925
5.156304303e-05 63.07492974 55.13949738
-46.25131504 107.3207919 6.167510946e-12
-201.3674885 -132.0204326 6.167510946e-12
5.156304303e-05 -134.8585218 52.13055081
5.156304303e-05 219.7398358 213.7508158
-236.6788921 225.2819441 -0.81199541
5.156304303e-05 -92.91472336 91.3760841
-90.22337194 -225.2819597 231.32582
-152.1307971 200.7884505 6.167510946e-12
5.156304303e-05 -209.8435218 251.8289047
-220.5171639 -225.2819597 73.4485539
-210.3803079 85.82695384 6.167510946e-12
5.156304303e-05 -171.4439453 84.745256
-12.62021524 -195.5528793 6.167510946e-12
-159.1476098 -225.2819597 39.24094762
2.387705563 -127.8530793 6.167510946e-12
-123.0514365 -225.2819597 101.9743759
5.156304303e-05 -213.49366 113.1076746
5.156304303e-05 -195.649189 90.5274126
5.156304303e-05 -21.74932686 236.7981129
-107.3025144 -225.2819597 179.9284653
-180.962168 -210.5456545 6.167510946e-12
-186.7083121 -248.5543779 6.167510946e-12
-77.62301934 -225.2819597 10.23003602
-71.24234664 187.9037575 6.167510946e-12
5.156304303e-05 -174.8580505 213.580932
5.156304303e-05 203.2347461 45.55222936
-178.2453602 -137.3201443 6.167510946e-12
-221.9177339 -225.2819597 148.3162904
-117.4511462 111.1512525 6.167510946e-12
-25.92029534 81.84690154 6.167510946e-12
-62.61808574 158.9463399 6.167510946e-12
5.156304303e-05 122.9550777 146.4770779
-197.2328926 -64.80385416 6.167510946e-12
5.156304303e-05 173.5072901 104.2044249
-137.4279594 -225.2819597 53.96588325
-23.94891394 -225.2819597 78.9737027
-173.9935271 -225.2819597 132.5831769
5.156304303e-05 81.09435854 118.8546884
-84.39672394 -225.2819597 42.71222052
-24.39958394 217.9254311 6.167510946e-12
5.156304303e-05 -40.61408366 64.3598381
-70.97672824 -225.2819597 115.3442583
5.156304303e-05 204.5567994 100.7776584
-134.6220193 -225.2819597 185.6191263
-123.1233705 -225.2819597 80.3293541
5.156304303e-05 -155.5372237 197.5784283
-207.9238839 -11.93383146 6.167510946e-12
5.156304303e-05 -165.8183245 14.20830677
-63.54406634 42.19346724 6.167510946e-12
-99.88937644 -225.2819597 54.23504584
5.156304303e-05 -0.1524680625 55.59020704
-106.2046891 214.4104596 6.167510946e-12
5.156304303e-05 -192.272453 236.7816974
5.156304303e-05 -154.3376023 175.0285998
-23.09802594 -225.2819597 18.73444957
-127.0933454 -225.2819597 158.4186183
-185.9204021 -225.2819597 109.6018036
-56.38612434 -225.2819597 148.0747448
-211.3363019 -225.2819597 59.6038356
5.156304303e-05 -38.94955556 14.56327594
5.156304303e-05 -48.36625676 187.5194872
-22.31638674 -225.2819597 246.0307611
-99.99635874 194.6652421 6.167510946e-12
-181.4812597 -164.7496822 6.167510946e-12
-156.2567419 -248.478671 6.167510946e-12
5.156304303e-05 176.8161702 122.9583842
5.156304303e-05 -97.97516516 122.8669745
-225.2506816 -225.2819597 16.4858592
5.156304303e-05 122.0199475 78.7287222
-43.07132194 -88.04863826 6.167510946e-12
5.156304303e-05 -71.46800336 146.8328137
-156.7663433 6.587425637 6.167510946e-12
5.156304303e-05 214.1669861 74.3546622
-162.2184023 43.62097424 6.167510946e-12
5.156304303e-05 -123.8542978 191.6166947
5.156304303e-05 17.55017604 61.7662697
5.156304303e-05 5.625352437 120.0211615
-71.53922014 -115.7199852 6.167510946e-12
5.156304303e-05 -122.1894511 226.0743734
-144.5509059 14.89433674 6.167510946e-12
-14.70544824 -225.2819597 56.89320845
-205.5068937 -225.2819597 181.4663971
-178.6860741 -9.816084163 6.167510946e-12
-177.7415455 -225.2819597 167.8912294
-98.27899914 -44.28475026 6.167510946e-12
5.156304303e-05 -23.33112236 209.6247717
-157.2995886 -225.2819597 198.702156
5.156304303e-05 218.7618977 20.99483072
-221.4130833 148.5123711 6.167510946e-12
-216.3870121 114.1352624 6.167510946e-12
-53.25922424 -225.2819597 93.1627382
-138.5501995 97.67879694 6.167510946e-12
-106.7814801 7.950952937 6.167510946e-12
-216.1360807 -236.5428431 6.167510946e-12
-19.57696674 -151.6105132 6.167510946e-12
-193.8595433 176.4606393 6.167510946e-12
5.156304303e-05 -28.70116776 158.6941198
-70.72092604 -225.2819597 47.00354898
-186.6525551 -225.2819597 218.6887829
-181.5861108 -225.2819597 195.0084531
5.156304303e-05 -190.7581441 171.1187875
5.156304303e-05 136.1936943 187.3129115
-235.965624 -225.2819597 192.6842503
-40.88918734 -146.2512849 6.167510946e-12
-132.0504592 -199.1367911 6.167510946e-12
-127.1710335 65.00888684 6.167510946e-12
-147.8029418 112.916903 6.167510946e-12
-161.2605664 211.6955724 6.167510946e-12
-110.244331 -19.05249046 6.167510946e-12
5.156304303e-05 21.85534944 187.8577183
-9.915498637 -225.2819597 199.7214375
-6.826598337 -225.2819597 91.2002138
5.156304303e-05 187.0116491 153.3312538
5.156304303e-05 -140.4104221 203.3863945
-92.23636674 98.61272834 6.167510946e-12
5.156304303e-05 142.7713613 204.8344559
5.156304303e-05 -66.60987356 165.1296069
-229.7912336 80.22062524 6.167510946e-12
5.156304303e-05 -94.07012106 13.23475102
5.156304303e-05 -178.5937175 187.5005427
5.156304303e-05 117.9471434 162.7036801
-28.61207464 -219.8021039 6.167510946e-12
-47.20160524 -25.32729486 6.167510946e-12
-189.6305583 -18.84921346 6.167510946e-12
-44.39610604 -132.6550441 6.167510946e-12
-240.3160138 -93.68538416 6.167510946e-12
-239.1659462 -236.5318786 6.167510946e-12
-233.6164399 -225.2819597 36.42027982
-146.1468996 -223.2138518 6.167510946e-12
5.156304303e-05 -188.234111 119.8938267
-86.29220434 -18.40083796 6.167510946e-12
5.156304303e-05 -161.9357063 106.2580537
5.156304303e-05 -4.537169463 136.1642985
5.156304303e-05 -30.35623276 184.5548136
5.156304303e-05 -63.39837056 47.74005307
5.156304303e-05 0.4563666375 178.6790775
5.156304303e-05 113.4516676 192.8451893
-44.10364574 -225.2819597 55.59155356
5.156304303e-05 -119.1453789 153.6486095
5.156304303e-05 143.6472991 31.81964475
-43.91093194 -38.80759156 6.167510946e-12
-17.22501604 -115.6733473 6.167510946e-12
5.156304303e-05 -106.990103 176.0622633
5.156304303e-05 65.33882204 179.2083063
-221.8131894 -225.2819597 169.8979861
5.156304303e-05 215.1258031 52.62966512
-23.29690284 115.2338519 6.167510946e-12
-191.7920842 -225.2819597 138.8738671
5.156304303e-05 83.14470574 9.90031196
-51.98216394 213.0666199 6.167510946e-12
5.156304303e-05 149.1267896 152.8098782
-147.1849773 -57.45226346 6.167510946e-12
-120.3160344 155.5942095 6.167510946e-12
-169.1127059 108.1950807 6.167510946e-12
-101.0590656 140.7931359 6.167510946e-12
-117.1384564 -225.2819597 241.9272926
-175.391649 30.10995924 6.167510946e-12
-249.7384951 -225.2819597 167.8704249
-181.2769574 -98.67971546 6.167510946e-12
5.156304303e-05 142.7706744 67.7432988
5.156304303e-05 106.818488 95.3268307
5.156304303e-05 -59.73803346 238.6502883
-222.3893305 219.8218267 6.167510946e-12
-242.2248253 -225.2819597 62.1585469
-209.7143754 -214.5283947 6.167510946e-12
5.156304303e-05 33.46172334 44.1488935
-91.43640634 150.3022804 6.167510946e-12
-32.16240634 -236.5829735 6.167510946e-12
-80.70011814 -225.2819597 153.1241554
1.070934063 225.2819441 81.9231454
-69.78717684 -75.80129536 6.167510946e-12
-72.51523514 -41.46566836 6.167510946e-12
-63.62411614 -225.2819597 209.6164635
-90.58324734 -225.2819597 249.3632219
5.156304303e-05 -114.3121638 215.1959291
-30.16719594 -225.2819597 46.28187669
-0.02470263696 180.0425794 6.167510946e-12
-247.8160956 -225.2819597 13.82058007
5.156304303e-05 -90.01062626 231.3488913
-163.680567 -225.2819597 104.770566
5.156304303e-05 27.84075514 31.22343729
5.156304303e-05 -33.71790016 105.8046574
-243.2566021 -189.0702833 6.167510946e-12
-73.97950494 139.789425 6.167510946e-12
5.156304303e-05 111.6603886 136.8575212
-69.68385674 -92.62766516 6.167510946e-12
0.421961763 -192.7840342 6.167510946e-12
-136.3053591 -120.5639525 6.167510946e-12
5.156304303e-05 66.31824214 130.9129365
5.156304303e-05 -68.05816106 80.4447636
-116.1623853 -225.2819597 57.73170173
5.156304303e-05 -188.1510245 214.3354134
5.156304303e-05 -148.4221738 69.4424184
-175.4287508 16.57279384 6.167510946e-12
5.156304303e-05 77.59568424 148.9981333
-57.26764374 -190.5998646 6.167510946e-12
5.156304303e-05 -10.70441386 205.5584808
-112.6222246 -225.2819597 205.9350618
-120.2965117 -225.2819597 127.9162593
5.156304303e-05 -12.03441236 186.0147052
-238.9027346 -225.2819597 145.9185054
5.156304303e-05 -166.7570068 230.5914201
-45.83740274 -159.6591476 6.167510946e-12
5.156304303e-05 -83.70866996 62.7429133
1.538511963 153.6208997 6.167510946e-12
-184.3950392 -225.2819597 41.17316058
5.156304303e-05 -150.856125 17.50408129
-188.9884523 -225.2819597 60.159416
5.156304303e-05 18.92934464 215.3709975
-200.7108893 -51.48780856 6.167510946e-12
-252.3569156 -165.9891339 6.167510946e-12
5.156304303e-05 9.076386737 31.01798984
-45.23296324 21.35007514 6.167510946e-12
5.156304303e-05 28.41408354 236.2551824
5.156304303e-05 -133.0609316 180.1072841
-52.06278504 -225.2819597 135.6715454
-11.50725934 220.4061011 6.167510946e-12
5.156304303e-05 94.09632874 140.6724662
-212.4921582 55.81768744 6.167510946e-12
5.156304303e-05 153.1460926 232.2553462
-237.4729741 -158.774572 6.167510946e-12
-175.5719096 -225.2819597 84.2199749
5.156304303e-05 -209.1690262 125.4767101
-97.30563724 -225.2819597 206.3676064
-14.21389844 -225.2819597 127.7355841
0.729611663 22.51536284 6.167510946e-12
-235.9970711 -13.93370856 6.167510946e-12
-27.00323464 -225.2819597 156.3829265
5.156304303e-05 -14.75085956 20.63171743
-239.5078656 171.9490239 6.167510946e-12
-59.86066644 -225.2819597 36.97248053
5.156304303e-05 205.1626282 186.8778098
-137.9335794 154.9032052 6.167510946e-12
5.156304303e-05 -29.47286546 132.3194441
5.156304303e-05 -218.4741947 146.9365492
-189.4042063 -184.0453941 6.167510946e-12
-123.8963347 32.32726954 6.167510946e-12
-228.6914249 -171.5587759 6.167510946e-12
-184.4863453 147.7408233 6.167510946e-12
5.156304303e-05 121.6633275 213.0028779
-167.4562886 -203.3402367 6.167510946e-12
5.156304303e-05 155.5756259 174.001321
5.156304303e-05 170.6222125 20.87666952
5.156304303e-05 -103.361068 139.5765972
-238.0920007 -225.2819597 211.3659902
5.156304303e-05 86.52926744 194.191079
-220.451309 -36.68724646 6.167510946e-12
-187.1314651 5.516743737 6.167510946e-12
-93.45733774 -225.2819597 127.1679514
5.156304303e-05 13.14063514 9.74200806
-187.7681088 71.53369274 6.167510946e-12
0.755175363 225.2819441 146.963901
-15.92635354 191.841479 6.167510946e-12
-119.4551366 211.2945634 6.167510946e-12
-198.4204492 -225.2819597 207.8160896
-153.1588892 -225.2819597 235.4087694
-101.9256663 108.8086619 6.167510946e-12
-243.2399687 208.4980378 6.167510946e-12
5.156304303e-05 41.23756064 167.9941881
-200.6977266 -225.2819597 26.57001675
-47.89597274 48.96958864 6.167510946e-12
-55.00242684 -225.2819597 66.6455131
-43.03362554 -115.7212782 6.167510946e-12
-228.5264839 -225.2819597 100.1024205
-50.52398334 71.91524664 6.167510946e-12
-178.9699754 212.6734911 6.167510946e-12
5.156304303e-05 -80.73317906 121.0749906
-199.5640225 -225.2819597 230.1960862
-187.9818162 -129.0783529 6.167510946e-12
-198.0325025 -83.31665206 6.167510946e-12
5.156304303e-05 -175.5043265 33.53759963
-165.393856 -225.2819597 141.9799464
-209.1591058 145.0469233 6.167510946e-12
-139.4264066 -104.0789686 6.167510946e-12
5.156304303e-05 163.632493 246.5438709
-226.2036758 164.9430427 6.167510946e-12
5.156304303e-05 188.3305977 251.2036478
-153.6712495 -225.2819597 79.5307135
5.156304303e-05 -210.3161106 98.776527
-56.91955254 -246.9558696 6.167510946e-12
5.156304303e-05 -140.2709371 86.2123048
-99.18726494 -225.2819597 109.3481117
-80.83805394 218.7099982 6.167510946e-12
-98.91952094 27.10809134 6.167510946e-12
-143.6752248 172.1863094 6.167510946e-12
-233.6022846 -39.93217036 6.167510946e-12
5.156304303e-05 217.7022294 252.4857088
5.156304303e-05 7.594790837 155.2329172
-18.30846784 -225.2819597 108.7645862
-127.4817359 -18.74708396 6.167510946e-12
5.156304303e-05 -4.995660363 7.63543679
-115.8445241 -218.2818902 6.167510946e-12
-170.617987 -233.9295341 6.167510946e-12
-23.95938124 -75.84248686 6.167510946e-12
5.156304303e-05 34.20477114 114.8021731
-68.04040174 -225.2819597 243.0801118
-90.96961624 -218.1601912 6.167510946e-12
5.156304303e-05 191.2802105 96.8616891
5.156304303e-05 -28.09968996 222.122408
-242.9724355 -116.752385 6.167510946e-12
5.156304303e-05 -98.32378996 80.0729116
-219.8387774 -225.2819597 215.5748661
5.156304303e-05 24.75758304 85.5558964
-72.92263854 -230.7325718 6.167510946e-12
5.156304303e-05 -183.8802552 66.6808791
-153.9718981 224.6531872 6.167510946e-12
-3.247147337 -74.95824516 6.167510946e-12
-0.288806237 51.60680514 6.167510946e-12
-199.3333927 -225.2819597 1.35857949
-164.2738489 -225.2819597 211.8595375
5.156304303e-05 136.3892583 139.383413
1.247088063 -234.2645785 6.167510946e-12
5.156304303e-05 212.5149343 166.8704939
5.156304303e-05 47.81931654 37.62086875
5.156304303e-05 96.36047164 72.5940078
-128.0273352 -225.2819597 113.367238
-112.0662389 164.8827024 6.167510946e-12
-171.8810473 -225.2819597 64.4231652
-50.09673034 180.1906545 6.167510946e-12
-239.0446737 125.1604523 6.167510946e-12
-103.3336357 68.61542864 6.167510946e-12
5.156304303e-05 -148.9127105 135.7710364
5.156304303e-05 -0.1415676625 223.543456
-213.4327293 -225.2819597 203.928091
-235.8609655 96.11093234 6.167510946e-12
-49.83813424 -225.2819597 115.7702926
-155.6993616 -225.2819597 66.6152206
-163.7162714 -77.91922186 6.167510946e-12
5.156304303e-05 -212.0157486 50.40409903
5.156304303e-05 182.4853242 140.09417
-248.7622024 -55.76341586 6.167510946e-12
-225.1090553 -212.4353925 6.167510946e-12
1.240395563 91.68689004 6.167510946e-12
-118.8051774 124.698271 6.167510946e-12
5.156304303e-05 -45.49935856 162.08483
5.156304303e-05 41.46180454 139.7309743
-161.1634246 -122.2960191 6.167510946e-12
5.156304303e-05 97.83799644 215.6873098
5.156304303e-05 -55.30801016 117.87763
-50.56992644 -225.2819597 231.5662336
-196.7771129 87.11062064 6.167510946e-12
5.156304303e-05 218.9069553 99.9094937
-36.46049214 -225.2819597 70.3301429
5.156304303e-05 147.5964698 10.45345739
-94.78653994 -225.2819597 11.73822719
0.779282063 -163.6594181 6.167510946e-12
-78.25136794 -225.2819597 125.0753606
5.156304303e-05 -187.5419469 51.67198625
5.156304303e-05 -150.8214929 43.44985922
5.156304303e-05 -51.50653426 74.394234
-204.3439947 -225.2819597 121.5588535
-140.1521133 -225.2819597 136.4279594
-248.8845289 -27.73379126 6.167510946e-12
-189.8125198 56.05821524 6.167510946e-12
5.156304303e-05 178.0050284 33.24032886
-134.0580136 -225.2819597 221.1030125
-1.945613437 119.4808615 6.167510946e-12
-104.3287482 -225.2819597 121.7610154
-87.96372144 -34.11233916 6.167510946e-12
5.156304303e-05 202.3990301 84.7068119
5.156304303e-05 -83.76530706 41.53245707
5.156304303e-05 -103.7438931 209.4209218
-97.31930194 -225.2819597 72.0407652
-33.12050224 -225.2819597 25.36867381
-206.8729947 -225.2819597 149.1553834
5.156304303e-05 152.0424606 114.75012
-200.5492965 -23.77718606 6.167510946e-12
5.156304303e-05 40.49410354 12.32654019
5.156304303e-05 74.74190964 86.425166
5.156304303e-05 73.74997504 217.8268796
5.156304303e-05 167.9983802 58.22353385
-216.9978372 -225.2819597 227.402069
-22.40439074 -225.2819597 171.1265309
5.156304303e-05 156.2523577 202.6175376
5.156304303e-05 124.6377323 91.7097634
-186.1301713 -225.2819597 183.9757836
-205.188052 -199.3052265 6.167510946e-12
-156.2413313 -24.35686816 6.167510946e-12
-213.6659588 101.8687591 6.167510946e-12
-185.2446071 201.4944481 6.167510946e-12
5.156304303e-05 -60.76938416 100.6891311
-9.495362437 -98.66129476 6.167510946e-12
-109.4986211 84.32215104 6.167510946e-12
-131.5145731 -225.2819597 91.2430074
1.664537763 -225.2819597 80.1456645
5.156304303e-05 14.22021144 178.7864298
-15.45059064 57.81586264 6.167510946e-12
-219.6412251 -72.65500056 6.167510946e-12
-28.62096034 -194.1838066 6.167510946e-12
5.156304303e-05 109.4686499 12.69806932
-145.1589509 -225.2819597 159.6859935
0.306642263 225.2819441 192.0077406
-77.64352734 108.4633543 6.167510946e-12
5.156304303e-05 134.9657582 101.330879
5.156304303e-05 178.2353335 91.9675589
5.156304303e-05 6.079335337 45.57913437
-128.434256 -92.44283386 6.167510946e-12
-79.28278944 -106.8409968 6.167510946e-12
5.156304303e-05 -164.8802384 181.0868507
-162.0103973 194.4007999 6.167510946e-12
5.156304303e-05 204.5361349 206.5743447
-202.290628 76.55307944 6.167510946e-12
-76.32343474 -225.2819597 102.7037521
5.156304303e-05 -171.1831408 130.3149082
5.156304303e-05 159.0879985 12.90907179
5.156304303e-05 -170.8072152 97.3678315
-92.71429624 -70.67447216 6.167510946e-12
0.681134663 -52.34904146 6.167510946e-12
5.156304303e-05 161.1086362 104.5018195
-191.1506726 188.3491907 6.167510946e-12
-9.897635537 -42.00804116 6.167510946e-12
-112.6411636 -225.2819597 226.1418255
-203.3483087 184.0873173 6.167510946e-12
5.156304303e-05 82.03269984 252.1392092
-169.9891225 -225.2819597 43.60326858
5.156304303e-05 103.4600705 234.669676
-47.96393434 -225.2819597 161.1992327
-145.6348837 -225.2819597 199.2778522
-226.0619054 -99.87057976 6.167510946e-12
5.156304303e-05 -99.15613816 101.245841
-67.53275474 7.858648937 6.167510946e-12
-43.40009954 -232.5810396 6.167510946e-12
5.156304303e-05 129.4107677 165.4878253
-52.81151994 -98.17239416 6.167510946e-12
-156.1157894 -200.7080426 6.167510946e-12
-233.7323953 -225.2819597 70.1080331
5.156304303e-05 106.8143358 44.35277922
-142.7123399 -36.10800876 6.167510946e-12
-190.2088488 -111.4517609 6.167510946e-12
5.156304303e-05 59.34238244 44.14371233
5.156304303e-05 82.15839574 181.1858135
5.156304303e-05 -215.5535394 211.171119
5.156304303e-05 92.06847184 115.1106312
-225.4556077 60.25435794 6.167510946e-12
5.156304303e-05 -216.0333652 63.1191852
5.156304303e-05 -150.1759567 230.7176664
-103.5825747 -54.57913196 6.167510946e-12
5.156304303e-05 -85.06364016 216.7760396
5.156304303e-05 180.9131006 240.1529778
-107.2325025 -225.2819597 31.22165671
5.156304303e-05 7.321321437 213.8263535
5.156304303e-05 205.7811491 32.13890034
-116.3257562 -225.2819597 154.1134664
-229.424496 11.14191864 6.167510946e-12
5.156304303e-05 -120.3012625 8.39710104
-48.22767324 191.8589703 6.167510946e-12
5.156304303e-05 -185.7521691 148.5286961
-98.71130344 -170.9003183 6.167510946e-12
-218.3287851 -90.31650046 6.167510946e-12
-182.4115817 39.24714254 6.167510946e-12
5.156304303e-05 -135.2905088 111.5392627
5.156304303e-05 11.09787214 191.8835067
-99.96381664 -196.442901 6.167510946e-12
5.156304303e-05 139.8764844 248.0991745
-27.40969244 -6.285035863 6.167510946e-12
5.156304303e-05 -62.95795706 139.1632918
-184.4859451 169.20428 6.167510946e-12
0.427820663 -139.1215128 6.167510946e-12
5.156304303e-05 116.8169487 61.9459131
5.156304303e-05 134.353004 55.99022356
-131.9038501 -135.4170889 6.167510946e-12
5.156304303e-05 -162.7925217 249.9521526
-7.619346037 11.39378034 6.167510946e-12
-63.11035834 210.561317 6.167510946e-12
-20.59453724 34.58618224 6.167510946e-12
-53.98905894 -51.48933266 6.167510946e-12
-84.47879874 175.766289 6.167510946e-12
-213.9364327 -225.2819597 109.6897933
-2.731101137 -27.59650906 6.167510946e-12
5.156304303e-05 -152.2630671 147.6964523
-45.97168204 -77.05303496 6.167510946e-12
5.156304303e-05 129.2518037 114.8162967
-245.8359999 -225.2819597 132.1376633
-80.42920774 -139.9373675 6.167510946e-12
5.156304303e-05 -168.3756758 164.0451843
-241.5183591 70.28547914 6.167510946e-12
-142.4324169 51.95224174 6.167510946e-12
-123.4083487 -115.6074945 6.167510946e-12
5.156304303e-05 15.56102204 75.8195907
5.156304303e-05 76.75664134 201.5713656
-101.0049389 -127.7675551 6.167510946e-12
5.156304303e-05 54.47675944 155.8471265
-162.7014709 -225.2819597 154.0464755
-212.1460339 -50.02832766 6.167510946e-12
5.156304303e-05 71.12453354 159.4973558
-130.5422775 213.3185419 6.167510946e-12
-148.4571927 -225.2819597 43.26756683
5.156304303e-05 50.40236594 211.2459391
-232.2537213 -201.5319371 6.167510946e-12
5.156304303e-05 -18.19383366 109.586376
-132.4704779 15.09162914 6.167510946e-12
5.156304303e-05 -213.5494512 222.9146062
-8.863830437 -210.3059425 6.167510946e-12
-79.84333464 -225.2819597 81.8621343
5.156304303e-05 -114.9689279 104.8335272
5.156304303e-05 6.036053737 86.0662364
5.156304303e-05 -5.729724863 97.7339177
-202.6178683 -225.2819597 165.6574702
5.156304303e-05 -91.51052666 148.6423221
-10.63374954 138.1501368 6.167510946e-12
5.156304303e-05 158.6988642 138.9687664
-195.4506117 -225.2819597 36.44813478
5.156304303e-05 7.663012337 108.2301035
-110.051182 -33.58984026 6.167510946e-12
-36.81651154 -203.2433128 6.167510946e-12
-55.84165264 -209.9590659 6.167510946e-12
5.156304303e-05 224.3172011 46.28353078
-196.4706112 225.2819441 -1.86327901
5.156304303e-05 -223.251135 136.7861944
5.156304303e-05 -31.82319536 53.6156088
-184.1860161 -87.12197266 6.167510946e-12
5.156304303e-05 36.74775894 77.7301105
-242.8991594 -75.08860166 6.167510946e-12
5.156304303e-05 20.15511174 139.846386
-120.8996476 -225.2819597 180.4400223
5.156304303e-05 -9.869942363 239.8814528
-84.56195404 -5.055592263 6.167510946e-12
-121.7116634 -225.2819597 14.1021418
5.156304303e-05 56.87038314 99.0809305
5.156304303e-05 115.8310143 112.5693296
-38.91640614 79.06177354 6.167510946e-12
-31.40476434 -225.2819597 87.5833755
-154.3492893 175.2354982 6.167510946e-12
-212.3254907 -166.0371551 6.167510946e-12
5.156304303e-05 -164.4563346 219.7376728
5.156304303e-05 36.25857254 187.8055149
-179.3396466 -227.0242964 6.167510946e-12
-217.1639248 -249.593236 6.167510946e-12
-133.0237843 -225.2819597 145.7855145
-194.1194325 -141.6135574 6.167510946e-12
5.156304303e-05 -64.83466636 6.43891586
-43.99256094 -14.74481546 6.167510946e-12
-9.086742437 -185.0802018 6.167510946e-12
5.156304303e-05 -10.06907886 60.4429287
-51.90871994 -4.419729763 6.167510946e-12
-178.2000559 156.8124539 6.167510946e-12
5.156304303e-05 -20.72127526 81.4656034
5.156304303e-05 -112.3884679 185.6793933
5.156304303e-05 -43.70590646 206.4480718
-36.86590024 147.8859782 6.167510946e-12
5.156304303e-05 -224.2957381 37.08946188
5.156304303e-05 -123.1390753 202.5935482
5.156304303e-05 -197.9256242 24.50214666
-66.95220024 -225.2819597 12.86999287
-193.1072386 -199.3212376 6.167510946e-12
-11.71393334 -240.4413565 6.167510946e-12
-172.1186797 96.35631494 6.167510946e-12
-76.76596474 -203.0319967 6.167510946e-12
-78.77926864 195.8722014 6.167510946e-12
5.156304303e-05 -54.77080836 196.4230561
-30.81050404 -225.2819597 188.0746891
-177.3016678 -61.42702956 6.167510946e-12
-250.6651592 27.45050754 6.167510946e-12
-94.50286814 -239.2085925 6.167510946e-12
-36.80999894 -225.2819597 138.0949479
-88.81291094 -225.2819597 65.12221
5.156304303e-05 20.31728704 128.9097308
-225.4177332 -16.70880266 6.167510946e-12
-60.48681174 -225.2819597 118.4345962
5.156304303e-05 51.59495894 223.9784316
5.156304303e-05 192.4618766 10.64048776
-35.33643514 106.8125945 6.167510946e-12
-97.34511504 -225.2819597 139.0148872
5.156304303e-05 73.00450104 228.7239615
-11.97030204 115.1856496 6.167510946e-12
-108.0083928 -234.6815302 6.167510946e-12
-248.6676154 -225.2819597 180.1410856
5.156304303e-05 95.40891224 86.8932882
5.156304303e-05 -120.8841133 94.3174127
5.156304303e-05 -195.813704 70.7446374
-12.71527784 -140.4643023 6.167510946e-12
-124.4285083 78.41417904 6.167510946e-12
-112.6109943 -83.81111176 6.167510946e-12
-180.3523214 137.721797 6.167510946e-12
-205.5759916 113.4012808 6.167510946e-12
-195.4400652 -157.0693216 6.167510946e-12
5.156304303e-05 60.07569194 191.129038
-127.0282797 -173.1402822 6.167510946e-12
-8.812902037 -225.2819597 115.8629731
-119.7068224 172.5410661 6.167510946e-12
-147.2828311 -181.8926746 6.167510946e-12
5.156304303e-05 17.92369764 94.1882968
5.156304303e-05 -199.1305685 227.1531557
5.156304303e-05 -129.5167635 240.1262899
5.156304303e-05 -138.0600486 216.915102
-212.1141271 -191.0514128 6.167510946e-12
-19.17219374 -174.1456604 6.167510946e-12
-188.719007 -225.2819597 98.6123877
5.156304303e-05 -27.00760566 11.05302143
-117.8158695 -225.2819597 33.11558125
5.156304303e-05 63.43545424 74.8912346
5.156304303e-05 -91.56656276 55.02323012
5.156304303e-05 73.62804034 57.16426988
-67.60667074 -153.0683468 6.167510946e-12
-10.30898434 -225.2819597 10.74104988
-35.43317524 89.22350084 6.167510946e-12
-130.7573586 -31.49715396 6.167510946e-12
-63.69233944 -66.31532276 6.167510946e-12
5.156304303e-05 143.8788765 79.0623036
-133.938847 176.7528876 6.167510946e-12
-149.3291694 -14.80602906 6.167510946e-12
-39.24519514 130.0480543 6.167510946e-12
-102.602633 -225.2819597 168.4719156
-103.5565618 56.77353514 6.167510946e-12
5.156304303e-05 206.9613049 153.99486
5.156304303e-05 27.35395114 246.89015
5.156304303e-05 188.1240618 124.3094748
5.156304303e-05 -44.13047376 151.4909646
-86.25997704 -163.4366022 6.167510946e-12
-108.4262521 133.0607894 6.167510946e-12
5.156304303e-05 -160.4556707 51.37475208
5.156304303e-05 82.89966924 93.298831
-218.0957438 -225.2819597 194.1421342
-204.3695311 -236.5667051 6.167510946e-12
-87.86889074 23.59949884 6.167510946e-12
-207.47567 208.1883376 6.167510946e-12
-236.5292262 22.99457434 6.167510946e-12
-235.3040664 192.8497247 6.167510946e-12
5.156304303e-05 -223.6442147 203.1772779
5.156304303e-05 171.0729873 82.1102837
-109.671161 -148.5786244 6.167510946e-12
5.156304303e-05 -107.7688747 41.98071138
-88.56537894 -111.9652245 6.167510946e-12
-138.5315571 189.6846174 6.167510946e-12
-90.67417244 46.52273924 6.167510946e-12
5.156304303e-05 -67.72932066 175.6683788
-43.33055394 -225.2819597 18.98197419
-229.4237866 -63.18675186 6.167510946e-12
-249.730804 -180.1574222 6.167510946e-12
-17.75803424 14.40462974 6.167510946e-12
5.156304303e-05 -69.27165156 60.5460166
-129.4965106 -224.4068844 6.167510946e-12
5.156304303e-05 36.24400814 206.4078472
5.156304303e-05 -83.52956906 96.2147649
-215.5299906 -225.2819597 248.5703054
-39.84040244 167.6945938 6.167510946e-12
-98.95935394 -225.2819597 89.8865498
-36.18017944 -167.6411334 6.167510946e-12
-172.5305121 -193.1750171 6.167510946e-12
-12.02596144 75.18717754 6.167510946e-12
5.156304303e-05 85.36453064 36.45281445
5.156304303e-05 -170.0894357 65.9268622
5.156304303e-05 -222.8196093 159.4937099
-134.3888161 -74.88682166 6.167510946e-12
-157.139921 -104.394179 6.167510946e-12
-216.5454097 -225.2819597 139.2862115
5.156304303e-05 152.2387517 85.7960635
-82.14669044 -225.2819597 242.2266255
5.156304303e-05 -199.1752988 14.07899065
-212.0242366 36.83564654 6.167510946e-12
5.156304303e-05 -200.2451237 207.5059708
-179.3243055 -240.5217553 6.167510946e-12
5.156304303e-05 60.99820694 140.532238
-139.3701345 -225.2819597 113.267646
5.156304303e-05 210.8544149 12.89377455
-225.6980486 -133.4362607 6.167510946e-12
5.156304303e-05 -199.9331582 166.0757387
-230.0557619 41.55510014 6.167510946e-12
5.156304303e-05 206.9616846 239.3963793
5.156304303e-05 -114.3842681 233.0365186
-64.99400894 -20.33005656 6.167510946e-12
5.156304303e-05 142.4069246 122.1270461
-79.54318164 -219.5274245 6.167510946e-12
-54.00212224 123.3783013 6.167510946e-12
-226.8410709 -118.4463671 6.167510946e-12
5.156304303e-05 187.2978102 59.16668772
-153.3294478 -225.2819597 25.29884663
5.156304303e-05 177.9000213 46.09471357
5.156304303e-05 -46.71720066 21.51702895
0.784952963 225.2819441 175.4866843
5.156304303e-05 130.1300947 25.92632466
5.156304303e-05 93.07777484 175.9451425
-167.6435352 -11.37969716 6.167510946e-12
5.156304303e-05 132.6517376 77.3597693
5.156304303e-05 102.5536614 249.1864575
5.156304303e-05 209.2444714 65.2031656
5.156304303e-05 141.5132942 232.1126645
5.156304303e-05 -19.06058246 178.3729498
-136.5296557 71.00409494 6.167510946e-12
5.156304303e-05 -91.34580286 241.6403012
-195.8659359 -243.6736899 6.167510946e-12
-72.50291564 -225.2819597 214.9779944
-203.3388911 172.2650271 6.167510946e-12
-190.3102562 -225.2819597 6.78391782
-247.0589339 -225.2819597 154.441673
-67.08808324 68.21420554 6.167510946e-12
-24.44422234 148.7539865 6.167510946e-12
-171.2829533 -169.0253925 6.167510946e-12
5.156304303e-05 -14.63202116 153.6084076
5.156304303e-05 209.466723 219.3643759
-130.2413779 -225.2819597 38.20298109
5.156304303e-05 184.3967788 206.7724706
-69.23524794 -142.8742182 6.167510946e-12
-125.258134 -225.2819597 226.4997113
-75.26432434 15.29003434 6.167510946e-12
-225.865442 -225.2819597 43.49328088
5.156304303e-05 -30.43116816 202.1475463
5.156304303e-05 -30.65705656 119.8009597
-91.72133594 -151.721085 6.167510946e-12
-226.066052 -27.56244256 6.167510946e-12
-221.2730684 123.1995893 6.167510946e-12
0.004086463043 225.2819441 121.2591209
5.156304303e-05 170.7966218 158.1627453
-3.495409537 -225.2819597 237.5869479
5.156304303e-05 -218.1207326 18.13528132
-79.65730254 -225.2819597 163.3479068
-120.9198438 46.30356804 6.167510946e-12
-28.56904684 -225.2819597 109.2050254
5.156304303e-05 4.890655437 143.9982913
-178.7214049 -44.78591146 6.167510946e-12
5.156304303e-05 -102.440529 60.5363635
-211.0414087 -225.2819597 171.4993607
-61.89045254 -178.5473403 6.167510946e-12
5.156304303e-05 -143.0104963 177.686844
5.156304303e-05 -0.6528075625 251.0999639
-215.4046251 -223.6034398 6.167510946e-12
-145.0282707 83.91358884 6.167510946e-12
-139.2361335 -215.4358303 6.167510946e-12
-9.155560137 -55.41961716 6.167510946e-12
-18.77004184 -90.69693016 6.167510946e-12
-130.5946424 -7.806941163 6.167510946e-12
5.156304303e-05 21.85046594 107.8562079
-113.8866991 -60.34232926 6.167510946e-12
-142.9706359 225.2819441 -0.27329313
5.156304303e-05 -126.6745352 167.0007223
-144.0614808 -198.9490369 6.167510946e-12
5.156304303e-05 114.0384262 72.4265194
5.156304303e-05 66.30750044 19.83933079
-204.8320099 133.2661845 6.167510946e-12
-143.3255758 -46.24600956 6.167510946e-12
-154.0619524 -225.2819597 147.2386526
5.156304303e-05 121.7540106 242.0047171
-203.6394487 18.37629694 6.167510946e-12
5.156304303e-05 93.39105444 205.7896566
5.156304303e-05 -176.0996094 112.4206688
-27.55953924 186.8473053 6.167510946e-12
5.156304303e-05 159.25886 51.3314284
-170.6654095 59.45068514 6.167510946e-12
-88.20585054 -225.2819597 33.34406838
-18.86389144 161.0029776 6.167510946e-12
-190.6663933 -225.2819597 199.4498872
5.156304303e-05 -7.176924363 29.40641963
5.156304303e-05 131.9058277 11.06845928
-88.69679994 -61.41767626 6.167510946e-12
5.156304303e-05 -63.53508926 218.4617507
-226.5587463 30.91299034 6.167510946e-12
5.156304303e-05 -170.9231179 140.3912199
-67.86176244 -225.2819597 223.9247964
-177.7098664 -23.90990386 6.167510946e-12
5.156304303e-05 -164.2657644 154.8679647
-247.4296328 -225.2819597 201.935718
5.156304303e-05 -62.25442186 21.0210932
-17.64027954 -225.2819597 206.113308
5.156304303e-05 10.76149804 238.0369019
5.156304303e-05 -42.39929996 226.1048157
5.156304303e-05 21.77573504 228.0010737
-127.5083786 -225.2819597 55.37610758
5.156304303e-05 72.89760854 140.148754
5.156304303e-05 -225.0419343 67.5015041
-142.3190308 202.7922748 6.167510946e-12
-12.37095624 -18.30057616 6.167510946e-12
-64.54109704 -197.4697546 6.167510946e-12
-66.21694114 -5.292180763 6.167510946e-12
-85.87128314 -225.2819597 105.6738767
-166.672366 -225.2819597 3.09556482
5.156304303e-05 -186.4836031 244.9236229
-31.82422134 -41.69201216 6.167510946e-12
-9.441682737 -82.79335306 6.167510946e-12
5.156304303e-05 -122.0958496 69.782084
5.156304303e-05 42.60781694 236.4140412
5.156304303e-05 -64.93597776 120.4581215
-118.1653816 8.044931537 6.167510946e-12
-111.779629 -166.4755491 6.167510946e-12
5.156304303e-05 -179.9736031 93.4762272
-96.24947474 -18.53827356 6.167510946e-12
-130.2872268 -225.2819597 241.9402415
-62.37731994 -225.2819597 83.8024526
-128.8861646 -240.2906549 6.167510946e-12
5.156304303e-05 -22.65085566 33.98182333
-95.20709914 2.811480537 6.167510946e-12
-112.2917392 -184.3023472 6.167510946e-12
5.156304303e-05 99.16953854 51.73577709
-202.5904297 -225.2819597 93.1874381
5.156304303e-05 150.2996925 163.611144
-205.2663389 -225.2819597 40.25956103
5.156304303e-05 -176.9231265 9.48583336
-180.6916013 -108.7875061 6.167510946e-12
5.156304303e-05 -136.950246 64.8244676
5.156304303e-05 89.60581274 127.6626709
-38.87623264 -212.9020119 6.167510946e-12
5.156304303e-05 -179.1476739 46.47350758
5.156304303e-05 -45.25933956 176.0860019
5.156304303e-05 -82.33786356 144.9924897
-193.8267008 -225.2819597 117.8176346
-172.5681683 -225.2819597 239.3827254
-161.9981234 115.01159 6.167510946e-12
-187.0567678 -218.2867429 6.167510946e-12
5.156304303e-05 -9.444332163 195.5161507
5.156304303e-05 -66.87690496 247.4764935
-191.134323 34.68610784 6.167510946e-12
-1.190086937 72.72545524 6.167510946e-12
-224.7350397 196.4875246 6.167510946e-12
5.156304303e-05 -130.3660407 38.32220166
-24.44269254 -57.93925446 6.167510946e-12
-152.3421109 137.662018 6.167510946e-12
-88.25233664 -225.2819597 202.5465092
5.156304303e-05 132.3855001 178.2589261
5.156304303e-05 135.7253286 129.5849574
5.156304303e-05 -150.7466604 248.330806
5.156304303e-05 153.0571624 214.0277987
-121.7227933 -225.2819597 91.7403273
5.156304303e-05 -159.1566862 209.5423276
5.156304303e-05 -213.8702858 190.146093
-114.4335697 -225.2819597 6.67065759
5.156304303e-05 107.7499634 218.9237495
-70.55165424 83.79610094 6.167510946e-12
5.156304303e-05 -111.8187017 144.4676192
5.156304303e-05 -198.8096474 195.7076515
5.156304303e-05 81.12074034 160.2805416
-43.98314154 -225.2819597 240.9226181
-185.0719432 -225.2819597 147.0200196
5.156304303e-05 10.12806374 19.02123781
-165.6444178 17.00323504 6.167510946e-12
-218.0699647 -146.7035209 6.167510946e-12
-148.0764827 101.661669 6.167510946e-12
5.156304303e-05 162.2385032 30.95804577
-24.69572544 -230.3222609 6.167510946e-12
-52.47728274 -225.2819597 183.7737385
-77.01036534 -225.2819597 139.3971423
5.156304303e-05 -33.92150126 246.536396
5.156304303e-05 -95.88601706 42.26610547
-96.37818094 -225.2819597 175.9082564
-205.1747042 -178.7741331 6.167510946e-12
-91.49905804 124.160866 6.167510946e-12
-18.84857404 -225.2819597 41.99296375
-187.1366826 -64.29250936 6.167510946e-12
-165.1889013 -55.62682486 6.167510946e-12
5.156304303e-05 -155.7599137 113.7096722
-5.241787337 -2.198640963 6.167510946e-12
5.156304303e-05 100.7932689 8.42992567
5.156304303e-05 55.91514544 120.0870117
-104.8861196 204.8373396 6.167510946e-12
5.156304303e-05 -200.0950282 122.1836598
5.156304303e-05 -34.84723556 233.3169019
5.156304303e-05 -7.365242463 70.3129125
-238.4891164 50.34739584 6.167510946e-12
5.156304303e-05 -197.0869392 80.2976429
5.156304303e-05 86.28283964 52.77713745
-64.95552604 -30.65176956 6.167510946e-12
-150.7360929 150.7169959 6.167510946e-12
5.156304303e-05 92.41504684 162.6693554
-239.1888861 -54.73490756 6.167510946e-12
-17.56455434 90.30177774 6.167510946e-12
-215.2687815 25.69523134 6.167510946e-12
-216.7143277 210.8733087 6.167510946e-12
5.156304303e-05 -223.4363821 97.7048599
5.156304303e-05 152.7004584 71.4998377
5.156304303e-05 -27.60251036 89.3408276
-237.0232494 -225.2819597 13.67353036
-65.10196184 -225.165417 6.167510946e-12
5.156304303e-05 -216.4907181 233.8055754
-121.9001189 -66.66743906 6.167510946e-12
5.156304303e-05 44.73007664 193.6526685
-7.020508237 42.64138174 6.167510946e-12
-202.1832205 39.47082454 6.167510946e-12
-47.08137184 96.90637294 6.167510946e-12
-25.17881744 -225.2819597 224.938203
-86.78518804 -186.0709915 6.167510946e-12
-53.17248294 -225.2819597 5.23430611
5.156304303e-05 -4.177716463 212.5631273
-61.26248744 104.758548 6.167510946e-12
5.156304303e-05 -20.85882346 136.6347095
-141.9450587 120.4824548 6.167510946e-12
-180.3731412 127.244733 6.167510946e-12
-176.3663 -225.2819597 109.0981826
-148.0427217 -84.35513166 6.167510946e-12
5.156304303e-05 35.97636804 103.5420978
-65.37298254 127.9827282 6.167510946e-12
5.156304303e-05 -194.3507213 99.9991948
-37.82739434 -225.2819597 94.6534832
-236.9345604 -225.2819597 135.5999534
-249.0669804 -225.2819597 212.6461483
-78.85327654 33.79635574 6.167510946e-12
-240.2438315 146.4572016 6.167510946e-12
-184.9764826 -225.2819597 241.638779
5.156304303e-05 61.75480574 237.0277392
-250.3635485 133.9265968 6.167510946e-12
-115.1665881 -104.1572125 6.167510946e-12
-98.77544654 77.03151114 6.167510946e-12
5.156304303e-05 220.6300289 225.5631317
-48.42197844 -225.2819597 106.3720134
5.156304303e-05 -51.26052396 60.0703242
-63.88164884 181.9004879 6.167510946e-12
5.156304303e-05 -181.5764649 160.1723266
-175.601531 190.4048899 6.167510946e-12
5.156304303e-05 -47.03280406 97.3155164
5.156304303e-05 -177.0990289 237.0093659
5.156304303e-05 180.2211734 112.8370167
-195.3882374 -225.2819597 187.7663079
-176.4179755 174.1690226 6.167510946e-12
-247.7145576 -225.2819597 82.0033695
-175.5151247 -225.2819597 222.1504924
5.156304303e-05 196.5237408 245.7233053
-19.16001184 -219.6911617 6.167510946e-12
5.156304303e-05 34.45367274 91.9227087
5.156304303e-05 -102.681943 166.1055994
-201.3655011 -164.8373699 6.167510946e-12
-162.8613639 68.44878954 6.167510946e-12
-134.0722146 -249.2715659 6.167510946e-12
5.156304303e-05 223.8928623 203.4939952
-53.89426234 -154.751104 6.167510946e-12
-21.42151464 -225.2819597 66.8238388
-174.1189643 -219.1678455 6.167510946e-12
-45.67905664 -225.2819597 87.5489009
-116.1809882 99.25097064 6.167510946e-12
-241.5212684 182.3342934 6.167510946e-12
-212.9443155 -3.954441963 6.167510946e-12
-70.49414064 -225.2819597 56.63188027
-109.1166658 -75.01168806 6.167510946e-12
-75.52649824 -225.2819597 38.89812451
-154.9550906 15.83350764 6.167510946e-12
-152.8628162 -225.2819597 102.1978938
-172.2419672 -225.2819597 193.8486998
-242.9121315 -225.2819597 34.98437228
-157.1390478 -225.2819597 176.3728356
-165.4719502 -182.2199557 6.167510946e-12
-168.3925097 133.1207681 6.167510946e-12
-36.38934124 -182.198785 6.167510946e-12
-188.1392161 -45.55614976 6.167510946e-12
-49.99064434 139.6932862 6.167510946e-12
5.156304303e-05 -218.5991193 248.4569628
-78.72304064 -225.2819597 223.7912365
5.156304303e-05 114.9342172 90.6374063
-113.8089588 -225.2819597 103.4932704
-238.3860519 -225.2819597 119.3261827
-144.6953492 -233.8301327 6.167510946e-12
-6.805472737 -225.2819597 172.9994038
-179.272435 -33.25208466 6.167510946e-12
-229.5257372 129.3865046 6.167510946e-12
-243.7662933 41.35656064 6.167510946e-12
