# .PCD v0.7 - Point Cloud Data file format
VERSION 0.7
FIELDS x y z
SIZE 4 4 4
TYPE F F F
COUNT 1 1 1
WIDTH 1227
HEIGHT 1
VIEWPOINT 0 0 0 1 0 0 0
POINTS 1227
DATA ascii
-5.340144291 -34.1480424 3.153388661e-11
-248.9950472 -14.3298299 89.5982312
-157.6587826 -46.4388784 3.153388661e-11
-253.7899022 6.48014975e-11 204.3920607
198.4135622 -221.7499746 3.153388661e-11
-109.1688257 6.48014975e-11 44.1143133
72.68498791 -163.832993 3.153388661e-11
-83.51042569 6.48014975e-11 22.9519547
-71.68277869 6.48014975e-11 128.8355988
119.7623299 -171.2491575 3.153388661e-11
-48.92851569 6.48014975e-11 77.4671815
-177.7532824 -170.1300129 3.153388661e-11
86.09820881 -21.3833776 3.153388661e-11
20.37796781 6.48014975e-11 138.4075259
198.3969788 -34.5316138 3.153388661e-11
-39.25539829 -33.3292388 3.153388661e-11
-94.58706419 -162.254434 3.153388661e-11
59.95927751 -233.48389 3.153388661e-11
-236.2148042 -186.6237703 3.153388661e-11
220.3378125 -193.1282077 3.153388661e-11
248.9950651 -240.109116 75.6301314
248.9950651 -251.711716 99.0630737
166.1481723 6.48014975e-11 134.3963006
-248.9950472 -19.1915189 124.6495717
248.9950651 -211.7118396 126.2579606
253.7986936 -204.6493505 3.153388661e-11
143.1921138 6.48014975e-11 208.8732485
-248.9950472 -204.4441911 191.0365985
-17.78515549 6.48014975e-11 148.6878347
172.0672729 -53.241168 3.153388661e-11
-45.97914229 6.48014975e-11 203.3458925
93.63837211 -229.5159923 3.153388661e-11
-126.2000068 -26.4461488 3.153388661e-11
-248.9950472 -211.5152121 36.65631527
-51.24512339 -66.6577006 3.153388661e-11
-248.9950472 -223.6347763 17.2808377
128.1123287 6.48014975e-11 184.53237
209.2671048 6.48014975e-11 103.5845786
248.9950651 -186.593069 226.4180184
23.34628971 -86.8426873 3.153388661e-11
-177.8877026 -144.7301857 3.153388661e-11
-143.1587162 -121.4503158 3.153388661e-11
-89.21912039 -13.0518538 3.153388661e-11
248.9950651 -248.5138645 251.5189737
-139.8241763 6.48014975e-11 231.8500915
-248.9950472 -39.4754293 234.0605166
248.9950651 -130.9803532 87.4470021
49.48055331 -53.2660997 3.153388661e-11
-111.7519651 6.48014975e-11 148.387495
182.7543262 6.48014975e-11 12.92697415
-248.9950472 -176.7494893 26.28175885
-102.6659199 -199.1230721 3.153388661e-11
248.9950651 -20.683904 192.7792034
5.999375109 6.48014975e-11 47.05998174
-248.9950472 -237.6210649 79.9270527
-154.8569625 6.48014975e-11 134.3082192
248.9950651 -133.1631935 36.58967061
-159.9693548 6.48014975e-11 250.2111319
-33.09992619 -9.2741847 3.153388661e-11
142.7894129 6.48014975e-11 28.73199728
-190.1831505 6.48014975e-11 94.1351937
155.1330785 -40.1718403 3.153388661e-11
-25.05892109 6.48014975e-11 87.2099261
-248.9950472 -232.7824888 206.2193136
-248.9950472 -208.7984854 156.5780878
-31.94329879 -98.3095242 3.153388661e-11
-105.9446048 6.48014975e-11 225.5209234
127.2446269 6.48014975e-11 15.77772252
-270.4692483 -45.3287286 3.153388661e-11
-248.9950472 -146.2354402 116.0252612
89.28755311 -51.8655914 3.153388661e-11
248.9950651 -77.8278505 76.2343373
248.9950651 -236.1666791 214.609012
164.1601073 6.48014975e-11 47.35693492
-79.39349139 -152.7071957 3.153388661e-11
74.61180311 6.48014975e-11 157.9574089
-165.2010606 -13.5139721 3.153388661e-11
-3.017069291 -6.9537397 3.153388661e-11
-22.68125789 6.48014975e-11 251.2872766
58.95260591 6.48014975e-11 75.8672974
215.5573064 -22.0960857 3.153388661e-11
-248.9950472 -42.1626767 69.1305456
-248.9950472 -162.6472319 243.5293942
-248.9950472 -102.2090808 247.2765638
-248.9950472 -228.9085422 127.0178771
159.3368179 6.48014975e-11 15.18325734
-102.2935238 -126.4192001 3.153388661e-11
-208.5959966 6.48014975e-11 209.7393276
-149.0763444 6.48014975e-11 192.7053104
76.37383631 -184.935387 3.153388661e-11
127.1349637 -227.6651798 3.153388661e-11
-128.1121812 -139.6109674 3.153388661e-11
-248.9950472 -228.32876 160.7310624
220.9333791 6.48014975e-11 209.3855881
258.5406252 -235.3640572 3.153388661e-11
248.9950651 -15.809729 13.76610349
248.9950651 -36.597313 190.9313116
248.9950651 -139.2564412 228.2447564
212.6767928 -251.9813186 3.153388661e-11
10.15338051 6.48014975e-11 245.2565974
248.9950651 -93.6471419 39.6913888
239.9537244 6.48014975e-11 79.6677625
-44.78414199 -221.6973662 3.153388661e-11
2.892735309 6.48014975e-11 108.8831603
128.1482635 6.48014975e-11 43.75676781
248.9950651 -76.2795798 95.8150684
-229.2977506 -86.6478194 3.153388661e-11
-74.79170499 6.48014975e-11 97.3523397
-248.9950472 -241.8096837 56.56238693
248.9950651 -186.1905955 190.759394
248.9950651 -24.5359302 138.5134309
268.1045686 6.48014975e-11 103.6332078
248.9950651 -148.9177342 202.0778381
200.6819841 -167.4333256 3.153388661e-11
214.2378752 -78.1868517 3.153388661e-11
265.3645057 -64.5203493 3.153388661e-11
-87.83960109 6.48014975e-11 126.1699386
108.9494564 6.48014975e-11 205.2590922
-26.87263109 -118.92342 3.153388661e-11
-224.4617422 -109.052994 3.153388661e-11
218.1072575 6.48014975e-11 182.2138024
-248.9950472 -198.8581774 122.5217207
-248.9950472 -72.7226685 150.0657906
137.887113 -19.6077704 3.153388661e-11
164.9392765 -203.2444122 3.153388661e-11
248.9950651 -164.2360976 228.4788127
-23.30918779 -44.2440171 3.153388661e-11
248.9950651 -217.1243329 187.5974497
-264.7000672 -106.9047619 3.153388661e-11
179.1341266 -91.2254732 3.153388661e-11
248.9950651 -104.1174508 54.33288055
-136.6720633 6.48014975e-11 11.36025468
248.9950651 -88.3231011 145.5824452
-142.3822496 -169.6640945 3.153388661e-11
-248.9950472 -92.7754844 168.0800838
114.7352437 6.48014975e-11 251.6641797
15.55080301 -224.1077075 3.153388661e-11
-148.2472805 -31.4559431 3.153388661e-11
-210.5891021 -239.0416329 3.153388661e-11
-248.9950472 -116.9736974 145.4163272
11.44255451 -98.8746925 3.153388661e-11
211.7964948 6.48014975e-11 164.8277768
-196.7531421 6.48014975e-11 189.9430732
77.89143571 6.48014975e-11 205.6245898
-71.57048939 -185.1689456 3.153388661e-11
-100.88977 6.48014975e-11 183.5803889
248.9950651 -251.8202096 193.8351938
147.7282597 -202.5441388 3.153388661e-11
248.9950651 -126.7893889 189.8943845
248.9950651 -92.1035455 201.6929395
58.40502921 6.48014975e-11 229.6880926
-248.9950472 -171.3697441 212.2199327
45.80150361 -105.4867111 3.153388661e-11
-174.923315 -186.4874193 3.153388661e-11
-248.9950472 -148.3468768 9.87397892
-248.9950472 -87.8223001 234.4545693
-161.1370285 6.48014975e-11 49.27326008
-248.9950472 -69.4281769 47.0689575
7.238178909 6.48014975e-11 29.65188074
-214.074798 6.48014975e-11 37.33722663
133.8228171 -0.5348619999 3.153388661e-11
252.0593192 6.48014975e-11 116.2510247
91.44677711 6.48014975e-11 251.3636024
93.93237601 0.4607846001 3.153388661e-11
-216.8010403 6.48014975e-11 59.84333119
75.48333891 -222.9751052 3.153388661e-11
187.9299272 6.48014975e-11 131.231702
101.3118596 -162.8952558 3.153388661e-11
248.9950651 -223.8506108 82.9056865
248.9950651 -100.326095 100.918073
-272.5966559 6.48014975e-11 34.62437926
-189.5888426 6.48014975e-11 36.37746877
248.9950651 -230.3385393 106.4732475
-77.72040459 6.48014975e-11 40.71684585
-268.6393395 6.48014975e-11 64.1114924
-24.41345279 6.48014975e-11 29.76111568
-248.9950472 -129.7145434 173.8700887
-177.2526345 6.48014975e-11 130.2335571
248.9950651 -189.2862581 77.6347387
-248.9950472 -188.2033816 63.2134048
77.79455371 -104.1698269 3.153388661e-11
-235.2519451 -19.6108219 3.153388661e-11
-248.9950472 -40.5397376 137.7556828
248.9950651 -0.7718224999 218.4639727
-248.1357949 6.48014975e-11 80.0963664
-160.1510653 -191.5861279 3.153388661e-11
206.7663757 6.48014975e-11 134.9810237
248.9950651 -67.1476424 140.9747844
41.14792561 6.48014975e-11 235.5387895
192.8869718 -106.7006676 3.153388661e-11
261.7521791 -189.5085074 3.153388661e-11
-84.40099709 6.48014975e-11 182.7489499
-122.0651484 6.48014975e-11 159.6038579
-129.4036278 -87.219551 3.153388661e-11
-62.93776019 6.48014975e-11 168.5556747
-11.80312489 -227.1784537 3.153388661e-11
-62.90141539 -249.9948168 3.153388661e-11
-204.3130461 -168.9425842 3.153388661e-11
-248.9950472 -66.4919129 127.7861561
107.3670293 6.48014975e-11 41.70322984
23.98289151 6.48014975e-11 20.04121085
22.77643991 6.48014975e-11 172.1940133
24.65485271 -192.1662852 3.153388661e-11
210.2901177 -105.5930043 3.153388661e-11
201.0435981 6.48014975e-11 7.9582219
248.9950651 -200.6406516 221.1321988
248.9950651 -48.4935407 250.6527003
233.3494795 -156.2563236 3.153388661e-11
-204.8530367 6.48014975e-11 114.6563978
-248.9950472 -67.7335938 237.2084679
248.9950651 -149.9184405 66.7548354
-273.2093832 6.48014975e-11 132.127624
-204.9183927 6.48014975e-11 137.5872418
-221.0474908 6.48014975e-11 1.78813481
-248.9950472 -172.3836114 63.8316911
234.3247663 -226.332446 3.153388661e-11
-39.14276429 -174.4496491 3.153388661e-11
248.9950651 -142.4501682 13.98578424
31.06648421 -54.3881232 3.153388661e-11
-227.9703187 6.48014975e-11 238.0616451
255.4278841 6.48014975e-11 86.6854026
248.9950651 -219.0561508 16.78072563
178.3590978 6.48014975e-11 209.3729015
248.9950651 -245.6810343 133.0619555
248.9950651 -196.8067266 12.4007105
248.9950651 -123.8530783 121.6716114
213.7371827 6.48014975e-11 56.64333899
-248.9950472 -100.792253 128.6934204
-248.9950472 -151.9238884 157.0060644
103.0521415 -57.4664141 3.153388661e-11
198.0777302 -135.8444277 3.153388661e-11
129.2521403 6.48014975e-11 237.3393932
125.9763859 -113.5424616 3.153388661e-11
248.9950651 -100.5967633 74.6830591
-161.3828591 -131.8464329 3.153388661e-11
-273.116611 -146.0981978 3.153388661e-11
218.410836 6.48014975e-11 249.6990628
52.92032081 6.48014975e-11 181.7335474
-248.9950472 -142.3229266 192.4267309
-188.1067983 -4.1881044 3.153388661e-11
270.4208015 6.48014975e-11 198.5239214
-205.369397 6.48014975e-11 176.3542778
218.9108704 6.48014975e-11 121.283997
-252.7217673 6.48014975e-11 42.32542442
-143.9931061 6.48014975e-11 178.8705066
248.9950651 -156.9746211 181.3333239
-74.88815169 -138.6994573 3.153388661e-11
36.45724821 6.48014975e-11 194.9500451
248.9950651 -83.2928339 251.8711037
88.47395211 6.48014975e-11 226.466815
248.9950651 -10.6154593 144.1185673
-248.9950472 -110.6247868 203.1714125
248.9950651 -162.4663567 134.2117298
155.0446272 -250.979527 3.153388661e-11
-248.9950472 -32.4592417 83.912375
-61.40452979 6.48014975e-11 3.82497621
-248.9950472 -5.4047846 114.6191836
248.9950651 -174.0296347 125.0152726
143.8950249 6.48014975e-11 244.1327613
264.9303238 6.48014975e-11 32.52229392
-256.7276043 6.48014975e-11 248.1454181
-160.7448991 6.48014975e-11 25.57165365
149.5059147 -70.5564169 3.153388661e-11
-248.9950472 -180.4998238 135.9394428
248.9950651 -172.5264669 33.47366806
-270.929122 -13.1318263 3.153388661e-11
-113.817239 6.48014975e-11 13.55059026
-70.03451129 -23.5014374 3.153388661e-11
-248.9950472 -15.8928318 208.8873336
5.119508609 6.48014975e-11 70.2691852
235.6968072 -181.1124132 3.153388661e-11
-173.5022563 6.48014975e-11 157.2182215
248.9950651 -163.7887205 15.41765383
-22.34983279 6.48014975e-11 58.77530203
248.9950651 -191.7224896 156.3436994
248.9950651 -234.4116324 240.8955245
248.9950651 -177.6306911 53.94706152
248.9950651 -72.8084329 124.2473599
86.95881571 -161.2643202 3.153388661e-11
-219.6105883 6.48014975e-11 112.8704033
108.8435741 -41.0275075 3.153388661e-11
248.9950651 -234.2783964 173.811322
248.9950651 -57.0215038 152.1016675
14.27769131 -163.4793739 3.153388661e-11
188.9100478 -185.8431494 3.153388661e-11
-248.9950472 -37.3227326 32.48953564
-260.5732837 -81.139591 3.153388661e-11
259.2518319 -172.6317201 3.153388661e-11
157.9135939 0.6078576001 3.153388661e-11
-34.27732449 6.48014975e-11 173.8208545
-53.87585659 6.48014975e-11 238.5059308
255.0373497 -251.1187201 3.153388661e-11
-80.32127199 -105.2314205 3.153388661e-11
-248.9950472 -165.6562914 109.9228964
217.3552671 -152.7272774 3.153388661e-11
104.9233955 6.48014975e-11 9.097236
-215.0013929 -70.7280448 3.153388661e-11
248.9950651 -37.1790435 131.4843808
135.7641152 -131.1942168 3.153388661e-11
-195.6824538 -116.7313858 3.153388661e-11
-127.3179404 -111.386621 3.153388661e-11
36.81072971 6.48014975e-11 74.8914302
94.36999581 6.48014975e-11 170.7780539
-248.9950472 -173.8666195 196.1510601
-85.57471349 6.48014975e-11 247.7633067
176.4496384 -16.2238885 3.153388661e-11
-251.5913157 6.48014975e-11 227.657908
-211.4990862 -32.210935 3.153388661e-11
-111.5796023 -233.7911855 3.153388661e-11
69.07127291 -20.3555727 3.153388661e-11
-118.5362109 -153.3485099 3.153388661e-11
22.09332271 -29.8386394 3.153388661e-11
-111.1593453 -54.2497479 3.153388661e-11
-18.65541679 6.48014975e-11 13.90178499
-168.4197325 -237.3649959 3.153388661e-11
248.9950651 -50.691392 109.4611107
113.096825 -205.3890418 3.153388661e-11
103.1448765 -133.0807235 3.153388661e-11
95.68865771 -198.5891097 3.153388661e-11
121.8727429 6.48014975e-11 110.8975581
248.9950651 -217.4169679 239.4161215
-248.9950472 -55.4832097 172.5014447
227.9976135 6.48014975e-11 37.11256491
-27.31753089 -140.5569713 3.153388661e-11
79.45949801 6.48014975e-11 140.4214108
-75.32455129 6.48014975e-11 222.5270945
248.9950651 -16.7266053 168.0889279
166.7039892 6.48014975e-11 156.2171474
-248.9950472 -15.7070724 57.39420986
-90.26746939 6.48014975e-11 50.65431873
-186.5494056 6.48014975e-11 218.1655639
248.9950651 -224.7510836 44.52495292
-30.46512629 -216.6898337 3.153388661e-11
186.9310521 -151.0741748 3.153388661e-11
-248.9950472 -217.4350672 103.575003
-248.9950472 -38.9385773 10.91991022
248.9950651 -126.7711815 100.6758859
188.1519281 -2.7382389 3.153388661e-11
34.68205441 6.48014975e-11 165.0778047
127.1404839 6.48014975e-11 135.7737488
197.2344044 -205.9439025 3.153388661e-11
131.9627398 -57.858606 3.153388661e-11
75.36378571 6.48014975e-11 39.98066073
-113.2159366 6.48014975e-11 175.095422
14.87035981 -238.3660302 3.153388661e-11
-14.89874869 6.48014975e-11 196.4935356
249.7986125 -14.5257525 3.153388661e-11
267.7519945 -112.647468 3.153388661e-11
-248.9950472 -83.6776963 123.3915105
-248.9950472 -160.9674154 179.8368744
252.6051354 -145.8297708 3.153388661e-11
-24.72980149 -168.5899001 3.153388661e-11
-238.4828972 -109.1143895 3.153388661e-11
248.9950651 -107.2134052 230.2772842
179.8856356 -65.908462 3.153388661e-11
170.2390874 6.48014975e-11 198.295238
-248.9950472 -83.8160373 81.1311805
-248.9950472 -251.3286341 7.44688511
272.4552129 6.48014975e-11 151.5552246
50.26625431 6.48014975e-11 16.78002677
-248.9950472 -55.4512798 117.2845482
70.05113351 6.48014975e-11 177.1142694
235.1805639 6.48014975e-11 182.2995075
145.7877044 -155.3252163 3.153388661e-11
-248.9950472 -244.8549731 30.10559341
-160.1713584 -224.6110739 3.153388661e-11
-248.9950472 -63.3810268 10.89278532
-248.9950472 -51.4068996 206.6731345
-248.9950472 -90.7364599 183.5552995
-182.0344892 6.48014975e-11 115.4469453
-248.9950472 -10.2776358 150.3269182
95.31361571 6.48014975e-11 28.52780041
248.9950651 -49.0781475 33.6780269
48.65096491 6.48014975e-11 85.9129108
-68.45256639 -95.763225 3.153388661e-11
-248.9950472 -38.676829 108.8966596
248.9950651 -118.7638882 157.3198647
194.6174909 6.48014975e-11 73.210007
248.9950651 -161.6875442 76.6518286
-248.9950472 -144.4923763 67.9625417
-50.00062229 -197.3409283 3.153388661e-11
64.19951141 -104.4583191 3.153388661e-11
248.9950651 -102.2435225 116.075085
185.790543 6.48014975e-11 248.0829994
-248.9950472 -122.4487823 13.01976357
248.9950651 -163.753555 169.5984426
-114.1152853 6.48014975e-11 96.2296604
107.5115422 -177.0269798 3.153388661e-11
60.38094591 6.48014975e-11 61.9096434
122.2000685 6.48014975e-11 94.1610023
-199.9317194 -76.0480009 3.153388661e-11
109.3217524 6.48014975e-11 219.1929092
-91.23650239 0.3149234001 3.153388661e-11
30.35461051 -238.2106274 3.153388661e-11
-135.881857 6.48014975e-11 189.8207083
248.9950651 -15.4626691 223.545979
142.8422064 6.48014975e-11 173.7253484
-12.75884519 -143.5067195 3.153388661e-11
-33.02674719 6.48014975e-11 239.7325639
-248.9950472 -204.9741964 211.980072
-36.13678419 -67.8133018 3.153388661e-11
241.8745727 6.48014975e-11 207.099706
-132.0724897 6.48014975e-11 63.4672031
-73.21161169 -125.3782957 3.153388661e-11
248.9950651 -127.0576728 56.01093881
-147.3134623 -220.2037004 3.153388661e-11
-248.9950472 -136.6148511 96.1456814
-153.2584076 -103.2136309 3.153388661e-11
-248.9950472 -192.6717183 25.23184848
237.476598 6.48014975e-11 101.848046
150.5728607 6.48014975e-11 145.4663361
239.9454121 6.48014975e-11 162.3392546
222.6395072 6.48014975e-11 153.0530839
-255.7151979 -157.7471834 3.153388661e-11
248.9950651 -31.865413 105.7244153
160.785549 -144.2568834 3.153388661e-11
-182.3654002 6.48014975e-11 47.9968374
-20.45222099 -196.5406123 3.153388661e-11
248.9950651 -37.3909209 156.4715389
248.9950651 -44.0986088 12.43067808
46.21644081 6.48014975e-11 223.2536612
-191.152851 -208.72896 3.153388661e-11
205.5457868 -47.7494006 3.153388661e-11
-248.9950472 -114.6260485 251.9469407
-248.9950472 -193.89553 233.0347529
-2.745339391 -130.8129884 3.153388661e-11
-232.2339398 -49.039686 3.153388661e-11
-202.6700004 -97.5829459 3.153388661e-11
71.34437711 -77.4177423 3.153388661e-11
-248.9950472 -88.6035512 55.22455656
248.9950651 -66.8966764 192.4517458
-15.54427119 -14.5155535 3.153388661e-11
248.9950651 -197.8825601 47.5010353
-56.59635769 -118.679713 3.153388661e-11
-123.7089243 -208.9765939 3.153388661e-11
41.79128801 6.48014975e-11 3.04330737
87.24795531 6.48014975e-11 72.5388205
248.9950651 -188.6326097 241.879985
-137.4731989 6.48014975e-11 138.8251023
-0.6793669913 -245.3436427 3.153388661e-11
-248.9950472 -160.1285018 90.4857569
227.3293457 -130.9556483 3.153388661e-11
248.9950651 -143.7217966 127.2265525
-204.184814 6.48014975e-11 89.7708581
248.9950651 -98.6368219 11.84560008
259.364218 6.48014975e-11 53.54710521
261.9289741 6.48014975e-11 173.8038525
-229.031936 -137.3262848 3.153388661e-11
248.9950651 -117.3812734 245.4160126
-248.9950472 -6.6446482 9.97788745
-31.06412409 6.48014975e-11 143.0594854
-256.7756012 -95.278483 3.153388661e-11
248.9950651 -11.4505612 57.18753311
-63.53657029 -174.1934699 3.153388661e-11
-130.0105273 -73.0268889 3.153388661e-11
-197.5349396 -238.3884588 3.153388661e-11
146.2295666 6.48014975e-11 158.6071237
248.9950651 -64.3529582 90.0046945
-3.816995691 -101.8063299 3.153388661e-11
-248.9950472 -32.1082257 60.8073003
167.0040941 -182.230506 3.153388661e-11
-66.61389349 6.48014975e-11 64.8562274
143.5678249 -51.4823481 3.153388661e-11
20.51670071 6.48014975e-11 227.4959657
-99.26090149 -29.3942135 3.153388661e-11
202.1996358 6.48014975e-11 44.96446878
248.9950651 -23.9971247 252.0403145
-22.36706629 -87.29074 3.153388661e-11
-248.9950472 -70.4991883 60.0202654
7.435031309 -36.452859 3.153388661e-11
248.9950651 -138.6749212 215.1869981
-59.11850389 6.48014975e-11 204.1723169
248.9950651 -214.1688196 64.9562912
238.6019007 6.48014975e-11 230.9889631
-248.9950472 -250.1628161 152.464107
115.8883001 -82.0852138 3.153388661e-11
-248.9950472 -160.3346017 42.47497183
-157.1487657 -146.5361626 3.153388661e-11
240.866204 6.48014975e-11 33.16635845
-118.7345127 6.48014975e-11 208.9524961
-248.9950472 -160.8900256 72.9414578
-118.0557938 -15.6115401 3.153388661e-11
-248.9950472 -241.5591728 178.1275414
-248.9950472 -197.2842845 170.0104382
248.9950651 -45.3846469 71.4163948
-248.9950472 -144.8255262 28.52024218
-214.9800947 6.48014975e-11 77.5081922
225.3920073 6.48014975e-11 72.919299
-246.0485527 -137.2991684 3.153388661e-11
-258.6439746 6.48014975e-11 154.8070887
248.9950651 -45.439247 181.1038419
-125.8943977 -47.3303045 3.153388661e-11
34.59077781 6.48014975e-11 208.1126049
234.1508169 -33.4063635 3.153388661e-11
185.4545134 6.48014975e-11 179.9773846
28.52257831 -115.2178245 3.153388661e-11
248.9950651 -75.6117263 54.78930965
-248.9950472 -99.2469623 100.0792905
-149.2018924 -16.7321267 3.153388661e-11
-96.94405959 -46.1039846 3.153388661e-11
248.9950651 -105.5058366 33.54229163
-248.9950472 -237.2409946 238.5649505
248.9950651 -68.0152232 28.31506489
205.642573 -125.4763799 3.153388661e-11
-190.7518014 6.48014975e-11 240.9288844
248.9950651 -145.9914361 36.50061031
273.0170713 -161.930542 3.153388661e-11
-198.2993106 -138.4374359 3.153388661e-11
116.3228693 6.48014975e-11 194.8000009
-265.620125 6.48014975e-11 189.1952374
197.9104915 6.48014975e-11 161.4840369
-129.2002541 6.48014975e-11 119.7299987
-248.9950472 -31.600291 198.4011809
70.23157961 6.48014975e-11 100.9789481
-199.6813512 6.48014975e-11 61.134866
-267.6851186 6.48014975e-11 237.4044737
8.838166609 -194.3618102 3.153388661e-11
242.5190438 6.48014975e-11 58.56066086
-205.8361547 -188.6060519 3.153388661e-11
-248.9950472 -246.6821202 114.8670036
-248.9950472 -175.8935589 238.8863159
-261.3506624 6.48014975e-11 10.48792345
188.1362431 -165.2489479 3.153388661e-11
-152.7007142 -162.2034244 3.153388661e-11
154.2273357 6.48014975e-11 222.8055908
248.9950651 -236.0392762 55.27243318
198.1482055 6.48014975e-11 188.0588355
-248.9950472 -22.3695635 31.40305223
248.9950651 -192.7264133 175.0121935
-248.9950472 -109.5124218 74.246096
-210.3237117 6.48014975e-11 13.11443868
-221.0830512 -127.1317706 3.153388661e-11
103.803414 6.48014975e-11 76.2603442
-156.9121036 6.48014975e-11 71.3539749
-45.12109669 -90.5733139 3.153388661e-11
-248.9950472 -103.3046745 232.3228334
-202.8441661 6.48014975e-11 155.434904
248.9950651 -137.9730438 168.938115
91.77733581 6.48014975e-11 119.1230679
-190.0469243 -192.360491 3.153388661e-11
222.1401881 6.48014975e-11 223.749453
116.6651271 -10.5282392 3.153388661e-11
-110.6411292 6.48014975e-11 240.121219
-248.9950472 -148.5034231 238.57903
248.9950651 -143.4619883 248.6038607
-248.9950472 -25.8445304 94.7536615
-259.9029675 6.48014975e-11 169.261053
-49.10641869 -152.4364704 3.153388661e-11
67.81319511 6.48014975e-11 121.2804305
-138.9524521 6.48014975e-11 99.0694659
226.8355079 -89.8279333 3.153388661e-11
-248.9950472 -248.0626064 86.9780973
248.9950651 -74.1503208 167.8091028
-32.66111879 6.48014975e-11 211.6858794
248.9950651 -59.8380127 59.16727785
260.2400467 -216.2546332 3.153388661e-11
55.98674141 6.48014975e-11 156.3646507
-248.9950472 -245.9219152 204.9326235
241.8918075 -83.0565644 3.153388661e-11
-72.20069279 6.48014975e-11 185.7208144
248.9950651 -189.9815994 106.7539718
-226.1297956 -219.6828293 3.153388661e-11
-248.9950472 -79.2486204 32.87115883
-228.9913879 6.48014975e-11 250.7327907
-188.2091814 -163.2280286 3.153388661e-11
248.9950651 -222.6759424 153.6386377
-117.0699145 -181.3553588 3.153388661e-11
11.03528931 6.48014975e-11 167.8940699
141.5781134 6.48014975e-11 85.3699602
-172.311685 -85.8768742 3.153388661e-11
-248.9950472 -85.494451 157.91898
248.9950651 -130.3012561 239.0779968
8.067304809 -59.4926101 3.153388661e-11
248.9950651 -176.8224285 76.7281616
-248.9950472 -117.5451214 162.7869958
-248.9950472 -217.148796 131.201656
238.0870612 -68.0975725 3.153388661e-11
248.9950651 -83.2637453 157.856006
248.9950651 -48.2247422 217.2604976
262.0389614 -38.557402 3.153388661e-11
-259.9138794 -55.5508781 3.153388661e-11
-242.8767747 6.48014975e-11 198.3902797
-105.1602701 6.48014975e-11 120.0936603
-258.1600575 -216.6813827 3.153388661e-11
-44.42672439 6.48014975e-11 187.2213652
-218.440645 6.48014975e-11 139.0999442
-11.79218209 -118.7121697 3.153388661e-11
-25.87831179 6.48014975e-11 99.616386
-84.31354869 -238.6385292 3.153388661e-11
248.9950651 -179.3898483 154.9407124
-172.2488495 6.48014975e-11 169.5630564
-67.68202359 6.48014975e-11 111.1060716
33.99312031 6.48014975e-11 143.7510257
-248.9950472 -52.2163799 102.2887893
-261.0327585 -194.5161895 3.153388661e-11
43.63508711 6.48014975e-11 120.1807161
-150.3334192 -250.6706306 3.153388661e-11
-248.9950472 -205.9955009 238.1010336
-158.5273487 6.48014975e-11 204.372878
242.6538347 -168.8547835 3.153388661e-11
-11.53674889 6.48014975e-11 225.4330263
154.3175786 -238.6438999 3.153388661e-11
-145.2470261 -88.0252517 3.153388661e-11
248.9950651 -13.358954 70.2453245
85.82637911 6.48014975e-11 192.0509021
-4.741609791 6.48014975e-11 131.4936343
248.9950651 -246.0393305 163.6121468
-248.9950472 -137.8739677 145.21516
211.2015207 -173.8632718 3.153388661e-11
-260.5451006 6.48014975e-11 26.86224674
106.1621001 -28.348569 3.153388661e-11
-248.9950472 -46.0578962 55.41233015
-153.5694269 6.48014975e-11 146.7961915
50.35052071 -225.7916513 3.153388661e-11
152.3480723 6.48014975e-11 73.4761209
-90.14463669 6.48014975e-11 138.2581505
-125.5882318 6.48014975e-11 248.678024
-164.5309729 6.48014975e-11 97.5366611
210.3557876 -224.6932946 3.153388661e-11
-41.11315129 -236.4561779 3.153388661e-11
-134.0536661 -242.5606067 3.153388661e-11
171.5679332 -213.5921734 3.153388661e-11
-257.9023298 6.48014975e-11 72.6467963
127.2176117 6.48014975e-11 67.8870028
-248.9950472 -189.1091389 50.66451572
-185.1110082 6.48014975e-11 193.8431327
236.2111657 6.48014975e-11 135.5294941
145.8973724 -2.7394641 3.153388661e-11
120.2432139 6.48014975e-11 160.7923018
92.21795291 -150.0012028 3.153388661e-11
166.4068576 6.48014975e-11 104.001943
221.3391589 6.48014975e-11 105.7736717
-104.9877111 -73.2687337 3.153388661e-11
-248.9950472 -123.6663471 69.1255449
248.9950651 -194.0287211 30.4040816
138.5769061 -31.84258 3.153388661e-11
248.9950651 -126.1905443 219.1016814
24.83228931 6.48014975e-11 127.0102707
-239.2527688 -228.2640345 3.153388661e-11
178.2811734 -121.7098085 3.153388661e-11
-248.9950472 -100.2397593 48.4806235
141.8059775 6.48014975e-11 118.5318768
-248.9950472 -78.5825031 186.2732158
259.518638 6.48014975e-11 125.9273806
248.9950651 -209.2038517 90.9297764
124.7810069 -34.6968231 3.153388661e-11
-136.6627436 -35.2841667 3.153388661e-11
199.4798206 -179.5672159 3.153388661e-11
248.9950651 -206.073723 249.8856307
-88.39333009 6.48014975e-11 67.8417537
248.9950651 -157.7980286 193.4906326
117.8861374 -216.5905563 3.153388661e-11
266.772383 -89.3619407 3.153388661e-11
-3.072357491 6.48014975e-11 84.9452724
-91.55130569 -251.2206582 3.153388661e-11
248.9950651 -113.6774103 193.7204281
-248.9950472 -212.5453531 50.1959021
-46.76708509 6.48014975e-11 106.928358
272.5943674 6.48014975e-11 226.1445604
248.9950651 -197.8126905 130.1721612
-223.1164069 -177.3792978 3.153388661e-11
223.2179499 6.48014975e-11 48.80645963
-248.9950472 -133.8613808 33.69494799
-273.4330386 -79.6985058 3.153388661e-11
-29.83124339 2.3965048 3.153388661e-11
-38.25115859 6.48014975e-11 48.57617292
219.7685334 6.48014975e-11 7.29777339
-248.9950472 -192.2790022 149.3207584
-42.55756519 -21.6350338 3.153388661e-11
42.22346171 6.48014975e-11 247.5968258
248.9950651 -90.1633469 67.5264418
-221.5456559 6.48014975e-11 200.8947247
1.429980509 6.48014975e-11 218.8011393
-62.09731839 -197.1066856 3.153388661e-11
-171.3715839 -125.0193603 3.153388661e-11
83.21375861 6.48014975e-11 7.01790373
-248.9950472 -46.1019824 148.6581685
-248.9950472 -201.4065777 87.0615736
138.9534338 -215.0074749 3.153388661e-11
41.41393861 -62.2224929 3.153388661e-11
72.46271331 6.48014975e-11 230.4686819
248.9950651 -116.5243628 140.8129543
-248.9950472 -172.8187972 121.2649915
165.5400086 -63.3585496 3.153388661e-11
126.4944128 -196.8394088 3.153388661e-11
-248.9950472 -181.882618 205.6959555
-251.0113714 -108.6293642 3.153388661e-11
112.4748084 6.48014975e-11 67.9579101
-248.9950472 -50.3194608 81.7194742
-54.63246789 6.48014975e-11 29.86153605
-248.9950472 -232.9621161 28.61166885
169.6908267 6.48014975e-11 238.004591
248.9950651 -165.8458139 246.2718912
-248.9950472 -167.8110742 18.30186761
-54.05288119 -141.5368345 3.153388661e-11
248.9950651 -1.1734747 237.2570898
-248.9950472 -223.025165 213.3217763
-248.9950472 -230.0865213 54.16008099
-254.7610869 6.48014975e-11 131.2808231
-248.9950472 -206.6985461 72.3072169
-248.9950472 -116.5475649 25.16955007
12.13464821 6.48014975e-11 202.3273779
-77.00267999 -13.8023209 3.153388661e-11
248.9950651 -202.1229961 104.6514025
248.9950651 -217.7443352 215.3282253
-49.46085409 -39.4899642 3.153388661e-11
-10.85729619 6.48014975e-11 167.6771817
248.9950651 -72.1579891 235.8559057
236.5698133 6.48014975e-11 48.24684897
139.5377718 -105.8036798 3.153388661e-11
-137.0249107 -200.4199397 3.153388661e-11
144.041128 6.48014975e-11 59.41419507
-198.1924628 6.48014975e-11 104.8036031
110.1390636 6.48014975e-11 139.4864975
54.26701341 6.48014975e-11 141.7940735
-171.7827821 -104.3004234 3.153388661e-11
-248.9950472 -219.5838026 189.2655091
-86.12770139 -66.2360889 3.153388661e-11
67.53697641 -141.9095848 3.153388661e-11
-222.671155 6.48014975e-11 164.0440521
-108.602093 6.48014975e-11 71.1288786
-78.00404509 6.48014975e-11 152.5762335
-248.9950472 -140.4518781 159.9578522
247.315176 -101.2377178 3.153388661e-11
-248.9950472 -83.4546791 104.7697389
75.72374731 -250.1484676 3.153388661e-11
246.9825538 6.48014975e-11 12.02415302
-167.7049839 -69.6799183 3.153388661e-11
47.61933681 6.48014975e-11 167.5510138
69.53002671 -63.6750398 3.153388661e-11
248.9950651 -216.8225145 32.00181682
101.7244863 6.48014975e-11 52.08040136
-121.2454597 -240.5752759 3.153388661e-11
-86.55725799 -95.2108193 3.153388661e-11
262.5397695 -139.467432 3.153388661e-11
-184.7520842 -53.0091998 3.153388661e-11
-149.2063958 -57.3382259 3.153388661e-11
248.9950651 -96.0862227 236.8938636
-248.9950472 -174.8089024 94.9774184
94.00748221 6.48014975e-11 236.8748326
-164.9145481 6.48014975e-11 11.48389839
-135.2507213 6.48014975e-11 31.04547259
-248.9950472 -100.5517513 33.3290193
-248.9950472 -93.6141418 141.4117372
81.77369551 -212.074611 3.153388661e-11
-248.9950472 -207.3678231 143.9454892
78.82898471 -92.4719629 3.153388661e-11
20.09522821 -58.556805 3.153388661e-11
-204.8945077 -55.2681028 3.153388661e-11
-136.0298201 6.48014975e-11 220.7614889
185.2408745 6.48014975e-11 26.16913123
168.8497363 -25.1248901 3.153388661e-11
200.0921647 6.48014975e-11 201.9297886
248.9950651 -243.0232149 201.6397258
-248.9950472 -15.4778735 179.9233498
35.40026821 -91.8651331 3.153388661e-11
248.9950651 -46.5495737 124.210169
-248.9950472 -133.4224495 120.1039259
-248.9950472 -212.8143142 8.57285053
248.9950651 -143.940991 150.6688469
-56.90342729 6.48014975e-11 249.7684148
-243.9716996 -177.5457011 3.153388661e-11
-190.7250159 6.48014975e-11 10.55338085
-248.9950472 -9.4185301 100.1553172
-154.0716583 6.48014975e-11 170.7313857
248.9950651 -78.107148 224.8712397
-248.9950472 -149.6736078 182.6344303
248.9950651 -9.5489294 189.4097824
-15.20939569 6.48014975e-11 108.2393217
59.07144881 6.48014975e-11 207.747297
-248.9950472 -46.2418455 243.5112835
-248.9950472 -7.5668284 252.366712
-248.9950472 -156.4376429 211.1350526
248.9950651 -117.1939042 8.95165165
248.9950651 -230.5120096 14.99642988
-44.72793359 6.48014975e-11 130.4098643
105.4318287 -216.5740044 3.153388661e-11
248.9950651 -58.1591108 9.99708359
248.9950651 -179.0275574 181.1288757
17.93538111 -17.7684954 3.153388661e-11
201.3272805 -9.8336912 3.153388661e-11
-12.77907579 -177.3825912 3.153388661e-11
248.9950651 -99.0183647 178.7295573
-248.9950472 -64.291097 70.2899762
248.9950651 -144.7587829 92.7548401
-3.702109391 6.48014975e-11 18.6683044
159.7389962 -76.238452 3.153388661e-11
-168.8850254 -43.9069745 3.153388661e-11
117.9504914 6.48014975e-11 128.8743142
189.2418188 6.48014975e-11 220.3743883
-257.3402131 -169.115745 3.153388661e-11
190.6070456 -91.6967482 3.153388661e-11
-248.9950472 -132.1561347 220.9501874
262.330942 -155.638239 3.153388661e-11
128.4488325 6.48014975e-11 79.4210526
-77.86579209 -213.197043 3.153388661e-11
-126.9728378 6.48014975e-11 93.0148058
-100.0604491 6.48014975e-11 244.5288394
-145.0921767 -5.3287237 3.153388661e-11
-248.9950472 -30.8015125 125.9926139
248.9950651 -228.0602976 205.4062093
-248.9950472 -136.1737363 240.974029
120.9514167 -133.9639648 3.153388661e-11
48.54416681 -122.3310962 3.153388661e-11
251.7069797 6.48014975e-11 140.9131357
90.19389361 -109.785884 3.153388661e-11
-248.9950472 -185.2067966 82.1776752
-248.9950472 -47.2385976 182.2213551
211.5301155 -238.9967135 3.153388661e-11
-248.9950472 -124.5628304 205.3435878
247.535874 -191.1586793 3.153388661e-11
-24.36533169 6.48014975e-11 185.0165346
-248.9950472 -40.3057038 222.7187492
71.66953361 -119.1276361 3.153388661e-11
219.8014016 6.48014975e-11 27.31956767
45.93656701 -39.5591374 3.153388661e-11
65.82461511 6.48014975e-11 0.9925504
-248.9950472 -73.8833596 206.0277098
-222.4112764 6.48014975e-11 92.2299302
123.9398788 -49.8226426 3.153388661e-11
-52.02522749 -211.0061981 3.153388661e-11
248.9950651 -84.8078532 9.74615828
120.3525359 -95.9907395 3.153388661e-11
-248.9950472 -192.8263941 190.3526392
-248.9950472 -8.6792216 72.9046038
-242.204917 6.48014975e-11 16.08888564
133.5936691 6.48014975e-11 214.8236968
-203.2688276 -214.6162357 3.153388661e-11
-248.9950472 -29.4819777 182.3037472
248.9950651 -116.0747723 53.44917471
-269.5243015 -132.4598447 3.153388661e-11
-248.9950472 -8.9405205 190.4256565
-241.077591 6.48014975e-11 37.23431639
-109.0845476 -94.4713633 3.153388661e-11
-269.2365828 6.48014975e-11 92.4781687
248.9950651 -45.662088 47.29153836
-270.7484278 6.48014975e-11 211.3970752
-233.2920786 6.48014975e-11 220.8591002
-169.7876373 6.48014975e-11 186.2063088
-248.9950472 -114.8262472 111.9210895
120.4707973 -158.9278569 3.153388661e-11
211.451149 -199.9853253 3.153388661e-11
248.9950651 -41.7694091 25.16372522
-172.667435 -213.1921979 3.153388661e-11
-248.9950472 -240.1063818 126.4673761
-85.83189539 -175.6503269 3.153388661e-11
-233.5217268 6.48014975e-11 121.6129051
-69.66719389 -77.063633 3.153388661e-11
244.6800919 -45.0595321 3.153388661e-11
221.2540083 6.48014975e-11 195.566794
153.4172367 6.48014975e-11 204.3504724
-248.9950472 -173.0333837 177.7086053
248.9950651 -91.1655327 187.8126266
248.9950651 -99.4811811 141.7380002
129.0136735 6.48014975e-11 32.62336159
248.9950651 -214.4511927 169.701389
-216.4811542 -199.7181842 3.153388661e-11
248.9950651 -12.0797079 155.1791121
148.7430052 -27.0204221 3.153388661e-11
-77.72309059 6.48014975e-11 77.8615243
251.9509665 6.48014975e-11 166.6599261
-67.90995739 -162.5776843 3.153388661e-11
-264.9079093 -237.2230175 3.153388661e-11
-207.5918287 6.48014975e-11 224.8568213
63.91191881 6.48014975e-11 88.0430708
-172.4532779 6.48014975e-11 87.839487
270.9539683 -213.2691417 3.153388661e-11
204.8490052 -72.2275698 3.153388661e-11
101.3792348 6.48014975e-11 181.2896371
71.82095191 6.48014975e-11 249.2994989
103.2644406 6.48014975e-11 20.79367027
248.9950651 -174.014167 136.1040575
-28.97926969 -204.7379897 3.153388661e-11
139.2694199 6.48014975e-11 137.6835253
208.513412 6.48014975e-11 176.127538
80.34439471 6.48014975e-11 49.87184908
52.09299851 6.48014975e-11 192.7761423
-110.5589725 -116.6407685 3.153388661e-11
248.9950651 -240.2189745 224.9077226
-99.19454959 -209.630927 3.153388661e-11
-9.136366791 -198.3935336 3.153388661e-11
-248.9950472 -88.2440326 26.29599189
-248.9950472 -167.5391884 32.58517911
-52.41223899 6.48014975e-11 45.36571325
-248.9950472 -0.2762294999 0.96508112
-139.2343213 -24.0192734 3.153388661e-11
-0.7202922913 6.48014975e-11 37.35409668
248.9950651 -176.6495339 201.7526458
262.1659608 -79.1576203 3.153388661e-11
248.9950651 -172.0452457 99.3860845
109.0051564 -66.7959685 3.153388661e-11
-57.09149479 -57.3219306 3.153388661e-11
17.78247941 1.2528212 3.153388661e-11
-78.42866869 6.48014975e-11 208.5220464
-248.9950472 -46.9330137 165.5782737
-248.9950472 -95.5133043 16.20125099
261.9612572 -100.0203936 3.153388661e-11
-187.2026434 6.48014975e-11 104.9396603
248.9950651 -86.3321879 100.2561702
-248.9950472 -111.6401869 186.0650583
-63.59018019 -233.7529957 3.153388661e-11
221.1960488 -51.3683286 3.153388661e-11
-248.9950472 -148.9343485 52.90649231
173.836115 6.48014975e-11 19.32282954
81.96720451 6.48014975e-11 92.5289594
248.9950651 -24.5527717 214.5209387
-248.9950472 -152.2692483 131.2082242
-250.4542374 -243.4124377 3.153388661e-11
259.1341405 6.48014975e-11 42.58752239
-185.2496017 -229.6399934 3.153388661e-11
-17.89511299 -34.7158259 3.153388661e-11
-190.2149647 -33.2390435 3.153388661e-11
164.1266009 6.48014975e-11 174.4198026
-249.0807326 -38.2075989 3.153388661e-11
248.9950651 -214.0147024 115.5600642
-217.242341 6.48014975e-11 235.9153059
259.492329 6.48014975e-11 7.27130648
-59.25768899 6.48014975e-11 137.1889304
248.9950651 -156.6546919 91.2539127
248.9950651 -245.6129502 184.847973
-248.9950472 -123.2671697 52.58163405
9.366251009 -131.8262419 3.153388661e-11
-145.2432223 6.48014975e-11 159.8167193
133.6069506 6.48014975e-11 195.0426593
-248.9950472 -19.5723229 157.7003764
-153.2167801 6.48014975e-11 119.8441666
-248.9950472 -73.9648084 75.2900795
-43.93283559 -10.3760947 3.153388661e-11
71.26177671 -152.1414862 3.153388661e-11
-125.7271243 6.48014975e-11 149.3518907
248.9950651 -146.1260545 176.9193613
142.5615698 -191.1174622 3.153388661e-11
-153.5491407 6.48014975e-11 57.21690474
258.1195534 6.48014975e-11 183.9880699
-0.6043849913 -69.9259107 3.153388661e-11
31.42997081 -140.3121744 3.153388661e-11
248.9950651 -25.3253025 239.2346567
-216.3350364 -93.9056085 3.153388661e-11
182.9098855 -55.4753812 3.153388661e-11
-128.8904332 -128.778811 3.153388661e-11
265.0398098 6.48014975e-11 91.7295972
43.83075291 -74.3668153 3.153388661e-11
45.70002751 -146.5547964 3.153388661e-11
-59.59096559 6.48014975e-11 153.5779406
187.2815546 -221.4633054 3.153388661e-11
184.7486209 -29.5024171 3.153388661e-11
248.9950651 -155.6917945 154.1036228
37.69647131 6.48014975e-11 50.43917329
3.621021509 6.48014975e-11 95.414592
-248.9950472 -88.0758103 92.0709383
248.9950651 -96.2486488 126.4536454
221.3692888 -12.9880431 3.153388661e-11
-181.6030918 -63.5376795 3.153388661e-11
7.763081909 -6.3043382 3.153388661e-11
-26.74154629 6.48014975e-11 223.4736307
59.33401011 -60.158601 3.153388661e-11
248.9950651 -60.7184292 162.22978
165.0063191 -12.44454 3.153388661e-11
248.9950651 -33.1389512 168.4115056
-31.63882389 -51.073649 3.153388661e-11
-248.9950472 -223.5087629 175.81424
-110.9488499 6.48014975e-11 198.6543793
20.40869921 -106.0694552 3.153388661e-11
257.9564196 6.48014975e-11 208.5106331
-145.4458399 -110.6136562 3.153388661e-11
84.28146141 6.48014975e-11 167.0367297
-248.9950472 -167.1103421 156.7130213
30.45166381 6.48014975e-11 234.4396979
-248.9950472 -57.0673621 91.7577924
-5.807366091 6.48014975e-11 148.0543555
248.9950651 -118.8114932 78.973479
248.9950651 -138.2267743 203.1634265
-225.823829 -154.8941628 3.153388661e-11
-78.84444419 6.48014975e-11 237.5491011
230.4947602 -209.6485499 3.153388661e-11
-44.92523399 -79.8517103 3.153388661e-11
248.9950651 -107.2623736 170.8543364
-248.9950472 -218.8712593 229.0681533
-248.9950472 -111.5978841 225.5346838
-146.8772195 6.48014975e-11 223.787074
-233.4685701 -99.5190098 3.153388661e-11
-49.37983369 6.48014975e-11 223.1175719
-210.1163169 6.48014975e-11 27.3901561
229.7535426 6.48014975e-11 12.83636835
-12.63415939 -44.8763278 3.153388661e-11
248.9950651 -248.2892548 32.06222786
-248.9950472 -221.7023392 33.42361009
-248.9950472 -7.882894 235.6187444
97.10492121 -124.2646632 3.153388661e-11
248.9950651 -149.9254405 228.8504592
165.2932088 -98.4561361 3.153388661e-11
-224.3532651 6.48014975e-11 34.4237444
248.9950651 -64.1593347 206.2184608
-250.3445783 6.48014975e-11 145.8165105
-141.1802347 6.48014975e-11 109.5160617
272.8889053 -185.4116214 3.153388661e-11
-114.7256605 6.48014975e-11 82.2209355
-103.3937204 -220.6946068 3.153388661e-11
-104.1209685 6.48014975e-11 34.71604072
-248.9950472 -92.5616821 202.8898549
91.66833621 -65.0260677 3.153388661e-11
33.21431781 -249.26295 3.153388661e-11
248.9950651 -208.1209558 14.6858906
72.12614721 -175.1682853 3.153388661e-11
-202.2536021 6.48014975e-11 242.059122
-181.1299464 -155.2763327 3.153388661e-11
-98.27708039 6.48014975e-11 7.97344676
-248.9950472 -201.3711618 33.4567824
-248.9950472 -105.1077249 139.5832461
-115.6005167 -66.5385697 3.153388661e-11
-248.9950472 -136.0738079 109.8222733
99.34005621 -90.6659371 3.153388661e-11
248.9950651 -247.2223153 89.4497434
30.56345491 -203.0989837 3.153388661e-11
-217.8971765 6.48014975e-11 175.2336879
-189.3490597 -76.7400774 3.153388661e-11
27.09140811 6.48014975e-11 101.0531419
-1.603323491 -222.6589548 3.153388661e-11
-55.54192849 6.48014975e-11 194.1918492
154.3645899 6.48014975e-11 24.54525006
-113.5972155 6.48014975e-11 218.2136598
-248.9950472 -56.3308871 32.67041494
205.9147999 6.48014975e-11 86.7209155
-248.9950472 -230.2900097 72.2008228
-2.480156491 6.48014975e-11 185.885939
248.9950651 -207.6455585 198.0694654
238.7053256 6.48014975e-11 90.1539756
94.50117491 6.48014975e-11 160.1180074
248.9950651 -158.9247039 205.4086707
88.21872241 6.48014975e-11 57.68577692
47.98438691 6.48014975e-11 54.35456962
-248.9950472 -188.686901 250.3913759
51.62630401 -27.5998498 3.153388661e-11
111.4748918 6.48014975e-11 167.7999429
-75.84746729 -115.1879288 3.153388661e-11
-58.91156759 6.48014975e-11 72.0277526
-248.9950472 -83.7246391 209.7491251
248.9950651 -132.7483216 9.9529181
-246.9552986 6.48014975e-11 51.10671067
261.9775495 -125.4498553 3.153388661e-11
126.996568 -70.8759916 3.153388661e-11
-158.4424283 -85.1953568 3.153388661e-11
118.7794488 6.48014975e-11 238.0908464
213.3428334 -93.5363626 3.153388661e-11
273.3471548 -34.8125687 3.153388661e-11
-248.9950472 -29.148518 243.8387377
-248.9950472 -214.7199309 93.3101102
-232.3428889 -8.2489763 3.153388661e-11
-137.7064799 -134.6784426 3.153388661e-11
-248.9950472 -217.9388772 162.092329
257.2515364 -24.4651036 3.153388661e-11
-9.018032291 -90.5719901 3.153388661e-11
-42.67982449 6.48014975e-11 214.6628478
185.3920027 -138.3771377 3.153388661e-11
-248.9950472 -125.3807377 235.9423794
248.9950651 -34.6623936 58.78006539
-256.7628191 6.48014975e-11 214.4036497
-248.9950472 -67.3624315 159.9067523
-248.9950472 -202.9565767 111.3546258
-248.9950472 -56.0166723 190.9187496
-224.4082065 6.48014975e-11 149.0923752
-136.4181669 1.8729625 3.153388661e-11
248.9950651 -154.1289814 55.68864704
-40.74268399 -130.8677097 3.153388661e-11
248.9950651 -210.1224043 179.8702503
-32.95250249 -110.4556355 3.153388661e-11
-95.41096799 6.48014975e-11 111.0917281
248.9950651 -204.4647132 211.4398409
-248.9950472 -152.0729509 78.9648807
-192.4555041 6.48014975e-11 136.2038169
-44.66486079 6.48014975e-11 173.1167597
81.56290141 6.48014975e-11 113.7251768
248.9950651 -115.6026865 215.9663184
248.9950651 -241.208238 152.08838
225.315823 -180.5048606 3.153388661e-11
248.9950651 -118.2549341 130.5594535
-166.2099429 6.48014975e-11 237.3181215
173.0894155 -164.4385611 3.153388661e-11
237.6248141 -10.9553013 3.153388661e-11
-66.81118079 6.48014975e-11 19.81182901
-99.25591999 6.48014975e-11 75.6568512
-93.97297629 -73.1064461 3.153388661e-11
-103.5501243 -149.063093 3.153388661e-11
267.5476225 -240.517597 3.153388661e-11
40.69061981 -135.6337917 3.153388661e-11
248.9950651 -104.9284464 203.101144
248.9950651 -135.2034067 77.9854356
-234.9549149 -196.9073488 3.153388661e-11
248.9950651 -193.1694506 198.4017381
116.9035221 6.48014975e-11 16.15244698
248.9950651 -216.9570174 142.8827332
162.1854795 6.48014975e-11 229.4110078
248.9950651 -84.4516441 46.00633056
-188.2009891 6.48014975e-11 157.732294
-200.3567078 -11.2285533 3.153388661e-11
-211.6373657 6.48014975e-11 125.5397167
-109.8110568 6.48014975e-11 23.2637129
243.9480301 -207.743873 3.153388661e-11
-227.8343035 6.48014975e-11 57.50712109
25.90772201 6.48014975e-11 215.2739014
-220.9172078 -28.0231989 3.153388661e-11
7.230324709 6.48014975e-11 84.6548689
177.5772336 -203.2393166 3.153388661e-11
248.9950651 -10.4711822 46.93161223
248.9950651 -181.0148814 248.8159544
-117.9268394 6.48014975e-11 138.7563236
57.55306291 -80.4591683 3.153388661e-11
-105.3132144 -175.8563959 3.153388661e-11
248.9950651 -39.759314 80.0253121
248.9950651 -84.3758151 168.8509448
248.9950651 -198.6248132 166.5954387
248.9950651 -181.9414881 64.127628
102.8270356 6.48014975e-11 149.4350336
-162.3973856 6.48014975e-11 110.2818243
-238.2010329 6.48014975e-11 73.9051026
-152.0182719 -184.9121949 3.153388661e-11
-149.8809249 -196.5577689 3.153388661e-11
239.5006795 6.48014975e-11 121.8265902
-75.00213049 6.48014975e-11 175.5024162
-59.48356829 -101.5594027 3.153388661e-11
-156.6781428 6.48014975e-11 34.9936699
-248.9950472 -75.0258251 117.8740155
248.9950651 -184.2538132 128.7778877
169.0820303 6.48014975e-11 64.2240116
-20.85319129 -220.2562632 3.153388661e-11
56.17450401 -129.252941 3.153388661e-11
209.7935771 6.48014975e-11 244.1537158
-248.9950472 -166.2088534 233.9266117
-248.9950472 -204.9064512 201.7420377
248.9950651 -195.3481908 142.2663697
248.9950651 -14.6876736 246.959971
248.9950651 -23.5462274 91.4287826
-248.9950472 -53.5357527 13.65749762
-134.5339564 6.48014975e-11 240.5981625
86.59227671 -185.1887347 3.153388661e-11
148.0543431 6.48014975e-11 232.749272
-5.250645491 6.48014975e-11 69.2574927
67.55343711 -206.7118868 3.153388661e-11
-142.9236817 6.48014975e-11 39.85359481
142.3111031 -84.2567743 3.153388661e-11
-35.43809499 -225.7932473 3.153388661e-11
197.7234973 -81.7557445 3.153388661e-11
248.9950651 -35.4102652 201.0616478
134.0940781 -175.3170608 3.153388661e-11
-26.54207159 -71.2501148 3.153388661e-11
8.683175809 6.48014975e-11 192.5257742
248.9950651 -134.3729168 115.9427352
233.0537624 -243.1473839 3.153388661e-11
263.3510712 6.48014975e-11 22.45935077
-69.91139429 -219.5559756 3.153388661e-11
216.1660328 6.48014975e-11 85.7043028
-248.9950472 -170.8778307 8.05801364
-169.7790203 -196.010262 3.153388661e-11
243.1823234 6.48014975e-11 193.2573635
248.9950651 -201.9306434 60.0067932
239.2706772 6.48014975e-11 5.39147587
-29.59019129 6.48014975e-11 77.8583965
-249.4621446 -81.7598237 3.153388661e-11
248.9950651 -167.302497 112.2533783
248.9950651 -133.3259218 146.5028388
-248.9950472 -147.9169782 203.2524502
-192.0936392 6.48014975e-11 114.1577341
212.4351294 6.48014975e-11 218.9477993
-248.9950472 -182.1558174 125.1988195
-248.9950472 -105.0786401 109.1573734
-208.3325581 -157.5805489 3.153388661e-11
211.9839436 -186.0089792 3.153388661e-11
143.6027267 -240.5440848 3.153388661e-11
-258.1914356 -45.5788315 3.153388661e-11
-158.0460176 -65.2439363 3.153388661e-11
248.9950651 -56.8266229 99.9477655
248.9950651 -143.6839256 237.332176
-10.16318989 6.48014975e-11 214.4876198
-82.52315629 -186.8134823 3.153388661e-11
88.71720491 6.48014975e-11 130.2104471
248.9950651 -7.7325759 90.636961
248.9950651 -178.8659245 211.9034132
-260.0650087 2.134763 3.153388661e-11
-189.5986452 6.48014975e-11 73.9292001
-238.0019178 6.48014975e-11 164.8817525
79.54207151 6.48014975e-11 218.0062345
248.9950651 -94.8982072 155.2933295
272.2394025 -136.737374 3.153388661e-11
-248.2968323 6.48014975e-11 105.1265295
195.8519651 -45.0245553 3.153388661e-11
-248.8352092 -186.3591391 3.153388661e-11
40.09753261 -210.8207971 3.153388661e-11
-148.3237422 6.48014975e-11 95.4057693
-99.30549429 6.48014975e-11 173.6439298
-248.9950472 -220.5469387 43.41267137
248.9950651 -43.587967 227.871129
76.44335891 -54.4204906 3.153388661e-11
-100.2918648 6.48014975e-11 48.82933378
-248.9950472 -111.3779993 85.8542927
76.01449081 6.48014975e-11 195.7586475
248.9950651 -61.5069981 226.3102162
189.2422672 6.48014975e-11 120.6780075
-248.9950472 -196.7807242 159.9973854
243.4379432 -25.9211274 3.153388661e-11
177.9654904 6.48014975e-11 132.3224013
-152.3628551 6.48014975e-11 81.3966192
56.94652991 -97.5587754 3.153388661e-11
148.7713357 -177.8000416 3.153388661e-11
-236.3477205 6.48014975e-11 232.5877884
-248.9950472 -176.1400686 104.8810819
-265.5477558 -204.5561332 3.153388661e-11
-248.9950472 -129.9704571 139.1108891
-229.4487828 6.48014975e-11 16.80711552
-248.9950472 -230.8614818 248.9230791
185.9897454 6.48014975e-11 168.79377
248.9950651 -119.8849596 182.6962646
248.9950651 -16.9460522 132.0456296
176.5271933 -222.8557002 3.153388661e-11
-188.6495924 -140.9381785 3.153388661e-11
-32.33582169 6.48014975e-11 40.55803831
-142.089389 6.48014975e-11 76.9421863
189.6276911 -237.4223779 3.153388661e-11
-127.3109454 -187.9480436 3.153388661e-11
67.95744531 6.48014975e-11 134.2141651
248.9950651 -249.1608036 48.89224167
-167.4541582 6.48014975e-11 131.9571619
148.2944169 6.48014975e-11 182.6207027
248.9950651 -163.5705542 27.4766646
245.4972411 6.48014975e-11 149.557034
-139.1999162 -179.9185031 3.153388661e-11
-248.9950472 -131.6023234 85.9817238
-248.9950472 -191.9055544 15.32926234
