# .PCD v0.7 - Point Cloud Data file format
VERSION 0.7
FIELDS x y z
SIZE 4 4 4
TYPE F F F
COUNT 1 1 1
WIDTH 1315
HEIGHT 1
VIEWPOINT 0 0 0 1 0 0 0
POINTS 1315
DATA ascii
-2.50111043e-12 162.6178864 120.2210256
-2.50111043e-12 -54.9174575 93.4752197
172.552756 250 203.1882305
-2.50111043e-12 211.6145857 37.39878377
249.509562 -122.1033284 3.035438567e-11
-2.50111043e-12 -219.85604 164.1493105
113.44356 -228.1629986 3.035438567e-11
176.021637 250 155.5478976
249.039147 254.4335916 3.035438567e-11
-2.50111043e-12 18.4623346 200.0744098
-2.50111043e-12 -21.2465607 233.7600363
11.796776 250 130.5956388
-2.50111043e-12 -92.8517263 139.8416535
110.750107 -131.5788742 3.035438567e-11
-2.50111043e-12 -215.3653315 130.4540279
103.986923 44.124901 3.035438567e-11
93.508233 250 99.3224752
-2.50111043e-12 -249.1303319 55.18554228
125.734921 250 21.73661751
44.081126 250 133.0898994
140.160909 250 245.5654307
-2.50111043e-12 -60.9119508 16.63994549
86.914142 250 178.683295
209.828676 250 242.0203758
147.049941 250 116.892081
-2.50111043e-12 141.1429815 67.133568
33.466839 29.9294857 3.035438567e-11
81.777742 256.644148 3.035438567e-11
67.202419 250 91.7750275
-2.50111043e-12 220.9184366 101.6120187
230.154864 250 152.0864539
64.681774 262.6950548 3.035438567e-11
-2.50111043e-12 165.7766062 20.96917031
181.420281 -76.0408686 3.035438567e-11
-2.50111043e-12 -112.5685667 35.08300138
-2.50111043e-12 -120.9841152 64.9978415
-2.50111043e-12 -72.2131931 73.3728809
30.459737 161.1470997 3.035438567e-11
123.18131 118.6916515 3.035438567e-11
-2.50111043e-12 -165.0583689 173.4884451
252.382189 -168.4291154 3.035438567e-11
116.438643 -98.4203198 3.035438567e-11
-2.50111043e-12 -159.7543325 67.7203792
-2.50111043e-12 -111.9770897 184.4453493
45.329563 98.7681244 3.035438567e-11
147.007032 233.4045402 3.035438567e-11
67.825109 -32.9473317 3.035438567e-11
24.412966 -110.2205605 3.035438567e-11
-2.50111043e-12 186.1344687 111.2752819
204.010717 -56.1142811 3.035438567e-11
7.819318 -54.5387751 3.035438567e-11
199.948337 231.3447266 3.035438567e-11
199.79783 -163.1603464 3.035438567e-11
0.572375 250 63.7397973
-2.50111043e-12 47.4604064 215.4555688
21.073811 -66.9920344 3.035438567e-11
47.25675 -1.8266308 3.035438567e-11
150.124957 250 96.5531908
-2.50111043e-12 -169.6437707 142.4917735
134.856749 55.2083325 3.035438567e-11
55.848522 250 62.7422149
238.905671 65.4097148 3.035438567e-11
217.229847 188.1878784 3.035438567e-11
222.198064 -249.1982312 3.035438567e-11
188.04501 77.5253624 3.035438567e-11
-2.50111043e-12 201.7470269 75.1976428
33.36091 250 212.1963759
-2.50111043e-12 -143.655294 180.2355178
56.42567 250 238.1632543
-2.50111043e-12 -229.7662482 63.4851934
65.423195 13.6125005 3.035438567e-11
29.676743 -3.5534309 3.035438567e-11
160.111543 250 150.1803012
157.78813 250 181.2960477
-2.50111043e-12 -192.0355993 169.3107075
14.629519 250 14.8547873
-2.50111043e-12 239.4800916 214.0670068
195.472291 170.0918297 3.035438567e-11
-2.50111043e-12 73.6454161 104.3653703
31.119835 250 158.7652209
-2.50111043e-12 7.1454232 212.8059931
215.36965 -136.1034185 3.035438567e-11
-2.50111043e-12 150.7669602 206.0627637
-2.50111043e-12 -135.6045594 32.07570522
232.685624 250 93.1639055
-2.50111043e-12 -10.5086669 119.1133496
179.654225 274.143694 3.035438567e-11
-2.50111043e-12 157.3694371 238.2283436
67.711746 -104.7070692 3.035438567e-11
158.804455 250 227.7075866
225.162883 250 11.24337868
14.665615 157.5032857 3.035438567e-11
-2.50111043e-12 -79.2889189 240.396333
-2.50111043e-12 118.0163411 237.1180099
-2.50111043e-12 -228.2085486 17.15393176
241.013838 250 167.3081888
204.528184 250 96.7644872
157.175917 -152.2049821 3.035438567e-11
-2.50111043e-12 -212.1551005 217.1844867
120.795832 217.6752294 3.035438567e-11
100.823468 -105.4097776 3.035438567e-11
249.489437 250 84.748102
-2.50111043e-12 -242.5793834 130.3619751
-2.50111043e-12 -144.604791 195.2720405
0.331478 -242.6274313 3.035438567e-11
235.127392 -20.5519399 3.035438567e-11
-2.50111043e-12 168.5376019 86.9110747
-2.50111043e-12 -203.2188215 33.65209787
-2.50111043e-12 -52.5342429 252.3838442
-2.50111043e-12 -198.7150961 188.1646976
-2.50111043e-12 -65.7251567 195.5736826
184.132419 62.5711182 3.035438567e-11
-2.50111043e-12 -97.3585905 211.906575
237.652339 187.0937662 3.035438567e-11
-2.50111043e-12 -118.5420098 208.1453031
-2.50111043e-12 -35.7719463 203.5868416
160.965044 250 212.9622156
122.186907 250 124.5223801
44.704005 154.7055013 3.035438567e-11
236.109779 -111.3035626 3.035438567e-11
-2.50111043e-12 86.1750542 238.4057695
149.548629 250 60.8053377
35.903343 86.1405243 3.035438567e-11
39.812984 236.2410831 3.035438567e-11
56.762059 250 125.429477
29.748687 250 128.7154668
132.401894 250 92.1075955
39.084842 -53.015982 3.035438567e-11
116.533592 22.9678965 3.035438567e-11
117.120834 -12.2378417 3.035438567e-11
201.819725 -92.6106097 3.035438567e-11
112.331227 56.6190009 3.035438567e-11
-2.50111043e-12 143.7979473 136.9375893
164.79492 250 71.6068395
100.602833 -17.8664548 3.035438567e-11
236.50644 25.5357913 3.035438567e-11
42.273488 -175.9820659 3.035438567e-11
83.7664 -161.40176 3.035438567e-11
-2.50111043e-12 -69.6646432 166.2572256
94.407132 81.9078628 3.035438567e-11
-2.50111043e-12 -7.781797 76.9251632
-2.50111043e-12 6.4111484 231.2991796
21.444883 250 203.6336261
-2.50111043e-12 -151.5476514 222.2841333
88.850136 250 14.03279745
188.315266 260.0302299 3.035438567e-11
-2.50111043e-12 162.3732299 157.1475253
240.680321 250 247.7495528
-2.50111043e-12 -47.6688375 112.2718262
93.152873 172.6508443 3.035438567e-11
224.155135 -184.2073222 3.035438567e-11
-2.232649 -250 180.5209983
-2.50111043e-12 -155.1076876 251.8222387
213.462946 250 36.72957146
250.997125 -20.9207164 3.035438567e-11
212.990924 250 118.038049
-2.50111043e-12 68.3435895 241.8088752
-2.50111043e-12 -36.9781736 146.7103794
-2.50111043e-12 -98.8177476 241.7827647
194.580831 -207.1883896 3.035438567e-11
155.691968 174.7267134 3.035438567e-11
216.934946 -120.12078 3.035438567e-11
50.311987 250 23.64945815
211.14387 98.6142422 3.035438567e-11
239.55951 250 63.5258198
-2.50111043e-12 -142.1892898 236.5888668
99.991525 250 37.22066145
38.437641 221.9097134 3.035438567e-11
12.665363 -81.8775838 3.035438567e-11
-2.50111043e-12 -230.5056543 140.8164485
117.708846 269.3003988 3.035438567e-11
208.403609 78.4975919 3.035438567e-11
-2.50111043e-12 -186.7963366 122.2960065
72.342213 250 190.4158474
-2.50111043e-12 -171.9363482 0.09963186003
89.419821 33.5498129 3.035438567e-11
160.092493 -118.9497323 3.035438567e-11
180.546392 -139.3649516 3.035438567e-11
6.221257 250 101.0220987
31.482307 250 187.9405768
-2.50111043e-12 79.7818854 14.50409363
29.025217 250 48.77495665
-2.50111043e-12 -31.7034477 48.82641968
118.773839 250 68.3212558
62.262556 128.0525123 3.035438567e-11
16.717182 -145.6738931 3.035438567e-11
125.678332 -132.4062234 3.035438567e-11
146.989176 250 40.3667199
-2.50111043e-12 27.5786789 135.9781689
189.060181 250 92.6752443
191.237424 250 213.6300864
95.053427 250 68.1134047
-2.50111043e-12 -42.8798217 39.89558206
108.494306 -155.7131666 3.035438567e-11
-2.50111043e-12 210.7146919 51.62384014
90.817957 217.1008471 3.035438567e-11
7.233009 94.9213335 3.035438567e-11
-2.50111043e-12 39.8080111 201.6724106
186.416388 149.5740892 3.035438567e-11
-2.50111043e-12 -33.822699 65.297682
-2.50111043e-12 -188.6197518 251.5391503
195.835276 200.8036423 3.035438567e-11
18.075473 59.7757454 3.035438567e-11
-2.50111043e-12 -191.5124453 231.0942169
-2.50111043e-12 218.1882635 190.5280327
40.527294 -95.9693385 3.035438567e-11
-2.50111043e-12 -138.9741075 45.69133602
-2.50111043e-12 -11.6200929 158.435379
-2.50111043e-12 4.9535018 156.1323146
243.878282 38.3158606 3.035438567e-11
107.384185 11.8542449 3.035438567e-11
-2.50111043e-12 101.1041759 232.3055568
-2.50111043e-12 197.2898535 121.901509
64.066407 165.7977575 3.035438567e-11
233.366377 250 197.7102278
211.984931 164.4219277 3.035438567e-11
248.176888 148.1241991 3.035438567e-11
186.718451 21.4470706 3.035438567e-11
-2.50111043e-12 -73.5334267 31.26680804
211.541308 -192.5658006 3.035438567e-11
-2.50111043e-12 -9.2361812 240.6356898
-2.50111043e-12 -41.737062 131.7331654
116.841139 250 45.79990616
136.752446 -76.0268299 3.035438567e-11
64.898124 -139.5200911 3.035438567e-11
-2.50111043e-12 -191.1301782 104.0370699
41.740998 -126.8632574 3.035438567e-11
94.634376 -74.7623582 3.035438567e-11
60.269115 -62.7787524 3.035438567e-11
-2.50111043e-12 64.3852062 190.7406513
207.598549 250 52.256935
132.478316 106.5807268 3.035438567e-11
7.304723 236.8038168 3.035438567e-11
-2.50111043e-12 103.7825769 21.58632316
-2.50111043e-12 238.5777213 56.16734504
142.243921 250 72.4125588
15.979202 73.7396726 3.035438567e-11
11.273001 185.0842664 3.035438567e-11
-2.50111043e-12 164.837009 205.0370266
-2.50111043e-12 -233.3669718 29.83002662
-2.50111043e-12 -65.3995128 134.0585208
-2.50111043e-12 21.3538737 50.23506442
17.087242 -39.9854378 3.035438567e-11
80.375469 -224.3294614 3.035438567e-11
202.175265 -3.1465088 3.035438567e-11
-2.50111043e-12 -235.2973763 103.1973926
67.077519 97.2481768 3.035438567e-11
197.679622 250 122.1607775
-2.50111043e-12 220.7446153 165.7786518
-2.50111043e-12 87.3267108 103.2417716
131.235312 189.4413564 3.035438567e-11
58.887293 250 169.092495
171.088849 -171.0863344 3.035438567e-11
-1.7337011 -210.2265168 3.035438567e-11
-2.50111043e-12 167.0345773 71.3506211
-2.50111043e-12 19.6168601 225.3563233
-2.50111043e-12 111.4765912 114.3601019
-2.50111043e-12 -162.7298072 156.5921462
57.001423 -151.7898671 3.035438567e-11
235.832938 113.9589331 3.035438567e-11
190.25279 46.3398741 3.035438567e-11
-2.50111043e-12 181.6323839 90.1366337
188.687387 -155.5322149 3.035438567e-11
158.541164 250 29.9909014
13.147523 250 143.9865431
125.674459 250 142.161674
215.181108 250 23.34754507
11.082134 -116.4326555 3.035438567e-11
15.869558 208.0344615 3.035438567e-11
143.603744 -88.7580455 3.035438567e-11
-2.50111043e-12 -21.316547 218.776751
-2.50111043e-12 -86.1999828 43.80957009
-2.50111043e-12 -4.5343279 50.9126773
-2.50111043e-12 -174.204927 63.2949217
72.746686 -11.9456146 3.035438567e-11
14.739452 250 236.9808206
-2.50111043e-12 40.1902764 97.3585077
-2.50111043e-12 221.305458 129.9598666
-2.50111043e-12 -166.4941567 93.824912
201.59298 261.4656079 3.035438567e-11
191.108314 250 50.45896245
-2.50111043e-12 170.3041962 146.1446724
-2.50111043e-12 96.1975169 134.7717324
49.83079 72.5058347 3.035438567e-11
-2.50111043e-12 -120.412363 142.6672103
-2.50111043e-12 52.1555352 140.9115336
177.845613 250 108.3919243
-2.50111043e-12 210.0466185 9.92030477
120.715744 -164.055661 3.035438567e-11
-2.50111043e-12 129.0910918 33.19682016
155.252441 -217.8108226 3.035438567e-11
98.770732 250 184.520743
185.712225 -112.7404926 3.035438567e-11
115.634892 250 152.7727473
-2.50111043e-12 73.1592443 147.8186687
41.108512 250 233.8278105
70.819486 250 40.62668619
-1.8967168 -21.002911 3.035438567e-11
182.148389 250 167.2153434
88.477555 250 227.5099645
48.936707 250 208.2239848
15.394316 122.6671209 3.035438567e-11
-2.50111043e-12 94.7104021 77.3405349
94.926375 250 1.67156912
-2.50111043e-12 49.5504521 191.3058937
36.152078 -141.0540918 3.035438567e-11
156.660026 220.981432 3.035438567e-11
130.891505 250 235.6403328
132.988652 -202.7066172 3.035438567e-11
85.816195 -146.4787848 3.035438567e-11
-2.50111043e-12 -98.119319 64.2139351
124.68119 -84.5999886 3.035438567e-11
-2.50111043e-12 136.9263883 99.3599626
72.934929 250 120.1807961
192.530143 250 138.9838132
95.378532 250 211.6263467
108.320818 250 124.6150786
241.226143 85.1886609 3.035438567e-11
-2.50111043e-12 247.2390307 135.3695139
174.215491 -103.157624 3.035438567e-11
123.281339 -237.0613314 3.035438567e-11
-2.50111043e-12 118.7372338 7.65929988
-2.50111043e-12 -229.016103 234.4944869
-2.50111043e-12 134.3539017 158.0929479
214.309453 45.6389072 3.035438567e-11
-2.50111043e-12 234.8215878 156.0843803
64.091416 77.2177859 3.035438567e-11
27.602671 12.51467 3.035438567e-11
229.134719 -53.6589308 3.035438567e-11
217.6797 250 212.4604893
-2.50111043e-12 186.3775991 63.7147107
89.309372 144.5699839 3.035438567e-11
134.510316 237.8669266 3.035438567e-11
168.140217 -218.6478146 3.035438567e-11
142.799759 -47.7828048 3.035438567e-11
108.010341 -249.6757762 3.035438567e-11
164.413496 107.462026 3.035438567e-11
220.737856 250 128.3522082
201.089785 216.2865698 3.035438567e-11
20.521989 -27.569335 3.035438567e-11
-2.50111043e-12 -159.2301267 9.62113057
25.911629 257.527224 3.035438567e-11
-2.50111043e-12 239.8810102 174.390085
91.445069 63.1432867 3.035438567e-11
75.337232 -250 -2.41816691
-2.50111043e-12 63.0918081 176.3322356
185.2172 -19.7286015 3.035438567e-11
-2.50111043e-12 -244.032167 114.728441
11.622323 -132.8318547 3.035438567e-11
-2.50111043e-12 195.3134979 11.99107119
-2.50111043e-12 91.1442855 50.83579076
-2.50111043e-12 -177.2663182 50.25017364
-1.9708061 -39.5081888 3.035438567e-11
80.570386 -39.4712865 3.035438567e-11
191.225976 -30.9892063 3.035438567e-11
211.534808 250 172.5702738
-2.50111043e-12 -203.3585992 58.11606262
64.451449 -186.52658 3.035438567e-11
-2.50111043e-12 28.109491 119.995664
-2.50111043e-12 193.2667956 172.6653016
-2.50111043e-12 74.7495617 72.4037144
-2.50111043e-12 229.5390361 90.6933351
152.091699 250 238.4859023
-2.50111043e-12 -90.5745182 192.2065795
60.770107 250 217.7210283
-2.50111043e-12 89.0260527 168.5811708
131.762643 -155.6849731 3.035438567e-11
223.861225 24.6425475 3.035438567e-11
-2.50111043e-12 -135.4082275 130.4674449
111.247663 -199.762026 3.035438567e-11
77.748827 104.0635287 3.035438567e-11
-2.50111043e-12 -82.2351965 119.5745194
-2.50111043e-12 -115.9858721 111.9137773
178.544333 85.831355 3.035438567e-11
29.621576 250 61.8920825
-2.50111043e-12 -229.6411972 153.3958898
-2.50111043e-12 109.9772238 191.0563634
140.64212 131.0916509 3.035438567e-11
10.198457 273.2598963 3.035438567e-11
-2.50111043e-12 -160.6700097 24.35749899
115.424519 71.8122428 3.035438567e-11
-2.50111043e-12 -242.8361446 232.668427
-2.50111043e-12 -4.0432523 90.1836696
119.422681 184.0294113 3.035438567e-11
5.281736 250 75.3784183
233.344601 250 46.89984361
-2.50111043e-12 -129.337864 241.2736545
181.623801 167.3585364 3.035438567e-11
41.67035 189.4010897 3.035438567e-11
64.439468 200.4863684 3.035438567e-11
114.722899 -56.9494679 3.035438567e-11
-2.50111043e-12 -179.7168008 225.8304035
88.651661 -234.3164047 3.035438567e-11
126.261384 85.3327395 3.035438567e-11
15.715069 -248.4824979 3.035438567e-11
-2.50111043e-12 89.3810254 90.0894768
-2.50111043e-12 125.233988 193.6319477
-2.50111043e-12 107.3133754 65.6421673
158.479583 91.167843 3.035438567e-11
-2.50111043e-12 111.2931299 33.57620007
-2.50111043e-12 175.016193 159.1645858
-2.50111043e-12 -183.5185907 197.9966647
-2.50111043e-12 -8.9107255 187.2695695
-2.50111043e-12 -198.5368776 132.7697682
-2.50111043e-12 -12.4744619 23.14938326
200.577378 250 197.1453998
-2.50111043e-12 21.0759235 79.3893131
-2.50111043e-12 240.1370004 9.47129963
-2.50111043e-12 152.9193221 73.7519566
77.069877 250 10.11358281
93.334776 -250 -0.44195856
-2.50111043e-12 -235.3619201 83.2737122
-2.50111043e-12 223.0472994 214.3807337
69.062036 -86.6738943 3.035438567e-11
183.475424 201.3757812 3.035438567e-11
-2.50111043e-12 -109.2608003 124.1480437
-2.50111043e-12 -198.553518 77.5956897
-2.50111043e-12 -46.6662077 228.0063706
16.53856 -222.1158511 3.035438567e-11
215.239257 -61.2361269 3.035438567e-11
-2.50111043e-12 -176.7766621 169.6649869
-2.50111043e-12 2.8829959 30.69329975
236.801772 154.1326557 3.035438567e-11
2.355595 169.0824763 3.035438567e-11
-2.50111043e-12 19.8407234 169.2349676
209.359459 -236.063069 3.035438567e-11
-2.50111043e-12 -221.9038216 208.6774427
-2.50111043e-12 0.1358342001 168.8640426
78.449004 -97.6311823 3.035438567e-11
217.728963 -169.4062357 3.035438567e-11
-2.50111043e-12 209.4489328 234.2818923
-2.50111043e-12 -21.2301624 103.9171932
190.586881 98.2365374 3.035438567e-11
215.757999 -218.2227789 3.035438567e-11
-2.50111043e-12 53.6668312 128.7669551
239.230482 -133.6612855 3.035438567e-11
246.522759 -189.5329478 3.035438567e-11
178.015212 -62.7606742 3.035438567e-11
177.174123 -250 -2.3182032
-2.50111043e-12 180.4002461 206.6885876
15.472644 169.6636994 3.035438567e-11
183.599867 250 13.76565354
47.304827 -213.9463734 3.035438567e-11
125.981812 250 9.37641375
-2.50111043e-12 199.2433978 109.3712081
-2.50111043e-12 -5.2353261 213.7359468
-2.50111043e-12 6.922898 142.6115117
163.813947 250 99.3309592
-2.50111043e-12 -237.808786 250.7108162
222.049322 243.8667997 3.035438567e-11
-2.50111043e-12 -112.2903847 20.92193552
-2.50111043e-12 -207.8363096 162.6248541
58.849729 -129.0275905 3.035438567e-11
238.659574 52.4838133 3.035438567e-11
33.731671 -63.871951 3.035438567e-11
28.958246 133.867608 3.035438567e-11
35.619414 -238.8761136 3.035438567e-11
-2.50111043e-12 75.8538812 132.1318454
-2.50111043e-12 191.8314851 184.712561
-2.50111043e-12 19.2918581 95.1989349
-2.50111043e-12 128.2198316 218.3655657
185.079602 250 74.7551334
208.255885 196.2419471 3.035438567e-11
126.10996 -20.2675413 3.035438567e-11
100.810053 250 134.0313667
113.570807 250 215.1728414
170.773495 250 173.4498919
-2.50111043e-12 -164.3445654 81.9980055
-2.50111043e-12 3.5238881 5.1524897
-2.50111043e-12 128.1222405 174.4350815
165.201519 17.2037053 3.035438567e-11
-2.50111043e-12 -103.0234493 171.4871151
236.198081 129.8689405 3.035438567e-11
161.110373 -71.6424829 3.035438567e-11
150.153643 259.085382 3.035438567e-11
-2.50111043e-12 165.225875 188.7449236
152.317846 -242.7598618 3.035438567e-11
232.189404 259.9360018 3.035438567e-11
-2.50111043e-12 238.3964793 186.4003325
10.303001 -3.0528854 3.035438567e-11
138.112387 264.5576307 3.035438567e-11
145.411609 168.2156075 3.035438567e-11
216.55193 142.93567 3.035438567e-11
-2.50111043e-12 -198.790872 200.1001402
134.725103 3.625855 3.035438567e-11
162.574559 184.458597 3.035438567e-11
217.483731 250 86.5353282
-2.50111043e-12 39.886556 30.66058563
-2.50111043e-12 30.6659064 57.7908945
-2.50111043e-12 -128.3027833 108.2757865
113.128096 156.2156672 3.035438567e-11
65.485833 -203.7430791 3.035438567e-11
246.505287 250 199.1002675
165.182146 131.3398913 3.035438567e-11
87.843984 -132.2747359 3.035438567e-11
-2.50111043e-12 20.321523 182.9127622
244.354348 250 146.3759066
-2.50111043e-12 -25.1753499 162.4388013
201.13741 51.3907137 3.035438567e-11
11.23872 -189.617875 3.035438567e-11
-2.50111043e-12 130.8635241 109.5061954
76.199986 -119.559273 3.035438567e-11
111.742771 -70.7687525 3.035438567e-11
49.429385 -81.7274016 3.035438567e-11
43.014503 -32.177967 3.035438567e-11
-2.50111043e-12 -54.5072682 190.5421815
-2.50111043e-12 206.3311752 99.3750768
-2.50111043e-12 -174.2093104 189.9516082
230.334116 -81.9051842 3.035438567e-11
141.371659 250 127.1521161
49.930671 262.4838797 3.035438567e-11
-2.50111043e-12 45.6508953 4.60763656
-2.50111043e-12 154.2543034 88.7389968
80.694496 250 236.674283
-2.50111043e-12 -9.2302814 199.2531874
54.412205 9.7305122 3.035438567e-11
213.626649 -14.1339504 3.035438567e-11
-2.50111043e-12 247.4380427 34.49488052
76.906219 250 144.301875
-2.50111043e-12 -217.1722817 13.37172384
-2.50111043e-12 186.8415984 227.5901529
-2.50111043e-12 -67.6029104 58.77783128
141.406123 64.8206797 3.035438567e-11
-2.50111043e-12 52.8042168 29.64240654
48.844111 250 46.90959133
-2.50111043e-12 168.1692111 133.182471
222.78587 250 76.1354911
-2.50111043e-12 5.7696572 74.2078765
214.935393 -93.3710319 3.035438567e-11
25.746818 -210.3222197 3.035438567e-11
169.226043 40.5021009 3.035438567e-11
204.180427 250 29.43920821
30.187675 250 114.0561862
-2.50111043e-12 -67.2095229 91.2577568
91.684043 229.9369819 3.035438567e-11
95.576343 -206.6680978 3.035438567e-11
150.603436 -138.777332 3.035438567e-11
18.23982 250 26.16975858
66.511402 232.0589718 3.035438567e-11
70.845681 190.9074144 3.035438567e-11
-2.50111043e-12 -160.6634435 39.40728191
70.949891 155.9308062 3.035438567e-11
-2.50111043e-12 44.1423677 236.7007606
84.613991 250 92.0174142
91.429573 269.4643632 3.035438567e-11
242.375861 176.6116916 3.035438567e-11
-2.50111043e-12 -176.8552694 116.5232998
125.469045 133.8387824 3.035438567e-11
164.19134 250 241.1246753
65.714204 250 30.3578126
229.721221 -173.8606052 3.035438567e-11
-2.50111043e-12 -78.723523 99.965806
155.069946 241.5445434 3.035438567e-11
140.894994 250 11.92149849
-2.50111043e-12 -241.6910576 21.33599015
-2.50111043e-12 -140.0422491 91.4403977
223.078773 -153.3513535 3.035438567e-11
-2.50111043e-12 -42.8817604 26.48998039
-2.50111043e-12 65.640738 90.2328146
68.213164 250 179.0888045
221.03738 68.2779713 3.035438567e-11
129.831493 250 169.0278949
64.309552 108.2817374 3.035438567e-11
3.320375 -200.0359885 3.035438567e-11
-0.5329338 -103.4223252 3.035438567e-11
-2.50111043e-12 -136.0450145 171.7970014
86.895655 -197.6228393 3.035438567e-11
-2.50111043e-12 -181.1613381 12.21368468
50.292448 250 11.15300778
87.690219 19.7735343 3.035438567e-11
217.714314 115.568348 3.035438567e-11
-2.50111043e-12 197.9625206 244.9828135
26.275346 -154.0247599 3.035438567e-11
-2.50111043e-12 22.1653409 38.69121332
42.180687 117.2561963 3.035438567e-11
-2.50111043e-12 141.1051399 34.00317115
176.202772 -51.6004248 3.035438567e-11
166.787684 156.5212013 3.035438567e-11
-2.50111043e-12 152.5368756 16.85582393
58.612481 -11.7161357 3.035438567e-11
243.300945 250 216.6654167
44.21764 200.3774625 3.035438567e-11
24.85958 -137.1434169 3.035438567e-11
114.208428 174.0274436 3.035438567e-11
-2.50111043e-12 171.6131199 112.9776519
192.974687 140.436855 3.035438567e-11
157.573063 209.7725007 3.035438567e-11
126.526161 28.124168 3.035438567e-11
160.31397 -28.6418307 3.035438567e-11
63.184899 250 114.6041754
52.591937 250 251.49605
131.514569 207.9065545 3.035438567e-11
-2.50111043e-12 221.263495 75.6412914
241.33762 -218.484643 3.035438567e-11
184.479648 -184.5929515 3.035438567e-11
47.221542 -187.7349789 3.035438567e-11
73.650939 128.698991 3.035438567e-11
146.075867 -111.0543575 3.035438567e-11
169.649827 -231.3980126 3.035438567e-11
187.165265 250 154.5717509
-2.50111043e-12 55.2144836 54.84639257
-2.50111043e-12 -79.3449627 142.9435956
94.838279 154.4392431 3.035438567e-11
24.417179 250 9.46939416
-2.50111043e-12 -47.3227239 65.4246712
-2.50111043e-12 62.6435042 6.93690539
8.929789 219.8103387 3.035438567e-11
61.315672 -230.8231893 3.035438567e-11
-2.50111043e-12 -57.202138 242.2561787
207.961013 250 107.7747372
18.980693 250 79.435316
154.312535 193.2059947 3.035438567e-11
6.439107 250 113.6626113
65.950061 -244.5158685 3.035438567e-11
103.28615 118.5057248 3.035438567e-11
-2.50111043e-12 -45.347423 172.6983475
-2.50111043e-12 -6.0053671 129.2842382
-2.50111043e-12 -70.9436428 11.84925388
-2.50111043e-12 -201.8446502 22.27157848
70.144202 213.2221741 3.035438567e-11
-2.50111043e-12 -108.2330902 147.5950157
-2.50111043e-12 -240.7185275 92.9952217
-2.50111043e-12 -164.844589 246.5022412
-2.50111043e-12 203.3358183 191.79821
99.118523 250 237.0602358
-2.50111043e-12 137.9001701 126.960004
-2.50111043e-12 -186.5192087 147.7046575
-2.50111043e-12 114.0294139 94.6511383
-2.50111043e-12 144.8110129 177.5363011
-2.50111043e-12 30.2114931 155.3719297
134.252557 -65.2530396 3.035438567e-11
106.421472 -219.6358208 3.035438567e-11
-2.50111043e-12 -73.6638261 42.31216993
47.119856 23.8893065 3.035438567e-11
250.79368 250 135.7588825
-2.50111043e-12 -112.1092732 83.7567868
35.866826 104.4244606 3.035438567e-11
195.959696 250 80.4517216
-2.50111043e-12 -247.4711005 211.7270402
-2.50111043e-12 -197.3458672 221.7704398
109.954151 192.5624799 3.035438567e-11
-2.50111043e-12 -215.5247021 61.826883
14.136254 47.5950071 3.035438567e-11
110.436559 205.870971 3.035438567e-11
-2.50111043e-12 17.9069331 21.9624886
-2.50111043e-12 123.9028715 52.81997678
-2.50111043e-12 111.5275192 245.9631712
207.711715 -76.0127416 3.035438567e-11
-2.50111043e-12 -27.0096586 139.945183
-2.50111043e-12 169.6023507 229.2201885
43.42104 42.4634132 3.035438567e-11
116.9578 143.2768177 3.035438567e-11
250.928841 250 113.7913558
84.781136 -172.2919137 3.035438567e-11
-2.50111043e-12 238.939893 114.2570617
32.8599 250 169.5447466
-2.50111043e-12 149.7390607 230.4225041
-2.50111043e-12 89.5891195 191.9714792
220.854331 250 242.7750353
42.68927 141.7194856 3.035438567e-11
122.374549 250 56.92871473
201.819966 250 227.3989199
249.58884 3.0987458 3.035438567e-11
-2.50111043e-12 239.5961979 20.5294378
21.143926 250 176.3210844
-2.50111043e-12 -223.0889932 72.0764652
-2.50111043e-12 153.9503058 127.6016045
112.917221 250 111.4660243
-2.50111043e-12 64.1260246 224.0644049
-2.50111043e-12 8.4192548 189.1717609
-2.50111043e-12 118.868069 139.2753158
24.644046 -95.5000646 3.035438567e-11
113.880916 226.4215985 3.035438567e-11
-2.50111043e-12 241.1509162 126.3941144
-2.50111043e-12 -57.9292929 203.9780655
-2.50111043e-12 -249.9245801 41.88884579
116.742545 250 15.70964748
-2.50111043e-12 23.3691307 210.7936746
-2.50111043e-12 -96.9035061 80.6352818
-2.50111043e-12 223.8097617 235.8020704
136.783932 250 31.13474165
242.151906 -164.9373459 3.035438567e-11
-2.50111043e-12 -129.9604614 96.7108839
-2.50111043e-12 -145.6259171 154.57754
-2.50111043e-12 -206.2182717 148.995103
-2.50111043e-12 -153.6112241 128.2474171
54.477547 250 159.2386474
149.475043 112.4593529 3.035438567e-11
223.916179 269.8401971 3.035438567e-11
-2.50111043e-12 -69.2810596 123.9878294
145.827779 -182.0247089 3.035438567e-11
214.405745 250 10.42644136
74.752168 -1.1972625 3.035438567e-11
5.823506 -219.9235384 3.035438567e-11
-2.50111043e-12 172.4764034 180.7844672
11.306373 250 48.77240388
162.977232 59.1732026 3.035438567e-11
-2.50111043e-12 -129.64537 73.8259926
44.338134 -148.2257878 3.035438567e-11
170.13478 250 11.33194728
-2.50111043e-12 -80.0288809 223.639455
192.792494 223.336186 3.035438567e-11
-2.50111043e-12 146.9376742 147.2072759
-2.50111043e-12 100.1115471 57.67801179
170.892751 250 33.52635496
-2.50111043e-12 -240.6923861 144.1800746
56.034312 250 73.467659
240.469217 250 14.68294299
170.010146 -8.4380229 3.035438567e-11
177.100426 -197.4436752 3.035438567e-11
-2.50111043e-12 -137.19172 227.1580719
115.373312 250 228.9090349
125.433159 250 101.0729453
-2.50111043e-12 93.9216836 25.65501197
40.317245 250 81.55227
121.389632 -203.8673628 3.035438567e-11
-2.50111043e-12 -215.2953131 186.662946
1.160238 250 215.2994159
-2.50111043e-12 -205.0045015 209.2963546
3.927644 250 8.76502387
168.155981 -111.9027517 3.035438567e-11
168.699799 250 120.6048342
107.51021 264.6747705 3.035438567e-11
-2.50111043e-12 -237.4251915 9.25718637
-2.50111043e-12 -39.938618 121.2532336
-2.50111043e-12 101.8946658 92.1515522
16.748208 250 156.135946
195.850951 117.2430514 3.035438567e-11
-2.50111043e-12 -18.1375614 246.3580114
231.278571 250 105.8153269
169.723158 250 52.1874234
126.637165 -37.9424045 3.035438567e-11
-2.50111043e-12 25.2659985 6.3297667
-2.50111043e-12 -101.0200841 25.48050165
-2.50111043e-12 247.2102411 240.9458419
-2.50111043e-12 -31.3745758 236.7293558
-2.50111043e-12 -125.116445 132.8062724
203.525483 140.5285022 3.035438567e-11
-2.50111043e-12 -91.1327001 125.2346078
-2.50111043e-12 21.8895719 251.1744477
-2.50111043e-12 221.7745887 34.58926574
234.599016 94.192007 3.035438567e-11
-2.50111043e-12 210.4826655 168.4382606
226.400983 232.4973708 3.035438567e-11
-2.50111043e-12 91.7302641 154.1349776
-2.50111043e-12 13.3325512 62.4553575
-2.50111043e-12 98.4623894 117.9084363
133.298854 250 214.7064662
20.940589 102.0270699 3.035438567e-11
103.884995 250 48.31274353
-2.50111043e-12 5.7985398 96.1828383
85.862855 74.4304458 3.035438567e-11
-2.50111043e-12 -20.3840023 41.61469039
146.866817 18.9607666 3.035438567e-11
41.860881 272.0373823 3.035438567e-11
143.830851 250 106.2781589
189.223857 -232.4212754 3.035438567e-11
-2.50111043e-12 -39.1770439 249.3564287
10.02759 250 225.9246906
-2.50111043e-12 44.3597168 225.4172949
-2.50111043e-12 182.6425246 41.234214
91.218389 206.5619075 3.035438567e-11
197.276366 -173.2605688 3.035438567e-11
116.264997 250 3.69900457
-2.50111043e-12 239.6303628 88.1444597
232.378442 250 35.71766116
-2.50111043e-12 6.2215276 53.15968899
-2.50111043e-12 64.9160313 110.0092431
-2.50111043e-12 123.1238116 41.70647477
-2.50111043e-12 198.4409902 206.6297852
52.84747 -161.3076237 3.035438567e-11
-2.50111043e-12 85.0901655 41.37927968
170.992403 238.8972383 3.035438567e-11
-2.50111043e-12 -68.9340504 239.4860515
88.736319 162.8323526 3.035438567e-11
-2.50111043e-12 71.8684251 213.0204391
-2.50111043e-12 -154.6879131 78.2099262
171.42211 -31.0970563 3.035438567e-11
200.90838 -198.981622 3.035438567e-11
219.990834 -37.7601191 3.035438567e-11
-2.50111043e-12 -80.5428467 189.6570983
78.13398 250 27.59243384
114.224194 250 186.3119113
61.628656 250 195.5674305
96.418625 -92.2827241 3.035438567e-11
161.995594 -44.4673402 3.035438567e-11
102.004488 57.105502 3.035438567e-11
-2.50111043e-12 -235.6658803 191.5936981
152.048633 250 218.1860707
-2.50111043e-12 -118.029966 12.33418262
180.957734 250 212.6545765
-2.50111043e-12 223.0023384 141.9500553
-2.50111043e-12 -56.9549977 103.589978
-2.50111043e-12 10.9333999 117.5158149
-2.50111043e-12 106.3930023 173.2832607
172.480656 181.6166965 3.035438567e-11
-2.50111043e-12 50.9797264 74.0722045
-2.50111043e-12 147.9922923 5.46599053
-2.50111043e-12 223.9413591 249.1118959
-1.723095 -50.7032226 3.035438567e-11
59.054849 250 150.0328213
-2.50111043e-12 -209.5287851 112.5962417
145.38656 -30.2614641 3.035438567e-11
43.27282 179.2602393 3.035438567e-11
-2.50111043e-12 121.8215768 114.3671181
-2.50111043e-12 101.2357049 3.60083839
218.69632 172.7885732 3.035438567e-11
51.292785 56.2250986 3.035438567e-11
102.822894 134.7382699 3.035438567e-11
235.964632 250 125.1899849
193.183409 -64.3793851 3.035438567e-11
-2.50111043e-12 85.3985843 207.3788375
152.154241 -1.7432002 3.035438567e-11
33.421611 250 200.4361723
31.5932 250 240.1311259
-2.50111043e-12 -193.197899 31.67264051
-2.50111043e-12 152.7659685 48.50843754
17.359278 247.2006686 3.035438567e-11
197.51725 151.2339523 3.035438567e-11
83.515642 196.5519554 3.035438567e-11
237.687327 -1.5599212 3.035438567e-11
21.921568 250 99.4208034
115.86514 250 242.4255348
53.347523 250 228.3295791
-2.50111043e-12 -104.7592848 251.7689689
174.93455 250 75.3728914
240.775723 236.0322511 3.035438567e-11
92.105634 250 123.9446631
159.263298 -129.2735513 3.035438567e-11
-2.50111043e-12 -174.5107833 130.5565329
181.888419 52.6756577 3.035438567e-11
163.678456 -96.8149502 3.035438567e-11
-2.50111043e-12 -131.8612335 10.84587042
87.134049 250 112.6804312
102.351491 -175.4481075 3.035438567e-11
-2.50111043e-12 -149.0328378 46.87877824
126.133387 250 33.56641672
230.13934 5.5063318 3.035438567e-11
108.709283 250 69.3798294
-2.50111043e-12 76.6143704 157.7454557
107.0552 250 178.7242525
-2.50111043e-12 201.3285107 38.30200305
222.799528 250 226.1447466
-2.50111043e-12 -64.5926054 81.2927328
200.498555 100.1677789 3.035438567e-11
7.362648 20.438756 3.035438567e-11
-2.50111043e-12 232.2258493 66.8445184
135.928417 250 145.998444
-2.50111043e-12 141.2345689 215.4601452
-2.50111043e-12 153.2881817 250.95981
-2.50111043e-12 117.6944244 129.2785792
-2.50111043e-12 -238.2864057 180.4849236
15.525412 -155.7216726 3.035438567e-11
135.354582 168.3906506 3.035438567e-11
164.305898 250 141.0381881
-2.50111043e-12 168.942323 9.77106163
-2.50111043e-12 -243.5298838 158.4640019
159.584665 250 89.5703587
241.582724 -86.047956 3.035438567e-11
32.087342 49.7262847 3.035438567e-11
97.37977 -27.8855956 3.035438567e-11
-2.50111043e-12 -27.3178789 92.5506565
85.4427 -243.8181139 3.035438567e-11
-2.50111043e-12 -153.6425772 179.4698916
122.555834 55.4325822 3.035438567e-11
67.767454 136.7874845 3.035438567e-11
-2.50111043e-12 84.5918876 74.1536688
180.853784 103.029745 3.035438567e-11
-2.50111043e-12 75.0246494 25.10407586
114.306987 -186.3887642 3.035438567e-11
135.777368 -187.1033302 3.035438567e-11
-2.50111043e-12 -228.9328244 38.76755916
-2.50111043e-12 -46.0359809 153.4609923
-2.50111043e-12 -177.336526 86.4511947
186.693772 -131.5212946 3.035438567e-11
90.801008 250 134.4278749
97.021982 250 23.6484229
46.002185 228.4452145 3.035438567e-11
36.862494 252.4389646 3.035438567e-11
17.253623 236.9887714 3.035438567e-11
55.158132 240.7628773 3.035438567e-11
81.9554 176.5934291 3.035438567e-11
199.916624 126.3441002 3.035438567e-11
155.313132 250 105.5013562
74.114774 250 203.6958969
47.025827 250 187.5245493
-2.50111043e-12 194.2533406 81.6882874
72.913134 55.3477976 3.035438567e-11
198.187713 79.0455799 3.035438567e-11
-2.50111043e-12 -133.185137 183.0054058
239.535733 250 177.6787271
-2.50111043e-12 41.783543 107.1862175
170.854125 -69.9392872 3.035438567e-11
108.186153 -120.6717614 3.035438567e-11
-2.50111043e-12 63.9422981 166.479451
99.565802 91.2800186 3.035438567e-11
80.815397 155.1080852 3.035438567e-11
62.932834 -159.6982375 3.035438567e-11
-2.50111043e-12 55.9376598 239.7072368
-2.50111043e-12 170.3723627 241.3589826
-2.50111043e-12 121.017418 211.129221
-2.50111043e-12 19.6899933 106.7231127
-2.50111043e-12 183.8804393 54.166379
75.251505 12.7126162 3.035438567e-11
107.296679 250 205.5945174
74.167692 -143.7599741 3.035438567e-11
-2.50111043e-12 10.2732608 166.900051
77.104405 246.4372094 3.035438567e-11
219.591004 250 183.756195
31.473559 250 92.2977712
104.635149 -38.1317068 3.035438567e-11
167.851767 250 84.2662681
116.718546 110.5653769 3.035438567e-11
236.769945 -190.6608048 3.035438567e-11
43.629108 250 90.9284096
51.942879 -223.6304762 3.035438567e-11
-2.50111043e-12 190.4409189 72.6299131
-2.50111043e-12 -165.9309202 234.5397862
-2.50111043e-12 47.4005263 40.79311808
173.696733 -132.3823256 3.035438567e-11
-2.50111043e-12 213.8313965 18.93922345
85.554454 -122.400139 3.035438567e-11
133.02275 179.471523 3.035438567e-11
-2.50111043e-12 -3.073332 41.24980457
155.440732 14.2716658 3.035438567e-11
188.634394 36.7163442 3.035438567e-11
231.203856 250 68.5644093
98.514577 3.7060603 3.035438567e-11
10.783156 -63.8286406 3.035438567e-11
-2.50111043e-12 -105.4658934 234.6552288
-2.50111043e-12 112.1674214 16.61709022
53.925485 -205.0878844 3.035438567e-11
-2.50111043e-12 -127.7330663 204.93574
30.227172 233.3011932 3.035438567e-11
128.873201 250 76.3502971
-2.50111043e-12 -223.4452312 56.09704866
-2.50111043e-12 -135.2956013 120.030507
21.715568 -86.2441414 3.035438567e-11
241.06943 268.2697337 3.035438567e-11
-2.50111043e-12 230.4385358 166.0274097
131.853435 -124.9368417 3.035438567e-11
-2.50111043e-12 153.3016786 160.5072017
-2.50111043e-12 -89.5868284 238.8986969
95.357621 128.5909459 3.035438567e-11
-2.50111043e-12 -177.7570258 26.77042335
192.622933 183.8789356 3.035438567e-11
-2.50111043e-12 -237.1598073 224.8455235
242.279133 250 92.0047078
167.760384 80.7429912 3.035438567e-11
-2.50111043e-12 59.7614563 69.9736584
-2.50111043e-12 -36.4324512 109.0673314
70.704128 86.7924805 3.035438567e-11
-2.50111043e-12 188.591239 131.1159043
194.080466 250 161.2945
192.085035 57.125906 3.035438567e-11
-2.50111043e-12 -90.8159252 57.9316953
241.029078 196.113345 3.035438567e-11
-2.50111043e-12 -142.9893907 206.6021571
135.225098 250 205.2825867
154.123209 250 142.6559598
-2.50111043e-12 53.3261351 163.9094582
158.65055 250 64.2136766
79.185791 81.5884389 3.035438567e-11
85.394043 -77.392831 3.035438567e-11
-2.50111043e-12 -181.427663 207.3710852
150.025376 69.0405965 3.035438567e-11
158.202746 -82.9925823 3.035438567e-11
-2.50111043e-12 -218.5592346 241.3764619
-0.7233417 -250 67.4842135
186.508352 -195.6023541 3.035438567e-11
80.150542 -56.1952543 3.035438567e-11
247.715502 250 43.1798166
95.473818 250 83.8832521
129.686567 -104.7717197 3.035438567e-11
-2.50111043e-12 -91.1810518 21.82630557
-2.50111043e-12 85.6642228 112.6684638
-2.50111043e-12 169.4730673 41.12631794
165.2118 250 194.413389
89.148449 -52.0877994 3.035438567e-11
2.479942 260.142378 3.035438567e-11
228.106415 186.682951 3.035438567e-11
-2.50111043e-12 155.4452077 109.2614955
142.796384 210.3953512 3.035438567e-11
224.325004 -91.6411158 3.035438567e-11
155.915471 128.7180161 3.035438567e-11
-2.50111043e-12 -113.0370771 55.2484944
-2.50111043e-12 158.3321567 173.4196898
20.084766 216.5816591 3.035438567e-11
95.743607 250 248.1844545
250.424006 250 168.8042996
42.940381 -44.3054164 3.035438567e-11
148.822794 250 167.1900685
177.840039 132.3681394 3.035438567e-11
185.205775 -102.1157599 3.035438567e-11
137.266518 250 49.59676762
30.759697 171.1645342 3.035438567e-11
60.9454 250 46.23335205
-2.50111043e-12 -96.8029879 161.4057856
76.12436 250 87.788083
-2.50111043e-12 -14.6029321 11.87249231
-2.50111043e-12 153.5857722 26.27653834
117.304602 82.2608713 3.035438567e-11
-2.50111043e-12 -118.8933666 217.7260463
-2.50111043e-12 178.6444284 99.1308701
-2.50111043e-12 18.3915671 123.3426121
-2.50111043e-12 -6.5250961 61.5143026
39.450828 250 149.5740201
-2.50111043e-12 1.0610916 109.890998
52.804159 46.5206223 3.035438567e-11
-2.50111043e-12 23.5983918 144.5529643
-2.50111043e-12 -195.6409214 179.2266973
-2.50111043e-12 103.866739 205.2392563
-2.50111043e-12 -224.7206849 129.1148967
12.055474 250 67.1571604
164.341556 248.6680243 3.035438567e-11
78.591002 250 183.1444285
90.277605 53.7840991 3.035438567e-11
103.23063 -47.4582287 3.035438567e-11
-2.50111043e-12 128.6153047 89.2768296
-2.50111043e-12 -203.3198361 69.4605518
-2.50111043e-12 -16.8497808 166.861587
-2.50111043e-12 -33.413615 6.91502569
-2.50111043e-12 -226.0497536 175.3914443
-2.50111043e-12 -44.0515702 199.1112454
247.612697 69.640252 3.035438567e-11
37.688938 -215.9329057 3.035438567e-11
81.571148 38.7316325 3.035438567e-11
-2.50111043e-12 -214.6940768 36.3503114
223.118781 250 37.26855631
-2.50111043e-12 -32.2304863 18.41942468
-2.50111043e-12 -199.1064416 236.6047605
188.83979 250 182.7145067
1.523261 87.4806424 3.035438567e-11
-2.50111043e-12 -211.3587955 248.7149366
146.612726 -226.47559 3.035438567e-11
166.762822 273.3709201 3.035438567e-11
194.82133 70.3109794 3.035438567e-11
-2.50111043e-12 -169.7676127 181.5762655
-2.50111043e-12 161.8947222 54.03465956
54.6351 99.6052673 3.035438567e-11
-2.50111043e-12 24.9793433 240.908297
101.452698 -68.3891364 3.035438567e-11
99.636687 -230.2204286 3.035438567e-11
220.707662 -143.7548401 3.035438567e-11
-2.50111043e-12 185.3807744 120.5738356
-2.50111043e-12 45.4866699 245.9318651
185.763666 250 132.5623477
8.70573 67.901918 3.035438567e-11
-2.50111043e-12 -125.9101466 28.87678379
237.734907 -43.7169643 3.035438567e-11
-2.50111043e-12 -206.5518869 83.7235744
171.310529 250 247.1229644
21.708027 250 212.93617
22.506415 152.4939033 3.035438567e-11
201.559158 -133.2817378 3.035438567e-11
203.120772 250 7.09184981
45.91519 216.3799649 3.035438567e-11
94.040764 194.0051511 3.035438567e-11
250.892823 250 29.60427319
129.288945 248.9824985 3.035438567e-11
-2.50111043e-12 -220.8653354 85.4087963
60.136215 -53.4901153 3.035438567e-11
72.318896 257.4082475 3.035438567e-11
-2.50111043e-12 -186.9331968 161.550069
47.75878 250 34.23441734
-2.50111043e-12 213.7544366 107.5155118
74.395271 250 219.1473666
-2.50111043e-12 -106.6050323 211.1111119
-2.50111043e-12 -198.7587858 142.0459433
-2.50111043e-12 52.6560087 10.67016899
-2.50111043e-12 -217.1352378 94.2704613
-2.50111043e-12 112.6359427 229.2620706
155.481366 -55.6451741 3.035438567e-11
-2.50111043e-12 35.3208983 141.0368648
26.029155 -231.3189385 3.035438567e-11
250.645668 -143.7451056 3.035438567e-11
-2.50111043e-12 -57.3029864 8.13002565
79.565857 -179.978173 3.035438567e-11
8.465453 250 192.399711
20.226193 187.3694063 3.035438567e-11
111.509357 -164.7935623 3.035438567e-11
125.679495 -219.0745129 3.035438567e-11
143.87962 -169.975223 3.035438567e-11
-2.50111043e-12 -63.5288232 157.3543045
111.046087 31.8887602 3.035438567e-11
237.322164 -244.6971507 3.035438567e-11
-2.50111043e-12 -31.4171492 154.0610788
-2.50111043e-12 -222.5155847 194.194428
210.530131 235.8342977 3.035438567e-11
151.96762 250 208.3997809
-2.50111043e-12 -198.373906 46.3592057
222.936869 -0.2278571999 3.035438567e-11
27.425123 82.5564554 3.035438567e-11
47.871402 -16.632129 3.035438567e-11
-2.50111043e-12 -145.1509245 80.0389433
-2.50111043e-12 47.8503475 153.8909829
101.631549 211.2917634 3.035438567e-11
-2.50111043e-12 -16.3967249 126.1678816
34.772985 183.3323334 3.035438567e-11
7.320792 250 39.41211786
69.940251 -221.3422351 3.035438567e-11
203.14537 -145.3131783 3.035438567e-11
229.129324 63.9496693 3.035438567e-11
237.616673 76.4934651 3.035438567e-11
38.731895 250 108.077439
166.70512 147.3501978 3.035438567e-11
-2.50111043e-12 -123.4521146 4.93954048
64.135398 33.2594642 3.035438567e-11
146.872821 94.5289782 3.035438567e-11
184.993509 8.5759028 3.035438567e-11
219.920471 250 157.1715625
-2.50111043e-12 -77.3430436 0.37773467
55.95992 -107.5494101 3.035438567e-11
-2.50111043e-12 48.674709 203.936496
22.995061 -242.2314956 3.035438567e-11
-2.50111043e-12 112.2312768 105.2447366
228.321578 164.4340901 3.035438567e-11
206.999785 -168.7698685 3.035438567e-11
-2.50111043e-12 144.0273693 93.6252083
201.733445 250 252.4031752
231.916609 250 225.9320958
32.141762 59.7538635 3.035438567e-11
41.065219 62.3510565 3.035438567e-11
-2.50111043e-12 -82.9207637 163.1154853
-2.50111043e-12 -189.0809762 112.9177713
230.187919 16.2777975 3.035438567e-11
237.863844 250 209.3552234
225.148894 -116.2019457 3.035438567e-11
35.956285 -25.3708476 3.035438567e-11
38.124624 250 25.7261469
-2.50111043e-12 -78.4177704 50.14992487
-2.50111043e-12 -150.7482094 66.5499627
-2.50111043e-12 -17.5473461 190.5269896
63.343488 221.4355025 3.035438567e-11
58.647084 250 95.5518327
-2.50111043e-12 106.8863224 157.5480633
-2.50111043e-12 -141.5942719 113.5034734
75.676613 232.4914132 3.035438567e-11
-2.50111043e-12 -144.0007307 133.3646546
193.265205 -95.6102473 3.035438567e-11
209.926999 257.9220389 3.035438567e-11
116.350644 133.8419791 3.035438567e-11
209.393683 250 199.2064779
157.166389 165.7951318 3.035438567e-11
53.617585 250 199.7603033
-2.50111043e-12 96.1086733 144.8525954
25.102008 250 18.47906517
237.848392 103.1060003 3.035438567e-11
-2.50111043e-12 -109.7580104 8.71376963
228.603272 250 205.3788784
47.261126 107.5862352 3.035438567e-11
45.315377 -244.5006766 3.035438567e-11
155.058818 250 21.66260334
6.055244 -231.9713738 3.035438567e-11
229.62691 -229.3567997 3.035438567e-11
225.977183 -132.8936719 3.035438567e-11
-2.50111043e-12 -187.8498162 242.5546824
-2.50111043e-12 71.9141098 7.98056803
6.619994 124.6503604 3.035438567e-11
35.514913 19.5762005 3.035438567e-11
-2.50111043e-12 -119.4923633 195.3577546
124.383746 250 213.0411232
120.460338 250 161.4309564
129.39149 10.8623062 3.035438567e-11
217.910091 -208.6973982 3.035438567e-11
179.350841 260.6666415 3.035438567e-11
133.249041 124.1997381 3.035438567e-11
226.44969 250 86.1264295
68.518955 -114.9193921 3.035438567e-11
-2.50111043e-12 173.1459664 250.3108073
-2.50111043e-12 -117.2667877 128.4689571
6.153202 250 56.11149054
248.297725 250 65.5403223
-2.50111043e-12 240.5520127 246.9500458
234.448017 228.5572667 3.035438567e-11
141.121498 250 81.3011961
113.25739 -108.8839136 3.035438567e-11
9.11282 250 161.0363867
-2.50111043e-12 39.6065761 57.44458315
197.825654 -246.9371726 3.035438567e-11
98.70762 250 203.0990302
242.978441 -15.5912828 3.035438567e-11
-2.50111043e-12 85.1505994 58.42143064
243.91083 -66.6685515 3.035438567e-11
8.833147 250.9846828 3.035438567e-11
20.68985 18.1591553 3.035438567e-11
-2.50111043e-12 -191.7068473 8.04002299
101.995907 -133.2813634 3.035438567e-11
52.87846 250 134.539646
205.469228 270.5242364 3.035438567e-11
-1.4696336 141.1102552 3.035438567e-11
9.391234 196.1795878 3.035438567e-11
124.407043 250 109.9212987
115.980002 260.5700042 3.035438567e-11
210.160871 250 140.0296297
-2.50111043e-12 -143.3812229 145.3747474
209.033162 34.1656048 3.035438567e-11
148.984955 250 31.70518468
-2.50111043e-12 187.0553053 8.70478792
59.112172 250 2.19701412
12.195974 -200.4467294 3.035438567e-11
-2.50111043e-12 -29.7518077 187.6465176
191.789022 -85.7611903 3.035438567e-11
195.344365 250 205.0301099
58.629897 183.2364737 3.035438567e-11
151.244862 250 151.0502433
-2.50111043e-12 230.6879615 11.74946162
131.220344 250 189.2815165
-2.50111043e-12 18.2932048 234.1252962
204.005139 -187.8989277 3.035438567e-11
-2.50111043e-12 216.1801288 94.1260738
-2.50111043e-12 -45.4702264 162.2936581
29.568892 -74.1940565 3.035438567e-11
-2.50111043e-12 105.461089 74.6255854
236.88342 250 186.5999334
47.76898 250 125.0552427
-2.50111043e-12 98.7170407 191.8355594
155.751402 -64.6181652 3.035438567e-11
-2.50111043e-12 111.9061182 58.09670204
-2.50111043e-12 -146.6705799 244.1975642
-2.50111043e-12 2.1498315 243.8522718
47.047096 -198.4229134 3.035438567e-11
190.983304 -41.6280159 3.035438567e-11
-2.50111043e-12 35.2220113 66.7582576
202.790807 250 171.4260325
28.766612 250 219.7233746
250.976959 171.8244316 3.035438567e-11
-2.50111043e-12 144.737419 59.08237936
36.844657 250 39.99050502
134.945702 250 223.3550329
-2.50111043e-12 127.4361038 8.9858089
-2.50111043e-12 138.214297 146.0783459
-2.50111043e-12 -100.4823619 191.9967224
-2.50111043e-12 -26.0426867 211.3619717
-1.2618381 234.8276857 3.035438567e-11
-2.50111043e-12 -64.5897117 186.4092667
223.60164 223.6347748 3.035438567e-11
35.313528 250 227.228777
-2.50111043e-12 -105.9217649 93.3707477
-2.50111043e-12 244.4375569 95.8669429
72.39199 -25.4522377 3.035438567e-11
-2.50111043e-12 -13.6683183 145.3660488
167.252475 250 155.5811558
176.958721 -112.216712 3.035438567e-11
4.626106 -160.2471257 3.035438567e-11
218.656641 104.9822726 3.035438567e-11
128.374244 231.6127188 3.035438567e-11
-2.50111043e-12 -61.7892648 26.81146669
240.625987 167.3361484 3.035438567e-11
186.925634 250 145.7115614
208.378369 -227.3638963 3.035438567e-11
83.035563 60.7429635 3.035438567e-11
104.321397 -206.6176292 3.035438567e-11
-2.50111043e-12 -151.0488311 24.66839382
132.994932 250 250.574771
-2.50111043e-12 149.8198751 34.70256126
138.640198 -133.8645016 3.035438567e-11
-2.50111043e-12 -158.1903858 96.54482
192.045309 250 16.00592576
217.773584 126.0204492 3.035438567e-11
-2.50111043e-12 -121.8280212 245.7293222
233.355793 250 160.2099818
237.134155 -204.0506196 3.035438567e-11
-2.50111043e-12 -80.4530957 80.0098359
239.290921 211.2301529 3.035438567e-11
87.035303 250 154.8400606
117.657458 -79.4443853 3.035438567e-11
-2.50111043e-12 203.3079022 128.199955
-2.50111043e-12 231.7919761 82.2856523
9.133209 250 85.1531143
235.198091 250 240.9947624
-2.50111043e-12 5.7557087 222.6293745
155.872146 250.6277139 3.035438567e-11
207.297106 226.7008937 3.035438567e-11
73.354116 -161.1045664 3.035438567e-11
-2.50111043e-12 50.68928 92.7121219
-2.50111043e-12 -81.7876794 11.42218459
-2.50111043e-12 213.7015207 125.76637
-2.50111043e-12 239.1394256 205.3931227
199.705629 -27.3602579 3.035438567e-11
229.899172 50.2417003 3.035438567e-11
98.256374 250 11.29759078
-2.50111043e-12 -133.5695609 52.46096265
-2.50111043e-12 -74.747566 233.0244875
114.633273 -237.4749786 3.035438567e-11
-2.50111043e-12 -115.1216463 176.3816434
140.831697 104.3169705 3.035438567e-11
91.636432 41.9105392 3.035438567e-11
-2.50111043e-12 -166.1804445 208.2009163
-2.50111043e-12 -1.2642999 17.88343009
177.644562 -165.448804 3.035438567e-11
-2.50111043e-12 200.2530891 167.5746819
-2.50111043e-12 -243.9345732 106.0856391
-2.50111043e-12 128.7360353 201.5388571
145.192029 -152.15988 3.035438567e-11
5.363154 -138.7816489 3.035438567e-11
144.021896 -119.4423297 3.035438567e-11
217.27668 -240.4075598 3.035438567e-11
-2.50111043e-12 -119.1094683 103.8647485
-2.50111043e-12 237.0001667 227.526571
-2.50111043e-12 -80.7053198 180.3494839
-2.50111043e-12 2.7161804 120.8139954
-2.50111043e-12 134.8832081 76.8059685
-2.50111043e-12 132.1449077 55.34221636
236.340912 250 55.53490499
211.937396 -40.9254693 3.035438567e-11
87.516349 0.3976319001 3.035438567e-11
-2.50111043e-12 -122.900687 38.87110267
140.384216 13.2935499 3.035438567e-11
240.73473 251.869384 3.035438567e-11
40.17137 250 174.0909859
-2.50111043e-12 14.1372124 207.7907057
-2.50111043e-12 82.6904099 230.3609145
-2.50111043e-12 -153.3868989 195.7500766
-2.50111043e-12 -142.5808119 164.2943168
