# .PCD v0.7 - Point Cloud Data file format
VERSION 0.7
FIELDS x y z
SIZE 4 4 4
TYPE F F F
COUNT 1 1 1
WIDTH 1181
HEIGHT 1
VIEWPOINT 0 0 0 1 0 0 0
POINTS 1181
DATA ascii
-251.9197557 -58.93507416 3.871036824e-11
-17.89101048 -245.2776481 3.871036824e-11
-117.7337282 -225.2819597 152.6482006
-1.258274585e-05 -160.0789735 216.4396927
-159.3706257 -126.1847327 3.871036824e-11
-1.258274585e-05 209.6750108 175.7661287
-1.258274585e-05 165.9370956 53.96930227
-1.258274585e-05 -22.91325246 230.399671
-1.258274585e-05 -116.1779306 203.4887634
-189.8918102 66.70624764 3.871036824e-11
-1.258274585e-05 64.55090504 109.1296965
-175.7355786 -197.8660004 3.871036824e-11
-1.258274585e-05 194.1928023 81.8686552
-1.258274585e-05 145.271795 194.3314439
-111.6200576 -4.980092062 3.871036824e-11
-1.258274585e-05 -88.90219606 238.2312346
-184.3642098 22.99083504 3.871036824e-11
-143.5674896 225.2819441 -0.60552627
-173.5162317 -225.2819597 112.8452007
-1.258274585e-05 -29.48973566 133.4202632
-172.5523381 -234.643063 3.871036824e-11
-172.5711641 -225.2819597 246.146125
-230.8751619 -225.2819597 210.9695647
-197.6790433 -231.93885 3.871036824e-11
-1.258274585e-05 148.2568988 14.89089723
-1.258274585e-05 177.5472056 17.59347619
-245.1161456 93.92845934 3.871036824e-11
-1.258274585e-05 1.211704138 161.5605348
-129.2363825 -239.2784175 3.871036824e-11
-153.1968338 208.3149399 3.871036824e-11
1.839438417 -225.2819597 123.6352264
-134.2234932 109.7793771 3.871036824e-11
-1.258274585e-05 -197.8542452 235.529267
-1.258274585e-05 -75.58499536 20.52235635
-203.1123268 -129.1504649 3.871036824e-11
-93.03342368 61.60229984 3.871036824e-11
-1.258274585e-05 79.70356894 130.3633572
-57.55348938 -225.2819597 166.7784509
-41.19645268 51.91920634 3.871036824e-11
-1.258274585e-05 109.6692267 120.4049636
-1.258274585e-05 150.0170143 167.9445781
-1.258274585e-05 -203.5363595 173.3096887
-8.082163783 -225.2819597 195.7194588
-37.91081758 194.4804015 3.871036824e-11
-1.258274585e-05 117.3642997 226.2420318
-93.32048088 -225.2819597 132.0208608
-1.258274585e-05 -84.15298916 130.2910568
-1.258274585e-05 10.21791904 71.4493528
-204.5620779 -225.2819597 232.3821217
-58.68039398 59.87284924 3.871036824e-11
-1.258274585e-05 71.31490584 193.5692198
-1.258274585e-05 -107.8067354 117.6014442
-1.258274585e-05 11.30997834 251.1151288
-1.258274585e-05 -165.2308774 71.9107004
-1.258274585e-05 -175.84512 226.8660054
-1.258274585e-05 -60.41011556 233.631944
-1.258274585e-05 -118.6027491 147.1882773
-144.6570869 14.35312824 3.871036824e-11
2.068453717 6.161620438 3.871036824e-11
-98.02119888 -225.2819597 95.2488744
-1.258274585e-05 202.2369844 192.6294289
-33.93204838 -225.2819597 222.359277
-248.4010018 -225.2819597 144.9816136
-1.258274585e-05 -139.7149284 38.59979643
-39.08379388 -225.2819597 127.5966057
-1.258274585e-05 -136.5682626 16.17810037
-45.95775548 -30.72656996 3.871036824e-11
-187.1015943 -88.26003046 3.871036824e-11
-225.6708713 -86.42537496 3.871036824e-11
-1.258274585e-05 -144.3522752 225.7509328
-1.258274585e-05 225.1307906 23.57905024
-1.258274585e-05 73.21031454 232.8285978
-244.317982 -225.2819597 117.056802
-171.3797184 100.4274755 3.871036824e-11
-215.3622464 206.3314868 3.871036824e-11
-1.258274585e-05 -106.0056764 11.13110869
-118.8410843 23.25500804 3.871036824e-11
-136.0131536 -225.2819597 251.3008563
-17.00358488 225.2819441 -1.11058182
-165.4546502 -225.2819597 182.8815092
-1.258274585e-05 54.28737804 88.2095814
-1.258274585e-05 -65.01776086 93.6213454
-10.63499048 -225.2819597 158.2951396
-202.524836 -197.2641891 3.871036824e-11
-144.3305363 145.3216812 3.871036824e-11
-177.3121273 -127.1481368 3.871036824e-11
-1.258274585e-05 222.7358752 98.5423921
-1.258274585e-05 36.55304174 134.618238
-31.26925638 -225.2819597 191.3966904
-1.258274585e-05 111.4784745 182.0260333
-1.258274585e-05 119.9884719 136.8726057
-1.258274585e-05 -146.6418439 137.487911
-1.258274585e-05 -207.9955792 53.1152845
-1.258274585e-05 -63.71635936 161.342312
-1.258274585e-05 -25.02091226 12.33536888
-78.88665878 -165.3044405 3.871036824e-11
-1.258274585e-05 100.9040734 77.8474985
-1.258274585e-05 81.06008364 172.3340865
-1.258274585e-05 185.510612 144.5209984
-210.9855179 171.2787641 3.871036824e-11
-146.3639223 175.6344195 3.871036824e-11
-1.258274585e-05 223.2435535 163.8486954
-104.904413 178.637291 3.871036824e-11
-1.258274585e-05 99.07848244 249.5922604
-14.05909848 -225.2819597 75.6562115
-70.28914998 -225.2819597 227.482852
-242.9965071 -225.2819597 226.1523938
-76.22443888 -225.2819597 13.59927335
-44.87267478 -201.1564665 3.871036824e-11
-15.95616088 -147.248075 3.871036824e-11
-231.3512171 -225.2819597 95.6651292
-1.258274585e-05 -190.443026 38.91001653
-124.5295015 -225.2819597 230.0353946
-119.8518734 -225.2819597 55.65636837
-1.258274585e-05 54.50104624 238.8228161
-57.55924928 -225.2819597 76.7471064
-63.54770098 81.91195304 3.871036824e-11
-1.258274585e-05 185.9400449 53.18255119
-53.40684578 -92.61943946 3.871036824e-11
-1.258274585e-05 -126.7579241 169.0813849
-112.693966 137.4609488 3.871036824e-11
-1.258274585e-05 59.13366554 162.3924645
-1.258274585e-05 -179.9899584 80.8153133
-182.0003261 -225.2819597 211.1798003
-233.6309865 210.810069 3.871036824e-11
-189.2002604 -225.2819597 28.9293519
-1.258274585e-05 146.0299023 117.9215161
-1.258274585e-05 171.3664509 34.4494337
-1.258274585e-05 4.049980638 17.98702006
-1.258274585e-05 -48.13189916 203.2322223
-50.69877908 -131.4117174 3.871036824e-11
-1.258274585e-05 51.83646224 204.3066657
-1.258274585e-05 -63.76750956 130.0411568
-227.3322729 -225.2819597 57.47126346
-1.258274585e-05 -30.01192436 74.0686642
-1.258274585e-05 -160.7182299 125.6046826
-1.258274585e-05 -161.987413 10.88439408
-1.258274585e-05 103.1119617 17.12248166
-1.258274585e-05 211.0917876 210.8472811
-4.867784783 38.39282624 3.871036824e-11
-1.258274585e-05 134.6462091 99.9347637
-99.21600528 202.9859806 3.871036824e-11
-132.2069478 -225.2819597 180.1748904
-1.258274585e-05 -152.8506627 200.1994584
-15.63812518 -225.2819597 100.409898
-235.5841633 -225.2819597 251.8632704
-193.7342055 139.8239425 3.871036824e-11
-141.9464718 -225.2819597 97.2984784
-26.58107098 -212.5939551 3.871036824e-11
-210.6868663 105.1618465 3.871036824e-11
-3.848839283 -225.2819597 227.1986072
-91.34730238 107.7563607 3.871036824e-11
-1.258274585e-05 -68.57733336 183.164297
-1.258274585e-05 -161.2883416 105.1289185
-1.258274585e-05 137.6966707 27.76892005
-1.258274585e-05 -164.9340677 252.4538891
-1.258274585e-05 10.77203514 50.78220274
-156.2837124 -231.2779407 3.871036824e-11
-127.1036515 -225.2819597 83.1804983
-28.22626788 78.60231514 3.871036824e-11
-179.6329757 1.686017038 3.871036824e-11
2.021960617 208.2339495 3.871036824e-11
-1.258274585e-05 -36.49929186 170.3353283
-189.304514 -225.2819597 102.2363225
-1.258274585e-05 73.93182444 30.30389195
-1.258274585e-05 -5.399706662 101.5669635
-1.258274585e-05 177.5559665 190.2023818
-1.258274585e-05 175.8757021 169.0183205
-1.258274585e-05 160.0808361 228.4271997
-1.258274585e-05 -31.99219146 96.7348008
-1.258274585e-05 -223.8577715 209.9834382
-45.06111728 -225.2819597 37.9534774
-160.7235787 141.5571903 3.871036824e-11
-1.258274585e-05 -211.7444069 132.7702118
-228.3841646 -144.6527019 3.871036824e-11
-241.5573525 -14.79541976 3.871036824e-11
-1.258274585e-05 -83.16734696 222.880085
-87.54521828 -225.2819597 82.6574357
-70.21339518 -225.2819597 155.3529555
-1.258274585e-05 -148.9808001 73.92772
1.214767617 68.78192334 3.871036824e-11
-228.1784641 63.31800884 3.871036824e-11
-60.19980468 135.0252126 3.871036824e-11
-175.0430782 198.0458033 3.871036824e-11
-170.7161078 -57.69325726 3.871036824e-11
-1.258274585e-05 -110.0330019 223.6007638
-125.7533492 -225.2819597 11.52365285
-1.258274585e-05 42.92944634 54.74785009
-83.35642788 168.3976012 3.871036824e-11
-1.258274585e-05 -95.10889916 43.19602642
-30.27782888 -225.2819597 46.06415729
-1.258274585e-05 -161.6071498 46.37676081
-251.102783 -98.95940636 3.871036824e-11
-72.33021178 51.12055554 3.871036824e-11
-154.5704754 -225.2819597 149.0726088
-33.42841358 -234.7672556 3.871036824e-11
-1.258274585e-05 72.16921264 73.8126336
-1.258274585e-05 -171.9064974 157.1410778
-141.4805826 -184.0828654 3.871036824e-11
-1.258274585e-05 196.094465 225.4386829
-1.258274585e-05 -193.602036 107.9506775
-9.473667083 141.7999872 3.871036824e-11
-1.258274585e-05 -26.55852676 183.4165088
-1.258274585e-05 8.951417938 133.3188303
-1.258274585e-05 -196.8746692 0.20953344
-136.7871267 -225.2819597 159.8919118
-1.258274585e-05 -97.16981516 190.9986852
-239.237481 -225.2819597 158.9775313
-165.2307929 -225.2819597 231.9389178
-135.9055823 -214.3901633 3.871036824e-11
-37.30090848 -90.68693786 3.871036824e-11
-195.7087214 81.69789464 3.871036824e-11
-1.258274585e-05 166.9230926 79.5760581
-2.975690883 176.1647249 3.871036824e-11
-1.258274585e-05 145.7551616 52.81456624
-211.5642833 86.07876294 3.871036824e-11
-1.258274585e-05 205.2201734 38.93432153
-1.258274585e-05 185.5560205 249.5428071
-1.258274585e-05 -103.1834306 82.0310729
-88.34248468 -225.2819597 44.90090788
-195.5578319 -225.2819597 75.7413828
-1.258274585e-05 -89.81712406 158.9393088
-1.258274585e-05 -110.2704243 37.93243635
-220.7141268 136.0391368 3.871036824e-11
-246.4620382 -225.2819597 189.1761366
-57.97254278 -56.05105246 3.871036824e-11
-102.8115921 -225.2819597 145.3816626
-1.258274585e-05 124.0235421 17.19888547
-1.258274585e-05 -177.8968218 48.93463775
-1.258274585e-05 -26.60311706 248.6144952
-154.6928931 -47.47128186 3.871036824e-11
-67.61446438 -199.9803077 3.871036824e-11
-149.1837184 -225.2819597 55.30366702
-204.8182057 -225.2819597 127.9764281
-58.22822388 -217.7350713 3.871036824e-11
-1.258274585e-05 -91.86523636 116.6468863
-235.493594 -184.8909862 3.871036824e-11
-9.436466683 -219.5112838 3.871036824e-11
-197.5665129 -225.2819597 192.6605176
-1.258274585e-05 87.11230924 99.727441
-209.9148906 -61.06774626 3.871036824e-11
-101.4856341 -225.2819597 213.7677435
-1.258274585e-05 42.39626204 20.91494661
-41.01852328 109.14135 3.871036824e-11
-123.2771171 49.33764884 3.871036824e-11
-1.258274585e-05 -62.63086736 76.1369591
-39.64582858 -225.2819597 236.8238121
-95.11879638 77.00396304 3.871036824e-11
-41.78476418 -164.2051801 3.871036824e-11
-15.81019088 -38.73919816 3.871036824e-11
-98.82173898 -125.8496604 3.871036824e-11
-1.258274585e-05 -65.72339886 55.39610258
-101.1417743 -225.2819597 13.30181908
-35.19678038 -225.2819597 71.2255666
-1.258274585e-05 -193.3035057 123.4056978
-1.258274585e-05 210.9914735 133.254586
-171.173633 32.26812914 3.871036824e-11
-1.258274585e-05 -195.1179039 218.452838
-1.258274585e-05 -168.2461663 200.1991924
-1.766924283 -58.44271666 3.871036824e-11
-1.258274585e-05 -6.228301762 44.80447932
-95.60978058 -1.515603662 3.871036824e-11
-172.7684424 158.9271267 3.871036824e-11
-187.9866656 -225.2819597 242.4258018
-1.258274585e-05 -20.49992756 213.9072061
-64.59732398 -3.990081662 3.871036824e-11
-125.4919222 -225.2819597 196.2439061
-1.258274585e-05 -53.08202286 220.0375332
-115.3374878 -188.8303317 3.871036824e-11
-171.6493348 -225.2819597 96.3695694
-1.258274585e-05 -87.66309266 11.04384674
-167.8223465 -113.1714761 3.871036824e-11
-144.6542863 -137.7784291 3.871036824e-11
-28.64962938 -67.68712946 3.871036824e-11
-147.2101397 -225.2819597 208.44653
-95.81812218 145.1611559 3.871036824e-11
1.261245717 -248.0193429 3.871036824e-11
-183.8176559 -225.2819597 5.69338014
-42.76511038 -225.2819597 17.58929527
-31.76548118 222.3367924 3.871036824e-11
-239.7477357 188.351371 3.871036824e-11
-115.696854 -246.0041224 3.871036824e-11
-1.258274585e-05 10.67066664 226.2425898
-16.23436848 -225.2819597 248.7031694
-149.1677896 81.33447574 3.871036824e-11
-37.48535768 -14.72378156 3.871036824e-11
-1.258274585e-05 39.91619134 235.5659555
-1.258274585e-05 -143.2075168 93.2630914
-191.0739344 -225.2819597 170.2749581
-1.751751183 -225.2819597 12.66387699
-230.3651821 78.08504104 3.871036824e-11
-231.3100859 -28.74539816 3.871036824e-11
-204.0282785 -169.5023953 3.871036824e-11
-71.61868968 -28.57172306 3.871036824e-11
-18.45520958 -8.075162362 3.871036824e-11
-215.0496831 -225.2819597 220.2368942
-205.5974591 194.6712537 3.871036824e-11
-1.258274585e-05 177.0900206 226.9590637
-1.258274585e-05 172.0507391 110.3386322
-154.1825388 -225.2819597 20.10180529
-236.3378187 225.2819441 -1.29836059
-1.258274585e-05 -217.3959736 41.71740929
-191.8265128 225.2819441 -0.54378941
-1.258274585e-05 144.4253409 87.0018525
-239.1919188 -225.2819597 35.61222086
-1.258274585e-05 -96.38718926 250.9499471
-1.258274585e-05 18.53031814 105.7066335
-72.92309448 19.65432994 3.871036824e-11
-145.8489822 -225.2819597 74.5076818
-162.400456 -191.6680362 3.871036824e-11
-73.08693178 -225.2819597 51.10653916
-136.3315907 212.15265 3.871036824e-11
-136.7051017 160.2316331 3.871036824e-11
-1.258274585e-05 132.0289143 65.4582767
-82.29086448 -225.2819597 97.0694946
-1.258274585e-05 -173.7957413 94.1041112
-1.258274585e-05 160.2002525 197.4321112
-1.258274585e-05 -0.02713756249 198.8525726
-169.7907033 -162.6545065 3.871036824e-11
-1.258274585e-05 190.841825 115.3120462
-200.1934054 -249.0346088 3.871036824e-11
-1.258274585e-05 134.0928792 212.9454207
-44.57856798 -225.2819597 207.0284339
-45.71978808 21.73872134 3.871036824e-11
-212.4269712 0.3215635375 3.871036824e-11
-247.9396745 -232.4981256 3.871036824e-11
-1.258274585e-05 -206.2939673 251.8836771
-1.258274585e-05 -41.10251116 14.2431144
-188.6953228 50.74401424 3.871036824e-11
-6.967239283 -225.2819597 112.1528881
-150.3062353 -215.7536147 3.871036824e-11
-89.65745378 -176.2101051 3.871036824e-11
-1.258274585e-05 -210.8076905 96.85558
-62.22227098 -225.2819597 61.3384116
-1.258274585e-05 219.2689605 57.0632663
-252.3961366 -225.2819597 27.63022778
-195.0465693 -225.2819597 221.6292828
-61.19318908 -171.7211797 3.871036824e-11
-1.258274585e-05 156.3756299 242.2859817
-66.27006858 -225.2819597 109.2466329
-1.258274585e-05 18.59972454 198.7510428
-234.9667659 134.7523844 3.871036824e-11
-164.6593428 -18.19047796 3.871036824e-11
-1.258274585e-05 84.55126704 49.77720452
-225.5504872 -225.2819597 147.7891374
-249.5310835 -225.2819597 80.2842053
-224.5054887 -225.2819597 20.32608711
-175.0294958 -225.2819597 68.5747955
-1.258274585e-05 177.4432684 89.1639086
-151.983692 -225.2819597 122.6889801
-228.9655838 -249.2943809 3.871036824e-11
-1.258274585e-05 10.36716344 148.3571721
-30.96823238 64.12231064 3.871036824e-11
-20.68557138 22.51888934 3.871036824e-11
-1.258274585e-05 -169.7447753 174.4377091
-188.3632491 193.4240213 3.871036824e-11
-1.258274585e-05 161.629618 142.1147977
-1.258274585e-05 76.85657884 116.5691935
-116.5770645 163.628506 3.871036824e-11
-31.64449388 -40.98702706 3.871036824e-11
-86.30552998 -225.2819597 234.6627103
-65.26930768 -225.2819597 141.716346
-142.5777999 -56.15377996 3.871036824e-11
-14.43641898 65.27968804 3.871036824e-11
-161.2715849 -248.9214162 3.871036824e-11
-1.258274585e-05 87.61431624 2.24922277
-26.16179498 148.1775444 3.871036824e-11
-58.30701398 182.7737095 3.871036824e-11
-135.9336923 -109.4660953 3.871036824e-11
-121.4123799 -120.1915521 3.871036824e-11
-1.258274585e-05 -124.6388125 92.2568232
-1.258274585e-05 -147.969539 243.9292963
-89.80376788 -225.2819597 197.2743817
-1.258274585e-05 108.6717424 147.7040692
-88.02642998 -134.6895456 3.871036824e-11
-126.3353787 -225.2819597 136.235424
-45.54096478 206.9947649 3.871036824e-11
-231.6912071 150.8037376 3.871036824e-11
-221.5921026 -225.2819597 200.5866033
-75.48270768 -51.05624216 3.871036824e-11
-64.12260638 -225.2819597 179.0383995
-1.258274585e-05 -15.57608466 128.9589309
-1.258274585e-05 182.0362726 128.9436664
-1.258274585e-05 -114.3924094 132.2371627
-1.258274585e-05 -34.28764476 116.694248
-219.3360701 -225.2819597 129.3721962
-88.41077328 -194.3899266 3.871036824e-11
-1.258274585e-05 123.0265895 238.8725288
-225.9892854 -225.2819597 80.8308492
-1.258274585e-05 36.60641414 41.09864224
-1.258274585e-05 -195.1738196 78.1564436
-1.258274585e-05 85.47950664 251.896079
-38.66536068 87.61330234 3.871036824e-11
-215.8058544 -225.2819597 247.0569218
-1.258274585e-05 89.23067544 154.6942367
-1.258274585e-05 63.52639954 148.2087547
-1.258274585e-05 205.5994224 91.4091313
-133.0156529 -31.84877566 3.871036824e-11
-1.258274585e-05 25.07458954 250.8741145
-1.258274585e-05 -17.32671406 65.9992315
-1.258274585e-05 -190.0128071 152.3331498
-1.258274585e-05 -116.8593275 80.6708597
-1.258274585e-05 -84.23142516 208.4726721
-107.8096495 -46.69432856 3.871036824e-11
-1.258274585e-05 121.0488977 101.8345969
-37.17743848 -225.2819597 109.8697755
-236.8583313 111.5188592 3.871036824e-11
-176.9215125 215.7852208 3.871036824e-11
-154.7298323 -225.2819597 219.9769624
-1.258274585e-05 -75.60412276 234.9342238
-213.9069151 -225.2819597 49.56707986
-207.3935388 140.3178882 3.871036824e-11
-1.258274585e-05 -43.98310576 233.5670017
-106.978297 -152.8754366 3.871036824e-11
1.918388717 -225.2819597 152.9444365
-1.258274585e-05 -133.8827359 63.8485081
-1.258274585e-05 -144.3866984 168.263368
-246.978439 -205.5462866 3.871036824e-11
-1.258274585e-05 -64.99217956 31.70625979
-1.258274585e-05 -34.81427066 197.4687114
-213.3657597 -228.1035512 3.871036824e-11
-1.258274585e-05 -193.9892327 200.5873299
-1.258274585e-05 -57.33537296 175.5351044
-146.4371395 -120.298639 3.871036824e-11
-6.709393383 53.33594834 3.871036824e-11
-102.366991 -225.2819597 62.9849199
-120.2829104 -139.3629448 3.871036824e-11
-1.258274585e-05 -180.2490893 134.7780285
-205.0205611 220.8516958 3.871036824e-11
-118.0465086 -225.2819597 23.0348056
-226.8732396 175.2766805 3.871036824e-11
-1.258274585e-05 189.8572051 163.0068817
1.601076617 225.2819441 210.1369639
-66.25348338 211.7768943 3.871036824e-11
-63.97971408 -81.62295746 3.871036824e-11
-114.0500033 -225.2819597 87.9746376
-186.6240478 -26.84585466 3.871036824e-11
-1.258274585e-05 -61.22730396 199.9758009
-115.9773472 -225.2819597 37.68128737
-1.258274585e-05 150.7157882 152.9213112
-1.258274585e-05 147.7912278 219.5965243
-1.258274585e-05 -82.86967976 92.5751008
-115.7662986 -18.65681886 3.871036824e-11
-56.79493568 107.4037105 3.871036824e-11
-1.258274585e-05 61.75324474 24.60989835
-187.395893 113.7196604 3.871036824e-11
-88.73509418 -84.57131246 3.871036824e-11
-198.1117798 -95.95164166 3.871036824e-11
-142.1947708 -96.81801906 3.871036824e-11
-1.258274585e-05 -175.1786601 18.8570992
-1.258274585e-05 57.01572404 46.87067343
-202.4043867 -147.2812124 3.871036824e-11
-17.25209048 -178.8306951 3.871036824e-11
-110.7921445 -225.2819597 225.5056393
-1.258274585e-05 -56.92678626 249.2577166
-42.54840338 -225.2819597 84.5814972
-22.83691358 -225.2819597 163.7818817
-177.1072152 -150.4568642 3.871036824e-11
-215.2426866 118.2306284 3.871036824e-11
-141.6012633 -225.2819597 24.58662313
-202.5289602 -225.2819597 94.0093151
-149.7299739 26.70429384 3.871036824e-11
-138.9891646 -169.8475191 3.871036824e-11
-247.5851534 160.3404801 3.871036824e-11
-12.78981698 -225.2819597 177.627834
-12.27025558 106.6274319 3.871036824e-11
-1.267102283 -225.2819597 71.9919347
-130.1547792 96.40555254 3.871036824e-11
-1.258274585e-05 113.7429594 45.23176477
-215.9296874 -115.5100737 3.871036824e-11
-129.7395533 -192.5231499 3.871036824e-11
-1.258274585e-05 206.5227732 71.1506587
-53.25050968 -145.351827 3.871036824e-11
-209.0758732 -12.81920836 3.871036824e-11
-1.258274585e-05 -8.823744562 14.8775433
-1.258274585e-05 -18.80787736 98.9916865
-160.9412109 53.12723844 3.871036824e-11
-49.80235698 164.7668598 3.871036824e-11
-1.258274585e-05 -175.8814171 187.4832633
-129.5992782 185.7267554 3.871036824e-11
-135.1046389 -225.2819597 238.1400048
-124.3146428 71.77480424 3.871036824e-11
-158.5535164 -204.7380611 3.871036824e-11
-73.01186238 -105.4239053 3.871036824e-11
-0.9121434827 -94.77874086 3.871036824e-11
-237.4082145 -70.19723366 3.871036824e-11
-1.258274585e-05 187.3254069 235.2445252
-1.258274585e-05 23.93293114 186.7392358
-1.258274585e-05 136.588158 151.1752436
-1.258274585e-05 212.4461113 249.989759
-97.34489768 27.24549074 3.871036824e-11
-39.15675718 125.2685171 3.871036824e-11
-1.258274585e-05 -175.0316942 61.8342623
-9.945898383 213.5600941 3.871036824e-11
-1.258274585e-05 -135.8832782 106.707464
-252.2650817 62.27607684 3.871036824e-11
-1.258274585e-05 82.02289064 201.0391215
-148.7520395 -14.93471886 3.871036824e-11
-173.0446958 -225.2819597 171.7360684
-90.80221418 -225.2819597 184.1590909
-116.1222116 -218.3121074 3.871036824e-11
-122.8645823 35.62741344 3.871036824e-11
0.7109970173 225.2819441 73.286887
-156.4348545 -93.47140336 3.871036824e-11
-1.258274585e-05 221.8767591 180.2286659
-1.258274585e-05 38.25277874 70.6233602
-1.258274585e-05 -93.87174376 174.5132146
-116.1608001 -100.4042177 3.871036824e-11
-23.37569898 133.8392394 3.871036824e-11
-148.5534093 111.9153573 3.871036824e-11
-186.9262394 -225.2819597 153.6151701
-211.6291935 -225.2819597 33.19956749
-1.258274585e-05 16.00742384 22.92966564
-193.8568851 -77.22558786 3.871036824e-11
-1.258274585e-05 128.7676588 166.1390992
-47.33576418 -6.282202262 3.871036824e-11
-18.60615078 -113.8606486 3.871036824e-11
-1.258274585e-05 190.4086969 16.40084968
-87.33076888 42.90178274 3.871036824e-11
-1.258274585e-05 18.16579844 84.5186198
-1.258274585e-05 214.7359197 13.13098514
-6.517977183 -23.00637576 3.871036824e-11
-77.06712788 -79.10371336 3.871036824e-11
-1.258274585e-05 -126.710344 214.4258529
-123.4378263 205.9979676 3.871036824e-11
-77.35176688 180.620285 3.871036824e-11
-1.258274585e-05 86.19801884 83.1621198
-188.1895279 172.6967055 3.871036824e-11
-75.84188118 90.83158724 3.871036824e-11
-180.1760654 -175.7511609 3.871036824e-11
-1.258274585e-05 101.3876227 107.3163628
-17.98825258 -225.2819597 42.53230043
-1.258274585e-05 211.3623344 119.7758266
-27.79524388 -100.6088979 3.871036824e-11
-10.91613528 -135.5447469 3.871036824e-11
-119.7022463 -225.2819597 72.8111275
-182.0542037 -49.73678116 3.871036824e-11
-1.258274585e-05 109.7786602 236.4667908
-88.50372508 -207.5637433 3.871036824e-11
-1.258274585e-05 -46.74515586 54.61650118
-1.258274585e-05 211.8966989 235.4835919
-1.258274585e-05 -25.76096716 25.00183135
-43.52529188 -120.9567074 3.871036824e-11
-45.02088688 -225.2819597 251.3740402
-220.2526984 36.83820034 3.871036824e-11
-196.431513 -225.2819597 145.2644938
-162.6557217 -225.2819597 9.87476991
-68.59315308 -225.2819597 28.12818462
-1.258274585e-05 -110.0693191 105.1709155
-117.3176547 125.7063589 3.871036824e-11
-1.258274585e-05 -119.9365137 15.88035706
-1.258274585e-05 14.71263354 162.6998238
-211.8050972 -47.77131646 3.871036824e-11
-146.7545456 191.6274608 3.871036824e-11
-1.258274585e-05 138.5572966 128.0678209
-94.64147038 -155.4271729 3.871036824e-11
-1.258274585e-05 112.7037693 213.7248883
-56.78316518 -246.9941139 3.871036824e-11
-13.68703988 192.3104391 3.871036824e-11
-211.1527692 -225.2819597 76.0150784
-202.2003609 23.98473294 3.871036824e-11
-129.1127259 -225.2819597 214.0480752
-1.258274585e-05 116.8044203 88.1991764
-79.78238988 -39.24442586 3.871036824e-11
-1.258274585e-05 31.07511884 211.3850054
-1.258274585e-05 -200.4615916 64.579672
-70.80789318 -225.2819597 214.9405624
-1.258274585e-05 31.51308854 109.8789331
-1.258274585e-05 111.4609564 71.0965639
-34.95562028 -225.2819597 157.6646234
-221.9033592 163.7989127 3.871036824e-11
-1.258274585e-05 -1.761460862 88.6128321
-245.2656243 -168.0280609 3.871036824e-11
-1.258274585e-05 -75.17005036 102.3915152
-187.0120496 127.5308677 3.871036824e-11
-46.38682718 -230.8118123 3.871036824e-11
-80.52483148 136.4530425 3.871036824e-11
-1.258274585e-05 52.45018434 112.1083631
1.050047017 148.4516636 3.871036824e-11
-178.0550631 -213.113886 3.871036824e-11
-1.258274585e-05 173.5448245 138.5994809
-192.1381811 -225.2819597 116.7173323
-12.05751338 -206.0460019 3.871036824e-11
-1.258274585e-05 -54.55231006 142.6269305
-9.208205883 -164.0216648 3.871036824e-11
-1.258274585e-05 170.6501417 208.0675509
-235.439205 -237.0933465 3.871036824e-11
-44.98690578 -63.21965806 3.871036824e-11
-1.258274585e-05 -51.64191666 113.4646888
-239.5661346 -55.87892076 3.871036824e-11
-1.258274585e-05 -127.7747783 243.5937897
-188.7337304 -7.836737762 3.871036824e-11
-235.3067645 -116.5406744 3.871036824e-11
-1.258274585e-05 40.17290564 157.4582648
-1.258274585e-05 -197.3944721 162.2212189
-133.9890832 -83.64489006 3.871036824e-11
-1.258274585e-05 -106.6540643 23.4325736
-1.258274585e-05 -8.265381762 77.8362738
-1.258274585e-05 166.8965372 252.0991371
-123.8925062 -165.3227839 3.871036824e-11
-210.7673342 -91.37879156 3.871036824e-11
-114.3513605 6.991337938 3.871036824e-11
-1.258274585e-05 -215.4031809 64.4832006
-1.258274585e-05 -85.82774946 147.3384072
-117.9070908 -72.41311336 3.871036824e-11
-167.0714057 68.62297724 3.871036824e-11
-133.4776047 -227.7925781 3.871036824e-11
-87.22224378 -59.70566146 3.871036824e-11
-184.25384 154.7331688 3.871036824e-11
-240.9075573 -151.8359676 3.871036824e-11
-188.9633974 37.41123224 3.871036824e-11
-162.2508056 112.4986773 3.871036824e-11
-242.7705953 -225.2819597 241.8237413
-1.258274585e-05 0.5363387375 245.3964925
-1.258274585e-05 21.15234614 138.2927954
-143.2329924 -225.2819597 44.67688068
-164.6683034 -4.899563762 3.871036824e-11
-1.258274585e-05 103.7551514 198.0972193
-2.962927883 -111.4623727 3.871036824e-11
-79.02957598 195.034636 3.871036824e-11
-1.258274585e-05 84.44452264 215.823536
-214.2982862 -144.7443505 3.871036824e-11
-1.258274585e-05 -29.81445786 41.68910285
-165.0227402 -225.2819597 34.30835029
-43.16146338 39.93839304 3.871036824e-11
-173.3102519 -247.3587084 3.871036824e-11
-1.258274585e-05 101.1136639 51.01567216
-81.88439298 -14.89800866 3.871036824e-11
-1.258274585e-05 -16.78467436 168.8390444
-1.258274585e-05 -215.2687916 188.3059495
-105.5006384 -225.2819597 250.7683614
-157.8418023 -158.0498108 3.871036824e-11
-200.7818055 92.67769274 3.871036824e-11
-1.258274585e-05 -220.6597111 166.2617333
-47.24278338 -175.5990346 3.871036824e-11
-1.258274585e-05 166.7957496 10.41752707
-1.258274585e-05 -47.22436586 164.8255191
-1.258274585e-05 -119.3645113 120.983946
-104.78264 -225.2819597 178.9716004
-69.11413558 -240.3586181 3.871036824e-11
-1.258274585e-05 -125.093063 195.4169236
-70.51287388 -225.2819597 75.0002535
-1.493077683 -225.2819597 250.6868557
-88.70986778 16.37641734 3.871036824e-11
-245.8450397 30.09406874 3.871036824e-11
-79.65677438 -225.2819597 205.2909688
-252.4275686 -190.8280919 3.871036824e-11
-1.258274585e-05 -216.429838 144.9870565
-227.5948185 -210.6818375 3.871036824e-11
-165.0174386 -225.2819597 121.2689806
-1.258274585e-05 74.93732214 141.3387265
-1.258274585e-05 -45.47794176 82.7187294
-249.211652 -225.2819597 9.52687017
-71.11822808 -156.2112255 3.871036824e-11
-15.31449518 -66.12860566 3.871036824e-11
-101.7521321 101.8699156 3.871036824e-11
-1.258274585e-05 -127.8391306 39.94080442
-30.61049618 174.2166318 3.871036824e-11
-1.258274585e-05 -223.0659962 102.6825696
-1.258274585e-05 -100.6272845 54.78156987
-1.258274585e-05 0.4281272375 183.1065205
-53.02985808 -225.2819597 233.9828703
-31.02544778 -201.5338218 3.871036824e-11
-217.3404273 -225.2819597 100.9442262
-8.466517983 17.97186584 3.871036824e-11
-200.9457795 205.6062986 3.871036824e-11
-93.37598778 -35.67134126 3.871036824e-11
-150.3833111 -225.2819597 187.8554224
-56.60449178 -72.31949136 3.871036824e-11
-1.258274585e-05 47.11718644 181.9738617
-1.258274585e-05 -194.7275068 249.2499984
-1.258274585e-05 85.22330134 37.93995655
-164.8480253 167.7488388 3.871036824e-11
-1.258274585e-05 -80.19214006 65.9935387
-191.6531916 -126.1736457 3.871036824e-11
-250.9136302 131.931201 3.871036824e-11
-192.8945321 -225.2819597 50.60986025
-2.587007883 115.1848604 3.871036824e-11
-214.3849679 182.5804216 3.871036824e-11
-116.4854412 184.7958134 3.871036824e-11
-103.7328531 -93.62638666 3.871036824e-11
-1.258274585e-05 77.83053774 183.6714706
-215.7856959 -225.2819597 154.391413
-47.52420068 133.5542472 3.871036824e-11
-53.59335358 -44.81968786 3.871036824e-11
-1.258274585e-05 168.7498878 99.0514376
-11.52135628 -225.2819597 89.4077215
-18.12949128 -233.5467648 3.871036824e-11
-178.971023 70.98401164 3.871036824e-11
-8.900523883 -189.2598229 3.871036824e-11
-1.258274585e-05 37.02424024 122.9162083
-1.258274585e-05 151.9637039 128.0052948
-222.6563044 -73.97331406 3.871036824e-11
-1.258274585e-05 -109.6227659 172.539409
-99.74113988 -225.2819597 38.40444239
-1.258274585e-05 61.71084384 63.9429167
-96.81583568 -220.5318507 3.871036824e-11
-212.2142968 11.95349904 3.871036824e-11
-1.258274585e-05 -122.9488136 67.8199308
-72.06660358 -225.2819597 249.9055851
-240.2051374 8.602926938 3.871036824e-11
-21.66363318 -225.2819597 199.551942
-181.035312 -225.2819597 50.1684334
-31.43178248 -225.2819597 99.7799002
-62.26732128 157.0721141 3.871036824e-11
-29.02497968 107.6056478 3.871036824e-11
-9.419490883 153.4526308 3.871036824e-11
-1.258274585e-05 147.3522526 205.7325903
-111.7015597 -128.7468743 3.871036824e-11
-48.84166148 -109.6089914 3.871036824e-11
-161.4275061 -31.56474436 3.871036824e-11
-1.258274585e-05 -168.6782487 83.2009468
-1.258274585e-05 12.38633154 187.1937316
-47.68765618 -225.2819597 157.5915116
-1.258274585e-05 -98.26169156 151.0605299
-1.258274585e-05 -94.67736766 224.4489742
-135.8497072 71.38420534 3.871036824e-11
-237.077861 -225.2819597 147.2757331
-204.5254186 -117.1184727 3.871036824e-11
-1.258274585e-05 152.463622 182.4132398
-223.3314235 -160.1834085 3.871036824e-11
-24.23848868 196.8371527 3.871036824e-11
-76.76919048 -225.2819597 140.7788634
-1.258274585e-05 48.26483664 136.6304004
-24.84348078 -139.9950928 3.871036824e-11
-159.9240674 85.28529514 3.871036824e-11
-1.258274585e-05 -34.81505916 145.6408384
-145.1330602 42.57878254 3.871036824e-11
-182.709644 81.89579374 3.871036824e-11
-1.258274585e-05 188.9070297 191.6245823
-1.258274585e-05 159.6622948 26.36739118
-173.8514042 -225.2819597 220.1934003
-27.66923078 -225.2819597 127.1856159
-234.3219053 -225.2819597 46.14042396
-48.57776708 -225.2819597 109.4146254
-158.1109378 -225.2819597 44.62073601
-117.3549318 -225.2819597 119.081869
-119.8571654 101.9767202 3.871036824e-11
-109.4898583 29.77853104 3.871036824e-11
-1.258274585e-05 118.2796751 191.1729127
-183.754872 -236.6981111 3.871036824e-11
-242.9498955 -225.2819597 91.3504081
-138.2943583 -10.44664016 3.871036824e-11
-133.8767492 17.99092184 3.871036824e-11
-58.87003188 220.4140958 3.871036824e-11
-186.8443641 10.46428414 3.871036824e-11
-18.91508348 -91.70404116 3.871036824e-11
-85.62040968 -225.2819597 173.2466457
-175.3041152 -25.99560596 3.871036824e-11
-45.85521918 -225.2819597 137.6073753
-1.258274585e-05 -103.0635903 200.6952959
-27.85138888 -55.49119466 3.871036824e-11
-1.258274585e-05 108.5296172 33.01921306
-110.9001683 -199.8413709 3.871036824e-11
-141.9048919 -69.84280816 3.871036824e-11
-1.258274585e-05 140.068379 73.4373635
-213.8204842 -200.4985722 3.871036824e-11
-152.7429803 -147.8813219 3.871036824e-11
-91.77110548 -241.5634637 3.871036824e-11
-179.8071581 -225.2819597 17.55719261
-1.258274585e-05 -116.3425548 48.69180973
-121.4439411 -225.2819597 183.5182759
-135.0273086 -248.9411405 3.871036824e-11
-38.10163758 148.9071085 3.871036824e-11
-233.6211673 -6.821536662 3.871036824e-11
-163.7378821 -81.99204526 3.871036824e-11
-175.2727218 -185.8639674 3.871036824e-11
-132.1750567 -144.5645184 3.871036824e-11
-68.77052698 -229.1301291 3.871036824e-11
-1.258274585e-05 -171.176101 237.8807664
-154.6241024 -225.2819597 97.4204339
-1.258274585e-05 -183.2012935 197.4804574
-1.258274585e-05 -191.6943443 176.9881013
-1.258274585e-05 161.2362575 167.9685248
-229.0060885 199.4998253 3.871036824e-11
-218.0685846 -225.2819597 11.14168954
-171.3276837 187.2744583 3.871036824e-11
-43.41146048 -189.9464357 3.871036824e-11
-95.38550728 -225.2819597 22.90154055
-71.92670838 38.53654554 3.871036824e-11
-1.258274585e-05 11.23508094 238.2166965
-1.258274585e-05 -10.87347766 154.1425975
-1.258274585e-05 60.24527404 97.6662408
-164.5282962 -225.2819597 74.664072
-1.258274585e-05 35.01853784 12.53843207
-12.89599958 90.06808084 3.871036824e-11
-1.258274585e-05 59.71030084 228.9922496
-1.258274585e-05 148.0873735 234.8817539
-1.258274585e-05 -1.486026262 33.12748937
-191.2347274 -225.2819597 201.7863639
-169.3625842 -134.8999602 3.871036824e-11
-1.258274585e-05 -182.1392215 240.7370152
-1.258274585e-05 -150.8062343 38.73799726
-28.08873648 -225.0522134 3.871036824e-11
-1.258274585e-05 92.24099014 25.56702258
-1.258274585e-05 -5.083863762 125.3880763
-224.8862996 -188.0886131 3.871036824e-11
-1.258274585e-05 -53.81094736 27.46892938
-115.4073329 -175.6798239 3.871036824e-11
-241.3795789 177.3095064 3.871036824e-11
-234.2197576 -225.2819597 169.7102487
-31.91739388 -169.5994762 3.871036824e-11
-1.258274585e-05 -83.28095036 28.45795484
-108.2993373 -225.2819597 99.3181693
-71.63642688 -225.2819597 40.14957672
-243.1604911 -225.2819597 131.7830906
-1.258274585e-05 -210.8536888 85.7793399
-1.258274585e-05 28.81985114 92.7665459
-1.258274585e-05 -186.8610362 95.307092
-1.258274585e-05 -31.58573356 208.1948922
-127.5166795 -225.2819597 169.3655448
-9.701271483 -225.2819597 239.8380859
-1.258274585e-05 -122.649044 183.5819858
-1.258274585e-05 112.372301 161.2757139
-122.0398308 -8.505890062 3.871036824e-11
-35.41717058 -225.2819597 9.40756709
-1.258274585e-05 -211.2549571 231.8259062
-167.4220409 132.8604239 3.871036824e-11
-1.258274585e-05 122.5268178 59.05421202
-55.94808568 -196.4438323 3.871036824e-11
-91.29811808 -225.2819597 69.3383196
0.4905758173 225.2819441 87.4837438
-1.258274585e-05 80.58561294 242.0778826
-86.71948698 216.2919915 3.871036824e-11
-64.55594368 120.0513576 3.871036824e-11
-1.258274585e-05 189.9116711 68.6735257
-224.0210301 111.6901239 3.871036824e-11
-166.5121255 212.4383816 3.871036824e-11
-1.258274585e-05 -136.9761104 118.3445827
-53.08161968 -225.2819597 12.36427888
-1.258274585e-05 215.9593393 151.8660742
-1.258274585e-05 -188.6703342 8.12164139
-1.258274585e-05 40.14700074 205.3229755
-72.85555238 -145.3433972 3.871036824e-11
-1.258274585e-05 112.4677204 22.70135618
-38.34980678 -225.2819597 55.79586337
-67.76649878 -188.719621 3.871036824e-11
-22.64740678 42.17996584 3.871036824e-11
-142.1452242 134.6811999 3.871036824e-11
-208.6103583 49.56932794 3.871036824e-11
-169.4105445 -225.2819597 148.1259661
-1.258274585e-05 21.79949814 223.4452235
-1.258274585e-05 -218.894836 199.0479258
-1.258274585e-05 60.11749664 197.3380187
-104.3918079 -66.36484546 3.871036824e-11
-213.2485626 -28.80112576 3.871036824e-11
-1.258274585e-05 100.8866675 62.3250104
-220.6054045 73.43582174 3.871036824e-11
-1.258274585e-05 -172.8495682 123.9847516
-92.97187678 -225.2819597 104.7996681
-68.63209668 190.9670092 3.871036824e-11
-45.26184028 10.95290704 3.871036824e-11
-125.3396936 118.4832541 3.871036824e-11
-165.5923978 -225.2819597 105.5236758
-202.9766193 -225.2819597 54.77614098
-52.97109228 79.80059434 3.871036824e-11
-162.5991515 -225.2819597 164.8882896
-1.258274585e-05 159.9680365 106.2255235
-1.258274585e-05 190.7826769 93.4700431
-33.56097858 163.527651 3.871036824e-11
-102.1399745 189.0495911 3.871036824e-11
-106.1830725 72.45404694 3.871036824e-11
-1.258274585e-05 67.79096104 10.63754716
-240.5563724 -96.07419296 3.871036824e-11
-1.258274585e-05 -2.585824162 6.13524938
-1.258274585e-05 -11.99424606 193.1596459
-78.73721798 -225.2819597 3.17658929
-1.258274585e-05 5.495635638 215.8991064
-68.62701468 141.9273425 3.871036824e-11
-175.2935038 -225.2819597 124.2918814
-112.0178291 207.9621386 3.871036824e-11
-125.0349854 138.1091472 3.871036824e-11
-217.537659 -225.2819597 188.134849
-225.3224227 -52.27520966 3.871036824e-11
-150.0290794 -225.2819597 159.4596462
-127.504492 218.9787744 3.871036824e-11
-251.3705592 -126.7700933 3.871036824e-11
-1.258274585e-05 59.71163094 248.1566238
-174.5395927 -223.2088104 3.871036824e-11
-106.1081915 221.7909434 3.871036824e-11
-1.258274585e-05 -92.51680626 82.2195245
-1.258274585e-05 -102.1304327 232.0775675
-49.02928048 188.0178369 3.871036824e-11
-1.258274585e-05 -35.02998256 227.2782513
-1.258274585e-05 -213.2259499 177.8604262
-34.38241238 -225.2819597 211.7287884
-176.4097236 -88.90074316 3.871036824e-11
-13.23002338 167.4466031 3.871036824e-11
-219.8917929 -225.2819597 174.7732287
-1.258274585e-05 76.01552704 63.9185448
-14.49887278 203.971397 3.871036824e-11
-113.9097193 -225.2819597 162.6377894
-243.9154845 213.3693903 3.871036824e-11
-239.3141445 -225.2819597 61.0709434
-186.4687969 -98.82409556 3.871036824e-11
-1.258274585e-05 -99.63404016 109.4838029
-113.1507103 -164.6066638 3.871036824e-11
-1.258274585e-05 168.5980572 67.0791809
-240.1806696 54.33843194 3.871036824e-11
-50.79040038 -225.2819597 182.7663645
-30.34075118 -78.10111306 3.871036824e-11
-1.258274585e-05 -78.57461996 55.56889388
-1.258274585e-05 -81.60423496 184.6193352
-168.6410989 44.21293884 3.871036824e-11
-168.008328 -225.2819597 193.1131609
-220.4937745 -225.2819597 71.1419612
-122.7670053 -226.484227 3.871036824e-11
-238.2050284 -225.2819597 180.6848673
-81.47814598 157.5572184 3.871036824e-11
-156.1426126 -225.2819597 132.3252838
-252.3295333 -242.028583 3.871036824e-11
-64.24040088 -99.67660266 3.871036824e-11
-4.667319783 -225.2819597 46.80462191
-56.71698208 3.160918438 3.871036824e-11
-21.15919998 -225.2819597 153.4384467
-1.258274585e-05 -107.5528286 91.5484686
-9.985060183 -122.5976302 3.871036824e-11
-186.009183 -193.7700904 3.871036824e-11
-1.258274585e-05 199.0059139 144.23948
-202.2559793 149.4384053 3.871036824e-11
-14.83547118 -225.2819597 17.85711743
-1.258274585e-05 -195.7775154 29.90823182
-83.03745128 -101.7900182 3.871036824e-11
-1.258274585e-05 -206.6270095 21.33379067
-1.258274585e-05 -200.1976092 10.2592058
-1.258274585e-05 -136.203982 218.7858664
-1.258274585e-05 182.1139945 154.3842775
-1.258274585e-05 200.017166 12.34133698
-234.8467174 21.53225454 3.871036824e-11
-202.1805563 -5.004878462 3.871036824e-11
-214.6559956 60.27501784 3.871036824e-11
-1.258274585e-05 -145.8313536 188.6125758
-52.56416918 -225.2819597 128.7306029
-41.12842498 -225.2819597 149.2851536
-1.258274585e-05 216.0850105 35.68715826
-141.9372397 -225.2819597 176.4841318
-1.258274585e-05 16.71403574 42.24787101
-1.258274585e-05 111.685716 108.685031
-62.94866968 97.63605304 3.871036824e-11
-1.258274585e-05 25.55218164 69.6148038
-1.258274585e-05 -117.9992136 237.1137903
-33.39535628 -127.8481188 3.871036824e-11
-237.1300658 41.80910734 3.871036824e-11
-1.258274585e-05 46.67349584 81.1684433
-1.258274585e-05 -155.5087479 145.6987125
-208.6253787 130.0254181 3.871036824e-11
-30.08460008 -225.2819597 240.785575
0.6824246173 -225.2819597 135.8288142
-251.7965783 -16.25463516 3.871036824e-11
-143.6226474 -45.86771406 3.871036824e-11
-1.258274585e-05 -203.7954408 147.3289493
-1.258274585e-05 -147.3969755 154.7379597
-179.1080399 107.2708161 3.871036824e-11
-85.71866358 147.290623 3.871036824e-11
-223.5472977 215.5920164 3.871036824e-11
-7.895243483 -242.7920112 3.871036824e-11
-195.5858134 -225.2819597 86.0392556
-77.46080838 -225.2819597 162.6683186
-1.258274585e-05 -84.77123616 109.1858854
-1.258274585e-05 89.93751274 132.3759469
-105.0014759 -25.88678516 3.871036824e-11
-1.258274585e-05 -201.7086127 130.530488
-139.472106 100.9400977 3.871036824e-11
-76.46580488 116.0355923 3.871036824e-11
-1.258274585e-05 -157.1621756 135.2479903
-1.258274585e-05 126.7479383 93.2874105
-1.258274585e-05 221.2240026 128.3571877
-149.3574635 -225.2819597 86.9782273
-1.258274585e-05 124.268039 72.1779975
-227.2384776 -225.2819597 30.8356247
-29.26892478 -225.2819597 17.62120765
-1.258274585e-05 -30.88640666 63.8565271
-61.32740688 -124.8523268 3.871036824e-11
-143.4220184 -223.5546359 3.871036824e-11
-1.258274585e-05 157.2743881 117.4025241
-1.258274585e-05 95.23723244 174.4409136
-9.360608583 -225.2819597 205.8772613
-223.3420627 -176.1418431 3.871036824e-11
-79.20475558 -225.2819597 120.3531887
-68.90613288 61.47695044 3.871036824e-11
-103.1388781 113.8398327 3.871036824e-11
-129.3851906 -225.2819597 146.8276944
-107.3450366 -240.1282516 3.871036824e-11
-1.258274585e-05 -118.4629826 247.7773409
-1.258274585e-05 174.8197392 180.3721862
-104.1097909 60.16144694 3.871036824e-11
-1.258274585e-05 -62.10023166 115.1958103
-240.7508264 -32.55028156 3.871036824e-11
-1.258274585e-05 203.5237974 164.3117388
-148.6145782 -173.1121516 3.871036824e-11
-1.258274585e-05 -72.43251026 166.861437
-224.0692445 -3.366224862 3.871036824e-11
-103.8412651 91.93526734 3.871036824e-11
-1.258274585e-05 209.9930882 186.0823769
-92.41037518 -11.13474896 3.871036824e-11
-215.5850525 95.69465834 3.871036824e-11
-243.4491375 -105.7879911 3.871036824e-11
-218.3486807 -225.2819597 230.3404744
-97.08839178 -145.5969304 3.871036824e-11
-1.258274585e-05 138.6746502 164.0371297
-44.67255968 -225.2819597 228.0387202
-1.258274585e-05 -13.42312436 108.6675763
-157.5824157 -115.7579975 3.871036824e-11
-81.48556958 -225.2819597 73.6335296
-221.3017725 -133.8571054 3.871036824e-11
-91.82938248 -225.2819597 226.1969748
-1.258274585e-05 179.9716817 211.9664498
-1.258274585e-05 -14.19928896 221.8049398
-116.5159939 -41.48414746 3.871036824e-11
-44.15342158 -225.2819597 118.8634715
-1.258274585e-05 183.7731225 7.24451543
-1.258274585e-05 -14.86945696 50.02151496
-1.942758383 -225.2819597 187.7102405
-1.258274585e-05 -41.14972526 63.5469675
-1.258274585e-05 137.324346 109.6527474
-1.258274585e-05 67.14107874 121.7261013
-1.258274585e-05 149.6420906 25.34191474
-1.258274585e-05 -115.085175 58.67619956
-1.258274585e-05 -57.16591436 67.025524
-91.30965938 -225.2819597 11.2872161
-1.258274585e-05 -99.24268106 127.9405228
-135.1913155 -154.1181675 3.871036824e-11
-192.9605908 -203.5239428 3.871036824e-11
-154.3739341 16.77092684 3.871036824e-11
-12.53583828 179.141812 3.871036824e-11
-99.80781318 -225.2819597 203.9002099
-1.258274585e-05 -135.3292752 6.24752261
-1.258274585e-05 -171.0133994 107.4525704
-1.258274585e-05 -145.8747719 9.39172815
-80.87413408 224.4002506 3.871036824e-11
-1.258274585e-05 -33.63488696 241.5114682
-1.258274585e-05 -157.9472468 78.7486854
-61.56478948 -225.2819597 98.1118756
-35.01962948 -225.2819597 37.27921695
-1.258274585e-05 -137.7744823 242.2379319
-65.86628238 7.750056738 3.871036824e-11
-1.258274585e-05 -185.5405627 224.495858
-1.258274585e-05 -181.997456 146.3863487
-60.06418298 147.0448176 3.871036824e-11
-141.5796248 -239.0867948 3.871036824e-11
-1.258274585e-05 -74.02325946 88.0025244
-150.6874325 -225.2819597 235.1142733
-27.60249078 -225.2819597 172.5255728
-1.258274585e-05 -140.4637301 129.6866919
-35.95108148 -32.02346226 3.871036824e-11
-40.84010538 -134.4344788 3.871036824e-11
-40.77303378 61.84879184 3.871036824e-11
-132.8381207 -225.2819597 93.3620427
-134.4089335 145.3003185 3.871036824e-11
-122.824583 81.57715754 3.871036824e-11
-1.258274585e-05 64.72572134 220.4416219
-138.551894 -23.62850636 3.871036824e-11
-127.0771751 -225.2819597 157.9439655
-163.4291961 -104.2985586 3.871036824e-11
-33.35061648 183.7212296 3.871036824e-11
-49.35774708 32.22856284 3.871036824e-11
-183.2745792 -225.2819597 111.2302708
-146.8449101 71.72149174 3.871036824e-11
-1.258274585e-05 94.43001374 88.6418214
-17.12439848 -22.30416736 3.871036824e-11
-1.258274585e-05 -12.97720556 233.8737452
-1.258274585e-05 59.07051444 74.649404
-1.258274585e-05 -198.8660582 186.4638294
-216.130829 -225.2819597 111.1681753
-238.0891041 -225.2819597 194.5903528
-53.51894448 -225.2819597 31.55121207
-143.3567483 -225.2819597 107.048676
-182.1141434 181.2721162 3.871036824e-11
-1.258274585e-05 22.47813604 168.9641729
-21.77555928 -225.2819597 28.28135155
-1.258274585e-05 -138.478321 72.9153473
-1.258274585e-05 199.4069608 31.02421905
-1.258274585e-05 -202.6191311 226.9557489
-1.258274585e-05 25.41448394 20.16731818
-20.03294498 -156.3974172 3.871036824e-11
-166.9648518 151.0380308 3.871036824e-11
-1.258274585e-05 -66.14072446 14.16616419
-131.048578 -117.9488448 3.871036824e-11
0.3219203173 -158.6630762 3.871036824e-11
-138.9251387 124.9520145 3.871036824e-11
-18.38251498 -225.2819597 224.3067869
-143.0976932 -0.8166450625 3.871036824e-11
-202.8251474 -225.2819597 174.0755638
-1.258274585e-05 -173.8945899 9.17033926
-58.78311088 -34.36231036 3.871036824e-11
-1.258274585e-05 -54.24144306 92.1682743
-1.258274585e-05 38.80352844 145.5541632
-1.258274585e-05 -65.13571696 140.3779135
-79.07607028 100.032201 3.871036824e-11
-193.9656651 -241.5452892 3.871036824e-11
-1.258274585e-05 -176.2798828 216.6384109
-1.258274585e-05 34.72824124 185.3599361
-182.6846465 -225.2819597 195.9134246
-242.0256 -220.707198 3.871036824e-11
-1.258274585e-05 66.07753344 169.18481
-198.1720747 -222.2380151 3.871036824e-11
-131.7742984 -225.2819597 203.6406012
-70.71791808 -116.7084028 3.871036824e-11
-1.258274585e-05 -124.9599773 154.5123589
-1.258274585e-05 219.4521631 243.2846958
-46.38169028 -240.5055587 3.871036824e-11
-251.3671252 8.315489338 3.871036824e-11
-86.26168978 7.007682738 3.871036824e-11
-1.258274585e-05 -162.5171863 21.04674796
-88.13404138 -225.2819597 54.57836322
1.604530217 -225.2819597 237.3412028
-1.258274585e-05 129.1015463 126.0068396
-132.9432198 48.87706544 3.871036824e-11
-1.258274585e-05 74.58950984 99.3466917
-18.75300098 -225.2819597 52.17361274
-1.258274585e-05 -107.7727903 214.1976978
-102.3121144 212.9008581 3.871036824e-11
-1.258274585e-05 213.5444776 110.3597498
-233.8821511 -135.3312603 3.871036824e-11
-122.5516372 -225.2819597 127.3643691
-162.1603269 94.66536094 3.871036824e-11
0.2597023173 225.2819441 107.8368445
-223.5079185 -229.4115922 3.871036824e-11
-185.9323364 -71.74042826 3.871036824e-11
-204.8866235 159.992278 3.871036824e-11
-52.14996878 -207.4535929 3.871036824e-11
-110.433002 -225.2819597 70.2332774
-103.2848713 82.09047354 3.871036824e-11
-160.7195375 202.3263387 3.871036824e-11
-1.258274585e-05 -153.3977688 15.37744345
-50.15420408 -20.48317886 3.871036824e-11
-137.8191944 7.613084338 3.871036824e-11
-251.985731 -225.2819597 181.3277367
-199.7985848 -51.49827676 3.871036824e-11
-5.574973283 -225.2819597 21.46145446
-1.258274585e-05 155.6674939 8.80049438
-1.258274585e-05 -37.54926066 160.8018852
-24.05215538 -187.6515007 3.871036824e-11
-136.1263367 176.8752017 3.871036824e-11
-233.0923085 -157.3720696 3.871036824e-11
-57.14045558 50.42081374 3.871036824e-11
-231.9889594 -225.2819597 120.9981822
-1.258274585e-05 140.5118305 9.29660985
-87.85449668 116.6486179 3.871036824e-11
-1.258274585e-05 91.19629274 244.2005399
-145.7144861 201.1146029 3.871036824e-11
-1.258274585e-05 1.205357138 74.5862217
-1.258274585e-05 -189.29337 54.90506348
-172.8235662 225.2819441 -1.16209904
-60.88061648 -225.2819597 151.0512918
-199.6502323 -138.0291513 3.871036824e-11
-69.16951408 -225.2819597 170.9592923
-152.0308922 -191.684075 3.871036824e-11
-216.9652748 -125.2421236 3.871036824e-11
-1.258274585e-05 -221.4360189 4.13757533
-1.258274585e-05 82.18960034 161.8103204
-223.2182837 -201.8747461 3.871036824e-11
-69.50496928 -179.3853523 3.871036824e-11
-1.258274585e-05 -15.22150386 40.1186388
-7.308245083 -152.4308195 3.871036824e-11
-12.55529708 128.609175 3.871036824e-11
-228.8482207 48.03377434 3.871036824e-11
-1.258274585e-05 -127.0863375 115.4715459
-92.49471298 -113.7694569 3.871036824e-11
-1.258274585e-05 -215.2672039 16.90036648
-54.31893988 174.1797313 3.871036824e-11
-209.903725 40.19817784 3.871036824e-11
-1.258274585e-05 170.7743391 219.9267329
-1.258274585e-05 -61.76550126 189.7158249
-115.8493636 149.1201866 3.871036824e-11
-116.3585729 175.3511319 3.871036824e-11
-1.258274585e-05 -110.6324544 152.2536736
-195.0552213 -172.4414683 3.871036824e-11
-231.0215659 -225.2819597 201.055042
-1.258274585e-05 117.4484765 174.7207937
-1.258274585e-05 125.7474625 250.2737666
-212.4800817 -225.2819597 203.8462523
-93.92827868 195.0208738 3.871036824e-11
-1.258274585e-05 160.6722582 61.7795376
-80.35817248 -202.8494586 3.871036824e-11
-151.7814893 220.730881 3.871036824e-11
-1.258274585e-05 199.1055824 178.5570417
-98.99857198 -235.5402829 3.871036824e-11
-1.258274585e-05 -117.304094 214.4144712
-85.75689138 -225.2819597 138.0230512
-1.258274585e-05 32.02476964 51.405519
