# .PCD v0.7 - Point Cloud Data file format
VERSION 0.7
FIELDS x y z
SIZE 4 4 4
TYPE F F F
COUNT 1 1 1
WIDTH 1195
HEIGHT 1
VIEWPOINT 0 0 0 1 0 0 0
POINTS 1195
DATA ascii
14.72198211 5.763922672e-11 3.57413208
-92.93957089 -107.6905337 4.261835329e-11
-287.4841079 -29.3588624 185.3864813
-197.8961979 -121.7528958 4.261835329e-11
-25.16170189 -205.648674 4.261835329e-11
-287.4841079 -208.6901478 130.5089461
-12.41133789 -82.0713818 4.261835329e-11
-287.4841079 -12.7269446 157.3281096
-287.4841079 -90.6287154 73.0593098
-287.4841079 -199.8329847 195.0444134
-287.4841079 -224.7449641 81.5741762
60.13196011 -251.2426994 4.261835329e-11
-108.1970079 -73.3143488 4.261835329e-11
257.3897121 -201.0175125 4.261835329e-11
95.61368911 5.763922672e-11 73.4056169
-300.1698079 5.763922672e-11 146.9702445
241.5730651 5.763922672e-11 160.1809508
-295.1664869 5.763922672e-11 40.83152343
147.7440971 5.763922672e-11 156.1927271
-227.5431049 5.763922672e-11 199.2370525
-296.2553309 5.763922672e-11 97.2198492
-287.4841079 -248.5630744 230.9065914
-287.4841079 -82.6993596 14.63898405
-287.4841079 -56.9477471 169.9033329
13.68563111 5.763922672e-11 125.2166112
-82.49940089 5.763922672e-11 63.9325543
264.1160971 -34.4419203 4.261835329e-11
187.0545271 5.763922672e-11 77.2989019
-107.1818779 -162.6652727 4.261835329e-11
68.49776211 -107.0338177 4.261835329e-11
-249.6588839 5.763922672e-11 192.465323
-86.52682289 -138.5918867 4.261835329e-11
-297.1226449 5.763922672e-11 124.8356504
117.8058921 -69.3031533 4.261835329e-11
-208.8866259 5.763922672e-11 218.0029794
-287.4841079 -47.8043985 68.0674159
-95.93745689 -33.1196182 4.261835329e-11
-22.98862189 5.763922672e-11 220.9217325
21.17861711 5.763922672e-11 78.2643105
256.5273861 5.763922672e-11 134.3004872
-287.4841079 -248.4658471 110.7121089
-176.2116629 5.763922672e-11 23.97018912
-287.4841079 -32.0079088 148.5557331
183.6822731 -88.9822179 4.261835329e-11
79.75865811 5.763922672e-11 217.7052534
-73.46603789 -244.5231841 4.261835329e-11
268.7122171 5.763922672e-11 60.573982
-252.0965259 5.763922672e-11 175.1107559
-151.5410759 5.763922672e-11 218.2405383
277.2327361 5.763922672e-11 204.0246983
-136.1261819 -66.5320652 4.261835329e-11
45.00996511 5.763922672e-11 216.8832889
-287.4841079 -129.7180906 115.3596344
-81.57610689 5.763922672e-11 146.6671214
-134.8110779 -6.1823667 4.261835329e-11
92.48442111 -243.4443253 4.261835329e-11
89.18288211 -37.1879226 4.261835329e-11
6.706519107 5.763922672e-11 63.8529512
119.9375371 -199.3330704 4.261835329e-11
-287.4841079 -94.7714745 232.7592137
-52.70833589 5.763922672e-11 230.4162451
173.7990571 -241.1039431 4.261835329e-11
-77.41439389 -124.4468411 4.261835329e-11
-0.8985188928 5.763922672e-11 95.0962198
-0.6549218928 -29.9842528 4.261835329e-11
51.56370011 -39.6375637 4.261835329e-11
4.727419107 5.763922672e-11 38.16103036
199.1835711 -243.0521937 4.261835329e-11
-143.1130769 5.763922672e-11 113.3274469
-75.59977289 -189.2079597 4.261835329e-11
-269.8538239 -32.1927983 4.261835329e-11
273.8352931 5.763922672e-11 131.902833
-303.3603749 -210.2762392 4.261835329e-11
-193.6551309 5.763922672e-11 170.3872403
-273.5645879 5.763922672e-11 203.2759704
124.8144831 -115.6686419 4.261835329e-11
-242.9200179 5.763922672e-11 100.7572627
-287.4841079 -104.0821171 99.0586614
223.2843951 5.763922672e-11 40.58700798
175.9736381 5.763922672e-11 126.8784405
241.2582121 5.763922672e-11 41.67803343
-25.13874589 5.763922672e-11 93.4913039
-297.2407939 -85.7831269 4.261835329e-11
-310.1226719 -174.845558 4.261835329e-11
-287.4841079 -40.9558057 238.5759993
-62.90979689 -176.165443 4.261835329e-11
-81.70305189 -45.7047538 4.261835329e-11
-287.4841079 -72.4335969 160.5726635
132.7559031 5.763922672e-11 19.44602626
46.09907811 5.763922672e-11 157.6877374
136.0238821 -32.3911058 4.261835329e-11
3.584063107 -159.8601465 4.261835329e-11
97.53431611 5.763922672e-11 171.5636804
100.2855011 -209.096616 4.261835329e-11
224.9259621 -146.7762187 4.261835329e-11
136.5404341 -211.640828 4.261835329e-11
151.2821261 -153.6124595 4.261835329e-11
-287.4841079 -186.4782253 249.319914
135.4814641 5.763922672e-11 97.9097566
-287.4841079 -65.5379939 249.9258396
170.9034961 5.763922672e-11 140.9035534
-233.6281779 -32.2686763 4.261835329e-11
17.82516711 5.763922672e-11 139.8589855
-287.4841079 -248.3838723 199.5014601
270.3016021 5.763922672e-11 167.5017857
-98.57286389 5.763922672e-11 168.507728
-109.9103989 -99.5073515 4.261835329e-11
-248.2336849 5.763922672e-11 141.3212254
-53.35774789 5.763922672e-11 152.8026945
-1.341550893 5.763922672e-11 170.6749011
188.3893141 5.763922672e-11 248.7685972
-300.4365999 5.763922672e-11 196.4694574
-140.4409799 5.763922672e-11 38.06763283
159.9206971 -39.0448644 4.261835329e-11
-10.68357789 5.763922672e-11 83.7860896
136.3979461 -13.9113745 4.261835329e-11
114.7700091 -137.6902308 4.261835329e-11
33.72570211 5.763922672e-11 236.564503
-205.1900979 5.763922672e-11 147.4401058
280.1130951 5.763922672e-11 78.6143857
-68.69786389 -88.9168764 4.261835329e-11
-101.8857989 -193.9228451 4.261835329e-11
184.3970961 5.763922672e-11 34.88273453
-287.4841079 -56.9069545 113.9081778
76.69338011 5.763922672e-11 149.044046
-284.2247199 -230.5114024 4.261835329e-11
-163.4113699 5.763922672e-11 137.7185132
60.66737311 -209.0647027 4.261835329e-11
32.19392211 5.763922672e-11 27.19953315
-191.4888209 -82.1551008 4.261835329e-11
-287.4841079 -41.9900966 164.7166282
-173.7836569 5.763922672e-11 98.4448106
-46.84896689 5.763922672e-11 1.31363999
-287.4841079 -156.0026193 115.0267949
241.3250411 -127.0616989 4.261835329e-11
267.3368161 5.763922672e-11 100.4700526
-261.8778019 -125.6059419 4.261835329e-11
223.7437881 -229.1137386 4.261835329e-11
-182.9618519 -66.8304657 4.261835329e-11
287.4840321 -205.0021852 -1.33913293
-250.5466999 -94.2540668 4.261835329e-11
149.2107541 -87.49386 4.261835329e-11
62.27692411 5.763922672e-11 234.7634245
49.32761711 -124.3506502 4.261835329e-11
-287.4841079 -168.8750314 62.0431516
-287.4841079 -182.8562776 39.59933385
244.4360041 -207.6069142 4.261835329e-11
-279.0003519 5.763922672e-11 13.96910919
-287.4841079 -98.0874525 140.8225189
-287.4841079 -164.2384912 164.9654719
-126.7584739 -33.5605019 4.261835329e-11
161.5151411 -103.4845932 4.261835329e-11
-274.2905899 5.763922672e-11 105.2344825
-287.4841079 -183.4321609 55.83122918
194.3618541 5.763922672e-11 152.3850797
-287.4841079 -86.551397 30.12913259
-304.5769519 5.763922672e-11 170.9591089
-242.4805179 -180.3919999 4.261835329e-11
-102.9213609 5.763922672e-11 245.4169595
-269.6988349 -160.9897744 4.261835329e-11
-287.4841079 -213.6785602 26.9719792
-287.4841079 -143.779015 221.3279964
-287.4841079 -135.4417067 134.8975612
274.3389751 5.763922672e-11 152.4773404
72.88665811 5.763922672e-11 125.1284392
-221.4724579 -78.5691881 4.261835329e-11
-287.4841079 -149.8499414 247.8762087
-112.4672489 -114.5842113 4.261835329e-11
95.29769111 -156.9014561 4.261835329e-11
-287.4841079 -94.4324641 161.4567284
-185.0752319 -14.8816689 4.261835329e-11
-33.02286689 5.763922672e-11 165.7728922
-287.4841079 -187.6511271 218.7066923
-20.21477089 -234.7008406 4.261835329e-11
-156.7856929 5.763922672e-11 158.366856
219.3908681 5.763922672e-11 112.0933451
-240.4907589 5.763922672e-11 67.2086136
-287.4841079 -127.8891041 222.8977733
-305.5867639 -54.5476226 4.261835329e-11
-158.7844849 5.763922672e-11 37.42627459
-22.86540389 5.763922672e-11 139.4920685
-66.67180789 -17.3979888 4.261835329e-11
145.1493721 -252.0734799 4.261835329e-11
-287.4841079 -190.239816 177.4374841
-109.4566639 5.763922672e-11 151.4625109
255.9630651 -147.4842269 4.261835329e-11
-36.76807989 5.763922672e-11 61.5600183
-4.251654893 5.763922672e-11 198.7999205
24.82911111 -25.8563549 4.261835329e-11
158.4907351 -57.7546285 4.261835329e-11
55.08815711 5.763922672e-11 42.5138855
-287.4841079 -175.2780504 229.6302191
51.37169411 -79.0395514 4.261835329e-11
-97.68646789 5.763922672e-11 84.7072505
-287.4841079 -101.7097145 62.9323542
-69.99051489 5.763922672e-11 164.646547
-287.4841079 -68.016718 61.2445701
-255.1504509 -210.1223592 4.261835329e-11
-55.33932289 5.763922672e-11 105.9968026
143.8149861 -140.7567155 4.261835329e-11
-219.8168709 5.763922672e-11 136.6543873
-82.97082389 5.763922672e-11 218.7997159
-27.18179289 5.763922672e-11 25.84251828
136.3537741 5.763922672e-11 241.4080314
-65.27188689 5.763922672e-11 125.0944314
-287.4841079 -251.6478932 141.5487491
-217.9311549 -198.8899663 4.261835329e-11
-287.4841079 -29.7542835 85.1870327
-3.108550893 5.763922672e-11 115.6469638
-248.3965739 -238.0156468 4.261835329e-11
-287.4841079 -126.6972443 161.4439263
64.94229711 -143.4658995 4.261835329e-11
-287.4841079 -111.4267746 8.42592688
-76.53617289 -206.8892603 4.261835329e-11
-161.9068059 -86.6465663 4.261835329e-11
205.1076901 -14.6384859 4.261835329e-11
7.423570107 -58.1911581 4.261835329e-11
156.6208331 -117.2267199 4.261835329e-11
-287.4841079 -206.0982603 177.3056814
-296.6254209 -224.2641539 4.261835329e-11
-261.2311569 -43.0546077 4.261835329e-11
-242.5502329 -10.7559233 4.261835329e-11
78.61464411 -209.3229795 4.261835329e-11
91.89208511 5.763922672e-11 119.5677481
3.956557107 5.763922672e-11 23.02599097
-166.6616269 5.763922672e-11 50.59048602
-287.4841079 -143.2029109 107.4663629
167.6402801 5.763922672e-11 234.1536916
232.4164791 5.763922672e-11 15.06837653
-143.5418079 5.763922672e-11 182.5399576
192.2915701 5.763922672e-11 192.4580458
58.18762911 5.763922672e-11 180.6147915
286.0935081 -59.5356145 4.261835329e-11
208.6331061 -82.0368036 4.261835329e-11
-287.4841079 -119.7806041 199.9841705
139.5851401 5.763922672e-11 180.5011925
-138.2407329 5.763922672e-11 131.230475
-287.4841079 -176.4255048 14.71857754
-234.0526339 5.763922672e-11 164.9622021
119.3965571 5.763922672e-11 114.55192
-54.15228189 -42.2971977 4.261835329e-11
-211.7731569 -20.9401277 4.261835329e-11
-287.4841079 -19.8793074 71.9290358
-216.0495889 -127.9796001 4.261835329e-11
-287.4841079 -34.2295319 100.8098219
194.4892631 -112.3856628 4.261835329e-11
-53.54660289 -107.6704512 4.261835329e-11
85.02239211 5.763922672e-11 182.2389711
-112.9064949 5.763922672e-11 125.3246324
-275.3776139 5.763922672e-11 220.4258408
-93.38017789 5.763922672e-11 48.66918706
-167.9914189 5.763922672e-11 172.8052071
-193.9329709 5.763922672e-11 139.7833143
233.8303991 5.763922672e-11 182.9214782
-258.5095209 5.763922672e-11 202.7972129
-66.95446589 5.763922672e-11 67.7534741
25.58446511 -205.5994283 4.261835329e-11
-287.4841079 -73.4338042 90.1005222
-15.70570689 5.763922672e-11 249.7357349
-104.6550019 -44.6583979 4.261835329e-11
-167.2072089 -4.8690866 4.261835329e-11
-278.9850419 5.763922672e-11 72.9202839
-28.74605089 -15.261256 4.261835329e-11
102.4603941 -169.8108068 4.261835329e-11
71.08542911 5.763922672e-11 31.3196239
-287.4841079 -14.3629516 210.438975
115.3715711 -227.807106 4.261835329e-11
165.5209421 5.763922672e-11 182.4270531
157.7236601 5.763922672e-11 75.9659638
133.2337921 -102.9999971 4.261835329e-11
-66.84884789 5.763922672e-11 249.9427636
141.0365701 5.763922672e-11 36.26322605
-66.47689989 5.763922672e-11 202.581629
252.2261071 5.763922672e-11 32.73351062
-287.4841079 -156.6590068 53.30828911
274.2752011 5.763922672e-11 46.387799
222.4495231 -204.881063 4.261835329e-11
-274.7087349 5.763922672e-11 56.29700778
75.55971411 5.763922672e-11 204.4152986
34.30284511 -183.5093424 4.261835329e-11
160.1605701 -165.6794053 4.261835329e-11
203.9868471 5.763922672e-11 18.82068195
-287.4841079 -76.3073759 116.1661809
54.26290311 5.763922672e-11 16.12755291
69.55607111 -180.0835037 4.261835329e-11
239.5775201 -21.886608 4.261835329e-11
-246.9297349 5.763922672e-11 220.5908581
-257.1823169 5.763922672e-11 35.93527213
97.23070911 5.763922672e-11 144.4002201
-287.4841079 -105.9217097 39.93287576
-45.43670689 5.763922672e-11 43.36648896
-82.69041789 -58.9917193 4.261835329e-11
13.01618611 5.763922672e-11 96.5997673
32.87257311 5.763922672e-11 163.211738
-298.8470179 5.763922672e-11 9.47141095
-287.4841079 -109.5418428 112.5170488
-172.3112409 -252.4827953 4.261835329e-11
-269.1397959 -113.5978144 4.261835329e-11
235.0144681 -83.2673811 4.261835329e-11
-287.4841079 -117.2544268 230.8194484
-287.4841079 -148.0691618 11.39889709
-222.9785539 -0.06940149994 4.261835329e-11
24.59131411 -44.5999752 4.261835329e-11
-131.0767519 -145.7391952 4.261835329e-11
105.1990121 5.763922672e-11 98.3322207
-287.4841079 -78.8105998 131.3463634
-304.0183009 5.763922672e-11 56.37539327
-287.4841079 -67.6016808 177.7190164
275.2902621 -98.3836553 4.261835329e-11
-190.0926839 -149.1944488 4.261835329e-11
76.13466911 -70.6147546 4.261835329e-11
-287.4841079 -98.2700559 212.3945658
-295.1443899 -154.1255358 4.261835329e-11
-287.4841079 -96.3408744 7.92853519
200.6302741 5.763922672e-11 234.0861067
221.5311261 0.1978422001 4.261835329e-11
-91.11419089 5.763922672e-11 113.9635903
-127.0815559 5.763922672e-11 119.547503
-19.03720989 5.763922672e-11 12.17906936
-287.4841079 -51.3445741 39.31546247
-22.22463589 -130.7296301 4.261835329e-11
-274.3856689 5.763922672e-11 151.2467546
-55.80405789 -85.9349249 4.261835329e-11
-177.3749949 -201.8491031 4.261835329e-11
-156.5568729 -33.1978727 4.261835329e-11
-159.3716219 -145.6527238 4.261835329e-11
-127.1511119 5.763922672e-11 176.3665484
-48.33420289 5.763922672e-11 76.419628
-84.61876389 -232.2225504 4.261835329e-11
-231.0051429 -93.3325197 4.261835329e-11
93.18890211 5.763922672e-11 237.4730014
152.9933941 5.763922672e-11 13.70357892
-171.1959229 -158.5381122 4.261835329e-11
-219.3951179 5.763922672e-11 244.5364611
-128.2984759 5.763922672e-11 90.3779489
-62.32392389 -209.2168614 4.261835329e-11
-55.02306289 -131.1574668 4.261835329e-11
-111.8919629 -10.1502696 4.261835329e-11
-287.4841079 -211.1236094 50.0457799
275.5154931 5.763922672e-11 110.5541463
-231.2097719 5.763922672e-11 80.4401103
211.2697901 -42.2898499 4.261835329e-11
-3.113578893 -45.6628896 4.261835329e-11
116.3971771 -92.413581 4.261835329e-11
-287.4841079 -232.3012938 160.0487046
194.3484121 5.763922672e-11 9.05304931
148.3218011 5.763922672e-11 66.7396425
48.31112611 -238.8428752 4.261835329e-11
-222.7384699 5.763922672e-11 15.71156767
217.7037271 5.763922672e-11 187.9692758
84.86736411 5.763922672e-11 100.640667
-308.1516559 -110.4463794 4.261835329e-11
-287.4841079 -238.0363314 52.76204058
-287.4841079 -127.5872284 252.1354377
285.8082281 -34.4827391 4.261835329e-11
7.954288107 5.763922672e-11 241.7919853
64.90861611 5.763922672e-11 63.0158046
-287.4841079 -84.9961707 219.6537661
83.21461811 5.763922672e-11 247.1298334
-22.02465689 -190.5081663 4.261835329e-11
-287.4841079 -21.5943058 59.12330278
-190.9359359 5.763922672e-11 238.2017327
52.42633311 5.763922672e-11 86.9532486
-136.0466489 -101.030996 4.261835329e-11
-209.7047559 5.763922672e-11 37.47713177
259.8723321 5.763922672e-11 240.6468799
-287.4841079 -34.3267126 22.09026714
-287.4841079 -50.7312876 1.46245989
-287.4841079 -237.3840391 78.3029357
202.1775851 5.763922672e-11 131.2173419
-311.9969789 -22.9393044 4.261835329e-11
-142.6022809 5.763922672e-11 83.2716812
176.2479781 5.763922672e-11 224.7202742
-287.4841079 -19.4764995 142.6922663
-287.4841079 -14.6915124 125.8938683
238.6570731 -139.5346309 4.261835329e-11
86.72924611 -146.4573727 4.261835329e-11
-287.4841079 -168.4008646 181.5071174
-231.8768879 -218.5673952 4.261835329e-11
241.9386981 -164.571796 4.261835329e-11
-287.4841079 -109.444334 87.2924216
-250.4817559 0.2826928001 4.261835329e-11
-47.77804889 -191.8512997 4.261835329e-11
49.12262011 -137.0435951 4.261835329e-11
287.4840321 0.09694510006 235.3133458
-238.6161999 -192.4795742 4.261835329e-11
159.2386731 -186.5667248 4.261835329e-11
226.1328891 5.763922672e-11 226.5307339
-98.70078189 -134.6505202 4.261835329e-11
38.24450011 5.763922672e-11 92.4949348
-287.4841079 -77.924306 197.3890225
153.1728731 -200.5587553 4.261835329e-11
-68.16443389 5.763922672e-11 28.67245906
-307.3202689 -95.8736382 4.261835329e-11
125.2422081 5.763922672e-11 6.49664756
-189.4209109 5.763922672e-11 213.5389195
-287.4841079 -166.2045521 194.3647441
-287.4841079 -154.168556 79.7620772
-287.4841079 -1.1018639 151.4600354
-296.8348549 5.763922672e-11 182.2181946
-287.4841079 -74.7911445 48.15294177
-205.0415079 -102.9111639 4.261835329e-11
-16.19118089 5.763922672e-11 46.92524879
150.6662751 5.763922672e-11 231.9392109
234.1626741 -251.4122717 4.261835329e-11
-287.4841079 -115.9965886 171.0963242
163.0499711 -210.9762638 4.261835329e-11
-199.7425579 -35.6970352 4.261835329e-11
-282.1182339 5.763922672e-11 123.837026
122.9633321 -80.8855609 4.261835329e-11
248.7019681 -32.3739139 4.261835329e-11
-65.19063689 5.763922672e-11 229.8904373
-62.00016289 -61.9068723 4.261835329e-11
-81.24788289 -10.9476693 4.261835329e-11
-287.4841079 -27.5201328 245.1059536
252.7783401 5.763922672e-11 110.4317578
-310.5758049 -144.9490541 4.261835329e-11
-135.9103099 5.763922672e-11 10.76370688
-203.9733059 -153.3050185 4.261835329e-11
-287.4841079 -172.5967286 241.7848917
-287.4841079 -215.8823433 1.01266631
173.2057061 -80.295653 4.261835329e-11
61.77400811 -62.9389646 4.261835329e-11
153.3245781 5.763922672e-11 206.1947926
-287.4841079 -234.2393186 143.0979213
-171.5537859 -95.4222667 4.261835329e-11
223.3485281 -113.4168167 4.261835329e-11
-147.3484659 -179.9386302 4.261835329e-11
-309.8562559 -238.9061115 4.261835329e-11
-287.4841079 -24.3469601 8.39614635
-147.4360019 -41.5766796 4.261835329e-11
-287.4841079 -251.8306626 13.0094243
33.40223611 5.763922672e-11 106.9475283
-276.2585689 -138.2545309 4.261835329e-11
-219.1652329 -232.4825463 4.261835329e-11
-240.7850149 5.763922672e-11 245.1621462
-7.708757893 -187.121784 4.261835329e-11
137.1889501 -76.8393145 4.261835329e-11
111.3715151 5.763922672e-11 81.2920066
-127.4414139 -119.3572044 4.261835329e-11
-2.391013893 -17.7829811 4.261835329e-11
-105.7409549 -220.6115736 4.261835329e-11
-232.6309489 5.763922672e-11 233.5055933
-275.3009949 5.763922672e-11 166.393779
-287.4841079 -53.0865898 235.1872961
-310.4252429 5.763922672e-11 225.4820238
37.86581511 -48.7136361 4.261835329e-11
-101.0339169 5.763922672e-11 201.5835823
65.66288011 -31.825576 4.261835329e-11
-14.07442089 5.763922672e-11 71.9870388
215.8263861 -125.2687931 4.261835329e-11
-243.7351459 -22.9633773 4.261835329e-11
-40.78178889 -251.4181213 4.261835329e-11
-84.02451789 5.763922672e-11 195.5813566
-287.4841079 -20.2765329 33.62906105
-164.8474819 -239.4956249 4.261835329e-11
-45.28519789 -28.7224576 4.261835329e-11
-287.4841079 -238.8246985 121.9085477
173.0443431 5.763922672e-11 63.6410658
-113.6918989 5.763922672e-11 140.0587998
217.2443811 -251.9125871 4.261835329e-11
182.3629731 5.763922672e-11 7.07558184
19.55683511 5.763922672e-11 233.1183297
194.1478241 5.763922672e-11 103.9034259
267.6851711 5.763922672e-11 88.3465151
5.297874107 -243.0511508 4.261835329e-11
-299.9035789 5.763922672e-11 211.9290346
-180.9473579 5.763922672e-11 225.1012715
112.4757631 5.763922672e-11 196.8783824
-287.4841079 -223.9377792 199.6048415
-139.7777169 -247.2810125 4.261835329e-11
-287.4841079 -186.7110848 148.9982785
-64.83175889 -153.4917417 4.261835329e-11
-142.6092609 -89.5142809 4.261835329e-11
-164.4114379 5.763922672e-11 244.5115295
83.85414511 5.763922672e-11 12.10225322
-207.5133259 -250.5110768 4.261835329e-11
25.57776811 -10.8344769 4.261835329e-11
-287.4841079 -183.1084675 125.6155784
-287.4841079 -202.4484377 95.4604127
248.3451321 -193.0880321 4.261835329e-11
-128.1278059 -207.6978863 4.261835329e-11
-287.4841079 -146.7759953 29.71244455
158.7549121 -230.7072678 4.261835329e-11
110.6105211 -191.7675579 4.261835329e-11
184.1032661 -234.9444507 4.261835329e-11
-287.4841079 -161.5095534 32.31902126
-222.6832959 5.763922672e-11 183.3166113
129.0064091 -188.0412171 4.261835329e-11
35.25846011 5.763922672e-11 52.37891722
275.3267431 5.763922672e-11 13.21882263
-231.8349939 -61.1903698 4.261835329e-11
42.42133311 -155.382142 4.261835329e-11
-257.9500779 5.763922672e-11 239.8407724
57.43906811 5.763922672e-11 168.6557539
-167.2511329 5.763922672e-11 85.8426703
-117.3318579 5.763922672e-11 202.6266506
12.99619311 5.763922672e-11 191.466047
-255.6430189 5.763922672e-11 74.0475744
-80.25103789 5.763922672e-11 133.0917633
-287.4841079 -248.2908526 168.0200303
-221.9167239 5.763922672e-11 39.03605378
83.76756811 -10.8422299 4.261835329e-11
-1.754528893 5.763922672e-11 234.8416344
-287.4841079 -126.9252182 9.38650634
-68.30808689 -233.3326965 4.261835329e-11
-96.10023389 5.763922672e-11 216.645869
-145.9421299 -128.3054238 4.261835329e-11
124.7233271 -146.0280899 4.261835329e-11
-287.4841079 -237.3719072 225.3941597
11.51758911 5.763922672e-11 164.120979
-37.98693289 5.763922672e-11 197.5715926
199.8464651 -158.3808238 4.261835329e-11
-278.2819549 5.763922672e-11 135.1174683
23.03145411 -133.8796965 4.261835329e-11
165.6740341 5.763922672e-11 211.4955339
-198.1969279 -165.6238271 4.261835329e-11
136.4661041 -118.1171557 4.261835329e-11
-287.4841079 -139.5678876 80.0803528
-287.4841079 -7.604123 99.8436983
-174.4889359 5.763922672e-11 145.9199194
-101.7182289 5.763922672e-11 97.181526
253.4320271 5.763922672e-11 161.0165157
196.1813551 5.763922672e-11 181.224988
286.1744811 5.763922672e-11 153.5834694
-287.4841079 -9.0615104 79.1197624
4.006382107 -126.7706828 4.261835329e-11
100.8973351 -104.7244064 4.261835329e-11
82.74561911 5.763922672e-11 194.7369565
149.4903261 5.763922672e-11 126.6172874
189.4643991 5.763922672e-11 127.9456825
-278.8255079 5.763922672e-11 182.5342883
-80.34989589 5.763922672e-11 108.9802103
217.2015411 5.763922672e-11 65.9754229
-243.3561309 -208.9730761 4.261835329e-11
91.85346011 -133.5515715 4.261835329e-11
84.57071211 5.763922672e-11 170.0175017
-301.8107649 -129.5833283 4.261835329e-11
-284.7218539 5.763922672e-11 228.6581454
-287.4841079 -57.7683866 200.2744639
271.3050241 -175.3789609 4.261835329e-11
-287.4841079 -114.442181 187.5358623
-300.0891869 5.763922672e-11 252.4356401
-171.1790289 -222.2864345 4.261835329e-11
239.1226671 5.763922672e-11 246.6328049
-287.4841079 -50.2151079 104.1777757
-22.07799389 5.763922672e-11 115.4007786
116.7536811 5.763922672e-11 31.56794897
191.1757931 5.763922672e-11 204.3160433
-287.4841079 -42.5402098 223.2830567
-287.4841079 -79.6708346 232.1298983
-34.20225589 -140.1110269 4.261835329e-11
-31.55669489 -57.7617213 4.261835329e-11
-179.1612389 -180.0109931 4.261835329e-11
-287.4841079 -225.184824 24.6997992
166.0273281 5.763922672e-11 32.56024626
-287.4841079 -248.4991915 183.8654097
-45.07018789 -160.8033554 4.261835329e-11
164.5917381 -125.8195133 4.261835329e-11
4.234357107 5.763922672e-11 212.4844002
36.66005911 5.763922672e-11 148.6288339
113.5621411 5.763922672e-11 227.7131374
-205.7677839 5.763922672e-11 13.46253895
-208.7301389 -59.2225189 4.261835329e-11
-287.4841079 -55.5765221 129.5263819
234.5260751 -39.9166914 4.261835329e-11
-206.7629629 -202.2933874 4.261835329e-11
-229.1604639 5.763922672e-11 64.4305298
169.9930931 -33.1627815 4.261835329e-11
22.68136911 5.763922672e-11 114.9589872
-76.40468489 5.763922672e-11 90.474212
-75.74347289 -218.50404 4.261835329e-11
49.87818311 -92.0686565 4.261835329e-11
-298.5187799 5.763922672e-11 69.7394677
177.8749571 -106.5893208 4.261835329e-11
-287.4841079 -144.5817775 142.08569
5.035872107 -7.3177569 4.261835329e-11
119.3867961 -241.1946696 4.261835329e-11
-7.055065893 5.763922672e-11 34.00193678
111.8563911 -207.6846902 4.261835329e-11
-212.8367739 5.763922672e-11 60.6095711
144.6515001 5.763922672e-11 24.27005309
-297.9273919 -74.2065654 4.261835329e-11
213.5465941 -149.8339415 4.261835329e-11
185.8980831 5.763922672e-11 46.50151623
228.8508051 -183.0065788 4.261835329e-11
-287.4841079 -78.2293425 103.5455715
-44.71933889 5.763922672e-11 238.801445
-155.7732869 -110.883922 4.261835329e-11
-287.4841079 -155.8148175 220.5404722
-309.7270139 -65.341463 4.261835329e-11
230.3361151 5.763922672e-11 116.8085849
-7.022718893 -232.2691966 4.261835329e-11
-220.0763219 -170.9070845 4.261835329e-11
258.0957841 -121.3211952 4.261835329e-11
-302.6042799 -197.1128804 4.261835329e-11
175.8965421 -208.0470308 4.261835329e-11
-20.92849989 -53.3246149 4.261835329e-11
195.9054031 5.763922672e-11 34.47476172
161.9801881 -77.7304223 4.261835329e-11
89.42563811 -103.7860999 4.261835329e-11
55.24148911 5.763922672e-11 222.1460333
-54.62137889 5.763922672e-11 216.6102449
137.1891961 5.763922672e-11 123.3352822
-236.7228889 -244.9293805 4.261835329e-11
-287.4841079 -61.1687373 92.7488659
-8.051522893 -114.2458713 4.261835329e-11
221.8180851 -88.6195613 4.261835329e-11
160.0060391 5.763922672e-11 110.6156891
-250.7794829 -79.74589 4.261835329e-11
-49.09441089 -118.8254605 4.261835329e-11
112.2398871 -29.5973853 4.261835329e-11
-287.4841079 -143.2638258 205.6600849
195.0357271 5.763922672e-11 223.6581646
44.34011011 5.763922672e-11 131.4429101
7.125920107 5.763922672e-11 52.40164586
-67.48319689 5.763922672e-11 177.9537658
45.27415211 -2.3736304 4.261835329e-11
-227.4093819 -151.63812 4.261835329e-11
-165.6974729 5.763922672e-11 126.5078872
15.82398511 -116.3411866 4.261835329e-11
83.78270611 -189.336493 4.261835329e-11
-17.82629189 -154.4758349 4.261835329e-11
114.3274361 5.763922672e-11 125.7538619
-287.4841079 -13.7741848 168.6982261
143.6416661 -183.6901921 4.261835329e-11
-287.4841079 -198.62869 251.2232084
-298.3544149 5.763922672e-11 160.430736
-4.539564893 5.763922672e-11 15.41084187
-287.4841079 -71.7254971 206.9605411
-304.2264829 5.763922672e-11 32.77636537
220.3570441 -11.141793 4.261835329e-11
-287.4841079 -216.0580938 94.2588312
-93.27850189 -208.4725846 4.261835329e-11
-34.96409489 5.763922672e-11 216.03157
-173.0524569 5.763922672e-11 190.7491634
-193.6155079 -54.8103279 4.261835329e-11
-307.5778499 5.763922672e-11 81.0332306
188.8419851 -175.626005 4.261835329e-11
-295.9791849 5.763922672e-11 21.02077753
6.659560107 -209.3435914 4.261835329e-11
-264.6670209 -203.933408 4.261835329e-11
272.3372351 -110.0145201 4.261835329e-11
209.5442481 -228.9074861 4.261835329e-11
-194.2480689 5.763922672e-11 61.6355511
255.6044061 5.763922672e-11 184.4548221
-257.5681459 5.763922672e-11 94.45901
90.23665411 -67.1615117 4.261835329e-11
145.6516381 -227.0870223 4.261835329e-11
-38.10672389 5.763922672e-11 28.85242758
-203.7067349 5.763922672e-11 163.1244213
28.07224411 5.763922672e-11 16.64993288
-211.0604499 5.763922672e-11 100.589607
149.1387561 5.763922672e-11 217.0628048
277.3377371 1.5302829 4.261835329e-11
-287.4841079 -159.7584612 6.10946928
-20.19755589 5.763922672e-11 34.71926452
-185.2298899 5.763922672e-11 32.38371351
-287.4841079 -137.1175592 42.61824014
-223.8842949 5.763922672e-11 209.9108085
-140.1322729 -16.4983468 4.261835329e-11
-196.7486809 5.763922672e-11 100.0540639
-87.17059189 -181.7892677 4.261835329e-11
242.7801491 -224.5075256 4.261835329e-11
-202.0869849 5.763922672e-11 236.5971268
-21.08756289 -26.6653499 4.261835329e-11
-287.4841079 -7.9347454 38.72938368
107.3683271 -64.0119603 4.261835329e-11
145.5328411 -59.8820514 4.261835329e-11
116.7869091 -51.1596584 4.261835329e-11
82.49773911 5.763922672e-11 57.07684111
-287.4841079 -35.7642586 123.0708307
-258.4051169 5.763922672e-11 47.08979723
-265.5932579 5.763922672e-11 178.1152622
282.1502221 -75.3262685 4.261835329e-11
-287.4841079 -126.1114239 141.6634459
-287.4841079 -98.5212615 84.787084
-287.4841079 -133.2098785 242.3101355
-153.8956339 5.763922672e-11 207.2969357
274.7296081 -158.1690517 4.261835329e-11
34.93115811 5.763922672e-11 185.9828339
246.2649921 -80.0927058 4.261835329e-11
195.2360311 -188.2774414 4.261835329e-11
-8.640856893 -137.9279484 4.261835329e-11
8.111693107 5.763922672e-11 12.58358769
-210.1615149 5.763922672e-11 79.3816833
8.435140107 5.763922672e-11 146.8904714
274.4291961 5.763922672e-11 177.8590279
85.48242711 -230.7172262 4.261835329e-11
-36.17815289 5.763922672e-11 132.8031861
216.4998771 -100.0382569 4.261835329e-11
-9.660318893 -95.5606357 4.261835329e-11
-287.4841079 -241.0033096 246.5422315
44.93138011 -25.2416428 4.261835329e-11
199.4010351 -213.2430096 4.261835329e-11
180.2997861 5.763922672e-11 201.4856745
-266.6169889 -65.9432873 4.261835329e-11
185.7216431 -44.8433511 4.261835329e-11
-258.3177669 -246.1988461 4.261835329e-11
161.2801431 -25.9903915 4.261835329e-11
111.3265541 -15.6724386 4.261835329e-11
179.9579761 5.763922672e-11 105.260411
132.5323121 -221.9840289 4.261835329e-11
-26.88315989 -38.220408 4.261835329e-11
-287.4841079 -55.6588459 22.71926736
-53.53703089 -17.4274151 4.261835329e-11
-153.5459419 5.763922672e-11 187.3162793
241.0275501 5.763922672e-11 200.0962369
-261.0612009 -90.7542239 4.261835329e-11
90.19176711 -49.7730871 4.261835329e-11
-118.9137319 -186.7852189 4.261835329e-11
-287.4841079 -44.3525286 146.6148119
-275.3789439 5.763922672e-11 33.50964811
48.47109611 -166.6807255 4.261835329e-11
-5.871922893 -209.959863 4.261835329e-11
223.1548171 5.763922672e-11 52.524541
282.5266611 -251.0467212 4.261835329e-11
80.02900111 5.763922672e-11 82.0345535
-237.6277339 5.763922672e-11 154.523352
-268.7988879 -181.7564936 4.261835329e-11
44.06118711 5.763922672e-11 42.23056676
-287.4841079 -188.4428383 28.13116897
98.75729311 -195.4744744 4.261835329e-11
-206.9444149 -224.0561426 4.261835329e-11
-108.8413829 5.763922672e-11 224.6000204
71.30850511 -236.0211415 4.261835329e-11
269.8223071 5.763922672e-11 216.3429473
-287.4841079 -166.954785 108.0112767
-287.4841079 -15.77536 190.928393
-181.1958549 -112.5421001 4.261835329e-11
-222.9740449 -103.1999448 4.261835329e-11
23.34035711 -173.0367244 4.261835329e-11
-99.91295589 -243.6791332 4.261835329e-11
-287.4841079 -243.7681546 41.18531487
107.6521721 -236.0160769 4.261835329e-11
-19.74216789 -168.1538043 4.261835329e-11
-128.1317229 -55.6967669 4.261835329e-11
-290.6315269 -131.5926769 4.261835329e-11
-146.5222519 -168.1055348 4.261835329e-11
-168.6108119 -131.0714227 4.261835329e-11
-284.5959659 -105.0916047 4.261835329e-11
130.5587521 -201.9085505 4.261835329e-11
-287.4841079 -220.4460294 240.690075
247.1444991 5.763922672e-11 50.88164298
-297.5436239 -251.7596875 4.261835329e-11
195.9386051 5.763922672e-11 169.2853372
-287.4841079 -1.7954488 87.7306347
-253.4867209 5.763922672e-11 151.2795281
-287.4841079 -217.2641699 177.5947811
-41.23292889 5.763922672e-11 155.3290396
54.92539811 -113.9531069 4.261835329e-11
219.9973121 5.763922672e-11 99.4189582
251.2113041 -101.0823361 4.261835329e-11
-287.4841079 -228.531609 64.1450363
238.8310591 -101.6658787 4.261835329e-11
-240.9987369 5.763922672e-11 45.2394931
200.2376481 5.763922672e-11 141.9166258
266.0456101 -151.6275948 4.261835329e-11
135.2695731 -48.7525939 4.261835329e-11
41.63095711 5.763922672e-11 194.531191
176.5728361 5.763922672e-11 150.1670188
255.9827071 5.763922672e-11 80.7423164
-287.4841079 -118.4999649 68.2945825
-4.234553893 5.763922672e-11 147.8232125
265.8926721 5.763922672e-11 5.94306533
56.60362211 5.763922672e-11 244.0019939
197.0903111 5.763922672e-11 50.5574317
-147.1348879 5.763922672e-11 16.54951413
233.5435161 5.763922672e-11 74.2010793
-89.71002889 -128.2393864 4.261835329e-11
-287.4841079 -200.1523352 37.28231446
-96.57338189 5.763922672e-11 155.5952453
70.78728011 5.763922672e-11 226.7666812
66.22457111 -96.4646691 4.261835329e-11
-287.4841079 -221.8287946 108.1750549
122.0265121 5.763922672e-11 103.7109296
-73.96377789 5.763922672e-11 39.17405284
73.84819611 -121.8592801 4.261835329e-11
-11.78242289 5.763922672e-11 138.7158365
-88.52087989 -97.8519478 4.261835329e-11
-99.78889489 5.763922672e-11 23.82089109
-41.14917789 5.763922672e-11 250.282093
-287.4841079 -232.0958853 130.3243554
-287.4841079 -103.111117 123.1056913
-177.4085549 5.763922672e-11 68.7285975
-96.41914589 -162.2143898 4.261835329e-11
-245.1063619 -135.4451505 4.261835329e-11
-120.5754329 -97.4447706 4.261835329e-11
23.83017811 -240.7623626 4.261835329e-11
208.0320991 5.763922672e-11 28.75689437
-283.1139709 -90.5870886 4.261835329e-11
-291.9265829 5.763922672e-11 220.2577424
-287.4841079 -193.0284032 135.5043813
80.98223211 5.763922672e-11 158.8620384
-252.1224709 5.763922672e-11 130.9174295
160.1591661 5.763922672e-11 47.30015283
-26.88924089 5.763922672e-11 67.472936
218.1533391 5.763922672e-11 88.6745839
59.27689811 5.763922672e-11 25.58625174
-153.7047969 5.763922672e-11 111.7759451
98.27916311 -31.5493468 4.261835329e-11
-287.4841079 -231.5852765 40.41502215
17.86224111 5.763922672e-11 218.3016437
-79.16334289 -86.6999226 4.261835329e-11
267.2637071 -22.7324811 4.261835329e-11
-107.7185589 -62.6352722 4.261835329e-11
127.9688811 5.763922672e-11 234.7894418
64.97884311 -162.2560281 4.261835329e-11
-41.97142989 5.763922672e-11 115.9263158
-287.4841079 -76.5069747 251.2610257
-131.0580419 -195.9954842 4.261835329e-11
-287.4841079 -140.2509224 160.1848794
-287.4841079 -166.8111377 137.7741312
-118.7237699 -74.910247 4.261835329e-11
-186.0497779 -91.3078467 4.261835329e-11
246.5794051 5.763922672e-11 223.2854219
-183.8562579 -190.2132727 4.261835329e-11
-288.3717039 5.763922672e-11 199.5726117
285.7191131 5.763922672e-11 50.89609247
-287.4841079 -63.738458 8.67453029
-287.4841079 -242.1025175 4.3226567
-138.9208329 5.763922672e-11 50.0597701
-287.4841079 -14.0039328 5.9614365
186.8991501 -18.557288 4.261835329e-11
85.94164411 -217.8293538 4.261835329e-11
-236.7901329 -126.4613356 4.261835329e-11
-109.4062749 5.763922672e-11 81.2634005
-84.10870789 5.763922672e-11 233.1960369
140.9529221 5.763922672e-11 198.375915
-29.78811289 5.763922672e-11 234.105278
280.7910551 -196.4274327 4.261835329e-11
-287.4841079 -36.3330456 75.9872842
-121.4112679 -233.7970847 4.261835329e-11
50.08465411 5.763922672e-11 205.4934467
-287.4841079 -60.2959989 225.7231319
-289.7650859 5.763922672e-11 50.65724256
161.8047641 5.763922672e-11 7.84471783
-287.4841079 -113.796311 208.7073835
-297.6001269 -47.5179274 4.261835329e-11
-31.75973289 -150.4660384 4.261835329e-11
267.5390661 -222.7123257 4.261835329e-11
-136.6092309 5.763922672e-11 240.595497
-287.4841079 -104.4423019 167.7879897
-135.7289629 5.763922672e-11 197.9416199
-287.4841079 -189.6391767 10.80073206
-287.4841079 -38.3311382 179.8500653
-202.9718549 5.763922672e-11 209.2779614
-287.4841079 -208.9296273 167.1522167
-27.44617889 5.763922672e-11 181.2829588
-65.16917489 -105.3146442 4.261835329e-11
-139.9184089 -54.8036412 4.261835329e-11
-287.4841079 -199.0597292 233.7389902
-228.2920279 -190.3599494 4.261835329e-11
223.3419151 5.763922672e-11 142.0446593
36.12045411 -94.0355575 4.261835329e-11
-34.25332589 -89.0934811 4.261835329e-11
-300.5400299 5.763922672e-11 241.7460955
-189.6423489 -231.4135461 4.261835329e-11
-66.96013789 5.763922672e-11 10.88399997
-292.0063469 -28.7210939 4.261835329e-11
179.1816711 5.763922672e-11 84.2287537
-269.7939029 5.763922672e-11 243.7791323
-213.0274639 5.763922672e-11 179.2248874
13.23866811 -222.2389442 4.261835329e-11
-212.2041239 5.763922672e-11 191.6355942
114.3496811 -116.1761922 4.261835329e-11
-7.097054893 -7.2924372 4.261835329e-11
-183.5497039 5.763922672e-11 167.6526662
-254.2478329 -117.0880264 4.261835329e-11
80.79437711 -110.7349905 4.261835329e-11
-191.2889729 5.763922672e-11 181.7026316
188.8052551 -222.8719032 4.261835329e-11
-111.4688599 5.763922672e-11 237.2126899
57.55033711 5.763922672e-11 132.658523
-231.3639839 5.763922672e-11 27.55876667
166.3533531 -50.8770888 4.261835329e-11
-280.6042589 -58.446619 4.261835329e-11
-287.4841079 -133.4804652 28.46036206
-161.5857079 -18.834577 4.261835329e-11
214.5856621 5.763922672e-11 169.7052192
-287.4841079 -201.5759355 108.7745566
-94.69152789 5.763922672e-11 1.44581106
-287.4841079 -122.6864222 151.5105583
-287.4841079 -166.7808164 204.766635
-95.35144989 -75.2253485 4.261835329e-11
65.93437511 -20.6331626 4.261835329e-11
191.1020761 -138.6686357 4.261835329e-11
-287.4841079 -211.1799323 68.7140532
-90.21423489 5.763922672e-11 187.2196288
19.79777511 -144.6425789 4.261835329e-11
-215.8920609 5.763922672e-11 48.28745521
-287.4841079 -227.3326324 174.6578468
233.8119371 -110.7403733 4.261835329e-11
141.0393221 5.763922672e-11 170.2361808
176.5826941 -126.718715 4.261835329e-11
79.64846211 -41.2261938 4.261835329e-11
-12.84590789 5.763922672e-11 57.12792979
214.0517981 -19.836354 4.261835329e-11
92.94328311 5.763922672e-11 40.35931666
178.0511431 5.763922672e-11 248.6269588
207.9384631 5.763922672e-11 241.7661831
-287.4841079 -122.7597296 55.84807828
124.0911361 5.763922672e-11 193.0324925
-287.4841079 -28.1313537 47.01366473
-263.3192679 5.763922672e-11 130.7978712
67.62122611 1.7258798 4.261835329e-11
-172.2070109 5.763922672e-11 14.48543152
220.8752911 -55.9392246 4.261835329e-11
193.6785871 5.763922672e-11 85.1707015
32.87646411 -215.5596274 4.261835329e-11
-287.4841079 -20.5261153 222.5561316
-33.07068489 -29.5201608 4.261835329e-11
-125.9197919 5.763922672e-11 223.9493695
-287.4841079 -224.2721457 186.2256071
-37.45371989 -211.5388455 4.261835329e-11
-287.4841079 -93.6296637 115.8889819
-245.1308889 5.763922672e-11 26.16337121
117.5154661 -126.663683 4.261835329e-11
-288.2591229 5.763922672e-11 132.7322903
-45.12564789 5.763922672e-11 127.7858155
6.107037107 -187.764627 4.261835329e-11
277.8165871 -222.6026642 4.261835329e-11
2.208363107 -141.4810964 4.261835329e-11
5.374029107 -99.4037479 4.261835329e-11
-209.9777099 -70.4032078 4.261835329e-11
-207.6552529 5.763922672e-11 27.43674577
-287.4841079 -44.30093 25.40713306
-183.5915419 5.763922672e-11 199.5211781
19.55185711 -106.8066751 4.261835329e-11
-244.2252669 -169.0875647 4.261835329e-11
186.7321781 -119.0527031 4.261835329e-11
-299.2117779 -7.6862576 4.261835329e-11
-287.4841079 -200.336692 154.9018799
89.80707411 5.763922672e-11 215.8211452
-287.4841079 -209.6612379 140.6806362
-287.4841079 -179.6079804 112.9007219
-287.4841079 -175.170835 4.55262256
251.7777481 -231.716205 4.261835329e-11
36.97924211 -108.0584996 4.261835329e-11
222.0667141 -66.9551303 4.261835329e-11
-195.7203089 5.763922672e-11 15.18565202
69.54983311 -216.5286822 4.261835329e-11
-260.3121529 -57.1778792 4.261835329e-11
-277.7562929 -8.8491925 4.261835329e-11
247.5385771 5.763922672e-11 209.6117667
169.3296831 5.763922672e-11 168.1362546
-77.28575689 5.763922672e-11 175.2185941
-224.9827249 -26.9056473 4.261835329e-11
-28.48156789 -79.3624879 4.261835329e-11
-58.21159189 -232.1783038 4.261835329e-11
-157.1971299 5.763922672e-11 233.4209853
-184.5170289 5.763922672e-11 144.2924557
148.5590571 5.763922672e-11 81.3323647
-287.4841079 -31.8580683 203.4562723
-287.4841079 -8.5858955 21.39777433
-154.6488389 -219.6545306 4.261835329e-11
-287.4841079 -186.3973599 80.6273088
-189.5907669 -27.4222882 4.261835329e-11
-287.4841079 -10.2133287 68.8786279
-280.7811479 5.763922672e-11 45.96600741
-201.9878829 -11.7581981 4.261835329e-11
-287.4841079 -116.6561731 37.06607316
-190.7149439 -219.6711225 4.261835329e-11
279.2409131 5.763922672e-11 32.23487426
-76.59627089 -114.3662215 4.261835329e-11
-70.73384689 -27.4295143 4.261835329e-11
-260.7757379 -26.4392894 4.261835329e-11
-164.5108639 -121.5954014 4.261835329e-11
264.3704101 -213.1150823 4.261835329e-11
230.4589951 -10.9061744 4.261835329e-11
-38.56090489 5.763922672e-11 144.8418359
-287.4841079 -11.8759204 109.6621508
-287.4841079 -3.5452442 8.81887131
-287.4841079 -12.0603298 53.86580272
199.8204871 -89.195694 4.261835329e-11
14.38958611 -50.8875721 4.261835329e-11
58.98697211 -198.4024984 4.261835329e-11
60.62573311 5.763922672e-11 204.3888919
-308.4654129 -12.0129732 4.261835329e-11
62.97367411 5.763922672e-11 90.2153866
177.3882481 -148.9796939 4.261835329e-11
-7.736662893 5.763922672e-11 184.9858598
147.8778411 -97.4559582 4.261835329e-11
221.2422071 -175.0951028 4.261835329e-11
-45.97128489 5.763922672e-11 65.7840579
228.0273411 5.763922672e-11 86.8333635
234.7841041 5.763922672e-11 221.1855802
17.16116111 5.763922672e-11 52.36375926
-95.25037489 -228.7313619 4.261835329e-11
-287.4841079 -144.5676619 50.91404758
113.6397711 -147.882165 4.261835329e-11
-287.4841079 -187.7659655 196.6694299
35.14882511 -128.9123797 4.261835329e-11
-196.0175399 -97.7292183 4.261835329e-11
113.5116981 -167.9947997 4.261835329e-11
251.3922831 5.763922672e-11 8.86501459
-17.31435689 -244.3473449 4.261835329e-11
214.3308241 5.763922672e-11 10.01197677
-289.3599879 5.763922672e-11 237.5270653
-274.5473369 -202.3680971 4.261835329e-11
17.79685411 5.763922672e-11 39.38240889
287.4840321 -149.0128249 -1.47032441
-287.4841079 -22.9007273 172.7831982
53.35353611 5.763922672e-11 150.1265685
-287.4841079 -176.1903584 148.6058894
-125.5861289 5.763922672e-11 48.918569
-182.5088139 5.763922672e-11 16.21635358
273.1968771 5.763922672e-11 142.5544373
225.5405511 5.763922672e-11 211.05408
231.3113591 5.763922672e-11 159.6529531
-264.3744069 5.763922672e-11 152.5203104
-150.1848299 -68.5371148 4.261835329e-11
242.3967251 -47.0881581 4.261835329e-11
-47.62736889 5.763922672e-11 179.0395915
-232.4962399 -76.0341131 4.261835329e-11
133.1139961 5.763922672e-11 151.3397982
51.84426011 -178.7978695 4.261835329e-11
-61.52823889 -186.0422884 4.261835329e-11
47.42202011 5.763922672e-11 73.3942454
-86.81602789 5.763922672e-11 39.73654847
-287.4841079 -149.5079893 168.1799579
177.1467671 -5.5302985 4.261835329e-11
266.8612971 -138.8290109 4.261835329e-11
164.0350341 5.763922672e-11 86.9930232
238.4629111 5.763922672e-11 129.5605821
9.276769107 -29.3114625 4.261835329e-11
-226.8437889 -126.0762571 4.261835329e-11
-266.9934549 -170.5646159 4.261835329e-11
-287.4841079 -232.8935062 111.8374522
220.8311051 -29.7630434 4.261835329e-11
78.55379711 -84.9592645 4.261835329e-11
111.7833641 5.763922672e-11 177.3556323
-113.3854599 5.763922672e-11 43.53491084
-134.4126519 5.763922672e-11 140.3844792
107.4841661 0.2037637001 4.261835329e-11
-287.4841079 -227.7139346 150.5480753
168.6364731 -231.2791151 4.261835329e-11
-18.24002089 -74.0753453 4.261835329e-11
57.24396511 5.763922672e-11 56.75844851
-287.4841079 -243.2856812 133.2024926
-265.3571799 5.763922672e-11 226.2003743
-29.93765489 -232.8787838 4.261835329e-11
98.12181311 -10.599946 4.261835329e-11
-243.5708119 5.763922672e-11 7.7901548
212.5718411 -204.4441375 4.261835329e-11
-287.4841079 -193.8449634 61.6707454
274.5528091 5.763922672e-11 241.4399756
248.5238381 -140.976682 4.261835329e-11
-276.4563069 1.3319705 4.261835329e-11
-166.5602649 5.763922672e-11 210.227352
-287.4841079 -103.3206883 227.7958818
-187.2527219 -139.7447671 4.261835329e-11
-216.0156749 -45.3657107 4.261835329e-11
89.03218811 -164.5158042 4.261835329e-11
-287.4841079 -58.9494819 142.1134703
-120.2393149 5.763922672e-11 112.4522201
-11.07664089 -163.4669323 4.261835329e-11
110.2828051 -217.4017337 4.261835329e-11
-224.2252629 5.763922672e-11 165.5214423
175.9234311 -57.8107278 4.261835329e-11
-140.2921499 5.763922672e-11 208.5301412
-273.3269699 -46.1205255 4.261835329e-11
-129.8724409 -248.0542244 4.261835329e-11
104.5424251 5.763922672e-11 15.58838684
-54.58628189 -223.0586676 4.261835329e-11
239.4664801 5.763922672e-11 64.9969256
-16.87703289 -62.2499457 4.261835329e-11
34.69563611 5.763922672e-11 172.8418271
-188.2519639 5.763922672e-11 7.78480435
-287.4841079 -200.9023875 223.577335
-287.4841079 -89.9623756 172.5806226
177.1501191 5.763922672e-11 174.5845247
245.4404331 -239.9725429 4.261835329e-11
99.38205511 -119.2583095 4.261835329e-11
248.7169361 5.763922672e-11 235.1674412
237.6217391 5.763922672e-11 173.243181
284.4594071 -177.2279274 4.261835329e-11
-34.62225489 5.763922672e-11 83.0670688
132.6307241 5.763922672e-11 83.094859
-141.5004419 5.763922672e-11 159.0738679
-258.1676069 5.763922672e-11 117.2271292
-287.1113699 -193.069689 4.261835329e-11
-287.4841079 -126.8857603 171.3304566
-207.8615619 -121.2426399 4.261835329e-11
-0.1610868928 -178.9007354 4.261835329e-11
118.7658721 5.763922672e-11 58.97416938
150.5183491 5.763922672e-11 243.5856551
11.25099311 5.763922672e-11 181.8858227
149.7671481 5.763922672e-11 41.34546684
225.6639921 -193.6907274 4.261835329e-11
95.61351411 -83.0834376 4.261835329e-11
-162.2722409 5.763922672e-11 59.27573629
-89.66096289 5.763922672e-11 173.1821257
120.7165441 5.763922672e-11 151.5619445
200.8216361 5.763922672e-11 91.7646433
106.4020761 5.763922672e-11 240.789422
108.7229711 -86.4641989 4.261835329e-11
-100.9773839 -175.561902 4.261835329e-11
-230.0378169 5.763922672e-11 96.6422995
-191.9899999 -114.0507974 4.261835329e-11
243.4401661 5.763922672e-11 96.8623242
254.9599411 5.763922672e-11 21.49283241
13.70498211 -126.988989 4.261835329e-11
7.788883107 -151.1245944 4.261835329e-11
66.66852611 5.763922672e-11 149.0490967
142.4634361 5.763922672e-11 148.0844949
-8.763353893 5.763922672e-11 6.71012769
4.747064107 -169.453484 4.261835329e-11
-236.9528139 5.763922672e-11 111.3244518
-76.24055089 5.763922672e-11 8.22476454
-139.4543099 2.2779876 4.261835329e-11
-84.62034389 5.763922672e-11 246.5150709
-287.4841079 -203.8304352 24.36232165
-287.4841079 -129.7089269 189.9536742
189.7169471 -159.5851559 4.261835329e-11
-287.3551129 -144.8829406 4.261835329e-11
-287.4841079 -126.6941095 96.9123954
-28.44932989 5.763922672e-11 7.26527243
-118.3647539 5.763922672e-11 100.8225882
251.7443191 -169.4012108 4.261835329e-11
225.3172221 5.763922672e-11 178.4233523
-307.8320239 5.763922672e-11 202.6288744
-62.42275589 5.763922672e-11 20.95517196
-107.2859889 5.763922672e-11 15.52520483
-120.1337089 5.763922672e-11 78.2881943
82.88480711 5.763922672e-11 28.12584225
281.9760071 -15.7088911 4.261835329e-11
-192.1023719 5.763922672e-11 83.2256987
-124.1576679 -138.9671695 4.261835329e-11
24.68190311 -75.0963426 4.261835329e-11
-76.94076089 5.763922672e-11 211.3287704
-70.72428489 -7.1974895 4.261835329e-11
-2.393014893 -105.0313499 4.261835329e-11
70.75415611 5.763922672e-11 239.2455403
212.1786591 5.763922672e-11 156.7847928
247.7890701 5.763922672e-11 125.4642467
-287.4841079 -31.6607276 55.92084109
-299.6976009 5.763922672e-11 106.1604467
-41.21985289 5.763922672e-11 98.503945
-287.4841079 -212.8433473 11.47880349
11.93820511 5.763922672e-11 250.4738793
197.7996351 5.763922672e-11 246.2207676
-265.4618869 5.763922672e-11 58.68640177
-180.3167169 -30.8257917 4.261835329e-11
279.1188071 5.763922672e-11 214.1730719
-270.9931639 5.763922672e-11 8.42298214
176.2500971 5.763922672e-11 239.2544881
-214.2981049 5.763922672e-11 144.436571
102.3790171 -132.935004 4.261835329e-11
14.87423011 5.763922672e-11 87.2474283
-253.9074379 5.763922672e-11 83.6711197
262.4252391 -76.5659181 4.261835329e-11
261.1322331 5.763922672e-11 28.75521199
-287.8870569 5.763922672e-11 178.9380517
278.2037201 -85.949662 4.261835329e-11
-287.4841079 -146.2205203 187.8361193
-38.58727189 5.763922672e-11 173.5036406
-287.4841079 -11.7964433 182.2779266
181.5743061 5.763922672e-11 67.8712866
-268.9327959 -131.9977886 4.261835329e-11
2.931164107 -232.8363184 4.261835329e-11
75.46884711 5.763922672e-11 183.9844446
283.1677991 -121.2611349 4.261835329e-11
-107.3524139 5.763922672e-11 194.0393975
-181.5917759 5.763922672e-11 46.14909274
273.2510841 -54.1329307 4.261835329e-11
87.01337311 5.763922672e-11 65.5842657
-120.7596319 5.763922672e-11 58.94917873
-287.4841079 -58.854509 243.2032534
-114.6152369 -144.424963 4.261835329e-11
-64.11734589 5.763922672e-11 240.8846705
196.4302211 -1.7855482 4.261835329e-11
-211.2851859 -164.8448519 4.261835329e-11
-94.16468189 -188.1432025 4.261835329e-11
-304.3841979 -152.0769728 4.261835329e-11
-171.0382829 -35.9859963 4.261835329e-11
-287.4841079 -174.1204407 128.5028713
-157.8717149 -6.2361059 4.261835329e-11
-61.23059689 5.763922672e-11 185.0178242
-95.52547189 5.763922672e-11 68.8646891
-178.1586789 -8.474119 4.261835329e-11
271.8319561 -193.4905901 4.261835329e-11
-102.8418859 5.763922672e-11 177.1865036
-224.8713439 -40.8969304 4.261835329e-11
-287.4841079 -32.7409703 139.1660578
16.61261411 -208.4515219 4.261835329e-11
-67.76883889 5.763922672e-11 53.95046165
-141.9261719 5.763922672e-11 230.6191745
-174.8135529 5.763922672e-11 217.977243
-138.5370439 5.763922672e-11 74.0524465
-173.3315869 -71.2303397 4.261835329e-11
-287.4841079 -252.3651715 22.38908306
127.0180871 -14.3823075 4.261835329e-11
234.3045091 -159.1071967 4.261835329e-11
-143.6145019 5.763922672e-11 59.82439999
