# .PCD v0.7 - Point Cloud Data file format
VERSION 0.7
FIELDS x y z
SIZE 4 4 4
TYPE F F F
COUNT 1 1 1
WIDTH 1195
HEIGHT 1
VIEWPOINT 0 0 0 1 0 0 0
POINTS 1195
DATA ascii
-99.50049318 42.74418239 -48.30951339
95.50048382 62.77094939 -188.8173034
-19.49395518 -2.461349845e-05 -64.92501039
-34.37566318 -2.461349845e-05 -207.0366004
-68.89208018 -2.461349845e-05 -26.01870039
1.316248821 94.53285339 -9.738781091e-05
95.50048382 31.58451439 -117.5286814
91.14897382 -2.461349845e-05 -33.45465839
-0.04976117944 15.40154239 -9.738781091e-05
107.1913988 -2.461349845e-05 -126.1609274
35.87720782 -2.461349845e-05 -237.8420654
95.50048382 108.1124914 -230.4012164
-58.30597018 37.19702739 -9.738781091e-05
-95.50049318 21.98743739 -144.7022154
22.67358082 -2.461349845e-05 -14.30311039
-77.49863518 130.4098654 -9.738781091e-05
75.42119082 -2.461349845e-05 -59.79339439
-96.90641318 68.55422339 -174.6082754
99.50048382 105.8277934 -57.84520539
-79.96691818 73.50968439 -9.738781091e-05
95.50048382 13.12953539 -58.69645139
-95.50049318 13.91613839 -112.6608244
80.97489082 -2.461349845e-05 -156.5430314
99.50048382 49.86772039 -236.0939954
5.176557821 -2.461349845e-05 -79.25866539
-99.50049318 0.2500593865 -119.9780974
95.50048382 12.48807239 -174.5490164
-119.4547592 -2.461349845e-05 -70.31039839
-99.50049318 30.98839039 -88.93585339
31.11893782 -2.461349845e-05 -84.79008739
99.50048382 21.02764939 -199.5776844
52.34621882 -1.360283613 -9.738781091e-05
-80.67241418 -2.461349845e-05 -53.52361439
-28.35504418 -2.461349845e-05 -12.33925239
-99.50049318 64.69805539 -125.4699294
103.2969318 -2.461349845e-05 -56.27911839
-99.50049318 0.7195713865 -217.0607104
4.926171821 -2.461349845e-05 -61.85170639
-95.50049318 105.4195394 -42.93951239
62.54887582 57.35633539 -9.738781091e-05
-77.77749018 -2.461349845e-05 -250.2722794
29.68735182 -2.461349845e-05 -145.6580884
65.42476382 -2.461349845e-05 -237.3414714
-103.3351302 -2.461349845e-05 -6.202071388
96.80850582 133.9999754 -227.0845134
-104.2283422 -2.461349845e-05 -149.9463554
-95.50049318 14.06795939 -65.56760539
99.50048382 57.82024139 -105.1068984
-32.98473718 -2.461349845e-05 -166.5533784
95.50048382 74.26431439 -236.5166874
79.73598082 -2.461349845e-05 -138.6860704
-49.44860018 -2.461349845e-05 -182.2340264
95.50048382 48.61450039 -50.62646939
-99.50049318 32.33480539 -72.54543239
-99.50049318 57.26695739 -231.1308014
-95.50049318 74.47502339 -50.60857739
-95.50049318 86.01938839 -105.5130224
71.41321782 -2.461349845e-05 -251.4559844
96.43400582 69.99997539 -156.8468804
-95.50049318 29.06931239 -19.77512539
95.50048382 73.37928839 -54.52659039
34.56256482 -2.461349845e-05 -30.32145339
-57.26997018 116.4560404 -9.738781091e-05
-99.50049318 1.858939387 -36.80217939
-51.61645618 -2.461349845e-05 -17.81682039
-99.50049318 -0.3910976135 -61.48647939
15.63194382 20.27858139 -9.738781091e-05
95.50048382 15.20250539 -152.6737364
-95.50049318 47.83651739 -131.3752944
-20.06497618 68.84331939 -9.738781091e-05
-80.59263718 -2.461349845e-05 -224.7668764
-65.23933718 -2.461349845e-05 -179.9543224
5.273794821 -2.461349845e-05 -251.3763344
-99.50049318 62.70057739 -202.2102804
-86.82704918 -2.461349845e-05 -127.2838214
-95.50049318 118.0525074 -15.35927439
13.47916782 -2.461349845e-05 -176.6513644
-64.58241418 -2.461349845e-05 -79.39314739
95.50048382 15.33372339 -18.90140739
115.5623688 -2.461349845e-05 -13.05220339
-99.50049318 0.8690393865 -163.7062954
96.79444582 -2.461349845e-05 -237.3552204
10.70496582 -2.461349845e-05 -123.7966764
66.94262582 19.69992039 -9.738781091e-05
81.74713982 33.35555939 -9.738781091e-05
3.123733821 1.297254387 -9.738781091e-05
99.50048382 12.41118539 -87.41226539
52.18591082 -2.461349845e-05 -99.91466039
96.06089382 58.58898639 -14.47053339
-12.68724318 -2.461349845e-05 -14.01218939
86.02029382 -2.461349845e-05 -212.2076624
95.50048382 59.04598239 -208.5732544
-26.20039418 7.881797387 -9.738781091e-05
40.37897982 -2.461349845e-05 -183.7211484
67.19328682 -2.461349845e-05 -166.2426994
95.50048382 30.37299139 -171.1317204
21.48249482 -2.461349845e-05 -163.7777834
72.36384982 -2.461349845e-05 -42.07703839
-22.38854718 -2.461349845e-05 -215.6179274
99.50048382 1.446206387 -111.0867384
-22.24896118 -2.461349845e-05 -239.7601134
97.23118882 53.68565639 -69.01952139
-80.67881018 -2.461349845e-05 -15.66522539
95.50048382 53.35552139 -134.0117664
-75.51663118 1.674723387 -9.738781091e-05
-95.50049318 38.12990639 -183.9125654
99.50048382 38.34843139 -252.3076024
-52.70181618 -2.461349845e-05 -1.551687388
-25.23515118 53.93084039 -9.738781091e-05
-95.50049318 68.23175139 -92.86588939
13.96806082 -2.461349845e-05 -193.9306694
-80.85891918 14.97466139 -9.738781091e-05
100.1432138 35.27129039 -9.738781091e-05
-1.374306179 -2.461349845e-05 -217.7728554
99.50048382 128.4812964 -239.6453184
-97.49535318 -2.461349845e-05 -251.7138764
95.50048382 87.56307539 -69.32706039
95.50048382 33.89845739 -196.1565064
-99.50049318 56.21162639 -70.84421539
-95.50049318 19.05153739 -95.03093339
23.79551382 41.20900239 -9.738781091e-05
-95.50049318 28.28997039 -195.4376854
-92.80753218 61.94263739 -9.738781091e-05
95.50048382 143.9830524 -50.43570739
100.0004838 -0.7578356135 -219.1666464
-28.86065218 97.85304339 -9.738781091e-05
-99.50049318 72.93318939 -141.2235644
69.34209482 -2.461349845e-05 -188.7274974
-53.89381318 -2.461349845e-05 -240.4045844
99.50048382 35.36899139 -145.4506994
53.99204982 -2.461349845e-05 -142.2765824
95.50048382 29.63585039 -104.1470634
-6.471298179 -2.461349845e-05 -69.12115839
-95.50049318 6.903391387 -86.99519639
-89.19611618 44.95010939 -9.738781091e-05
48.60999682 -2.461349845e-05 -47.07283839
119.5926098 -2.461349845e-05 -130.9862164
99.50048382 8.369898387 -46.65916539
75.95436982 9.921906387 -9.738781091e-05
-81.66016918 -2.461349845e-05 -140.0528324
-100.8065672 -2.461349845e-05 -203.8721554
64.99141282 -2.461349845e-05 -68.95539439
-95.50049318 33.19587939 -161.2398394
-99.50049318 47.24280739 -218.7297584
-117.9070212 -2.461349845e-05 -240.3837324
22.10257082 -2.461349845e-05 -229.6644934
-22.44602718 39.31091039 -9.738781091e-05
-50.92185518 65.31031239 -9.738781091e-05
-95.50049318 99.83267339 -28.70802139
99.50048382 133.8103624 -209.4777824
-96.12825618 -2.461349845e-05 -136.5055854
99.50048382 54.86524139 -91.98179439
-95.50049318 97.24395639 -3.864936388
99.50048382 75.22458139 -189.1479154
-95.50049318 37.07295239 -247.4303944
-95.50049318 31.01573739 -37.58909439
-99.50049318 12.75634639 -242.1041774
95.50048382 96.99256639 -45.97640739
106.8789308 -2.461349845e-05 -170.7362384
99.50048382 86.26875139 -201.1358654
86.26954482 -2.461349845e-05 -84.24716039
-43.77070918 93.74412839 -9.738781091e-05
-43.08327018 75.66606839 -9.738781091e-05
17.76556282 -2.461349845e-05 -53.41200839
109.0448078 9.035723387 -9.738781091e-05
98.51588882 70.21468739 -114.7237204
99.50048382 77.45920039 -39.91147439
95.50048382 21.47481439 -237.6313994
88.88019782 -2.461349845e-05 -62.74668839
85.18332782 -2.461349845e-05 -101.4304844
-99.50049318 81.55151339 -15.13631139
10.02411782 81.03087339 -9.738781091e-05
-108.2077612 123.4744224 0.5805596122
95.50048382 70.87351939 -215.3274224
108.9432158 -2.461349845e-05 -155.2660504
-10.96708018 -2.461349845e-05 -188.3436004
-95.50049318 13.26818539 -187.6644504
-62.51619618 -2.461349845e-05 -166.1404774
-105.8241392 -2.461349845e-05 -24.80383139
64.31539182 -2.461349845e-05 -110.8884274
99.50048382 45.89045939 -20.25084639
-99.50049318 26.06173839 -235.6228874
-6.866306179 -2.461349845e-05 -116.4268174
95.50048382 6.362163387 -125.7245884
111.5259558 -2.461349845e-05 -236.1904254
53.65888082 -2.461349845e-05 -62.70887639
109.1962098 -2.461349845e-05 -88.90754939
-80.82009218 -2.461349845e-05 -40.78059439
95.50048382 38.11205139 -183.1887464
-24.50479418 119.5902554 -9.738781091e-05
-58.79423218 -2.461349845e-05 -33.39434539
-87.18712218 -2.461349845e-05 -165.6696344
26.12234982 -2.461349845e-05 -108.5490034
60.33435482 45.06110939 -9.738781091e-05
-34.70705018 -2.461349845e-05 -248.3404084
-32.20459318 25.85410039 -9.738781091e-05
-99.50049318 43.00624839 -15.07243839
95.50048382 118.5596784 -44.21038239
99.50048382 107.3529414 -212.5766424
95.63208582 -2.461349845e-05 -150.4590144
-53.16073818 -2.461349845e-05 -84.21901039
99.50048382 18.05693139 -124.7695904
99.50048382 6.691677387 -251.8786324
-99.50049318 40.16410139 -109.3838604
46.98485582 -2.461349845e-05 -87.68887639
95.50048382 103.5988934 -241.8249944
-54.22716918 -2.461349845e-05 -127.6658284
-6.185093179 39.87024539 -9.738781091e-05
20.83942582 -2.461349845e-05 -206.7275604
-43.48408318 -2.461349845e-05 -56.78215339
95.65607082 121.9999754 -229.2376924
99.50048382 94.68546039 -221.2643064
-15.21758118 96.50704039 -9.738781091e-05
-95.50049318 83.55118739 -75.65655139
95.50048382 13.80025439 -217.3901334
95.50048382 115.5424344 -68.23439839
40.66176682 -2.461349845e-05 -169.0565534
37.23282682 -2.461349845e-05 -121.9931794
112.5049548 -2.461349845e-05 -71.51659739
76.54056282 -2.461349845e-05 -124.0014884
95.50048382 16.22517739 -98.20993839
-17.10087818 -2.461349845e-05 -143.1812814
-98.46421218 14.85561739 -9.738781091e-05
-95.50049318 58.68595239 -109.7966094
-43.83958718 -2.461349845e-05 -214.5805054
95.50048382 52.67033239 -181.8805274
-35.38031418 -2.461349845e-05 -84.13607839
-43.66396918 -2.461349845e-05 -199.3444784
-98.85944318 37.90529539 -1.500097388
88.80302182 62.14068239 -9.738781091e-05
118.9727558 -2.461349845e-05 -103.0228964
99.50048382 50.63041639 -162.4798934
-99.50049318 67.48151139 -41.71980939
99.50048382 68.87757639 -130.4936344
-99.50049318 24.12801439 -120.3724954
-84.05636118 104.1522054 -9.738781091e-05
40.45201882 21.65345539 -9.738781091e-05
-19.14616318 -2.461349845e-05 -197.1481424
-99.50049318 64.12853539 -9.657716388
99.50048382 23.28548739 -43.06514439
-87.12693518 123.3380894 -9.738781091e-05
-110.7906012 -2.461349845e-05 -100.2729824
95.50048382 61.74526039 -245.4577664
95.50048382 18.57231539 -164.1003674
-99.50049318 89.09377139 -31.89818639
99.50048382 47.41094339 -117.5957954
-103.9834932 -2.461349845e-05 -232.4304614
-23.64681518 -2.461349845e-05 -86.12787739
14.22269482 -2.461349845e-05 -153.6731384
-29.91682418 -2.461349845e-05 -179.2839534
-99.50049318 58.17737839 -169.7109434
-69.38437418 88.59300339 2.335478612
-99.50049318 22.19521739 -44.86405539
-82.63659718 -2.461349845e-05 -83.40413839
110.6850688 -2.461349845e-05 -211.6902234
65.30234082 -2.461349845e-05 -199.7167254
55.51573282 -2.461349845e-05 -165.5184554
-69.85325218 -2.461349845e-05 -58.43236939
-106.9849142 -2.461349845e-05 -183.7384524
-105.4770012 59.52563739 -9.738781091e-05
-99.50049318 10.99870539 -154.3960254
-95.50049318 23.97375639 -171.7869694
95.50048382 26.24772639 -28.79687539
-99.50049318 82.18690839 -115.7126934
99.43368882 142.1435794 -74.97658439
-95.50049318 58.80959639 -86.14408439
-8.016939179 124.2430104 -9.738781091e-05
22.50999782 63.32863939 -9.738781091e-05
-2.251886179 -2.461349845e-05 -199.5771234
99.24206082 133.9999754 -60.06421739
-41.27510518 -2.461349845e-05 -158.5380774
-95.50049318 44.05727939 -208.4077194
-92.36497418 -2.461349845e-05 -10.43914939
-57.92417618 -2.461349845e-05 -138.8317014
-12.04668718 17.92213739 -9.738781091e-05
26.44457182 -1.918029613 -9.738781091e-05
-99.50049318 18.99494439 -12.69198539
84.25957782 -0.1514246135 -9.738781091e-05
-95.50049318 49.79375039 -179.5564154
95.50048382 37.40307439 -93.73961339
68.37567782 -2.461349845e-05 -140.1010664
-42.42591818 -2.461349845e-05 -236.2985944
-40.46175918 -2.461349845e-05 -15.54193139
99.50048382 41.17903239 -205.6806184
104.6708218 -2.461349845e-05 -143.6010284
6.752321821 -2.461349845e-05 -32.26912939
95.50048382 23.07132839 -223.8699434
-95.50049318 44.39491039 -159.7931454
-99.50049318 53.41393539 -24.77891539
104.4075658 54.30410239 -9.738781091e-05
-53.82455518 -2.461349845e-05 -107.3015234
56.40288382 -2.461349845e-05 -214.1838424
-85.51381718 -2.461349845e-05 -196.2121214
-33.41342918 -2.461349845e-05 -218.7995804
-62.28474218 10.72902439 -9.738781091e-05
95.50048382 102.0437904 -67.61865339
48.38852482 -2.461349845e-05 -127.3005104
95.50048382 62.07412539 -58.90339339
-95.50049318 89.95508139 -58.61381739
-117.1129972 94.47324039 -9.738781091e-05
95.50048382 40.13105839 -159.3714584
99.50048382 37.29819539 -28.15069139
-69.53765418 59.93210439 -9.738781091e-05
-95.50049318 53.08356639 -48.78563339
41.36843582 68.98846339 -9.738781091e-05
-99.50049318 41.49158639 -98.38829639
-115.3049472 -2.461349845e-05 -18.33244039
-116.9868072 28.33910939 -9.738781091e-05
-99.50049318 105.7083944 -11.28078339
98.57484882 80.26527239 -91.36964539
99.50048382 9.827820387 -197.0103984
-30.16422818 -2.461349845e-05 -62.10380939
-19.45375718 -2.461349845e-05 -45.35786339
-99.50049318 49.71684139 -141.4759004
-99.50049318 22.52328939 -213.2780074
-99.50049318 32.73907039 -204.6843324
96.01729882 30.84278839 -74.84998939
99.50048382 11.45818139 -239.7798134
99.50048382 15.16204739 -8.668913388
50.12655282 -2.461349845e-05 -188.7726544
-85.16707918 25.06724939 -9.738781091e-05
-90.16001518 -2.461349845e-05 -181.6089964
95.50048382 24.96009139 -146.8114534
-16.99108418 -2.461349845e-05 -160.8256784
-27.08358318 130.7307594 -9.738781091e-05
97.95941882 144.9999754 -227.2499264
-91.52443618 -2.461349845e-05 -225.5517064
-78.24085318 45.05816039 0.2239906122
105.9531128 -2.461349845e-05 -5.357130388
-99.50049318 70.35366239 -65.14515939
99.50048382 28.08859139 -131.0696474
44.04437982 49.24290239 -9.738781091e-05
95.50048382 44.70802039 -141.4419064
62.00532282 67.99997539 2.210772612
-95.50049318 66.81145339 -149.2848274
111.0097918 35.88268239 -9.738781091e-05
84.56464682 -2.461349845e-05 -24.81028339
80.27531282 -2.461349845e-05 -245.1960714
95.50048382 76.40733539 -72.66276339
99.50048382 24.32814039 -64.11108839
-95.50049318 53.81849039 -240.7325214
48.61412782 -2.461349845e-05 -10.14519239
60.93390882 9.893341387 -9.738781091e-05
-95.50049318 54.66502739 -196.1998294
-87.80676218 85.30430039 -9.738781091e-05
95.50048382 51.79116739 -38.46217439
-71.27475418 104.3347874 -9.738781091e-05
53.89200382 29.20297539 -9.738781091e-05
-89.11948218 -2.461349845e-05 -109.0929484
-48.18577618 -2.461349845e-05 -95.36463139
82.08318682 20.93964739 -9.738781091e-05
54.84554482 -2.461349845e-05 -240.7778204
-54.98272518 21.94443439 -9.738781091e-05
-24.96508118 78.88388539 -9.738781091e-05
99.50048382 72.09452839 -225.0967534
99.50048382 25.74430839 -7.945301388
90.07999182 -2.461349845e-05 -222.8415624
-110.5975042 -2.461349845e-05 -158.4162894
83.62020082 -2.461349845e-05 -169.4382324
99.50048382 6.552194387 -78.44738939
-46.21187718 55.77748739 -9.738781091e-05
95.50048382 59.88213239 -154.0697544
75.54026082 -2.461349845e-05 -197.2699184
95.50048382 108.0033704 -48.14857839
-109.1395772 -2.461349845e-05 -81.24931339
-95.50049318 12.04661839 -141.5462524
-99.50049318 39.03917639 -137.0815024
-34.99492718 -2.461349845e-05 -149.9919724
-95.84051618 92.54551339 -86.38408939
68.60191882 -2.461349845e-05 -176.6043624
43.36439282 -2.461349845e-05 -146.9301604
95.50048382 35.06982339 -10.23331039
25.96949782 21.32277239 -9.738781091e-05
-95.50049318 7.536976387 -27.60564439
-95.50049318 73.33460839 -119.3689304
-99.50049318 64.79871639 -31.70163539
32.57931482 13.22459939 -9.738781091e-05
99.50048382 85.12908639 -243.9946634
95.50048382 65.06686139 -33.72807239
-52.39226118 87.96362239 -9.738781091e-05
95.50048382 5.403624387 -25.80784839
-55.32617718 -2.461349845e-05 -215.9796864
-96.35778118 119.9999754 -4.875208388
-4.855838179 29.33959139 -9.738781091e-05
-107.0252312 -2.461349845e-05 -68.40341239
99.50048382 70.18444639 -179.8094394
-44.39753218 -2.461349845e-05 -122.1738914
95.50048382 54.65956739 -217.7807804
5.161777821 -2.461349845e-05 -133.6614574
45.21317782 -2.461349845e-05 -57.00291839
99.50048382 63.72545739 -23.20081339
86.65959682 42.27136239 -9.738781091e-05
99.50048382 10.16652239 -183.6050304
-1.700699179 -2.461349845e-05 -237.0549564
19.51127782 74.82294439 -9.738781091e-05
15.46325582 35.43297539 -9.738781091e-05
99.50048382 129.5467644 -46.51113239
12.61263082 100.0888524 -9.738781091e-05
-103.4618462 -2.461349845e-05 -52.20405639
95.50048382 63.86751739 -199.7128714
-2.841345179 -2.461349845e-05 -93.62521139
-99.50049318 21.94142939 -130.3023344
-56.29363618 -2.461349845e-05 -158.2414784
98.76665082 36.44765539 -48.45114839
97.56391982 -2.461349845e-05 -196.2620634
-48.70166218 46.05015539 -9.738781091e-05
-82.12794618 -2.461349845e-05 -237.0518704
-39.01163818 -1.709348613 -183.1614514
-79.90321618 -2.461349845e-05 -155.1932354
-75.22492918 -2.461349845e-05 -185.3226204
-99.50049318 26.03237139 -64.61637639
118.5968678 -2.461349845e-05 -179.4616524
117.7947078 -2.461349845e-05 -38.49288939
-95.50049318 93.62085239 -67.90838839
-18.14079018 -2.461349845e-05 -181.3900134
-95.50049318 27.84265939 -152.7920904
-95.50049318 12.83076339 -251.2520684
14.85388582 -2.461349845e-05 -103.6171214
-32.12783318 36.98580439 -9.738781091e-05
34.00619482 -2.461349845e-05 -158.0686934
-99.50049318 33.82035139 -229.4040774
-95.32210618 -2.461349845e-05 -20.28203839
41.36053982 -2.461349845e-05 -193.6040114
-95.50049318 88.29819739 -8.152601388
-39.94449418 -2.461349845e-05 -41.43044239
-99.50049318 75.43500139 -82.36370739
-60.87363718 64.70840439 -9.738781091e-05
95.50048382 55.95712139 -143.6139384
80.00846182 -2.461349845e-05 -35.80782239
-40.00153418 -2.461349845e-05 -101.3758494
95.50048382 96.16830639 -80.21774339
-17.95090518 -2.461349845e-05 -74.67419639
-99.50049318 15.10955239 -56.60900439
-28.22800418 -2.461349845e-05 -124.7847044
102.6837718 20.85864939 -9.738781091e-05
95.50048382 50.24122439 -99.68830239
-99.50049318 72.29185439 -21.61097139
-106.9616692 -2.461349845e-05 -243.1490604
-114.9839942 -2.461349845e-05 -216.3289724
-112.2302802 50.58752439 -9.738781091e-05
-99.50049318 79.24234239 -99.67127539
95.67082982 -2.000024613 -82.37815239
-99.50049318 12.98918139 -166.2809484
28.08006882 -2.461349845e-05 -48.74978439
-99.50049318 45.56608839 -38.94999539
-99.50049318 35.42497539 -57.11972439
-70.06129518 -0.3205956135 -92.05107839
67.35650482 -2.461349845e-05 -79.63257839
-99.50049318 98.04367139 -37.94924939
-99.50049318 38.00212339 -121.0818264
120.2940568 -2.461349845e-05 -210.0394064
95.50048382 85.35787439 -43.97836439
-50.61676318 -2.461349845e-05 -74.82117739
59.79419982 -2.461349845e-05 -227.9077424
-95.50049318 53.50274239 -206.1407924
-26.10871618 -1.825595613 -9.738781091e-05
13.70685582 -2.461349845e-05 -245.3916794
-23.17411118 -2.461349845e-05 -228.8765474
99.50048382 116.8163544 -236.4695804
-13.18417218 -2.461349845e-05 -37.11382739
79.39146482 -2.461349845e-05 -48.73358839
13.24005482 -2.461349845e-05 -17.66742839
-107.7768332 8.333080387 -9.738781091e-05
-99.50049318 83.65464439 -51.67894139
-110.7023332 -2.461349845e-05 -142.8051594
-38.16326318 46.73383039 -9.738781091e-05
-99.30938718 -2.461349845e-05 -174.1078404
-2.370781179 -2.461349845e-05 -160.4854434
120.3611748 -2.461349845e-05 -159.9311414
-98.68259018 -2.461349845e-05 -110.0662254
-88.32227118 -2.461349845e-05 -248.8598244
-99.50049318 32.68978939 -172.2483034
-95.50049318 65.03611439 -101.9046764
95.50048382 113.1041014 -221.2395034
-62.72798218 45.95829239 -9.738781091e-05
99.50048382 21.11437939 -173.4427194
-5.352501179 -2.461349845e-05 -42.61074839
99.50048382 55.42195539 -170.7594634
99.50048382 9.823422387 -66.73036439
99.50048382 44.80385539 -188.7240034
56.63028682 -2.461349845e-05 -155.9033254
22.95881582 -2.461349845e-05 -130.7766594
11.10387882 -2.461349845e-05 -226.1515804
-88.59653118 -2.461349845e-05 -94.36901539
95.50048382 7.610130387 -102.2763444
95.50048382 41.32802239 -244.2002634
-95.50049318 9.534026387 -233.0698404
47.33995082 -2.461349845e-05 -210.4500604
-59.48028218 -2.461349845e-05 -148.2104594
-36.15342418 -2.461349845e-05 -24.01559539
99.50048382 4.330056387 -36.94001039
102.2431118 -2.461349845e-05 -229.5740784
95.50048382 78.71551639 -82.52683139
-13.22804318 62.26850539 -9.738781091e-05
-106.5980152 -2.461349845e-05 -193.2143804
-95.50049318 27.43984139 -81.11397439
-64.27320318 -2.461349845e-05 -199.2160524
-95.50049318 41.07119039 -74.41311639
88.54774782 -2.461349845e-05 -72.19826039
27.44731782 -2.461349845e-05 -76.07832039
-90.15461718 -2.461349845e-05 -60.11666839
-0.3278231794 47.28446739 -9.738781091e-05
45.74633182 -2.461349845e-05 -238.2473754
114.5289668 -2.461349845e-05 -56.51742239
103.3109438 -2.461349845e-05 -44.53443639
95.50048382 10.56710239 -137.5521104
-110.1284162 -2.021892613 -9.738781091e-05
-66.04568018 120.1527214 -9.738781091e-05
-95.50049318 48.18554039 -106.5460384
-114.9936512 -2.461349845e-05 -46.42557239
-48.86107118 109.9059634 -9.738781091e-05
-99.50049318 24.53885039 -225.2731594
95.50048382 29.75013739 -37.58301139
113.4733448 17.76533639 -9.738781091e-05
99.50048382 25.25951739 -111.3950164
-95.50049318 78.82677139 -40.41629539
-105.7517212 97.41422639 -9.738781091e-05
-99.50049318 9.619871387 -211.9301364
-99.50049318 15.93041139 -24.06975639
99.50048382 65.72770539 -97.04956339
95.50048382 1.928588387 -9.958502388
99.50048382 46.49154639 -29.74273539
-95.50049318 23.98420839 -204.1727094
-104.1942912 74.28346439 -9.738781091e-05
99.50048382 116.1268724 -77.66094139
-99.50049318 10.65922639 -73.64373139
75.20537682 -2.461349845e-05 -109.9492344
-28.50650518 -2.461349845e-05 -104.4551074
-118.0930532 85.29777939 -9.738781091e-05
-97.32536218 84.39441539 -9.738781091e-05
66.68892082 -2.461349845e-05 -93.88198939
-102.6240792 23.75917339 -9.738781091e-05
-99.50049318 33.70448039 -12.91484039
34.88960582 -2.461349845e-05 -225.0200454
31.53630782 -2.461349845e-05 -11.87728039
51.82917782 -2.461349845e-05 -20.75510639
60.36860682 -2.461349845e-05 -37.57050339
99.50048382 70.19078139 -243.6934804
99.50048382 79.19269939 -64.89794839
95.50048382 56.09659739 -83.79669839
-47.93532318 -2.461349845e-05 -9.425050388
95.50048382 17.36103239 -187.6289364
97.46990282 126.0354554 -38.00009739
-65.12431718 -2.461349845e-05 -103.5804374
-118.9253812 14.78589239 -9.738781091e-05
-103.1764392 115.8645054 -9.738781091e-05
95.50048382 131.5287574 -217.3707574
-99.50049318 66.26399139 -50.83051139
2.644841821 57.40596339 -9.738781091e-05
95.50048382 62.25197439 -76.35324339
15.86714882 -2.461349845e-05 -32.22328239
-95.50049318 53.76990239 -16.59689039
78.37621782 -2.461349845e-05 -147.8105844
99.50048382 94.36696639 -240.3375754
-95.50049318 28.52302939 -113.4904044
-30.75248518 -2.461349845e-05 -115.9965624
95.50048382 21.67893139 -82.84284639
-99.50049318 44.40954739 -227.3878024
-9.945232179 -2.461349845e-05 -25.32941239
95.50048382 137.1840844 -237.9801264
60.74508982 -2.461349845e-05 -135.2041954
-1.539202179 -2.461349845e-05 -7.636916388
15.10488882 -2.461349845e-05 -113.3760384
-95.50049318 12.92860839 -101.6726364
95.50048382 87.44052239 -209.3221034
95.50048382 78.44691339 -210.4259064
94.04669682 48.96196239 -9.738781091e-05
95.50048382 82.22760739 -52.77594739
55.30562582 -2.461349845e-05 -120.2373764
-25.74839818 -2.461349845e-05 -53.87459039
-62.07307218 -2.461349845e-05 -222.2764054
31.49252182 -2.461349845e-05 -40.19981839
87.45752782 -2.461349845e-05 -239.7653964
95.50048382 122.2735094 -208.0147684
99.50048382 95.12501939 -63.38480539
-96.00483018 66.40322139 -184.0777424
-60.54991118 -2.461349845e-05 -18.53786139
95.50048382 33.36676539 -137.6901444
110.1649188 -2.461349845e-05 -20.19948839
-99.50049318 17.20090739 -194.6460554
-73.47387818 -2.461349845e-05 -78.39986539
-48.18007418 9.851478387 -9.738781091e-05
-39.84111418 119.2961634 -9.738781091e-05
111.6160968 -2.461349845e-05 -134.9362584
99.13350782 -2.000024613 -209.2966724
-47.34031418 125.6790104 -9.738781091e-05
-78.67958718 -2.461349845e-05 -201.9037484
99.50048382 27.82234039 -231.9896914
95.73751182 -2.461349845e-05 -119.0085244
3.676100821 -2.461349845e-05 -153.9890804
-99.50049318 4.820034387 -226.4800344
107.8710698 -2.461349845e-05 -63.87125239
-99.50049318 48.29691639 -150.2242394
-99.50049318 66.10040739 -134.8029594
95.50048382 51.61603539 -125.1207454
-90.49458818 -2.461349845e-05 -203.5069094
-99.50049318 30.40897739 -138.9605224
-99.50049318 110.9072404 -18.64667439
95.50048382 50.48024639 -243.9332564
71.56174882 61.03817439 -9.738781091e-05
22.06930982 -2.461349845e-05 -141.2378594
-95.50049318 10.41911139 -198.8201214
3.012190821 67.23733139 -9.738781091e-05
-15.73249118 119.0563284 -9.738781091e-05
45.10726382 29.25379339 -9.738781091e-05
-28.96945018 -2.461349845e-05 -31.88697339
99.50048382 9.853935387 -162.8714294
-95.50049318 88.86798339 -96.71248139
-95.50049318 53.57635139 -123.9835364
-68.78093918 -2.461349845e-05 -118.1592374
-83.83054318 64.40630839 -9.738781091e-05
25.93454082 -2.461349845e-05 -59.00066939
60.66945682 -2.461349845e-05 -189.9245264
-95.50049318 52.32536839 -225.1278524
-18.36016118 -2.461349845e-05 -5.487842388
95.50048382 10.78341039 -118.2232314
-99.50049318 34.00746639 -239.1790004
-95.50049318 66.04981939 -164.8888584
-95.50049318 84.83442539 -25.49017939
99.23117182 130.7071864 -248.0000974
38.71246582 -2.461349845e-05 -90.18986339
99.50048382 103.1656944 -222.7626294
-89.85426518 14.81258139 -9.738781091e-05
108.6423858 -2.461349845e-05 -80.32152039
-71.48492618 27.74152339 -9.738781091e-05
95.50048382 6.028555387 -189.9731634
49.69479782 -2.461349845e-05 -219.5169714
-93.34174418 52.43343039 -9.738781091e-05
98.82095882 124.3217514 -67.62704839
25.16605882 -2.461349845e-05 -92.74673439
-99.50049318 44.14324739 -250.1002744
-39.49382418 7.922600387 -9.738781091e-05
-61.65010918 -2.461349845e-05 -87.40493239
24.73847482 -2.461349845e-05 -221.5565294
71.28851782 -2.461349845e-05 -219.9765744
-42.58237518 -2.461349845e-05 -227.7821524
99.50048382 22.15500839 -208.4376774
36.94570182 36.74353139 -9.738781091e-05
-95.50049318 60.54941039 -177.9483334
9.469383821 -2.461349845e-05 -71.93439039
20.26954282 -2.461349845e-05 -6.162779388
99.50048382 52.28176039 -77.37369539
-35.80464318 71.34049339 -9.738781091e-05
65.23914982 -2.461349845e-05 -29.69649239
-95.50049318 65.23048639 -115.1636674
-5.860120179 -2.332693613 -9.738781091e-05
7.582228821 11.77572139 -9.738781091e-05
95.50048382 2.900197387 -54.80132539
70.46701782 -2.461349845e-05 -118.1285204
-95.50049318 0.3982673865 -127.4164954
101.0128278 44.19967339 -9.738781091e-05
-70.49431018 -2.461349845e-05 -224.1507704
-95.87954618 64.74196939 -192.3489964
85.94747982 -2.461349845e-05 -183.2837004
-99.50049318 35.67356939 -153.8285954
-95.50049318 29.39104839 -47.46524339
15.89230482 55.22539139 -9.738781091e-05
-32.17274618 105.6297584 -9.738781091e-05
-99.50049318 8.645729387 -120.5138454
-61.62181118 90.82663739 -9.738781091e-05
95.50048382 40.39771839 -124.3106484
99.50048382 83.44701439 -235.7847924
-99.50049318 22.49236839 -72.21225939
-111.0795432 -2.461349845e-05 -114.6182614
71.96330282 -2.461349845e-05 -157.2580384
13.37786282 -2.461349845e-05 -41.40920939
12.96731482 -2.461349845e-05 -82.32008439
106.5763578 -2.461349845e-05 -96.85351339
-5.280439179 -2.461349845e-05 -104.7100104
96.91924782 53.93445339 -57.69173139
95.50048382 37.79205239 -111.9542414
99.50048382 64.05444539 -217.9584484
-67.86727418 -2.461349845e-05 -207.6493484
-95.75550918 -2.461349845e-05 -144.8229184
99.50048382 20.93002939 -23.59138239
90.49341182 -2.461349845e-05 -109.0640834
-30.96735018 17.62579239 -9.738781091e-05
-17.23850418 -2.461349845e-05 -91.42514539
95.50048382 80.34314139 -225.4571704
59.28863382 -2.461349845e-05 -104.2322514
-96.66368618 -2.461349845e-05 -47.05091239
-65.23719018 -2.461349845e-05 -65.32111739
95.58536382 144.9999754 -235.1937364
-99.50049318 0.5360043865 -90.48625839
-95.50049318 15.34314639 -42.48506339
-35.26593818 -2.461349845e-05 -136.9443244
-113.4063112 113.4658214 -9.738781091e-05
99.50048382 6.872221387 -147.9503194
95.50048382 22.41992839 -14.37889239
-26.34733718 63.47239839 -9.738781091e-05
-53.67340818 30.35406539 -9.738781091e-05
-88.11880018 71.46978139 -9.738781091e-05
20.61626482 -2.461349845e-05 -180.8146224
-21.44244618 -2.461349845e-05 -36.94488039
-99.50049318 46.96627139 -190.7095854
99.50048382 33.32252139 -177.7895654
95.50048382 33.28092539 -204.3850374
111.4782278 -2.461349845e-05 -118.1502804
-112.5516482 -2.461349845e-05 -122.8748764
-95.50049318 51.22200239 -164.3987324
119.3830408 41.37718139 -9.738781091e-05
92.63862682 -2.461349845e-05 -202.8507764
-99.50049318 95.13422839 -53.66468639
99.50048382 9.386863387 -95.03585939
95.50048382 63.92167839 -233.1592724
-115.1704402 -2.461349845e-05 -183.3799654
30.92678182 -2.461349845e-05 -128.8978544
-99.50049318 25.70829439 -98.06921339
-99.50049318 18.17570539 -232.9817974
100.1174768 -2.461349845e-05 -130.2409294
99.50048382 62.20446839 -160.7853104
99.50048382 66.85131239 -148.7883394
-95.50049318 3.768419387 -67.24517939
-78.29711318 -2.461349845e-05 -24.93404439
95.50048382 0.6603613865 -246.8421244
95.50048382 13.32023939 -204.9977614
92.30499582 -2.461349845e-05 -17.18629939
-54.73507018 -2.461349845e-05 -251.2570094
-99.50049318 23.74520239 -26.26346339
99.50048382 7.710418387 -14.00803239
3.600159821 102.3181784 -9.738781091e-05
-98.08057118 -2.461349845e-05 -183.3661964
99.50048382 33.79903439 -188.7714174
41.22031282 -2.461349845e-05 -6.817198388
-95.50049318 30.30568439 -29.52184039
-99.50049318 11.66612339 -36.48349439
-62.90779318 30.53781439 -9.738781091e-05
44.34741482 -2.461349845e-05 -23.83025039
-95.50049318 73.23419439 -10.93568139
99.50048382 100.3663934 -234.9308944
-16.27497918 -2.461349845e-05 -56.12020439
73.67959782 29.25330539 -9.738781091e-05
95.50048382 4.449673387 -175.2540134
-99.50049318 2.290391387 -81.59570339
95.50048382 33.73274939 -82.35986039
95.50048382 72.23783539 -94.48678239
-99.50049318 109.0070244 -35.46918939
99.50048382 44.25698439 -92.36642239
-71.01719018 -2.461349845e-05 -162.4360284
99.50048382 94.09302939 -71.81632539
-22.05432418 -2.461349845e-05 -247.8071804
-21.30865718 14.27338339 -9.738781091e-05
-2.492644179 -2.461349845e-05 -82.45833439
-13.27076518 43.65274739 -9.738781091e-05
68.80450282 42.08828239 -9.738781091e-05
60.26055382 -2.461349845e-05 -22.30775839
-99.50049318 33.26457439 -188.8792624
-95.50049318 50.24525439 -93.47653239
-40.03027518 27.57093739 -9.738781091e-05
-95.50049318 73.68215039 -72.95125739
-94.99951618 -1.984171613 -209.8142354
-95.50049318 7.560362387 -107.6014914
-89.69773718 115.3207624 -9.738781091e-05
-99.50049318 36.36114139 -22.51104539
91.38449082 35.84030839 -9.738781091e-05
99.50048382 60.52956939 -129.2571924
-42.72511018 67.04939239 -9.738781091e-05
-99.50049318 19.21105539 -137.7696384
-95.50049318 77.54886439 -136.1413804
18.44827582 -2.461349845e-05 -236.7056484
95.50048382 47.27714739 -110.3055244
-95.50049318 57.94401539 -149.9734954
95.50048382 60.83313339 -136.6288874
95.50048382 136.8820404 -44.71204139
-2.430588179 -2.461349845e-05 -22.16715539
52.03659982 66.01054739 -9.738781091e-05
-95.50049318 35.56130439 -95.01692039
13.05299482 -2.461349845e-05 -208.0798114
49.12628782 -2.461349845e-05 -179.0095384
-6.136500179 91.94126039 -9.738781091e-05
-95.50049318 20.90516739 -240.0394184
-81.76532618 117.5702744 -9.738781091e-05
79.86353582 -2.461349845e-05 -222.7622554
-49.66753218 -2.461349845e-05 -209.2098074
-95.50049318 46.65349239 -24.44966439
95.50048382 136.7049054 -70.89671239
99.50048382 138.7329954 -221.4237974
99.50048382 54.38989739 -202.3694994
95.50048382 45.52601439 -133.6150224
-20.87999918 -2.461349845e-05 -204.7886404
3.991793821 76.04533639 -9.738781091e-05
-99.50049318 84.20711239 -82.34261339
-98.98693718 1.913521387 -9.738781091e-05
99.50048382 109.3926414 -65.57559939
87.91432682 -2.461349845e-05 -93.70452039
43.02580982 -2.461349845e-05 -79.66498339
99.50048382 79.17188239 -195.8713504
96.05644682 112.6404544 -208.0000974
-99.50049318 50.73424639 -76.38316939
13.35572882 -2.461349845e-05 -167.3750654
91.26001382 -2.461349845e-05 -3.391121388
95.50048382 66.21994239 -108.7698404
57.48480682 -2.461349845e-05 -70.98528739
99.50048382 30.63474439 -164.4696674
54.86833282 -2.461349845e-05 -195.6194884
-21.07069818 -2.461349845e-05 -121.7531004
-10.40473818 -2.461349845e-05 -215.1342774
99.50048382 31.49348739 -97.75904339
95.50048382 26.75013039 -191.2293444
-115.6239382 -2.461349845e-05 -6.000548388
99.50048382 6.414590387 -222.0655064
99.50048382 17.54167439 -48.27144239
-99.50049318 43.69143839 -58.01940439
97.74809082 69.99997539 -164.7232494
42.38817382 -2.461349845e-05 -216.9481424
93.44045282 -2.461349845e-05 -214.3706514
-95.50049318 56.66895939 -132.7391924
-18.99001118 -2.461349845e-05 -20.84546839
-99.50049318 52.20145139 -64.25272139
61.34597982 -2.461349845e-05 -62.08230839
99.50048382 26.21445539 -140.2673244
99.50048382 54.11470139 -47.01164639
-36.12208918 -2.461349845e-05 -127.1166464
-95.50049318 77.70538939 -57.58185839
95.50048382 43.32306639 -166.3522324
99.50048382 69.42288839 -60.29140239
95.50048382 32.10819539 -250.3499704
95.70686982 -2.461349845e-05 -103.1770774
-95.50049318 12.20401739 -219.5649494
99.50048382 22.11717039 -158.6226894
-95.50049318 103.8289564 -22.18401239
99.72475882 -2.461349845e-05 -30.63714439
-95.50049318 19.23006139 -87.38356739
109.8531538 26.61421439 -9.738781091e-05
67.77054882 -2.461349845e-05 -19.73589039
-24.06635718 -2.461349845e-05 -174.3608194
-42.26048418 -2.461349845e-05 -76.89964639
99.50048382 56.86863439 -239.1423064
-99.50049318 22.33182939 -111.5079594
7.328287821 -2.461349845e-05 -24.66002039
-67.60672018 -2.461349845e-05 -187.2069974
-95.50049318 36.11430739 -63.57925939
88.36938182 -2.461349845e-05 -158.4049904
-87.10204118 95.85914639 -9.738781091e-05
-45.29014118 -2.461349845e-05 -244.4077724
35.05045182 60.11944039 -9.738781091e-05
-95.50049318 70.75454839 -127.7702484
98.35283482 53.51280239 -229.5112954
98.91182882 14.24861639 -9.738781091e-05
99.50048382 43.05818139 -147.6879124
32.94504782 -2.461349845e-05 -111.8868734
65.75301782 50.47647339 -9.738781091e-05
-99.37362718 -2.461349845e-05 -243.2382584
-85.10955018 -2.461349845e-05 -101.1022544
91.00112082 -2.461349845e-05 -41.03498939
-41.13945018 -2.461349845e-05 -63.98011139
48.04490482 -2.461349845e-05 -163.6804214
65.03134382 -2.461349845e-05 -43.95176839
-99.50049318 59.19692939 -92.55140339
99.38642082 144.0539064 -43.95036639
-95.50049318 68.59544839 -56.80496639
99.50048382 67.55340539 -40.18160639
-99.50049318 38.17441039 -80.12031839
3.437183821 -2.461349845e-05 -53.30824139
95.50048382 45.13435739 -180.4375364
99.50048382 102.6118554 -42.95741839
-1.985879179 -2.461349845e-05 -249.3849814
95.50048382 36.03573539 -151.7863494
99.50048382 60.47768339 -182.8752724
-108.7029322 66.31688439 -9.738781091e-05
30.39282382 -2.461349845e-05 -246.1407204
96.55655682 121.4216064 -248.0000974
99.50048382 21.40649839 -101.9040364
99.50048382 68.26482939 -251.9344124
95.50048382 22.08621939 -57.31418039
-95.50049318 42.40478339 -91.95002639
99.50048382 4.953145387 -86.62877539
3.129243821 118.7389124 2.452595612
99.50048382 76.07395539 -48.78990939
-99.50049318 5.287881387 -55.73113239
-99.50049318 62.96535039 -66.36454739
95.50048382 64.82384339 -122.7661834
95.50048382 59.37642639 -38.56632639
105.5023478 -2.461349845e-05 -189.6949484
-48.51398818 81.59341239 -9.738781091e-05
-99.50049318 5.660962387 -238.0245264
117.8609928 11.74529039 -9.738781091e-05
-78.68211318 -2.461349845e-05 -120.3642944
95.50048382 53.50524839 -116.1027114
-96.15132018 -2.461349845e-05 -157.1243374
-61.35438218 -2.461349845e-05 -236.2500294
99.50048382 54.26288939 -194.9442744
99.50048382 25.82574939 -124.0006394
95.50048382 59.71661739 -98.73145839
94.11898782 56.37369139 -9.738781091e-05
-88.29174318 -2.461349845e-05 -232.2520624
99.50048382 60.29193539 -66.55099839
-20.95538718 -2.461349845e-05 -12.59552439
35.20266282 -2.461349845e-05 -188.9970584
-70.00667818 95.57592239 -9.738781091e-05
-99.50049318 7.359071387 -189.5574314
99.50048382 109.1985144 -239.1658744
2.479650821 23.98669339 -9.738781091e-05
95.50048382 85.78893439 -77.31680139
-99.50049318 17.87299439 -172.7760004
-75.59590618 -2.461349845e-05 -149.2233774
-95.50049318 53.62258539 -57.35638639
95.50048382 56.43905539 -164.6740124
63.92740382 -2.461349845e-05 -3.687511388
-99.50049318 59.70197439 -47.53841739
99.50048382 19.93554139 -217.8328684
99.50048382 0.2126243865 -62.54316339
99.50048382 51.50198439 -6.584963388
61.22108382 -2.461349845e-05 -143.3883234
95.50048382 45.59399239 -250.1399474
-114.1471542 -2.461349845e-05 -65.29550739
95.50048382 52.84117139 -18.92446739
3.443611821 -2.461349845e-05 -124.3829354
27.92720182 -2.461349845e-05 -136.9290944
99.50048382 115.2465254 -55.62546539
22.39538182 81.49675139 -9.738781091e-05
95.50048382 72.15937139 -196.2100954
-99.50049318 29.15848839 -250.6266724
99.50048382 84.53263039 -251.2365394
-95.50049318 38.03525039 -39.45865539
-90.09489718 -2.461349845e-05 -81.35827139
15.41032782 -2.461349845e-05 -132.8583854
-34.91294218 -2.461349845e-05 -9.235166388
-95.50049318 55.10685839 -30.81083539
95.50048382 102.0114864 -52.23716839
107.0787198 -2.461349845e-05 -220.5601724
95.50048382 68.43783739 -208.4990644
-99.50049318 6.920886387 -246.3988904
-60.86449918 -2.461349845e-05 -124.7609324
-99.50049318 51.35867639 -212.7705434
-8.821993179 -2.461349845e-05 -143.3257284
95.50048382 69.05080239 -73.59426139
55.99726082 54.31102239 -9.738781091e-05
-28.39229818 90.65088339 -9.738781091e-05
47.53190782 -2.461349845e-05 -197.3437684
-95.50049318 99.55763939 -13.25450939
-60.29736718 -2.461349845e-05 -243.7209624
-95.50049318 28.59454839 -241.7384674
95.50048382 35.28490739 -22.53699339
-99.50049318 35.47755739 -103.7019824
99.50048382 116.4439424 -226.8090164
-60.25936018 -2.461349845e-05 -132.0439874
95.50048382 47.83078839 -205.4791084
4.298923821 -2.461349845e-05 -223.9076214
33.42385682 -2.461349845e-05 -63.43135639
-95.50049318 80.02785239 -8.662338388
76.49680782 -2.461349845e-05 -188.3930324
-54.29914118 124.0190814 -9.738781091e-05
47.45509882 -2.461349845e-05 -171.2928754
-95.50049318 96.55233939 -44.03777339
95.50048382 40.92114639 -197.4920414
-47.95739618 -2.461349845e-05 -24.57296239
-95.50049318 24.44085239 -188.6503374
103.5155188 -2.461349845e-05 -164.4344654
-49.88573318 -2.461349845e-05 -232.1506164
99.50048382 69.82223139 -81.32392339
50.37078282 8.083088387 -9.738781091e-05
-95.50049318 15.23718139 -121.9589404
95.50048382 21.45532839 -180.7216004
69.10506882 -2.461349845e-05 -63.08127339
-67.99268218 -2.461349845e-05 -173.3877534
-69.79986418 15.65957839 -9.738781091e-05
-99.50049318 60.00902439 -76.86615939
-95.50049318 38.12602639 -193.3449424
99.50048382 28.17178639 -201.4713554
-95.50049318 43.01868339 -177.4125004
38.63099882 -2.461349845e-05 -244.3905724
17.02822482 28.51003039 -9.738781091e-05
95.50048382 26.24424539 -242.8804024
39.18820682 44.07702739 -9.738781091e-05
-50.72746218 -2.461349845e-05 -133.8301544
99.50048382 40.16107939 -16.08499639
35.40977182 -2.461349845e-05 -204.2748664
105.2515518 -2.461349845e-05 -206.3407914
22.91442482 -2.461349845e-05 -199.9572384
-44.87654718 -1.354534613 -9.738781091e-05
95.50048382 62.10656439 -91.36705939
-99.50049318 89.68719639 -21.60425939
-110.1200722 43.40827739 -9.738781091e-05
-95.50049318 40.37929539 -223.1794834
-99.50049318 65.88948239 -141.8675314
92.19623782 67.99997539 2.018556612
5.535204821 -2.461349845e-05 -193.0471544
-48.29785818 25.79145439 -9.738781091e-05
27.86937482 -2.461349845e-05 -28.11012639
-76.83822418 9.185275387 -9.738781091e-05
99.50048382 118.7566384 -61.79716039
-105.5444422 -2.461349845e-05 -169.1887594
-35.39900918 -2.461349845e-05 -236.8043664
86.55480182 -2.461349845e-05 -136.9163174
95.50048382 19.24277539 -66.89391739
18.03286982 -2.461349845e-05 -125.7457104
95.50048382 1.353386387 -228.0689714
-99.50049318 38.92135139 -215.7162614
-95.50049318 36.41142039 -47.87462639
31.73845282 -2.461349845e-05 -4.848039388
-95.50049318 65.30386839 -156.1486374
44.54755882 2.596616387 -9.738781091e-05
99.50048382 11.57844639 -29.79645539
44.57871182 -2.461349845e-05 -94.27645339
0.2948558206 -2.461349845e-05 -112.0038124
-56.87242818 6.277972387 -9.738781091e-05
4.923948821 85.83268939 -9.738781091e-05
95.50048382 14.88975739 -246.8573054
-3.660160179 -2.461349845e-05 -75.55379839
99.50048382 13.53449739 -78.07379239
-99.50049318 62.86959739 -1.774972388
-95.50049318 45.70375139 -6.472957388
36.60591782 -2.461349845e-05 -144.7308154
-95.50049318 28.93238439 -176.6943394
-53.83540418 -2.461349845e-05 -91.27266439
-99.50049318 40.74165839 -240.9958894
55.60496682 35.96179539 -9.738781091e-05
95.50048382 53.98479639 -157.7592204
99.50048382 66.76857639 -50.81674039
108.2498588 -2.461349845e-05 -49.42147539
99.97172382 -2.461349845e-05 -1.823278388
41.50525882 -2.461349845e-05 -30.37413339
-69.39241118 -2.461349845e-05 -2.809227388
-81.68190618 -2.461349845e-05 -67.88233439
99.50048382 47.05872239 -41.59095339
-72.32976518 37.40343639 -9.738781091e-05
-95.50049318 75.17271539 -92.82928639
-95.50049318 42.41210939 -124.6422604
-74.82152618 -2.461349845e-05 -213.1259034
-74.29817418 -2.461349845e-05 -98.62825339
33.90238482 -2.461349845e-05 -170.5804904
-95.50049318 31.34871439 -224.0748244
-99.50049318 102.4987884 -1.773345388
34.71159482 -2.461349845e-05 -135.6682264
99.50048382 24.65731439 -76.92003839
11.01381782 -2.461349845e-05 -94.96011439
-35.53681918 -2.461349845e-05 -57.78362639
-27.31586618 -2.461349845e-05 -235.0854084
-30.67885218 -2.461349845e-05 -197.8139324
-4.790551179 -2.461349845e-05 -184.8218574
-95.50049318 85.51150239 -38.76683939
-99.50049318 41.47307339 -86.27468639
95.68828082 115.6169094 -38.00009739
107.5955768 -2.461349845e-05 -177.5707334
-99.50049318 33.19402539 -181.2967394
83.56744082 52.06088939 -9.738781091e-05
-95.50049318 72.07513339 -38.57052239
27.55433482 -2.461349845e-05 -205.3493794
-95.50049318 26.00255839 -91.39971539
-99.50049318 111.6698494 -7.909084388
118.9935388 32.90671739 -9.738781091e-05
95.50048382 11.98266839 -129.6318264
42.18142282 -2.461349845e-05 -63.13908039
-14.16118618 30.36393539 -9.738781091e-05
-95.50049318 33.97810039 -7.379832388
95.71696482 -2.461349845e-05 -170.0741774
-99.50049318 32.57835239 -211.9867424
-116.1830242 -2.461349845e-05 -154.4964514
-99.50049318 64.26574339 -86.97367939
106.1143168 -2.461349845e-05 -240.3166124
68.35288982 4.206005387 -9.738781091e-05
-95.50049318 27.25641739 -124.8997854
77.80339282 -2.288919613 -9.738781091e-05
-99.50049318 51.76550139 -235.1275344
-95.50049318 72.02938039 -30.12229039
-111.1161622 34.53702539 -9.738781091e-05
99.50048382 8.310944387 -154.5825744
-95.50049318 18.58676339 -19.27576539
-99.50049318 5.929924387 -44.63572439
99.50048382 110.7561824 -73.01677139
81.00480682 -2.461349845e-05 -63.63430339
7.995730821 37.01583439 -9.738781091e-05
99.50048382 5.534755387 -135.4078944
-99.50049318 24.30362339 -164.0317204
-95.50049318 8.063142387 -163.9301264
95.50048382 9.733892387 -37.68101839
99.50048382 15.96945639 -234.7504944
-100.6456072 31.56742439 -9.738781091e-05
62.80180682 -2.461349845e-05 -248.9910974
95.50048382 6.687191387 -243.7990984
-41.26241118 -2.461349845e-05 -6.970379388
60.79300182 -2.461349845e-05 -171.8008644
-95.50049318 5.424210387 -77.17698639
-80.01137518 -2.461349845e-05 -218.0601904
41.89189282 -2.461349845e-05 -47.47581139
99.50048382 92.12700439 -43.60935339
-95.50049318 48.64838839 -199.1947624
81.76968382 -2.461349845e-05 -71.84992639
-116.1559112 -2.461349845e-05 -138.8865374
95.50048382 80.61253739 -241.0614644
-84.16296718 129.6596264 -9.738781091e-05
-99.50049318 105.1594164 -27.95222339
99.50048382 76.78732239 -229.8766714
9.254682821 -2.461349845e-05 -116.6335064
-99.50049318 98.15643439 -65.04589839
-113.2761082 -2.461349845e-05 -235.5557784
23.77566982 -2.461349845e-05 -148.7873554
-81.05715018 86.22971239 -9.738781091e-05
99.34745282 28.64864839 -9.738781091e-05
-70.58270218 -2.461349845e-05 -201.3764724
81.36429782 -2.461349845e-05 -56.77362139
109.2113478 2.258584387 -9.738781091e-05
99.50048382 42.11271239 -238.9277734
39.52081982 -2.461349845e-05 -107.7631164
-82.10620918 39.16338739 -9.738781091e-05
33.10945582 48.61593439 -9.738781091e-05
95.50048382 36.32255739 -105.4696144
-2.963660179 -2.461349845e-05 -51.52630739
-99.50049318 56.17458039 -115.8725734
99.50048382 52.55064339 -110.8322414
-39.76492118 -2.461349845e-05 -145.3794364
-95.50049318 39.27964239 -230.2773044
99.50048382 5.285971387 -232.4899664
-95.50049318 22.38415239 -50.14688839
-86.68420418 -2.461349845e-05 -18.47131539
-95.50049318 36.52952239 -113.2180994
81.21350082 -2.461349845e-05 -163.1637824
95.50048382 74.57949039 -61.41166939
-46.46521318 -2.461349845e-05 -40.31878639
-86.99674318 -2.461349845e-05 -115.3577024
-99.50049318 51.25275139 -185.6751924
99.50048382 10.54198039 -107.8874564
110.3603948 -2.461349845e-05 -41.03051339
-99.50049318 26.10781539 -39.54779639
-99.50049318 58.93348239 -13.72139539
-99.50049318 0.4862093865 -71.33181439
-49.48628818 -2.461349845e-05 -117.9960314
38.89845682 -2.461349845e-05 -115.6280194
-99.50049318 4.422060387 -148.8046564
99.50048382 95.58101139 -52.98897839
-97.70473418 92.40865239 -9.738781091e-05
20.03924482 -2.461349845e-05 -64.17272139
95.50048382 71.12680739 -36.40172039
89.93414282 6.052604387 -9.738781091e-05
-2.936461179 120.1035234 -9.738781091e-05
-99.50049318 18.47213939 -117.0642284
95.50048382 50.78135839 -212.5007514
99.50048382 18.03570239 -228.5338534
99.50048382 89.88955139 -216.8050644
-95.50049318 39.32822839 -201.7667734
53.58930782 -2.461349845e-05 -150.1097494
99.50048382 139.4912864 -53.00765639
99.50048382 35.07077739 -121.3454154
95.50048382 18.71320339 -144.9152034
99.50048382 32.20362839 -87.28230239
95.50048382 144.6488334 -57.74106439
-30.23479318 -2.461349845e-05 -42.49855239
62.90604282 -2.461349845e-05 -213.7181794
-73.78411818 75.56515839 -9.738781091e-05
81.68021882 -2.461349845e-05 -106.9233064
95.50048382 21.74137639 -120.8791254
-95.50049318 51.33758439 -42.24942339
99.50048382 79.26944139 -202.8285584
95.50048382 58.51389339 -174.8590894
95.50048382 6.778502387 -73.31756339
-6.331661179 -2.461349845e-05 -12.03562739
-33.99729518 122.1515884 -9.738781091e-05
99.50048382 43.99752739 -48.40391239
-7.751288179 -2.461349845e-05 -152.5734044
114.1319268 -2.461349845e-05 -161.7535034
99.50048382 40.31492339 -97.93442839
-95.50049318 93.55817439 -34.37609639
-105.1788602 -2.461349845e-05 -74.62020239
95.50048382 15.83048439 -91.74299939
-97.82686118 124.0043234 -9.738781091e-05
95.50048382 18.08278339 -39.81892239
-15.78089118 -2.461349845e-05 -239.5531074
-95.50049318 52.46360739 -84.88524939
-8.224871179 -2.461349845e-05 -57.26187139
95.50048382 79.19909139 -35.13505739
-39.10870318 -2.461349845e-05 -242.5162604
95.50048382 11.54649039 -145.9846584
-9.323909179 -2.461349845e-05 -109.7452134
-11.15767618 24.31514639 -9.738781091e-05
99.50048382 60.41302439 -81.07125539
70.71345182 -2.461349845e-05 -55.38537039
-95.50049318 17.46158939 -71.68802439
-99.50049318 17.41164739 -153.7210364
-95.50049318 0.7174283865 -53.56858239
11.17536882 91.39302939 -9.738781091e-05
-95.50049318 23.74411139 -135.5747074
-77.09936018 -2.461349845e-05 -135.5343354
-13.17115718 -2.461349845e-05 -66.02150039
93.57287982 41.86649739 -9.738781091e-05
99.50048382 35.66407439 -171.8212764
-53.44143418 71.20141439 -9.738781091e-05
95.50048382 17.68025839 -210.6461214
-95.50049318 77.23006939 -67.29278139
-99.50049318 60.06639739 -101.4977484
-13.21264318 -2.461349845e-05 -117.1839954
99.50048382 38.78767339 -192.9867574
-42.92361918 132.9999754 0.3601186122
81.19960682 -2.461349845e-05 -194.3149324
16.26553282 61.59849839 -9.738781091e-05
-95.50049318 32.73133439 -143.3574354
99.50048382 53.38207439 -147.8637054
26.35241282 -2.461349845e-05 -115.2101424
-113.9844602 -2.461349845e-05 -90.56711139
13.55595582 -2.461349845e-05 -1.125599388
-104.5605862 80.63790639 -9.738781091e-05
95.50048382 94.92376739 -226.2092994
-53.97281318 -2.461349845e-05 -11.43407239
-95.50049318 49.03224239 -249.3443764
-99.50049318 7.276282387 -140.2428304
