# .PCD v0.7 - Point Cloud Data file format
VERSION 0.7
FIELDS x y z
SIZE 4 4 4
TYPE F F F
COUNT 1 1 1
WIDTH 1195
HEIGHT 1
VIEWPOINT 0 0 0 1 0 0 0
POINTS 1195
DATA ascii
-63.320838 -2.461366375e-05 8.52880535
-69.048952 -2.461366375e-05 71.93087435
-21.218583 -2.461366375e-05 9.84144635
-26.972196 -2.461366375e-05 -13.38311765
-2.899919036e-05 150.1739164 38.81554435
-4.000028999 63.39990339 3.78373535
-211.251573 -2.461366375e-05 -50.08456765
-2.899919036e-05 113.8406504 32.59524435
-85.808139 -2.461366375e-05 4.11739835
-225.020419 -2.461366375e-05 18.64702635
-2.899919036e-05 73.03736839 -27.32160765
-2.899919036e-05 228.9454648 -42.30377565
-2.899919036e-05 140.1680034 -61.90212265
-185.196625 -2.461366375e-05 22.10528035
-2.899919036e-05 151.1501864 21.77594035
-2.899919036e-05 42.16820839 -6.34828565
-2.899919036e-05 14.90409839 49.79004535
-175.385833 -2.461366375e-05 -63.82206065
-2.899919036e-05 208.7301874 -51.62796765
-108.836312 -2.461366375e-05 68.20841535
-121.29268 -2.461366375e-05 59.18414635
-2.899919036e-05 205.6817294 -30.24902365
-201.279357 -2.461366375e-05 49.80156935
2.151598001 32.46875639 49.94485635
-232.115854 -2.461366375e-05 59.03302735
-2.899919036e-05 176.4794154 36.88632735
-2.899919036e-05 165.3303554 -0.9898756503
-45.727282 -2.461366375e-05 5.40941735
-151.57226 -2.461366375e-05 -51.48458165
-13.875877 -2.461366375e-05 42.74817435
-151.590768 -2.461366375e-05 5.76502035
-2.899919036e-05 96.78331839 40.59567335
-2.009483999 -2.461366375e-05 -30.72714465
-4.000028999 119.1038214 49.29859135
-2.899919036e-05 152.1833084 -46.74926465
-2.899919036e-05 2.974539386 73.78099735
-42.732898 -2.461366375e-05 -70.85188965
-4.000028999 61.47370639 -5.72119265
-106.07568 -1.301448614 -24.02714865
-171.728337 -2.461366375e-05 4.63726935
-4.000028999 47.09275839 59.71498235
-2.899919036e-05 172.0469304 18.96880535
-2.899919036e-05 12.35847539 -27.82601565
-4.000028999 132.2607384 -48.70095065
-2.899919036e-05 60.59974939 -15.54709265
-42.644006 -2.461366375e-05 -24.84180965
-209.244674 -2.461366375e-05 -63.30410165
-2.899919036e-05 106.2574514 -33.16862765
-2.899919036e-05 230.1880014 43.50239835
-4.000028999 50.09365339 -46.44643865
-104.344426 -0.1446256137 37.85362935
-122.21394 -2.461366375e-05 47.74027535
-2.899919036e-05 83.75919939 -12.18477265
-75.676853 -2.461366375e-05 -68.40849165
-159.564863 -2.461366375e-05 -43.85583865
-2.899919036e-05 19.53385339 -20.88706265
0.3504740008 129.0356554 -74.29161665
-0.02656299919 25.49997539 21.63235835
-2.899919036e-05 22.11772539 -64.37952865
-9.506519999 -2.461366375e-05 65.79032435
-2.899919036e-05 8.381156386 22.76114135
-0.5706549992 -2.461366375e-05 6.60181935
-2.899919036e-05 149.2003294 53.37846635
-134.984366 -2.461366375e-05 20.90369335
-205.55232 -2.461366375e-05 10.14705235
-23.490058 -2.461366375e-05 -36.71187265
-4.000028999 44.27285639 41.73025735
-2.899919036e-05 74.17662939 16.01553335
-2.899919036e-05 190.7418454 -71.16598965
-4.000028999 138.4158554 37.34927935
-204.765896 -2.461366375e-05 -7.31198865
-2.899919036e-05 147.7336294 -6.22246965
-2.899919036e-05 224.3563411 50.53048435
-125.63831 -2.461366375e-05 71.70775235
-2.899919036e-05 49.83030739 -66.97106765
-2.899919036e-05 180.0080854 -58.62468765
-2.899919036e-05 89.58223739 47.37171835
-2.899919036e-05 45.22461039 51.74334435
-42.610721 -2.461366375e-05 15.84981435
0.7947890008 -2.461366375e-05 -69.14069865
-4.000028999 45.65621839 -18.05601365
-64.146235 -2.461366375e-05 55.15521835
-2.899919036e-05 214.856595 -8.00096065
-169.046593 -2.461366375e-05 -3.89539165
-0.9951399992 -2.461366375e-05 23.35456535
-69.88335 -2.461366375e-05 -17.81259265
-4.000028999 114.3744914 -65.90865665
-4.000028999 26.86302339 -55.15519965
-4.000028999 159.9465744 36.01830335
-4.000028999 144.2977604 -44.75407465
-170.731378 -2.461366375e-05 -17.48534865
-4.000028999 9.031497386 -62.44218665
-2.899919036e-05 15.67979539 -12.67535665
-2.899919036e-05 227.9295603 11.68481935
-2.899919036e-05 138.2950064 4.05951635
-4.000028999 173.1072134 6.25560135
-2.899919036e-05 189.7596284 23.57028335
-2.899919036e-05 121.5165834 19.44795835
-2.899919036e-05 111.6864024 13.01966435
-4.000028999 42.23826539 23.41153135
-2.899919036e-05 238.9282724 23.09259035
-2.899919036e-05 33.45033839 4.82817835
-4.000028999 104.4934414 -52.47111465
-2.899919036e-05 6.108714386 43.65054435
-2.899919036e-05 70.02916239 -42.64183765
-132.908263 -2.461366375e-05 -41.48480465
-107.736918 -2.461366375e-05 -59.70144365
-57.512219 -2.461366375e-05 2.63597835
-242.218684 -2.461366375e-05 -50.59506665
-179.54623 -2.461366375e-05 -74.03951865
-28.945588 -2.461366375e-05 32.26227835
-4.000028999 87.19382739 -35.93181265
-4.000028999 179.1376324 -19.36002865
-2.899919036e-05 55.12529039 61.95727835
-191.45057 -2.461366375e-05 40.56330935
-32.724934 -2.461366375e-05 -26.07994365
-224.976382 -2.461366375e-05 26.89338635
-2.899919036e-05 137.4567544 14.45745435
-241.753345 -2.461366375e-05 31.18458735
-2.899919036e-05 180.3119374 21.75962535
-4.000028999 67.05375739 35.57310535
-224.522193 -2.461366375e-05 -13.74722965
-2.899919036e-05 82.34246839 67.87272635
-26.991959 -2.461366375e-05 -71.17402765
-4.000028999 125.3426744 -55.42352965
-2.899919036e-05 72.66295039 -64.98215465
-2.899919036e-05 227.5665131 -12.93736365
-2.899919036e-05 137.2779114 47.48896235
-2.899919036e-05 89.19403439 -53.63039365
-2.899919036e-05 238.8085315 1.53352735
-228.134765 -2.461366375e-05 36.49402235
-2.899919036e-05 164.5375984 -57.77264265
-4.000028999 83.11535739 33.14031335
-2.899919036e-05 113.8795304 -19.12286965
-2.899919036e-05 207.2606564 30.02586635
-2.899919036e-05 79.77495439 5.94955535
-91.792331 -2.461366375e-05 -43.87114465
-127.08234 -2.461366375e-05 -68.25727265
-2.899919036e-05 34.53318339 61.95833635
-77.348661 -2.461366375e-05 -36.16306165
-2.899919036e-05 156.7336974 -68.27695065
-179.170353 -2.461366375e-05 -20.36655265
-87.954579 -2.461366375e-05 -61.37475865
-195.091995 -2.461366375e-05 -41.62775165
-4.000028999 20.06304639 66.84080935
-2.899919036e-05 120.1445534 9.53422835
-173.610141 -2.461366375e-05 30.72232635
-2.899919036e-05 130.0366394 -38.89310565
-160.67016 -2.461366375e-05 -74.02168465
-137.949998 -2.461366375e-05 -65.30272665
-2.899919036e-05 31.39635539 16.24131935
-224.303938 -2.461366375e-05 68.45626535
-4.000028999 59.49838339 47.89856735
-2.899919036e-05 88.32019839 -62.98467465
-202.838718 -2.461366375e-05 -16.08720865
-2.899919036e-05 221.7247979 67.71882235
-2.899919036e-05 106.7736884 26.33129735
-4.000028999 28.55718639 39.71285435
-87.570319 -2.461366375e-05 64.76607035
-2.899919036e-05 190.0219924 51.90745035
-2.899919036e-05 52.88953739 32.33009435
-2.899919036e-05 74.28579739 -3.06666565
-174.463174 -2.461366375e-05 -39.02447065
-2.899919036e-05 184.9596114 -64.77551465
-238.306948 -2.461366375e-05 7.07437735
-193.144814 -2.461366375e-05 -11.81597365
-2.899919036e-05 44.14358439 -42.60798465
-53.862998 -2.461366375e-05 -24.29821765
-2.899919036e-05 189.7042414 5.80919335
-2.899919036e-05 218.882627 -50.10586365
-2.899919036e-05 92.56890839 -24.16138865
-4.000028999 164.1391704 -25.89497565
-157.10292 -2.461366375e-05 -11.89559365
2.275129001 -2.461366375e-05 49.21720135
-2.899919036e-05 157.3543504 9.27399535
-2.899919036e-05 78.03714639 -41.23461865
-2.899919036e-05 208.2874894 12.98500835
-4.000028999 68.94018439 20.18208235
-201.624769 -2.461366375e-05 -64.87310465
-4.000028999 130.8719114 -30.16528365
-2.899919036e-05 211.3844424 -39.94267165
1.991691001 243.2533622 -53.65522265
-4.000028999 94.51406239 31.61123335
-237.024029 -2.461366375e-05 -57.73698965
-66.132143 -2.461366375e-05 -53.52829765
-2.899919036e-05 223.1160493 -37.21694565
-2.899919036e-05 59.20996639 -68.42147865
-4.000028999 13.35474139 -71.96365665
-61.020938 -2.461366375e-05 69.15083235
-15.771545 -2.461366375e-05 -49.84981265
-21.857417 -2.461366375e-05 59.18273135
-2.899919036e-05 125.5402134 36.94460935
-124.300606 -2.461366375e-05 -32.23439965
-4.000028999 88.94019339 19.90865235
-2.899919036e-05 180.6692204 -7.93974365
-2.899919036e-05 238.7463928 -22.98750165
-2.899919036e-05 195.5900604 -41.06221565
-116.365895 -2.461366375e-05 6.33561935
-2.899919036e-05 218.1937571 18.12003435
-4.000028999 17.17165739 43.67204135
-90.825098 -2.461366375e-05 37.72209335
-2.899919036e-05 42.49099939 10.28559235
-2.899919036e-05 194.2561134 37.56809335
-2.899919036e-05 45.40507539 73.82636235
-2.899919036e-05 56.73839239 -28.10675065
-2.899919036e-05 225.0160758 -28.41766665
-145.364581 -2.461366375e-05 52.39262935
-2.899919036e-05 58.46381839 21.15317435
-2.899919036e-05 223.1421133 -4.97175565
-2.899919036e-05 94.81990139 -12.94098065
-2.899919036e-05 222.60699 38.23702835
-127.460073 -2.461366375e-05 19.97477035
-2.899919036e-05 146.8232424 32.01848035
-0.1817989992 103.9748964 -7.19289165
-243.917253 -2.461366375e-05 -32.43464065
-245.745535 -2.461366375e-05 -6.03690665
-2.899919036e-05 12.20239939 29.63246335
-76.663662 -2.461366375e-05 -3.28388965
-4.000028999 115.9724464 -55.50512065
-2.899919036e-05 156.7747454 -40.84361965
-4.000028999 79.60200939 -52.71682065
-2.899919036e-05 180.1343784 53.23065835
-112.257139 -2.461366375e-05 21.16224035
-62.257216 -2.352253614 38.77693435
-2.899919036e-05 129.3252464 -5.09467865
-247.297103 -2.461366375e-05 18.97816535
-2.899919036e-05 64.28153739 -54.59168065
-193.21932 -2.461366375e-05 18.22746735
-73.053773 -2.461366375e-05 56.58557635
-2.899919036e-05 96.09846039 -38.15220865
-4.887803999 -2.461366375e-05 -4.33898065
-2.899919036e-05 230.3462076 -60.57480265
0.4231030008 240.6075597 74.48037835
-4.000028999 36.40626639 49.29620435
-2.899919036e-05 237.7337461 59.73059335
-4.000028999 29.33066939 52.37203135
-2.899919036e-05 100.0880504 -72.77864765
-3.434616999 139.6015964 -53.36379865
-4.000028999 10.88171339 -51.41428965
-77.09202 -2.461366375e-05 64.56061535
-96.455051 -2.461366375e-05 43.94356235
-2.899919036e-05 77.58930239 24.20459135
-32.968417 -2.461366375e-05 26.20394235
-206.61041 -2.461366375e-05 42.72378635
-74.669139 -2.461366375e-05 11.34616735
-3.276109999 150.7814494 -18.61589865
0.04275700081 153.4642794 72.21643035
-144.37448 -2.461366375e-05 -50.93137165
-190.710377 -2.461366375e-05 49.07846535
-246.996082 -2.461366375e-05 55.45649035
-2.899919036e-05 18.95171839 9.97638035
-54.116707 -2.461366375e-05 -65.82128165
-4.000028999 68.96701839 65.91528335
-2.899919036e-05 101.7841294 8.07353235
-2.899919036e-05 94.19765439 -46.10266065
-2.899919036e-05 117.6111104 -49.64991765
-4.000028999 2.970481386 60.96526035
-2.899919036e-05 206.2748504 -58.36730465
-2.899919036e-05 203.8103484 47.09840235
-163.642162 -2.461366375e-05 -18.50336065
-4.000028999 34.01569039 -54.91845065
-246.577233 -2.461366375e-05 42.68959935
-2.899919036e-05 118.9544374 -30.03519965
-2.899919036e-05 124.2766464 46.40543035
-2.899919036e-05 163.5833694 -18.03392165
-174.93582 -2.461366375e-05 -11.55052265
-2.899919036e-05 105.0780284 52.92674635
-3.893515999 164.0805094 -40.28185665
-4.000028999 154.1828384 -30.59322765
-223.416836 -2.461366375e-05 -23.60268165
-2.899919036e-05 67.26339239 -1.89520765
-99.582308 -2.461366375e-05 -55.66950565
-2.899919036e-05 27.32149939 -21.73058365
-2.899919036e-05 195.9164984 9.39282035
-217.36443 -2.461366375e-05 69.58893035
-3.348433999 25.49997539 2.42510235
-2.899919036e-05 65.50773739 27.48032035
-4.000028999 143.7564774 -34.01902165
-2.899919036e-05 5.960010386 -48.31433865
-2.899919036e-05 46.81296339 -58.97528965
-2.899919036e-05 115.0962774 -3.58393565
-220.684704 -2.461366375e-05 0.5488983497
-2.899919036e-05 56.96390839 13.24406735
-65.288669 -2.461366375e-05 -8.98427765
-4.000028999 81.83245639 -24.28751065
-97.568031 -2.461366375e-05 -66.44985865
-2.899919036e-05 35.67696939 -66.19062665
-2.899919036e-05 27.75074139 63.42375235
-2.899919036e-05 43.56365139 -28.77653365
-2.899919036e-05 164.9421674 44.18705135
-2.899919036e-05 83.29022339 50.92937935
-56.194602 -0.1458246137 29.45168135
-4.000028999 35.47949939 -3.41019565
-191.141648 -2.461366375e-05 -73.28752765
-2.899919036e-05 5.109063386 -5.92413965
-2.899919036e-05 50.04391539 -7.98559065
-2.899919036e-05 79.36842639 58.04275835
-4.000028999 88.07038839 12.78978635
-250.39366 -2.461366375e-05 5.22671535
-2.899919036e-05 164.2113314 7.00226235
-2.899919036e-05 159.1018394 29.60978235
-4.000028999 64.56111639 -40.28155265
-91.206358 -2.461366375e-05 -25.65454465
-25.236228 -2.461366375e-05 53.20798135
-4.000028999 21.50306839 52.25671535
-2.899919036e-05 236.0743393 29.49105435
-2.899919036e-05 160.0745874 62.11692735
-2.899919036e-05 21.34688139 -54.82829065
-56.07249 -2.461366375e-05 -10.20320165
-2.899919036e-05 171.7340314 11.94910135
-233.591079 -2.461366375e-05 66.54897035
-2.899919036e-05 242.6181124 -17.39460165
-29.457193 -2.461366375e-05 65.30801235
-243.735327 -2.461366375e-05 62.23128935
-233.518531 -2.461366375e-05 51.87307735
-2.899919036e-05 114.8165844 57.85952435
-2.899919036e-05 200.5418344 66.35822235
-5.964737999 -2.461366375e-05 17.23645735
-100.61635 -2.461366375e-05 -16.60091765
-46.673474 -2.461366375e-05 61.31037035
-4.000028999 84.68701339 61.70565035
-2.899919036e-05 175.2993534 66.57488835
-107.048276 -2.461366375e-05 61.71029635
-2.899919036e-05 39.14666239 33.30752435
-2.899919036e-05 182.3977494 -23.68061665
-4.000028999 76.29630139 10.76593235
-2.899919036e-05 35.86810539 72.24180835
-138.090947 -2.461366375e-05 26.85558435
-145.235666 -2.461366375e-05 -9.47728965
-4.000028999 43.42161939 -11.73190165
-3.202286999 -2.461366375e-05 54.64251435
-135.494682 -2.461366375e-05 -2.35740865
-191.976154 -2.461366375e-05 -26.22072465
-4.000028999 74.58091039 -14.41867465
-2.899919036e-05 17.10786539 59.34231535
-148.708577 -2.461366375e-05 -65.11031165
-75.315586 -2.461366375e-05 -28.95085965
-2.899919036e-05 86.25651439 -69.78067765
-4.000028999 19.39775839 -41.49564165
-2.899919036e-05 181.8040224 6.45668235
-72.673091 -2.461366375e-05 29.23763935
-119.539433 -2.461366375e-05 39.45690435
-87.098374 -2.461366375e-05 -2.41097365
-204.90765 -2.461366375e-05 -33.90616665
-213.208373 -2.461366375e-05 -40.27730265
-106.841045 -2.461366375e-05 -73.50718265
-4.000028999 11.07149739 54.76416435
-132.781921 -2.461366375e-05 -34.85196865
-126.623526 -2.461366375e-05 -45.58939465
-2.899919036e-05 5.213301386 -27.17495065
-4.000028999 67.34244139 47.36571735
1.011349001 -2.461366375e-05 -36.91277465
-2.899919036e-05 113.3768924 46.81418335
-4.000028999 145.4654874 24.15176535
-143.271288 -2.461366375e-05 -24.62122965
-2.899919036e-05 247.9986825 42.39745135
-2.899919036e-05 56.89621839 -20.97180565
-224.03587 -2.461366375e-05 7.43675635
-85.274022 -2.461366375e-05 -18.80043265
-2.899919036e-05 69.41974839 10.55492935
-2.899919036e-05 35.93899139 11.49807035
-4.000028999 39.34887239 -44.61125865
-151.160656 -2.461366375e-05 73.07546535
-195.776306 -2.461366375e-05 35.27740435
-207.764436 -2.461366375e-05 -55.61496965
-4.000028999 33.14864439 -29.25980465
-213.129114 -2.461366375e-05 -32.66836065
-157.879351 -2.461366375e-05 44.42487135
-4.000028999 75.01386239 33.77292935
-4.000028999 35.82700739 22.24678735
-2.899919036e-05 33.99684239 -40.57570665
-2.899919036e-05 200.1135144 -51.03795565
-4.000028999 5.522356386 69.32981135
-2.899919036e-05 183.3448934 -36.75860965
-4.000028999 101.5412594 -38.63490965
-2.899919036e-05 14.69110339 2.37516635
-116.669385 -2.461366375e-05 -58.08614165
-93.203268 -2.461366375e-05 -17.45429465
-2.899919036e-05 208.7617204 -24.56764165
-2.899919036e-05 217.6830902 48.33888935
-2.899919036e-05 166.6654974 -31.37167065
-4.000028999 159.1097844 -20.40737365
-121.49545 -2.461366375e-05 2.42072335
-95.40543 -2.461366375e-05 57.34771835
-4.000028999 34.60998639 36.41283135
-115.234193 -2.461366375e-05 -20.50636365
-2.899919036e-05 37.38379739 -59.34724965
-98.608608 -2.461366375e-05 25.99719335
-44.134329 -2.461366375e-05 67.40880435
-118.325755 -2.461366375e-05 23.20385735
-2.899919036e-05 134.3209724 -54.44537565
-4.000028999 49.20631439 -74.19575765
-2.899919036e-05 172.0688184 30.64834935
-2.899919036e-05 78.94948839 -8.01609165
-2.899919036e-05 48.83712739 27.42489035
-2.899919036e-05 79.43511939 -47.55226865
-28.640199 -2.461366375e-05 21.54772735
-4.000028999 87.75937339 -27.17723465
-2.899919036e-05 222.5180158 58.83301135
-181.900741 -2.461366375e-05 -50.51448165
-247.802991 -2.461366375e-05 -18.14463065
-2.899919036e-05 99.92347539 -27.01426765
-2.899919036e-05 48.63875339 64.35960635
-2.899919036e-05 19.94520639 73.99949635
-2.899919036e-05 13.32856439 -64.75013165
-2.899919036e-05 114.0809604 6.02792035
-10.886906 -2.461366375e-05 36.67890735
-4.000028999 121.5845934 -39.30499265
-5.808825999 -2.461366375e-05 -70.86975865
-2.899919036e-05 148.3677904 -32.50945165
-2.899919036e-05 122.3729694 52.88129135
-9.649029999 -2.461366375e-05 -13.48966265
-4.000028999 81.55908939 -68.62548265
-2.899919036e-05 211.6350864 53.97262035
-4.000028999 94.98750839 -53.92164565
-138.113407 -2.461366375e-05 -50.77394965
-2.899919036e-05 91.66636039 54.89286835
-133.078719 -2.461366375e-05 36.97768735
-68.716031 -2.461366375e-05 34.98354835
-114.343781 -2.461366375e-05 15.27124335
-4.000028999 130.3277014 36.60798735
-20.693264 -2.461366375e-05 16.05777535
-3.933715999 139.8166764 51.61027935
-198.961955 -2.461366375e-05 -20.96846865
-4.000028999 110.7067304 -52.11873465
-2.899919036e-05 212.4847797 -65.05861265
-2.899919036e-05 50.69641739 55.38486535
-2.899919036e-05 89.41088239 -31.76233065
-2.899919036e-05 50.89216639 -41.79346265
-7.507948999 -2.461366375e-05 -38.62924465
-4.000028999 49.56629439 38.54337135
-2.899919036e-05 69.39681039 -32.30963965
-2.899919036e-05 176.6747414 -69.80191065
-7.351646999 -2.461366375e-05 6.66492035
-2.899919036e-05 10.64678439 -58.02955065
-2.899919036e-05 149.9865444 45.74693235
-153.618336 -2.461366375e-05 -33.11623865
-66.726581 -2.461366375e-05 -63.98798165
-2.899919036e-05 123.3149464 -65.74717765
-2.899919036e-05 101.8698054 -56.33659565
-2.899919036e-05 65.27466039 -67.41533665
-4.000028999 69.12093539 72.28621335
-2.899919036e-05 181.1582364 -43.21536665
-219.813906 -2.461366375e-05 48.38848135
-4.000028999 76.27754639 -62.06746465
-2.899919036e-05 87.74717839 32.81335035
-114.205308 -2.461366375e-05 31.22104735
-2.899919036e-05 107.0971194 -24.71280965
-2.899919036e-05 169.5928984 -5.37014965
-4.000028999 53.45428639 27.30554035
-2.899919036e-05 224.918681 19.64508635
-4.000028999 22.44793639 -68.97782965
-32.970324 -2.461366375e-05 -68.58462065
-2.899919036e-05 187.9296614 -9.49369665
-4.000028999 66.09329339 -17.04321365
-57.773682 -1.795978614 -32.05982565
-2.899919036e-05 94.14405339 63.63365135
-4.000028999 157.7386284 23.89441335
-2.899919036e-05 154.2110234 -35.15980765
-2.899919036e-05 228.5125994 59.78854035
-2.899919036e-05 102.0065934 19.10345935
-2.899919036e-05 103.9308964 41.71296235
-104.96194 -2.461366375e-05 -1.29410565
-157.150899 -2.461366375e-05 30.15358835
-142.137072 -2.461366375e-05 2.90471535
-4.000028999 168.4178214 2.33972835
-4.000028999 87.41806939 -9.50174565
-2.899919036e-05 17.60583439 -49.51160265
-100.454974 -2.461366375e-05 20.19642935
-4.000028999 102.6131594 24.55775835
-2.899919036e-05 5.378587386 3.92417735
-4.000028999 90.45931439 -66.96187565
-2.899919036e-05 156.2036434 38.95573735
-2.899919036e-05 234.1271403 -38.32551065
-93.799832 -2.461366375e-05 11.14103235
-183.213122 -2.461366375e-05 55.74306035
-2.899919036e-05 154.2492744 -4.72175265
-2.899919036e-05 160.9297984 14.11952935
-2.899919036e-05 26.90313039 -35.64453165
-2.592451999 -2.461366375e-05 -61.24815365
-4.000028999 175.7930824 16.51170435
-4.000028999 41.25215539 71.68750035
-4.000028999 92.27135139 -40.46182565
-46.057949 -2.461366375e-05 -6.20193165
-2.899919036e-05 139.2380684 63.04021435
-2.899919036e-05 101.0940874 30.25067635
-111.750329 -2.461366375e-05 36.95320135
-2.899919036e-05 42.89343139 28.10744335
-2.899919036e-05 108.5123784 -2.30426265
-61.689527 -2.461366375e-05 60.60642135
-42.843911 -2.461366375e-05 -35.90593565
-2.899919036e-05 98.87078639 -3.05006265
-2.899919036e-05 217.4957747 -21.07801465
-2.899919036e-05 114.8528254 -70.57829565
-157.545899 -2.461366375e-05 17.27736235
-4.000028999 28.32308639 33.76576535
-4.000028999 179.9664834 -2.01267465
-2.899919036e-05 6.258116386 -69.43658765
-2.899919036e-05 25.49709939 -2.49382865
-130.937569 -2.461366375e-05 60.19363335
-225.133529 -2.461366375e-05 -63.55151065
-4.000028999 38.42331439 63.97815435
-3.832492999 5.461322386 49.40050635
-4.000028999 33.47628939 -69.96674265
-4.000028999 28.97799039 59.23580835
-73.424205 -2.461366375e-05 21.20241935
-4.000028999 134.7634934 -34.62369965
0.8520990008 228.2690844 26.13720735
-4.000028999 93.63466639 49.12560835
-4.000028999 52.71953839 67.08503135
-2.899919036e-05 115.6757804 -43.29378165
-2.899919036e-05 194.0828474 -63.97856165
-173.978591 -2.461366375e-05 10.10119935
-2.899919036e-05 213.0313276 65.56279635
-147.518024 -2.461366375e-05 39.40307635
-2.899919036e-05 244.7053583 1.61613235
-2.899919036e-05 43.16312239 57.26642535
-2.899919036e-05 46.57794639 14.52910535
-2.899919036e-05 34.10033939 -34.68593265
-2.899919036e-05 30.03268839 -16.46996765
-4.000028999 72.99525839 44.71574835
-2.490094999 -2.461366375e-05 -52.80173965
-2.899919036e-05 172.1830534 40.90414235
-4.000028999 72.37180339 -54.81182265
-80.375003 -2.461366375e-05 7.29044335
-31.360017 -2.461366375e-05 -47.66673365
-2.899919036e-05 248.3044022 -18.84809165
-2.899919036e-05 120.5843694 -21.51278065
-2.899919036e-05 182.6360714 62.71437835
-4.000028999 112.4869334 36.65888335
-2.899919036e-05 60.30813739 -41.33273065
-165.246461 -2.461366375e-05 -48.41252365
-84.156202 -2.461366375e-05 -65.82428165
-113.640404 -2.461366375e-05 50.12819335
-4.000028999 60.95357939 -27.54827465
-245.30945 -2.461366375e-05 35.80116235
-68.157684 -2.461366375e-05 -40.28760665
-2.899919036e-05 172.8704024 -50.99110665
-2.899919036e-05 74.03456139 68.35409835
-2.899919036e-05 125.2705114 5.52181035
-2.899919036e-05 171.0802234 -10.99005865
-4.000028999 89.49901739 28.67602035
-4.000028999 99.02522439 -13.21075165
-2.899919036e-05 141.2778974 -48.99300265
-4.000028999 76.31796439 20.19306935
0.04406100081 215.1054457 -72.46956665
-2.899919036e-05 189.0189224 65.55831035
-2.899919036e-05 234.0744695 -68.67248965
-4.000028999 46.59270839 -25.51125665
-2.899919036e-05 140.0282574 -37.35297765
-2.899919036e-05 34.61608339 55.92186535
-4.000028999 149.1360384 -27.74902465
-4.000028999 54.24384739 6.40637435
-125.809232 -2.461366375e-05 -51.31965265
-4.000028999 60.37363139 -53.10773665
-238.001045 -2.461366375e-05 13.84017735
-2.899919036e-05 147.8962364 -0.4474686503
-2.899919036e-05 60.17068039 -58.65054565
-2.899919036e-05 69.03312839 61.75016635
-2.899919036e-05 62.92365639 35.06415535
-2.899919036e-05 241.3258708 -5.28479465
-2.899919036e-05 58.75000939 -33.50345165
-2.899919036e-05 200.8376324 31.76120435
-139.924187 -2.461366375e-05 8.58048435
-2.899919036e-05 153.5517974 60.44602035
-25.325136 -2.461366375e-05 27.79973935
-186.971182 -2.461366375e-05 60.54465635
-127.667157 -2.461366375e-05 -37.44838165
-30.072168 -2.461366375e-05 14.43282835
-2.899919036e-05 173.3054834 -42.67615565
-2.899919036e-05 94.89732639 8.78534835
-2.899919036e-05 223.7011132 43.84801235
-2.899919036e-05 93.01672039 35.41093635
-4.000028999 43.78359539 -33.31938665
-2.899919036e-05 71.10102839 35.03230935
-2.899919036e-05 139.5277624 31.55375635
-4.000028999 49.57312539 -3.93042465
-2.899919036e-05 102.4692274 -62.92196365
-2.899919036e-05 110.1987654 -67.26943465
-110.666738 -2.461366375e-05 -27.52280365
-171.803265 -2.461366375e-05 -55.20043465
-4.000028999 88.91680539 42.40138335
-146.446348 -2.461366375e-05 14.33851035
1.281887001 71.74024039 49.94485635
-65.239618 -2.334146614 -22.89752065
-2.899919036e-05 82.81040939 45.26805135
-2.899919036e-05 52.10148939 -31.37639665
-2.899919036e-05 147.5167244 -15.34760865
-2.899919036e-05 102.9950114 1.51627135
-2.899919036e-05 58.85401339 69.38239435
-50.437613 -2.461366375e-05 -10.63969965
-2.899919036e-05 20.27193839 1.49467635
-4.000028999 28.31228639 25.66300635
-223.477977 -2.461366375e-05 53.78955335
-2.899919036e-05 41.15224639 -19.55587065
-2.899919036e-05 233.2216098 -5.62210465
-4.000028999 95.36712639 20.28215335
-120.997508 -2.461366375e-05 -61.67789665
-2.899919036e-05 24.61376739 14.00087635
-2.899919036e-05 248.4214592 -31.77071965
-60.564844 -2.461366375e-05 -3.44072565
-4.000028999 34.70907139 30.28541535
-4.000028999 54.30658339 43.34510235
-27.718615 -2.461366375e-05 -23.55481765
-4.000028999 71.58633739 -68.75600365
-2.899919036e-05 18.16675339 18.38985335
-4.000028999 100.0355744 11.57340335
-2.899919036e-05 159.0301694 -12.55392065
-2.899919036e-05 25.59535739 -58.84104365
-2.899919036e-05 188.6362004 -34.97426665
-4.000028999 82.06888539 39.30439435
-4.000028999 127.8308564 41.60200135
-4.000028999 102.8185684 -29.69861765
-2.899919036e-05 12.03762639 68.09121635
-239.152453 -2.461366375e-05 26.24712335
-4.000028999 50.61858739 -59.78338465
-2.899919036e-05 26.27461639 -69.60792065
-4.000028999 95.68748639 -64.94792465
-2.899919036e-05 180.8669814 67.99207835
-2.899919036e-05 92.58465439 -0.7485916503
-2.899919036e-05 85.02186339 -42.96164365
-4.000028999 26.02331339 -10.57636865
-2.899919036e-05 216.45858 31.45971135
-2.899919036e-05 165.6903684 -51.78520165
-2.899919036e-05 121.3886234 -55.47042465
-2.899919036e-05 128.5308094 32.28324935
-2.028713999 -2.461366375e-05 -19.61326365
-2.899919036e-05 155.7764914 16.14081035
-2.899919036e-05 57.38431439 51.08488535
-2.899919036e-05 23.38983839 55.58603835
-201.24714 -2.461366375e-05 1.45178835
-4.000028999 111.7591054 -31.60036965
-232.096548 -2.461366375e-05 24.93699135
-2.899919036e-05 167.8164634 22.50782235
-136.95268 -2.461366375e-05 51.85019235
-212.007768 -2.461366375e-05 -10.71469365
-2.899919036e-05 149.2299114 -22.75957365
-119.325043 -2.461366375e-05 67.45247035
-4.000028999 131.6735074 -43.23768265
-4.000028999 166.1870114 -15.31318465
-2.899919036e-05 37.69837239 -74.10020065
-4.000028999 64.65171839 -63.71385565
-4.000028999 80.03052039 -12.61243765
-101.404405 -2.461366375e-05 8.14397135
-4.000028999 65.54976539 -10.14832965
-2.899919036e-05 179.0991514 -14.15303565
-162.622847 -2.461366375e-05 -0.3793826503
-242.751263 -2.461366375e-05 73.23140835
-4.000028999 87.05212139 -56.67476765
-201.188673 -2.461366375e-05 -46.58917965
-4.000028999 136.6232614 43.84021435
-189.289797 -2.461366375e-05 8.99464935
-2.899919036e-05 57.77973939 41.35274435
-4.000028999 55.41480539 -45.28037365
-4.000028999 170.0370684 -32.85218365
-2.899919036e-05 35.41131039 -7.94540965
-82.820677 -2.461366375e-05 51.85541635
-2.899919036e-05 71.83813839 -16.85187365
-4.000028999 54.84153639 21.61676635
-4.000028999 57.20123039 -39.42028865
-2.899919036e-05 6.861418386 -15.33202965
-238.35388 -2.461366375e-05 45.17652735
-2.899919036e-05 30.25651539 -26.27048265
-4.000028999 65.90108839 11.47054635
-241.344519 -2.461366375e-05 -45.11483965
-4.000028999 106.8283194 -59.31434465
-2.899919036e-05 38.37362839 46.24662135
-2.899919036e-05 139.6642754 -9.46636865
-99.109535 -2.364656614 -32.65354465
-2.899919036e-05 29.97088839 -45.93264565
-2.899919036e-05 145.4397204 -60.77485165
-2.899919036e-05 245.8027147 10.12034935
-4.000028999 89.90560739 60.39885435
-2.899919036e-05 109.0610384 20.17837735
-2.899919036e-05 57.66299939 -6.46565065
-4.000028999 30.63299939 0.9763053497
-112.039846 -2.461366375e-05 -35.90148265
-186.027754 -2.461366375e-05 36.87855535
-4.000028999 76.38771039 -31.72173265
-4.000028999 30.75594239 20.50638035
-2.899919036e-05 60.73827739 64.15111935
-176.995763 -2.461366375e-05 47.28035435
-4.000028999 107.5508824 33.55960135
-2.899919036e-05 78.01050039 -68.80522065
-178.335873 -2.461366375e-05 57.93745035
-2.899919036e-05 22.87586339 69.54198935
-3.580108999 123.9246774 -26.65966865
-4.000028999 53.06578539 -27.98599865
-2.899919036e-05 127.3495514 -30.19103865
-4.000028999 45.05116239 -48.16929165
-2.899919036e-05 30.33094539 -54.54938965
-4.000028999 99.88071039 3.90188935
-3.835996999 162.1980074 41.72810635
-4.000028999 54.42313939 -68.77987965
-2.899919036e-05 46.94658939 6.14410035
-2.899919036e-05 54.56856239 -59.10878465
-2.899919036e-05 82.07696039 1.16160235
-4.000028999 135.3803274 -27.35577165
-20.744183 -2.461366375e-05 -51.71637165
-3.312912999 177.0453234 -24.19128265
-80.211058 -2.461366375e-05 -31.41342065
-2.899919036e-05 87.37481139 -23.09016365
-2.899919036e-05 59.95185439 4.22682235
-2.899919036e-05 23.52976939 -13.43050565
-55.756457 -2.461366375e-05 68.58643835
-136.558995 -2.461366375e-05 67.04680535
-200.78872 -2.461366375e-05 67.33531635
-2.899919036e-05 235.2135585 41.85292435
-2.899919036e-05 37.60462539 19.27746635
-4.000028999 52.63167339 0.7087063497
-4.000028999 76.73966339 -45.38393465
-2.899919036e-05 212.2767377 -17.48057365
-2.899919036e-05 68.22093239 -21.62653965
-4.000028999 106.4176944 -68.84228965
-47.719055 -2.461366375e-05 37.86854035
-2.899919036e-05 46.74084339 -12.62814765
-2.899919036e-05 113.0245594 -12.90801865
-4.000028999 122.2113274 37.79552735
-152.506724 -2.461366375e-05 25.87646235
-2.899919036e-05 70.23328339 40.85151035
-2.899919036e-05 109.2910214 37.90202435
-2.899919036e-05 22.78755039 -41.98395165
-4.000028999 100.5151314 41.50365435
-2.899919036e-05 77.31755939 36.50266135
-4.000028999 137.6347214 -48.52340265
-75.638574 -2.461366375e-05 -47.79232965
-4.000028999 47.92423439 69.21960835
-42.042882 -2.461366375e-05 72.22227535
-4.000028999 167.2240124 -7.86374765
-4.000028999 117.0243564 31.42565535
-4.000028999 67.42700539 58.46982535
-2.899919036e-05 133.7107904 33.08532235
-2.899919036e-05 176.0754504 7.85049135
-4.000028999 41.61063539 48.81124835
-4.000028999 73.13801439 55.54052035
-2.899919036e-05 90.04494939 25.04599035
-2.899919036e-05 40.01413239 52.12894935
-2.756766999 11.12359639 47.47198835
-2.899919036e-05 86.17933539 -6.34629665
-2.899919036e-05 74.48877639 2.18382235
-2.899919036e-05 123.3565674 27.23347135
-2.899919036e-05 76.56732239 29.30748135
-2.899919036e-05 128.5982414 51.39802235
-85.851673 -2.461366375e-05 42.27913935
-228.497143 -2.461366375e-05 65.38323335
-4.000028999 93.90399339 -20.72145665
-198.054984 -2.461366375e-05 56.13159535
0.1745520008 59.93435039 -73.56156665
0.3245090008 162.2215144 -74.21972565
-248.919041 -2.461366375e-05 62.51076335
-2.899919036e-05 84.17073239 -49.67667665
-200.960751 -2.461366375e-05 35.45002135
-2.899919036e-05 111.1165384 -40.82105565
-2.899919036e-05 206.4855114 59.82957135
-107.308333 -2.461366375e-05 33.60405735
-126.100424 -2.461366375e-05 -26.00230965
-2.899919036e-05 66.49291539 -13.50939565
-2.899919036e-05 28.85360239 46.06143835
-2.899919036e-05 53.78587939 17.89616535
-86.739245 -2.461366375e-05 -44.99685265
-2.899919036e-05 184.5355254 55.95416135
-2.899919036e-05 157.4567374 -30.85288065
-2.899919036e-05 106.6467014 -49.99281965
-2.899919036e-05 123.1799654 69.10253435
-4.000028999 144.2350964 41.60500135
-4.000028999 49.44071639 24.04502935
-2.899919036e-05 88.25452739 -14.73921665
-2.899919036e-05 144.0521504 53.82307535
-4.000028999 81.81909539 11.39936835
-4.000028999 53.63425339 -21.12088965
-4.000028999 61.30063939 -19.54376465
-2.899919036e-05 90.55422039 17.08033235
-2.899919036e-05 40.82204139 -55.50380565
-236.938049 -2.461366375e-05 -21.24132465
-4.000028999 95.83784639 -0.6665316503
-4.000028999 7.554743386 63.32529435
-50.511002 -2.461366375e-05 -69.50449465
-2.899919036e-05 186.7200084 42.70871335
-4.000028999 49.21302339 11.84934035
-91.139077 -2.461366375e-05 46.85100335
-162.201435 -2.461366375e-05 -23.44704465
-221.414026 -2.461366375e-05 22.31998635
-49.721004 -2.461366375e-05 19.21537535
-2.899919036e-05 168.0921774 -21.41981765
-4.000028999 95.77139439 43.66501935
-178.584926 -2.461366375e-05 -46.58550165
-2.899919036e-05 62.45731639 50.26375735
-51.107857 -2.461366375e-05 -47.43310865
-2.899919036e-05 147.5189844 26.62386535
-4.000028999 131.3180354 -55.56787865
-2.899919036e-05 13.56623839 -53.14747665
-4.000028999 32.75642339 13.35026035
-3.812088999 115.9179364 -23.26335265
-232.249597 -2.461366375e-05 -55.90097965
-4.000028999 31.12250939 73.20332235
-4.000028999 72.35804639 -5.60257565
-2.899919036e-05 34.66201639 -18.63876365
-66.498394 -2.461366375e-05 -58.62533565
-2.899919036e-05 116.3765954 -38.23373065
-2.899919036e-05 38.37475539 -2.10218865
-2.899919036e-05 44.73734839 -66.61678065
-2.899919036e-05 99.74008339 -48.66708365
-4.000028999 87.33303539 36.77538735
-2.899919036e-05 47.14453039 36.51787435
-2.899919036e-05 213.3331619 -34.53825065
-2.899919036e-05 174.3874184 23.72700835
-184.930449 -2.461366375e-05 -62.09295765
-2.899919036e-05 88.31991039 63.11959435
-163.626056 -2.461366375e-05 -56.89988265
-219.935623 -2.461366375e-05 10.45042735
-2.899919036e-05 77.34543539 -54.90417765
-2.899919036e-05 64.33686839 8.74541435
-2.899919036e-05 99.01949239 34.89364935
-4.000028999 59.39358739 7.31594335
-2.899919036e-05 64.61171439 -30.31691065
-4.000028999 28.15452739 10.83739835
-2.899919036e-05 20.02413939 63.49849535
-2.899919036e-05 134.6009264 -0.3019136503
-4.000028999 103.1811384 -73.17988165
-2.899919036e-05 144.2664904 67.28757635
-2.899919036e-05 68.23703039 -62.51182265
-2.899919036e-05 74.16820939 60.39757735
-2.899919036e-05 53.85987439 37.30069535
-2.899919036e-05 118.3542114 36.49490035
-4.000028999 103.9586604 -47.43824665
-2.899919036e-05 112.4140494 65.19654935
-4.000028999 39.69784039 8.94647535
-2.899919036e-05 125.2705214 -52.23093365
-2.899919036e-05 134.6861364 27.53743735
-4.000028999 42.69154039 -22.22590565
-4.000028999 77.61455139 -72.58631465
-2.899919036e-05 106.2666404 -44.31897765
-96.08921 -0.7444656137 36.25862835
-2.899919036e-05 17.55824039 54.31834835
-2.899919036e-05 39.36911539 -40.98153065
-2.899919036e-05 69.70400939 4.91004435
-4.000028999 174.5552744 -7.04224465
-4.000028999 177.0674424 3.14313035
-4.000028999 101.7812984 33.23355335
-66.243509 -1.939111614 -29.78929165
-2.899919036e-05 113.2745814 -61.09071265
-4.000028999 125.8471784 -60.43080165
-2.899919036e-05 81.03541639 -34.07499765
-2.899919036e-05 19.53511839 -60.06541765
-2.899919036e-05 87.93006739 2.16908135
-2.899919036e-05 145.1533304 38.60225735
-20.698889 -2.461366375e-05 -21.40194965
-4.000028999 97.35772639 56.70956135
-4.000028999 98.56604039 -58.15342565
-4.000028999 19.16557439 -65.07778965
-4.000028999 118.8314734 43.97775835
-4.000028999 79.91915339 47.89211635
-130.612155 -2.461366375e-05 -54.56439365
-4.000028999 149.7621274 33.36669535
-54.68734 -2.461366375e-05 36.09599135
-106.345575 -2.461366375e-05 20.73568235
-2.899919036e-05 43.54599039 2.02601635
-2.899919036e-05 151.2933864 -41.83305265
-2.899919036e-05 79.43604639 19.56353035
-4.000028999 157.7222254 6.30814335
-4.000028999 144.3681964 -38.97350565
-229.722792 -2.461366375e-05 -15.84442765
-2.899919036e-05 60.43546139 -24.48952265
-205.214644 -2.461366375e-05 23.35557835
-4.000028999 40.12781239 29.21702935
-4.000028999 140.5338224 -29.42686465
-2.899919036e-05 32.13664039 23.32473935
-2.899919036e-05 206.4655974 42.13410035
-2.899919036e-05 145.7485544 -27.56342165
-2.899919036e-05 162.7688224 34.77497335
-4.000028999 57.23488939 64.99763735
-4.000028999 11.08030339 71.98266635
-2.899919036e-05 43.13147839 62.23637835
-81.516889 -2.461366375e-05 -43.53913865
-4.000028999 30.16147739 -51.44543465
-20.611619 -2.461366375e-05 64.68937835
-4.000028999 52.02267739 -52.22142365
-2.899919036e-05 248.5267656 -11.18408365
-2.899919036e-05 172.4021384 3.41376435
-41.5155 -2.461366375e-05 -12.75313365
-4.000028999 71.58435939 -48.41753165
-4.000028999 86.48818639 46.72188635
-2.899919036e-05 14.48542639 -32.30029565
-156.896307 -2.461366375e-05 2.64243535
-4.000028999 157.2289324 -7.28214965
-4.000028999 59.85658739 56.85349335
-2.899919036e-05 210.9322184 70.34018135
-41.188245 -2.461366375e-05 62.61658035
-65.748649 -2.461366375e-05 50.47632235
-220.939944 -2.461366375e-05 -59.98273765
-4.000028999 60.02959339 -47.89374565
-4.000028999 65.74067039 30.36959235
-4.000028999 76.51000639 -26.78544765
-4.000028999 89.80291039 -50.34849565
-4.000028999 141.8402964 33.29095135
-4.000028999 47.20326939 -8.52310165
-2.899919036e-05 54.47717739 -15.77268265
-2.899919036e-05 130.8338614 46.17119835
-144.819398 -2.461366375e-05 20.88114735
-80.227782 -2.461366375e-05 -24.26113365
-2.899919036e-05 38.01944039 2.82758835
-4.000028999 53.72716939 59.47249635
-4.000028999 105.5226644 -12.00989565
-2.899919036e-05 97.09923639 -68.88334465
-179.623315 -2.461366375e-05 18.06107035
-2.899919036e-05 115.6902464 -26.34474165
-4.000028999 68.77305839 -37.46428265
-4.000028999 34.22917239 -24.47496665
-2.607248999 107.8172374 57.61093935
-2.899919036e-05 72.79399139 -60.08116865
-4.000028999 40.69917239 38.37583635
-4.000028999 47.24397339 -42.45939565
-4.000028999 55.88625739 -31.99232765
-2.899919036e-05 237.1648742 49.68290735
-2.899919036e-05 91.94112639 30.08949135
-4.000028999 159.5871534 11.64093935
-2.899919036e-05 32.06549839 66.46768935
-65.726377 -2.461366375e-05 66.44437935
-2.899919036e-05 151.8275724 -51.62539265
-4.000028999 16.24592639 72.36357935
-4.000028999 93.99685239 -15.61463365
-2.461395999 24.38953739 -32.12149765
-4.000028999 0.6873283863 69.98942135
-2.899919036e-05 180.7394244 -28.26812965
-233.37186 -2.461366375e-05 -66.85031365
-4.000028999 144.0178174 -51.38020865
-2.899919036e-05 211.1593414 -55.85259965
-4.000028999 81.05808139 -63.01158865
-2.899919036e-05 97.99305839 -53.38562465
-205.337937 -2.461366375e-05 4.09711735
-2.899919036e-05 97.87462639 15.13955735
-4.000028999 78.61589539 -5.25655165
-4.000028999 30.13926939 -13.69272665
-73.913676 -2.461366375e-05 72.11805835
-4.000028999 139.5967964 28.77975135
-4.000028999 49.43466939 33.67722235
-2.672487999 117.5913634 24.21077635
-4.000028999 24.58320939 -63.11213765
-4.000028999 130.0152634 -35.68683665
-2.899919036e-05 173.1514804 -24.98289365
-4.000028999 109.4603764 26.91242935
-4.000028999 97.77522639 -41.69045465
-2.899919036e-05 54.70247739 72.19728235
-59.155578 -2.461366375e-05 20.79791035
-4.000028999 37.24810839 43.20628635
-4.000028999 68.20334639 7.20930635
-3.614180999 152.7072934 47.47522935
-2.899919036e-05 95.67139439 -29.80716265
-2.899919036e-05 28.50227739 4.21425635
-27.696598 -2.461366375e-05 -3.49996565
-55.399647 -2.461366375e-05 57.75739035
-4.000028999 108.7016634 -35.38844565
-4.000028999 105.2305204 39.33548835
-4.000028999 92.57870339 -27.50243765
-4.000028999 25.46572539 64.86391235
-4.000028999 36.09134639 5.39319735
-4.000028999 7.091058386 58.45502635
-4.000028999 61.73177939 -0.7419706503
-4.000028999 33.80058239 59.18771635
-4.000028999 101.0325844 -7.54940465
-2.899919036e-05 135.5581464 55.35029435
-2.899919036e-05 129.6194884 -48.26160765
-4.000028999 10.32078139 -67.07722665
-2.899919036e-05 123.5650894 -36.07646465
-4.000028999 102.5538294 58.93713035
-2.899919036e-05 48.69632939 -17.01734165
-4.000028999 75.34519239 -0.6305406503
-243.024978 -2.461366375e-05 7.95977535
-178.742048 -2.461366375e-05 -69.31009565
-2.899919036e-05 88.93077639 7.51483535
-2.899919036e-05 11.69168039 -20.67728365
-2.899919036e-05 187.5714174 70.12991235
-2.899919036e-05 103.0592404 -14.33618065
-4.000028999 85.13201439 16.57688735
-4.000028999 101.6455314 -17.22375065
-2.899919036e-05 136.4533354 39.96266435
-4.000028999 92.82281339 10.41299535
-4.000028999 68.40894339 -26.50100465
-2.899919036e-05 10.28535239 61.97398035
-2.899919036e-05 100.6595984 54.77512535
-4.000028999 106.1002914 21.27504735
-4.000028999 39.08775239 -32.39359465
-2.899919036e-05 43.16275539 44.10462835
-2.899919036e-05 185.4663904 -4.37905365
-170.85604 -2.461366375e-05 34.63097435
-4.000028999 47.38117839 -36.46515765
-2.899919036e-05 50.15745239 -71.73806365
-4.000028999 91.33090339 -33.53174965
-4.000028999 80.16841939 24.56457135
-2.899919036e-05 122.5208184 33.08110535
-2.899919036e-05 54.14255139 -47.55077265
-206.504845 -2.461366375e-05 -45.20324165
-4.000028999 29.04735139 -34.18364865
-4.000028999 154.3128724 20.57854935
-4.000028999 62.59284239 69.47430835
-4.000028999 65.99697639 -69.90385365
-2.899919036e-05 87.89304239 -39.16004565
-57.291608 -2.461366375e-05 7.71255835
-4.000028999 164.3668434 32.42582235
-4.000028999 14.92156939 -45.42785565
-4.000028999 42.17294639 -67.49556565
-4.000028999 41.51988139 -27.21268565
-4.000028999 104.7786674 28.79188535
-166.236509 -2.461366375e-05 -40.17676365
-2.139545999 23.95829039 33.56976535
-2.899919036e-05 120.5878774 -41.65738765
-84.271085 -2.461366375e-05 -53.53592665
-4.000028999 162.7822184 19.56441335
-2.899919036e-05 67.93540939 -46.89630765
-4.000028999 46.35042739 27.96855835
-2.899919036e-05 203.5579844 -13.92942765
-2.899919036e-05 224.7381139 63.01992835
-4.000028999 161.4615984 -15.56587265
-246.803914 -2.461366375e-05 -13.51917665
-4.000028999 82.55203339 57.26029735
-4.000028999 67.74675039 -53.82087365
-4.000028999 49.72344239 -32.21474265
-4.000028999 74.48988239 70.83365735
-2.899919036e-05 56.94343839 7.89727535
-4.000028999 106.9546894 -27.41150665
-4.000028999 117.1497234 -41.25284765
-4.000028999 86.22138639 -61.60314565
-2.899919036e-05 135.0686034 -59.50287465
-4.000028999 59.40435439 13.79944435
-4.000028999 111.0469284 -62.21799765
-4.000028999 64.69585439 -44.99384965
-4.000028999 78.77723839 14.99737935
-2.899919036e-05 78.30101439 -64.10367365
-2.899919036e-05 191.3860324 -44.54858265
-4.000028999 174.4764964 -18.71258265
-4.000028999 93.67011339 -10.75182065
-2.899919036e-05 161.9253734 25.84955735
-2.899919036e-05 60.28253439 45.55483635
-4.000028999 86.13604239 0.4703223497
-2.899919036e-05 145.1832344 -36.03541765
-4.000028999 94.78277739 -69.72507765
-4.000028999 78.02927239 -37.60374365
-4.000028999 45.35352039 -60.95969665
-232.757822 -2.461366375e-05 35.66151035
-248.873344 -2.461366375e-05 -23.66382565
-2.899919036e-05 46.19902339 -33.76087965
-4.000028999 148.9900454 43.50681835
-2.899919036e-05 64.48564539 -5.67536765
-2.899919036e-05 161.7173124 -39.16203765
-4.000028999 30.28883439 44.07815535
-2.899919036e-05 106.5389054 47.51389735
-145.623493 -2.461366375e-05 -45.61913865
-4.000028999 169.6638394 18.45679935
-2.899919036e-05 44.40043139 -23.95681565
-2.899919036e-05 109.2068724 30.33045335
-4.000028999 6.290024386 -52.32065065
-4.000028999 34.12518739 -38.15036365
-4.000028999 30.38190139 5.75230435
-2.899919036e-05 166.0019484 49.20982635
-4.000028999 111.3801764 -21.27912665
-2.899919036e-05 133.1769784 -45.22361865
-4.000028999 36.82148139 -17.53348365
-4.000028999 15.39351439 57.63360735
-106.023747 -2.461366375e-05 3.94577335
-2.899919036e-05 84.70562139 -57.23348965
-82.343967 -2.461366375e-05 30.75001735
-4.000028999 30.03926939 -58.57926665
-2.899919036e-05 118.1394034 46.28693135
-2.899919036e-05 46.58086539 -52.83454865
-4.000028999 27.85630239 -2.95673065
-199.589807 -2.461366375e-05 -25.59072365
-4.000028999 4.043542386 -68.51389965
-148.575847 -2.461366375e-05 -6.22272965
-2.899919036e-05 165.5586404 14.68670135
-2.899919036e-05 122.2765584 40.26902835
-2.899919036e-05 50.62683839 68.57064435
-4.000028999 101.6867554 -22.81289365
-196.876276 -2.461366375e-05 63.51308935
-2.899919036e-05 68.86302739 22.55632635
-4.000028999 68.77330539 15.13008835
-4.000028999 92.02282539 23.51287535
-2.899919036e-05 59.19053539 59.70003535
-2.899919036e-05 83.45685039 9.68670035
-61.384908 -2.461366375e-05 -13.34960365
-2.899919036e-05 74.53655539 -33.18204165
-2.899919036e-05 26.11560639 26.51055935
-4.000028999 104.4441144 49.00228435
-4.000028999 19.82921539 -48.75324865
-2.899919036e-05 82.36370139 35.36421035
-4.000028999 54.34405539 -4.74411365
-123.203579 -2.461366375e-05 52.27074735
-4.000028999 24.60915439 42.14143835
-2.899919036e-05 40.15576239 -10.52150065
-4.000028999 80.91078339 66.02849835
-2.899919036e-05 192.8166724 62.90813135
-4.000028999 29.81397839 -63.88457465
-168.888488 -2.461366375e-05 69.72736235
-4.000028999 104.3297494 -42.32322065
-4.000028999 78.13589039 -21.51848065
-2.899919036e-05 163.7978114 -10.00244665
-4.000028999 49.13294639 44.11179035
-2.899919036e-05 58.39101739 -0.6145656503
-4.000028999 59.55434139 33.82554335
-4.000028999 72.12399339 -29.96411465
-250.844583 -2.461366375e-05 -59.24603665
-4.000028999 169.8077784 30.31125635
-23.667053 -2.461366375e-05 -10.17545465
-202.312527 -2.461366375e-05 45.31804535
-230.699651 -2.461366375e-05 -1.45506965
-2.899919036e-05 33.88884739 -1.08586565
-4.000028999 66.13696539 52.80655635
-4.000028999 98.84781939 29.69612735
-4.000028999 167.2340064 -36.94150265
-2.899919036e-05 31.26654239 -67.47073465
-2.899919036e-05 108.2904094 -20.27915365
-2.899919036e-05 130.9905984 -32.98507765
-2.899919036e-05 122.8195094 61.98469735
-4.000028999 51.55120239 17.72425135
-2.899919036e-05 36.82925139 67.75857335
-29.107149 -2.461366375e-05 -17.44070465
-4.000028999 97.68474339 -27.05671965
-4.000028999 17.42722439 62.43344535
-2.899919036e-05 3.810562386 -61.91500165
-2.899919036e-05 100.7080144 -10.40796765
-88.510207 -2.461366375e-05 -55.75236865
-4.000028999 111.3678604 -44.44574065
-4.000028999 182.4797264 1.88504035
-4.000028999 104.5374684 -63.73625165
-2.899919036e-05 41.69759639 -46.47413265
-2.899919036e-05 41.10313439 16.19463135
-2.899919036e-05 114.3494074 -30.71747765
-4.000028999 63.83005139 -56.76003465
-4.000028999 55.11752539 49.20237435
-4.000028999 115.3618664 51.92182235
-4.000028999 112.4989274 30.79657535
-2.899919036e-05 193.0691574 47.20051735
-148.302723 -2.461366375e-05 -16.98533265
-2.899919036e-05 44.32619239 22.71160135
-4.000028999 158.1859294 31.61108435
-4.000028999 36.61742039 -48.93536865
-2.899919036e-05 31.97206839 -10.94727065
-2.899919036e-05 67.53408339 31.64214935
-4.000028999 166.0350584 -3.07098165
-235.50292 -2.461366375e-05 72.20835335
-2.899919036e-05 13.57047439 -69.30411165
-19.224252 -2.461366375e-05 -12.59949165
-4.000028999 83.66531239 -38.81871465
-2.899919036e-05 67.64367639 18.16909835
-2.899919036e-05 4.958926386 60.09544435
-2.899919036e-05 114.0480264 -52.47153865
-2.899919036e-05 84.73864539 18.69682935
-4.000028999 71.13220039 37.57585535
-4.000028999 44.57567539 9.74080435
-4.000028999 49.79933639 53.43103735
-4.000028999 19.32922939 -54.09111665
-2.899919036e-05 52.89595839 22.51930135
-28.941217 -2.461366375e-05 -9.29409965
-5.749840999 -2.461366375e-05 41.14768235
-4.000028999 77.27218939 -57.64070165
-2.873438999 128.8636584 27.31075235
-4.000028999 77.05497839 57.82273435
-4.000028999 125.7003454 -45.36579765
-98.842835 -2.461366375e-05 1.87695135
-2.260965999 159.3390564 -43.81327565
-0.1594509992 25.49997539 -8.23546265
-197.108733 -2.461366375e-05 -54.52202765
-2.899919036e-05 143.7256014 45.32302935
-4.000028999 158.9521914 -29.35790565
-4.000028999 70.83541939 -63.91954165
-4.000028999 56.47628839 -16.45920965
-4.000028999 115.1834134 40.29117035
-2.899919036e-05 156.5350404 -20.51934265
-2.899919036e-05 27.41235539 -41.09113865
-101.401982 -2.461366375e-05 -70.63881165
-2.899919036e-05 22.27002339 -37.49455665
-139.382335 -2.461366375e-05 42.65893135
-4.000028999 68.48875739 2.70394535
-2.899919036e-05 113.1335504 28.10553035
-90.583153 -2.461366375e-05 31.18266035
-2.899919036e-05 172.6192914 70.20340035
-4.000028999 118.0772224 -28.14575065
-4.000028999 92.42080039 -4.35916065
-4.000028999 34.27583139 69.98540935
-4.000028999 168.2586814 35.00252735
2.142714001 5.874347386 49.94485635
-4.000028999 138.9847864 -39.13830365
-2.899919036e-05 76.07582539 -12.99542065
-4.000028999 140.8805274 46.85884135
-95.840441 -2.461366375e-05 -41.90539065
-2.899919036e-05 82.34499639 -22.29508565
-2.899919036e-05 80.00908839 -26.89981365
-2.899919036e-05 1.555512386 -49.22387465
-4.000028999 138.7897584 -43.74290365
-2.899919036e-05 167.9506144 27.00199335
-2.899919036e-05 92.97821539 -34.74882065
-4.000028999 63.70877539 44.72527235
-2.899919036e-05 8.332202386 -52.32228265
-4.000028999 50.14217339 -64.24887265
-4.000028999 21.30110339 -59.04381565
-2.899919036e-05 117.5948214 29.46865635
