# .PCD v0.7 - Point Cloud Data file format
VERSION 0.7
FIELDS x y z
SIZE 4 4 4
TYPE F F F
COUNT 1 1 1
WIDTH 1159
HEIGHT 1
VIEWPOINT 0 0 0 1 0 0 0
POINTS 1159
DATA ascii
348.9995068 10.28295039 -226.5089194
-178.4494592 -2.461344798e-05 -16.01138439
78.91528482 -2.461344798e-05 -138.2054724
348.9995068 49.74471439 -147.0635734
-25.83425718 -2.461344798e-05 -234.8420334
182.0587578 -2.461344798e-05 -93.94253739
-344.9995162 14.63655739 -202.5195134
88.50575882 -2.461344798e-05 -97.59770939
297.7095858 -2.461344798e-05 -142.1341944
184.3173428 -2.461344798e-05 -244.4329224
52.62056582 -2.461344798e-05 -97.85331239
156.9069948 -2.461344798e-05 -215.5984014
-51.88940218 -2.461344798e-05 -218.0959454
-118.3043252 -2.461344798e-05 -158.7444424
254.3822398 -2.461344798e-05 -196.5073774
302.6918518 11.65490839 -9.738784092e-05
-19.78951218 -2.461344798e-05 -39.42504739
189.9388028 29.24059039 -9.738784092e-05
54.53902982 -2.461344798e-05 -55.95671739
-156.9341782 -2.461344798e-05 -155.3800974
168.6294798 6.266083387 -9.738784092e-05
348.9995068 67.05390239 -69.95446839
-214.1176642 -2.461344798e-05 -193.5155774
84.72497382 38.41332939 -9.738784092e-05
-52.04854818 66.06718439 -9.738784092e-05
-90.24142218 -2.461344798e-05 -39.38613039
-135.3147722 42.58320339 -9.738784092e-05
-101.4081822 -2.461344798e-05 -214.7837584
-350.9995162 27.02403839 -207.6598064
-344.9995162 44.75579239 -238.3227204
-43.20758218 -2.461344798e-05 -109.9051894
-296.3399362 -2.461344798e-05 -150.9926684
348.9995068 56.91384639 -109.9351284
70.66540382 -1.864668613 -9.738784092e-05
348.9995068 9.114450387 -73.48252339
23.00101182 -2.461344798e-05 -76.78131139
74.94637982 -2.461344798e-05 -43.76442239
282.6880788 -2.461344798e-05 -102.6280714
-120.4991602 -2.461344798e-05 -103.1836344
212.5476358 -2.461344798e-05 -112.7932364
-270.2042382 -1.850293613 -9.738784092e-05
204.7500338 -2.461344798e-05 -143.5652544
-90.91757918 -2.461344798e-05 -164.4659284
343.8423368 -2.461344798e-05 -176.3363124
-108.1539662 -2.461344798e-05 -249.8242314
208.6436548 -2.461344798e-05 -230.7537164
348.9995068 4.346003387 -120.2077694
-163.1168562 -2.461344798e-05 -112.1320104
107.2441478 -2.461344798e-05 -194.6939174
316.0981388 -2.461344798e-05 -188.6008794
-350.9995162 37.36879839 -13.44398439
-322.4870372 -2.461344798e-05 -119.8464554
-264.5486572 -2.461344798e-05 -49.30021439
-192.2018222 -2.461344798e-05 -50.40209439
72.83445782 -2.461344798e-05 -243.5023914
-108.2294972 9.034422387 -9.738784092e-05
-369.2996862 -2.461344798e-05 -135.4659344
295.9285058 117.0378534 -9.738784092e-05
-155.4587822 -2.461344798e-05 -82.97281339
-98.91628918 49.86989739 -9.738784092e-05
344.9995068 32.54931239 -112.9386004
181.8722588 -2.461344798e-05 -142.3575214
169.6317488 -2.461344798e-05 -215.1463804
-296.8918672 -2.461344798e-05 -90.90218739
-20.49180118 -2.461344798e-05 -89.11722539
-253.9847212 -2.461344798e-05 -171.6882244
-353.0236762 -2.461344798e-05 -237.4973704
60.01103582 -2.461344798e-05 -185.8799474
198.3996328 -2.461344798e-05 -92.11985439
245.9564178 -2.461344798e-05 -169.5995154
-146.5013182 49.12315639 -9.738784092e-05
238.7420438 -2.461344798e-05 -236.0984854
-75.86287018 -2.461344798e-05 -235.9829084
-363.7554152 -2.461344798e-05 -174.0386404
348.9995068 18.10427039 -125.8572304
-80.58305618 34.69634839 -9.738784092e-05
348.9995068 43.71636939 -12.25518839
-176.7016612 -2.461344798e-05 -169.1431214
192.0621638 -2.461344798e-05 -1.703204388
-246.7541072 -2.461344798e-05 -242.7278924
319.6532998 72.55986439 -9.738784092e-05
29.08096582 18.07495639 -9.738784092e-05
-22.16241418 -2.461344798e-05 -214.6723164
192.2953378 68.42390539 -9.738784092e-05
-266.1117822 -2.461344798e-05 -91.12988039
344.9995068 9.367330387 -98.69843139
286.7504318 -2.461344798e-05 -166.5796874
-63.28298218 -2.461344798e-05 -210.0323014
235.5755208 -2.461344798e-05 -5.071542388
339.5500188 27.31089039 -9.738784092e-05
-204.4458202 30.42336739 -9.738784092e-05
256.6993638 -2.461344798e-05 -239.6426264
348.9995068 71.42074339 -45.70975739
352.0155468 -2.461344798e-05 -212.0453284
141.8857338 -2.461344798e-05 -243.2907764
-183.8540732 60.46058739 -9.738784092e-05
344.9995068 67.28318539 -131.8291844
357.0764608 104.3828614 -9.738784092e-05
-51.26469118 -2.461344798e-05 -95.56912539
257.7788618 -1.356461613 -9.738784092e-05
303.3757698 -2.461344798e-05 -128.1348904
-278.1202982 -2.461344798e-05 -111.4892534
344.9995068 13.72035039 -155.7698454
296.4824128 38.12961839 -9.738784092e-05
267.0424188 105.4442484 -9.738784092e-05
314.9413668 24.92404539 -9.738784092e-05
-296.7022552 -2.461344798e-05 -63.09794539
3.165483821 -2.461344798e-05 -30.40361139
102.7783298 -2.461344798e-05 -126.6103424
205.2290508 -2.461344798e-05 -50.94214139
-24.11229818 67.99997539 1.984377612
28.72131682 -2.461344798e-05 -140.3617344
344.9995068 75.41513739 -93.11690139
121.4969678 -2.461344798e-05 -10.40102339
-156.5283142 -2.461344798e-05 -236.5486564
-338.0474712 3.127083387 -9.738784092e-05
364.7240738 -2.461344798e-05 -90.75838039
269.4296258 -2.461344798e-05 -35.04939939
276.0430408 -2.461344798e-05 -236.4154634
46.21537582 -2.461344798e-05 -72.35367739
280.3582668 -2.461344798e-05 -188.5577844
-71.30907418 -2.461344798e-05 -131.1649494
98.43628682 33.44255239 -9.738784092e-05
-9.874057179 -2.461344798e-05 -159.9357244
24.42345582 -2.461344798e-05 -62.49939639
-361.7335572 9.343878387 -9.738784092e-05
-350.6641212 49.99997539 -214.2112664
146.2476218 -2.461344798e-05 -222.0291244
358.0175858 54.80511339 -9.738784092e-05
288.1605398 132.9999754 0.8982216122
-331.2148692 -2.461344798e-05 -142.5553484
-329.9677242 67.99997539 1.899104612
348.9995068 5.276371387 -29.13770839
-319.5013562 10.38725339 -9.738784092e-05
317.7139108 58.90323739 -9.738784092e-05
-148.9029682 67.99997539 0.3007946122
-145.2956322 -0.05001061345 -9.738784092e-05
3.056721821 35.27831139 -9.738784092e-05
9.512946821 -2.461344798e-05 -174.9870594
119.9894858 -2.461344798e-05 -90.85338039
-299.2295652 -2.461344798e-05 -227.8591354
-350.9995162 0.009518386552 -209.6933504
8.250230821 -2.461344798e-05 -43.21642139
-245.7271592 -2.461344798e-05 -71.57357139
-148.1617372 -2.461344798e-05 -143.9455614
117.5773838 15.06421639 -9.738784092e-05
-274.6743402 26.57264639 -9.738784092e-05
34.90976682 -2.461344798e-05 -88.75774739
-181.3501572 23.60446839 -9.738784092e-05
-350.7620132 -2.461344798e-05 -86.33501339
344.9995068 47.51596339 -38.71902039
319.1175448 -2.461344798e-05 -68.35837039
328.4018508 83.23791939 1.813232612
146.1784978 -2.461344798e-05 -86.94891139
-273.2059982 -2.461344798e-05 -74.77409239
-308.2093012 -2.461344798e-05 -138.0571974
282.8155918 -2.461344798e-05 -152.9674584
-311.8306002 43.31601439 -9.738784092e-05
-190.0408512 -2.461344798e-05 -116.2677904
344.9995068 53.81167439 -171.3763974
-267.2660312 -2.461344798e-05 -146.3762574
359.4092578 -2.461344798e-05 -114.0029914
344.9995068 27.25520539 -56.10919039
-31.17635118 -2.461344798e-05 -160.5817124
-125.5060172 54.03232239 -9.738784092e-05
147.8124418 -2.461344798e-05 -174.3236034
-133.1231002 -2.461344798e-05 -20.83433339
-167.7761192 -2.461344798e-05 -68.80948339
-350.9995162 37.27122839 -171.5978384
-15.22181118 10.38272739 -9.738784092e-05
170.6215838 48.75157439 -9.738784092e-05
220.8532388 -2.461344798e-05 -136.6662154
-38.93246018 -2.461344798e-05 -237.7327814
-108.0572632 -2.461344798e-05 -146.8527234
-287.7320942 -2.461344798e-05 -177.8816614
270.7262768 -2.461344798e-05 -102.7141344
-328.3037142 -2.461344798e-05 -13.16610839
91.60895182 -2.461344798e-05 -213.9312304
123.6451358 62.25521339 -9.738784092e-05
-124.2098502 -2.461344798e-05 -124.0286784
192.4768678 -2.461344798e-05 -176.3770584
270.3648118 62.50539739 -9.738784092e-05
217.6629758 -2.461344798e-05 -249.2809234
348.9995068 26.58172739 -244.4231844
-211.6471642 -2.461344798e-05 -218.0793914
344.9995068 103.1226844 -54.34745839
185.6702628 -2.461344798e-05 -70.78586239
-349.5202332 -1.800073613 -158.9911574
-0.8616101794 -2.461344798e-05 -71.09202439
-326.4944622 -2.461344798e-05 -72.21487539
52.67855482 -2.461344798e-05 -44.16080039
258.7810428 46.14479339 -9.738784092e-05
30.39002582 -2.461344798e-05 -1.026029388
148.1266368 -2.461344798e-05 -206.2582624
-105.4496352 33.79447039 -9.738784092e-05
286.1561218 -1.536251613 -9.738784092e-05
172.6847718 -2.461344798e-05 -101.2638914
287.3215878 -2.461344798e-05 -86.26745439
-131.8427772 0.5909813866 -9.738784092e-05
-350.9995162 48.12194439 -64.26035239
211.9563858 -2.461344798e-05 -9.136676388
212.4941828 36.92120239 -9.738784092e-05
242.3153778 118.3149614 0.2668736122
82.23064082 13.08627339 -9.738784092e-05
330.6517038 -2.461344798e-05 -211.8924004
199.5633418 -2.461344798e-05 -74.06551839
-94.80402318 -2.461344798e-05 -130.3377724
344.9995068 53.13020539 -4.273459388
-64.43964918 -2.461344798e-05 -120.6594144
35.83590282 -2.461344798e-05 -185.1838214
-350.9995162 45.81012339 -84.15291639
284.8198988 -2.461344798e-05 -114.1534374
-38.46721218 -2.461344798e-05 -47.80677439
-152.0375522 -2.461344798e-05 -211.8487774
353.1201468 19.22475339 -9.738784092e-05
324.7273528 -2.461344798e-05 -235.8868604
249.1791528 71.53889439 -9.738784092e-05
282.5541698 -2.461344798e-05 -44.85308439
348.9995068 68.56043039 -32.33596239
348.9995068 46.19130839 -241.5006964
349.8604668 116.9621294 -9.738784092e-05
-243.5611932 64.95579139 -9.738784092e-05
358.1306408 90.19995639 -9.738784092e-05
-66.33595518 -2.461344798e-05 -10.34804539
218.0871818 -2.461344798e-05 -23.00930239
-84.87996718 -2.461344798e-05 -189.4354144
-215.4989982 -2.461344798e-05 -179.2643184
344.9995068 91.46178639 -75.87379739
122.2107668 -2.461344798e-05 -51.82042739
109.3502738 -2.461344798e-05 -229.4054064
-37.10958818 -2.461344798e-05 -66.52324939
-344.9995162 17.45354439 -222.5810724
145.0123588 51.98729139 -9.738784092e-05
356.5842608 69.63942939 -9.738784092e-05
-335.8233032 -2.461344798e-05 -201.4646294
-354.7136832 -2.461344798e-05 -186.1909454
-298.8918442 14.01823239 -9.738784092e-05
-154.3490302 -2.461344798e-05 -185.6324524
-37.84744018 -2.461344798e-05 -170.4553594
-180.8981542 35.19557339 -9.738784092e-05
-52.23204118 -2.461344798e-05 -142.4558214
316.1196988 97.75400239 -9.738784092e-05
341.2276678 -2.461344798e-05 -193.0509424
-294.3355372 27.66983639 -9.738784092e-05
246.3713418 -2.461344798e-05 -83.18121939
245.3996698 -2.461344798e-05 -29.63077939
272.8229648 12.36857639 -9.738784092e-05
-112.9606402 -2.461344798e-05 -224.3483084
295.2629588 -2.461344798e-05 -61.54962239
-36.09646618 -2.461344798e-05 -21.48643739
-143.3858442 -2.461344798e-05 -165.3175204
135.9772328 -2.461344798e-05 -60.32469639
-187.7995072 -2.461344798e-05 -77.10201539
-176.3864842 -2.461344798e-05 -208.5860524
-180.0850562 -2.461344798e-05 -238.1360924
-344.9995162 36.02346139 -112.2269984
54.48477982 -2.461344798e-05 -131.0493374
-212.6779172 13.55852939 -9.738784092e-05
243.6277148 23.28250939 -9.738784092e-05
267.1018628 -2.461344798e-05 -187.6761194
95.66066482 -2.461344798e-05 -27.90317339
-350.9995162 4.299953387 -43.78402439
213.0457288 89.04516139 1.747619612
344.9995068 40.43290039 -169.9661584
38.32257382 -2.461344798e-05 -32.14256939
344.9995068 71.25618439 -10.60808939
-341.1170622 -2.461344798e-05 -38.15083939
133.9752488 -2.461344798e-05 -149.3933064
30.27661882 -2.461344798e-05 -40.19906339
-308.0560442 -2.461344798e-05 -63.85569639
-350.9995162 22.66208639 -238.1786324
-28.83702418 49.54103639 -9.738784092e-05
-87.88468718 -2.461344798e-05 -56.38232839
-72.09548018 -2.461344798e-05 -108.6593844
-8.943585179 24.36542239 -9.738784092e-05
51.56839182 -2.461344798e-05 -195.5450224
-367.2183982 -2.461344798e-05 -54.74377339
-350.9995162 22.04174939 -126.8982234
-297.1711452 -2.461344798e-05 -37.35350239
131.0898318 -2.461344798e-05 -98.50786039
-4.671582179 -2.461344798e-05 -189.3475364
45.70016982 54.89379039 -9.738784092e-05
-52.28556618 -2.461344798e-05 -119.2877214
348.9995068 47.01969839 -61.61590439
-344.9995162 20.17813739 -76.37118139
280.2549178 85.16741439 -9.738784092e-05
-327.1586502 -2.461344798e-05 -227.5961884
-264.6805852 -2.461344798e-05 -104.9673484
-110.6546662 -2.461344798e-05 -54.20018839
-105.8164612 -2.461344798e-05 -94.19738839
-36.83001318 -2.461344798e-05 -192.8874044
348.9995068 76.64491339 -113.3323344
-344.9995162 24.65862039 -53.07396639
-201.5393652 41.44822339 -9.738784092e-05
-71.27003118 16.67915639 -9.738784092e-05
-112.2789012 -2.461344798e-05 -113.4456354
344.9995068 7.129430387 -63.19144339
-210.3161222 -2.461344798e-05 -78.18106939
242.9469148 -2.461344798e-05 -129.0670784
118.5822238 26.56068339 -9.738784092e-05
-58.37216818 40.33671839 -9.738784092e-05
-350.9995162 12.65117339 -107.4042184
-133.7953842 -2.461344798e-05 -229.2050714
269.6376638 120.7158694 -9.738784092e-05
-88.48712418 -2.461344798e-05 -240.3536514
-251.9345732 -2.461344798e-05 -232.1887064
81.48729882 -2.461344798e-05 -236.4303514
165.3084688 -2.461344798e-05 -143.8368704
224.5785048 -2.461344798e-05 -125.1670284
165.2482548 -2.461344798e-05 -61.40399839
-335.9340672 30.42581139 -9.738784092e-05
344.9995068 45.60045639 -78.32536639
-350.9995162 39.16842439 -151.6209374
-32.19898318 -2.461344798e-05 -111.4726824
-144.1601382 31.53359739 -9.738784092e-05
348.9995068 21.41040339 -88.31302439
338.3197208 -2.461344798e-05 -111.6665814
-78.06059118 56.94253639 -9.738784092e-05
-368.4330352 -2.461344798e-05 -186.0854604
-61.45274718 -2.461344798e-05 -190.1734874
240.3802018 -2.461344798e-05 -18.49562439
-225.8757402 47.89114239 -9.738784092e-05
-344.9995162 5.015995387 -139.1289914
169.6073408 -2.461344798e-05 -251.6922734
245.6769618 44.67777139 -9.738784092e-05
-337.9125232 -2.461344798e-05 -187.7076614
-206.5709002 -2.461344798e-05 -33.61309239
-316.4187672 -2.461344798e-05 -187.6646584
-82.65264118 -2.461344798e-05 -67.83390839
257.9228398 115.8799304 -9.738784092e-05
355.7938148 -2.461344798e-05 -238.6611664
-165.2528692 -2.461344798e-05 -88.10429739
52.46408482 -2.461344798e-05 -235.0857824
222.0831108 -2.461344798e-05 -195.8611574
82.60014882 -2.461344798e-05 -121.0579014
131.7405668 -2.461344798e-05 -218.0642074
-218.5644102 -2.461344798e-05 -106.2107004
-240.1999602 -2.461344798e-05 -127.2028114
-195.0404392 -2.461344798e-05 -67.58657539
44.27521082 -0.5695166134 -9.738784092e-05
348.9995068 80.47384739 -82.58103139
-350.9995162 38.35818039 -223.4368124
-141.1985572 -2.461344798e-05 -119.0976874
118.5543728 -2.461344798e-05 -203.6555684
-319.8244252 -2.461344798e-05 -97.74809439
293.4077758 61.21800339 -9.738784092e-05
-64.51615318 7.668285387 -9.738784092e-05
-365.2941742 -2.461344798e-05 -32.83903439
-270.8380562 -2.461344798e-05 -168.9247584
-46.05086118 38.85775339 -9.738784092e-05
-39.76034818 -2.461344798e-05 -90.46967739
-238.6460012 -2.461344798e-05 -102.8676904
205.4657678 -2.461344798e-05 -199.7633894
348.9995068 33.53306939 -24.18308239
217.5776678 -2.461344798e-05 -103.1630114
-350.9995162 40.84547739 -189.8038104
-194.6306922 -2.461344798e-05 -128.3761394
-344.9995162 38.53992639 -90.70790939
-350.9995162 24.73923939 -62.28743339
94.37464982 -2.461344798e-05 -39.56715439
-248.6062702 -2.461344798e-05 -160.8566494
-170.9242032 -2.461344798e-05 -156.9367524
344.9995068 35.42434239 -153.0465754
-229.5070802 -2.461344798e-05 -12.19163439
-350.9995162 24.58426439 -184.4433074
33.76228582 -2.461344798e-05 -53.44327139
-278.5426362 -2.461344798e-05 -9.802844388
348.9995068 23.86460539 -204.4475554
-161.0480152 -2.461344798e-05 -43.84773339
29.22078182 -2.461344798e-05 -209.2852704
182.6192378 -2.461344798e-05 -161.4179534
348.9995068 55.55665039 -26.05704939
179.4393878 -2.461344798e-05 -123.2297224
-1.051803179 -2.461344798e-05 -177.1382264
64.74688682 -2.461344798e-05 -144.0413074
248.3797938 97.56875639 -9.738784092e-05
-259.5966722 53.80114139 -9.738784092e-05
-359.0064572 -2.461344798e-05 -154.2489524
80.48040482 67.99997539 1.093445612
170.7740608 -2.461344798e-05 -90.35523839
258.8357308 24.09206039 -9.738784092e-05
106.5813028 10.31934239 -9.738784092e-05
-28.35225518 -2.461344798e-05 -29.08524939
-133.1244822 -2.461344798e-05 -138.8129094
-350.9995162 40.53150439 -53.95517039
-21.16721618 -2.461344798e-05 -50.02901939
55.25879982 -2.461344798e-05 -153.1089464
156.9017728 -2.461344798e-05 -241.8987954
-62.63377118 67.44740139 -9.738784092e-05
19.26059382 -2.461344798e-05 -252.3519594
202.5666968 -2.461344798e-05 -125.0605234
-60.02627218 -2.461344798e-05 -37.37800439
348.9995068 25.67317239 -42.58586639
15.68056782 -2.461344798e-05 -11.17311539
-360.9951712 -2.461344798e-05 -205.4371654
-344.9995162 7.337430387 -243.2775624
114.2324198 -2.461344798e-05 -164.7999744
108.1306538 -2.461344798e-05 -239.9778284
323.5469298 -2.461344798e-05 -9.037734388
-195.5780632 -2.461344798e-05 -242.1347144
-96.05570118 -2.461344798e-05 -113.7795284
-340.2943242 -2.461344798e-05 -225.2872934
-200.7390362 -2.461344798e-05 -57.70612839
-126.5146672 -2.461344798e-05 -12.52291839
-344.9995162 24.47088139 -105.4711064
293.6835158 -2.461344798e-05 -223.2992874
238.4338418 -2.461344798e-05 -95.17141939
-263.4778772 36.19950039 -9.738784092e-05
17.74228182 -2.461344798e-05 -166.7995524
-276.2217762 40.67819839 -9.738784092e-05
-54.96451718 -2.461344798e-05 -179.9168014
-220.9392382 -2.461344798e-05 -72.52136539
-118.9533022 -2.461344798e-05 -185.1501874
-4.797437179 48.65956239 -9.738784092e-05
6.327489821 -2.461344798e-05 -132.5588704
344.9995068 18.83473639 -186.3782744
-344.9995162 0.4853243866 -63.26942939
-204.1921772 -2.461344798e-05 -210.6280074
308.1621938 51.28162839 -9.738784092e-05
213.2157968 49.23181339 -9.738784092e-05
-237.0853182 -2.461344798e-05 -24.80455939
-9.526064179 -2.461344798e-05 -136.9107044
348.9995068 10.44212939 -19.99257939
-299.8495382 -2.461344798e-05 -179.1719674
-249.9510032 -2.461344798e-05 -146.7783664
-287.2233042 -2.461344798e-05 -58.62352539
178.2620858 -2.461344798e-05 -187.0169794
132.6747958 56.96832339 -9.738784092e-05
-331.2650972 -2.461344798e-05 -90.61330639
206.4127358 62.35641039 -9.738784092e-05
-6.685870179 -2.461344798e-05 -56.33486039
-344.9995162 32.24913239 -233.0926254
-82.05157418 -2.461344798e-05 -25.11688939
269.6285608 -2.461344798e-05 -83.49696139
225.4357568 95.79421539 -9.738784092e-05
-21.80660018 -2.461344798e-05 -110.8847534
-344.9995162 20.25689739 -23.62046139
-59.66174418 -2.461344798e-05 -251.6754564
-115.1411092 -2.461344798e-05 -63.58530739
-339.4892552 -2.461344798e-05 -167.2381074
144.0014068 -2.461344798e-05 -118.3878034
-285.4169342 -2.461344798e-05 -123.3585654
329.5276768 109.3127214 -9.738784092e-05
344.9995068 35.70767339 -190.1329984
51.89522982 -2.461344798e-05 -8.483756388
348.8674518 73.87443739 -152.0348844
-235.2506822 -2.461344798e-05 -210.8086284
333.4361828 -2.461344798e-05 -46.82478139
344.9995068 99.14633139 -9.957713388
344.9995068 57.25496839 -183.6640764
91.69662982 -2.461344798e-05 -164.1245824
260.1755308 -2.461344798e-05 -126.1672014
-206.9647582 53.69364839 -9.738784092e-05
339.5772058 -2.461344798e-05 -234.7817224
-227.2529342 -2.461344798e-05 -232.9726894
12.87503282 39.71775239 -9.738784092e-05
-160.1014512 15.33282739 -9.738784092e-05
147.3977588 -2.461344798e-05 -10.40136939
149.2642828 25.73496539 -9.738784092e-05
-92.02187218 -2.461344798e-05 -2.916601388
369.4088288 -2.461344798e-05 -199.3158554
-342.1488832 -2.461344798e-05 -49.72275239
344.9995068 50.20555639 -49.44108239
-256.4868292 22.16736939 -9.738784092e-05
62.01132982 39.05139239 -9.738784092e-05
-344.9995162 49.93125439 -13.49283139
-344.9995162 49.93913539 -31.65858639
348.9995068 24.31958339 -134.0378664
307.6472428 -2.461344798e-05 -101.8543614
-203.6435692 -2.461344798e-05 -137.5228434
338.8219048 -2.461344798e-05 -158.0402324
-197.2876242 -2.461344798e-05 -26.13125139
-28.35801018 -2.461344798e-05 -126.4314794
92.40697682 -2.461344798e-05 -114.8561554
-196.7063672 63.20419439 -9.738784092e-05
-238.1451532 -2.461344798e-05 -143.1736354
-283.8057342 -2.461344798e-05 -102.5809454
-65.37288318 -2.461344798e-05 -51.40836239
216.9417378 -2.461344798e-05 -77.48204539
-218.3740782 -2.461344798e-05 -119.8510444
-132.7669112 -2.461344798e-05 -159.9961484
-350.9995162 27.54545039 -30.35499639
-354.7121022 -2.461344798e-05 -23.53726139
-317.1974462 -2.461344798e-05 -76.46123739
344.9995068 42.42826639 -132.7890454
124.9278988 -2.461344798e-05 -61.65702639
344.9995068 52.42419139 -99.60598339
153.6541398 -2.461344798e-05 -80.01183539
357.1549858 -2.461344798e-05 -24.66174939
344.9995068 85.45826939 -8.957482388
115.4367058 55.32857639 -9.738784092e-05
-63.55004118 -2.461344798e-05 -78.01534039
348.3106658 116.2777354 -20.85534139
306.4360108 -2.461344798e-05 -248.5991964
-289.4634762 -2.461344798e-05 -43.98648139
-191.6504082 -2.461344798e-05 -173.8684964
129.3139288 -2.461344798e-05 -186.6206264
58.03151782 -2.461344798e-05 -108.3588454
192.5657968 -2.461344798e-05 -63.32980539
-227.4601392 -2.461344798e-05 -202.7627064
-350.9995162 25.54691339 -249.2946444
-166.9537892 -2.461344798e-05 -216.1167444
-316.2245742 -2.461344798e-05 -2.278693388
-350.9537292 -1.800073613 -129.5307314
-144.9153232 -2.461344798e-05 -75.53334039
164.5686518 -2.461344798e-05 -108.8500434
-47.03249118 -2.461344798e-05 -55.34204539
-350.9995162 12.22463139 -25.38998439
207.1840448 -2.461344798e-05 -241.7847874
348.9995068 57.59436339 -123.7912904
93.14542782 -2.461344798e-05 -10.72360939
147.7362518 -2.461344798e-05 -233.6032604
278.8322928 -2.461344798e-05 -209.9047024
-344.9995162 12.99438639 -157.5941584
140.7944498 -2.461344798e-05 -197.4013334
366.2322348 -2.461344798e-05 -60.61173339
-5.700619179 -2.461344798e-05 -149.6192294
-288.4589592 58.18792539 -9.738784092e-05
223.1141968 68.64360039 -9.738784092e-05
318.9454488 -2.461344798e-05 -57.21678739
33.10430882 -2.461344798e-05 -109.5900284
357.4483848 -2.461344798e-05 -221.2804204
352.3594348 34.17086639 -9.738784092e-05
-50.43287918 -2.461344798e-05 -40.41944739
-156.9092102 -2.461344798e-05 -20.19621939
195.9378928 -2.461344798e-05 -210.7538344
96.25646782 -2.461344798e-05 -89.05510739
348.9995068 12.77682039 -238.2884244
-344.9995162 41.27679439 -43.94780039
-183.7468172 -2.461344798e-05 -2.816137388
-350.9995162 24.66193739 -97.42575139
-191.5080522 9.630365387 -9.738784092e-05
190.7467988 -2.461344798e-05 -98.95590539
279.1879998 -2.461344798e-05 -128.5875584
336.8381518 -2.461344798e-05 -169.1617214
225.4069888 18.97835739 -9.738784092e-05
-287.2255742 -2.461344798e-05 -83.16073839
325.7198398 -2.461344798e-05 -126.2516204
-254.3182942 -2.461344798e-05 -46.92080539
-277.5852152 -2.461344798e-05 -223.0086344
367.7576778 -2.461344798e-05 -156.8096364
-350.9995162 35.41448539 -80.63615039
250.0680798 15.46420439 -9.738784092e-05
-81.92988918 -2.461344798e-05 -138.6832174
-215.2780252 -2.461344798e-05 -13.74536239
348.9995068 36.18602539 -212.1126124
-180.2360492 -2.461344798e-05 -69.68350839
348.9995068 36.75908239 -98.72960039
-130.4181252 -2.461344798e-05 -96.74182039
-125.0561092 22.40606939 -9.738784092e-05
5.507829821 9.457016387 -9.738784092e-05
261.4587218 35.34970239 -9.738784092e-05
143.8494948 -1.298850613 -9.738784092e-05
95.83179682 55.16824039 -9.738784092e-05
224.2741808 -2.461344798e-05 -32.54673439
-27.66021718 11.01910339 -9.738784092e-05
235.8247678 -2.461344798e-05 -151.3573604
348.9995068 82.28635239 -53.25197639
357.6509458 -2.461344798e-05 -52.86090139
344.9995068 0.6219343866 -82.57278939
0.1892658206 -2.461344798e-05 -235.5491984
259.3147138 -2.461344798e-05 -154.0647644
228.8744978 -2.461344798e-05 -142.4034254
93.68678282 -2.461344798e-05 -246.9782124
367.2161498 -2.461344798e-05 -2.635551388
348.9995068 48.17918039 -231.6597534
-171.1205762 -2.461344798e-05 -59.57350939
348.9995068 31.66437839 -171.8445674
-344.9995162 4.503472387 -26.25175339
292.6474058 -2.461344798e-05 -52.09302939
-350.9995162 25.52473839 -136.0609484
18.06836482 -2.461344798e-05 -36.70608239
310.0982438 70.10680539 -9.738784092e-05
348.9995068 12.88226839 -107.5082344
348.4910128 60.62479439 -213.4256734
169.2586138 -2.461344798e-05 -226.0654014
-38.98622918 -2.461344798e-05 -206.5516934
135.5292988 -2.461344798e-05 -35.58665439
-115.4282432 -2.461344798e-05 -0.5208533878
-363.1964592 -2.461344798e-05 -237.0613994
344.9995068 85.37048239 -95.32852839
344.9995068 73.71926839 -103.2757874
15.36210782 -2.461344798e-05 -221.9395634
-203.8635532 5.502835387 -9.738784092e-05
-344.9995162 33.16350239 -250.0242894
-344.9995162 45.76952939 -220.8715364
-350.9995162 0.06795638655 -169.8519324
-218.5183752 -2.461344798e-05 -35.13103039
-331.4169882 -2.461344798e-05 -116.0680454
-166.8178322 41.90379839 -9.738784092e-05
-259.5963662 -2.461344798e-05 -71.11360039
-245.4498552 -2.461344798e-05 -57.91671639
-305.9107942 -2.461344798e-05 -41.49923739
-221.9881772 58.61726739 -9.738784092e-05
-236.4841462 -2.461344798e-05 -182.7365044
-14.40160218 -2.461344798e-05 -245.9450314
-344.9995162 42.61339739 -125.2700354
-144.4484072 -2.461344798e-05 -184.1899484
-78.17108718 -2.461344798e-05 -225.0169274
-22.87670018 -2.461344798e-05 -144.9782804
-125.8819452 38.77093439 -9.738784092e-05
139.0322298 -2.461344798e-05 -170.3506354
90.55162082 -2.461344798e-05 -49.49985639
-219.8575442 -2.461344798e-05 -160.7518684
102.9619308 -2.461344798e-05 -159.0638274
66.23850082 -2.461344798e-05 -9.582929388
344.9995068 63.55760539 -22.28530539
-253.3508462 -2.461344798e-05 -9.299298388
-247.1224542 -2.461344798e-05 -184.6598574
-309.7554692 -2.461344798e-05 -225.9338674
344.9995068 26.35561339 -193.6915834
-23.45392918 29.24342139 -9.738784092e-05
18.21639882 -2.461344798e-05 -22.41032239
207.8361868 -2.461344798e-05 -156.4265024
191.8434218 -2.461344798e-05 -196.7274014
185.5021728 37.74791439 -9.738784092e-05
159.6199228 -2.461344798e-05 -180.0358794
296.0849378 -2.461344798e-05 -27.51062539
162.6242708 -2.461344798e-05 -72.57194839
305.7918538 -2.461344798e-05 -153.8416954
235.1749678 77.56380039 -9.738784092e-05
-134.8041602 67.99997539 1.427992612
207.5604198 -2.461344798e-05 -25.48718439
234.0744898 59.35011739 -9.738784092e-05
-344.9995162 48.28196639 -189.5012734
49.98178982 46.22767039 -9.738784092e-05
-365.9130062 30.23324139 -9.738784092e-05
349.8718988 7.808950387 -9.738784092e-05
91.80825882 46.03240839 -9.738784092e-05
-308.2707172 8.912031387 -9.738784092e-05
-147.0754722 -2.461344798e-05 -93.32614239
57.61122282 59.60533739 -9.738784092e-05
-303.1000932 -2.461344798e-05 -167.4606364
227.4171528 -2.461344798e-05 -158.3942084
-201.2892352 -2.461344798e-05 -93.19606039
91.48183182 -2.461344798e-05 -196.3651364
-85.39239718 -2.461344798e-05 -215.4666884
-130.1221472 -2.461344798e-05 -65.33320639
245.2211238 -2.461344798e-05 -7.136869388
144.7133908 -2.461344798e-05 -108.6297234
344.9995068 88.23549039 -64.29917539
274.9638298 -2.461344798e-05 -142.9282024
126.4793308 -2.461344798e-05 -208.8767844
285.4197768 56.10099639 -9.738784092e-05
196.5040818 -2.461344798e-05 -10.08417639
344.9995068 4.877362387 -219.0652204
-17.16798018 -2.461344798e-05 -166.5442774
-256.1953832 -2.461344798e-05 -109.1892044
331.5382058 -2.461344798e-05 -68.42938139
-265.3410222 -2.461344798e-05 -217.8918944
-78.71928218 -2.461344798e-05 -119.9173804
-313.1590722 -2.461344798e-05 -55.63088339
348.9995068 108.5967484 -7.513649388
349.9499478 -2.461344798e-05 -6.746646388
336.0516038 77.97975039 -9.738784092e-05
348.9995068 36.97027939 -243.6049144
-68.93459918 -2.461344798e-05 -42.41947639
-143.0806912 -2.461344798e-05 -252.3581204
-321.2949192 61.88127439 -9.738784092e-05
344.9995068 7.730951387 -202.9264664
344.9995068 79.79227239 -17.20030139
241.1890858 -2.461344798e-05 -38.08330539
-349.4983812 22.02152339 -1.000097388
-346.0280602 36.38516339 -1.000097388
-247.4536542 -2.461344798e-05 -222.3345644
-115.3006022 67.99997539 0.4857216122
-344.9995162 24.47884639 -36.94804039
172.4902828 -2.461344798e-05 -167.0192944
11.97160882 -2.461344798e-05 -235.6775514
-280.1069312 -2.461344798e-05 -37.69044439
-368.8918092 -2.461344798e-05 -118.6529494
16.67992782 -2.461344798e-05 -101.5016064
-366.5029292 -2.461344798e-05 -104.6185064
-153.0968242 -2.461344798e-05 -194.9473644
-152.7690362 -2.461344798e-05 -164.8088934
-344.9995162 7.467611387 -171.5801594
-164.6187262 51.45368339 -9.738784092e-05
344.9995068 16.73637639 -37.56773439
-314.7808542 -2.461344798e-05 -114.4927564
336.4563428 123.9269014 -9.738784092e-05
348.9995068 28.99539039 -64.41167239
-344.9995162 41.06153639 -144.6706694
4.274238821 -2.461344798e-05 -251.9957104
348.9995068 46.52660439 -91.15286339
-273.2312752 56.20929739 -9.738784092e-05
348.9995068 61.24195139 -84.12527139
176.2447928 11.71287539 -9.738784092e-05
231.4371818 -2.461344798e-05 -101.8486464
-350.9995162 42.24202639 -203.1390434
344.9995068 18.44521239 -223.0171244
59.93607782 -2.461344798e-05 -120.4647624
127.4894298 -0.007248613448 -9.738784092e-05
348.9995068 10.47726239 -53.86659039
33.39770982 52.72444939 -9.738784092e-05
155.9768988 -2.461344798e-05 -62.49748439
307.3488988 115.7237274 -9.738784092e-05
-260.4722172 -2.461344798e-05 -17.92786039
-185.7452682 48.14018639 -9.738784092e-05
300.0256648 -2.461344798e-05 -72.77912739
-46.10581818 -2.461344798e-05 -12.65110339
-8.757902179 -2.461344798e-05 -37.71740839
-344.9995162 13.32823439 -69.11369239
344.9995068 7.130692387 -128.1515844
-350.9995162 23.55126739 -216.3011094
-4.844262179 -2.461344798e-05 -218.2589174
344.9995068 36.39969739 -179.6885624
-21.11892318 -2.461344798e-05 -224.6401194
203.4537388 -2.461344798e-05 -114.7624234
-301.5251722 -2.461344798e-05 -200.1896744
254.9054538 64.21079039 -9.738784092e-05
112.5558518 -2.461344798e-05 -51.19491839
-237.4904432 -2.461344798e-05 -67.31523339
153.7777598 8.563655387 -9.738784092e-05
366.9237428 -2.461344798e-05 -136.0792604
-151.5898232 -2.461344798e-05 -57.83705139
318.4280678 -2.461344798e-05 -137.2130744
211.2057948 -1.279651613 -9.738784092e-05
12.93465982 -2.461344798e-05 -66.45372739
-350.9995162 43.86637739 -115.4486074
-91.36242818 -2.461344798e-05 -102.7271944
-135.2255172 -2.461344798e-05 -200.4884504
79.05971182 -2.461344798e-05 -212.4699724
351.9006048 -2.461344798e-05 -168.1585844
152.7233468 -2.461344798e-05 -121.3908004
-101.6782432 -2.461344798e-05 -60.31093139
256.0125628 -2.461344798e-05 -75.01649639
214.1272388 -2.461344798e-05 -48.51956139
236.2624678 -2.461344798e-05 -70.19022639
-253.1263652 -2.461344798e-05 -210.8620204
55.80228882 -2.461344798e-05 -21.30678139
-302.5320252 -2.461344798e-05 -14.52507839
300.8716598 74.95837139 -9.738784092e-05
70.59598782 52.64364239 -9.738784092e-05
-113.6989412 -2.461344798e-05 -127.9814394
348.9995068 92.17608239 -4.128812388
263.5235318 -2.461344798e-05 -28.01929939
295.9199938 -2.461344798e-05 -166.1147894
31.43593882 43.55364739 -9.738784092e-05
-350.9995162 7.209867387 -251.5602264
110.7948578 47.42782739 -9.738784092e-05
348.9995068 57.79389939 -151.4388084
187.5875448 53.64638439 -9.738784092e-05
-185.3122352 -2.461344798e-05 -142.9650774
-294.0556052 -2.461344798e-05 -2.785571388
102.2452018 -2.461344798e-05 -148.0018834
-309.4726782 -2.461344798e-05 -82.25851739
-97.53994518 -2.461344798e-05 -153.7377734
21.22296782 -2.461344798e-05 -229.6490704
-284.9997172 -2.461344798e-05 -228.3503704
-50.68215918 -1.216217613 -9.738784092e-05
348.9995068 77.69376239 -32.30353639
-343.8460052 -2.461344798e-05 -216.8729204
299.2781928 99.47189939 -9.738784092e-05
348.9995068 4.437985387 -154.2964594
-250.0732692 43.71739639 -9.738784092e-05
256.3921728 79.55317539 -9.738784092e-05
197.5053768 10.95203639 -9.738784092e-05
65.97692882 -2.461344798e-05 -158.9716484
-115.3997162 -2.461344798e-05 -80.00269439
20.32955582 -2.461344798e-05 -149.0062554
140.9318848 -2.461344798e-05 -76.65236339
-295.9613822 -2.461344798e-05 -138.5393454
321.9598518 -2.461344798e-05 -216.1730134
99.80984082 63.36881239 -9.738784092e-05
126.7528838 -2.461344798e-05 -240.7837204
344.9995068 103.0210144 -24.08110639
309.5004288 -2.461344798e-05 -54.19791639
101.3687988 -2.461344798e-05 -182.7330164
336.6741008 -2.461344798e-05 -145.4740924
-327.9538772 41.56150239 -9.738784092e-05
318.0249998 110.7321854 -9.738784092e-05
-344.9995162 15.11443439 -124.4459294
-350.9995162 29.19409239 -112.5590074
348.9995068 7.939463387 -40.83030339
-124.8486302 -2.461344798e-05 -39.21200339
-109.7797032 54.59931239 -9.738784092e-05
297.9639428 -2.461344798e-05 -88.19814639
-201.3545952 -2.461344798e-05 -9.102294388
-158.2626862 -2.461344798e-05 -176.8523074
315.2922158 -2.461344798e-05 -231.8411434
-325.3569562 -2.461344798e-05 -40.38240339
140.1705328 -2.461344798e-05 -214.7440864
189.4740428 -2.461344798e-05 -230.5826244
348.9995068 11.27257639 -148.0219174
344.9995068 49.71637639 -116.8935584
140.9346038 -2.461344798e-05 -252.2921244
26.23303182 -2.461344798e-05 -162.0993674
348.9995068 41.44207039 -159.9639134
3.716547821 -2.461344798e-05 -51.36842539
-232.8215362 -2.461344798e-05 -156.4339894
304.4725748 125.1292944 -9.738784092e-05
-17.45788218 -2.461344798e-05 -201.7031074
348.9995068 36.04791039 -44.83593539
-262.6938742 -2.461344798e-05 -235.4948834
-83.62983918 -2.461344798e-05 -202.2929704
310.9619928 -2.461344798e-05 -200.5648694
-278.7650392 -2.461344798e-05 -152.5089964
70.44032982 -2.461344798e-05 -73.87231639
-344.9995162 36.17101739 -71.04818039
-189.8569232 -2.461344798e-05 -201.7699864
21.50890182 -1.134970613 -9.738784092e-05
-126.8671262 -2.461344798e-05 -85.48927839
67.88899582 -2.461344798e-05 -168.6385224
-6.662270179 7.627141387 -9.738784092e-05
295.1474648 -2.461344798e-05 -187.5986264
309.9909878 -2.461344798e-05 -19.22652739
355.9115218 -2.461344798e-05 -138.8021924
-328.2579052 25.75694539 -9.738784092e-05
131.0821908 20.23692039 -9.738784092e-05
-122.5086422 -2.461344798e-05 -20.55633439
-151.1882222 -2.461344798e-05 -129.9649194
359.3232358 -2.461344798e-05 -98.35445239
-310.0139262 -2.461344798e-05 -33.24434739
116.2770138 -2.461344798e-05 -112.8301784
-349.3539432 49.99997539 -41.15227339
-108.7926532 -2.461344798e-05 -7.141125388
-218.5155962 -2.461344798e-05 -240.3781684
243.1417358 -2.461344798e-05 -191.1431424
-66.85219818 -2.461344798e-05 -95.92687839
152.0947728 -2.461344798e-05 -137.0977494
-68.40728918 55.26108139 -9.738784092e-05
348.9995068 26.36841539 -33.67051539
44.35354782 -2.461344798e-05 -126.1844704
284.7804558 -2.461344798e-05 -252.2636454
0.7340268206 -2.461344798e-05 -89.65428939
242.9701188 60.14622639 -9.738784092e-05
-201.4427482 -2.461344798e-05 -77.28008639
-352.8100682 -2.461344798e-05 -246.6621344
-344.9995162 4.271334387 -71.71130839
61.56211682 -2.461344798e-05 -236.1279834
299.8191298 -2.461344798e-05 -232.7733314
-350.9995162 0.7589613866 -102.4524264
344.9995068 39.34478139 -64.26401839
214.3686488 -2.461344798e-05 -207.7006634
259.3497628 -2.461344798e-05 -51.91842839
-339.7459362 -2.461344798e-05 -8.126401388
71.48261282 -2.461344798e-05 -200.0480694
-344.9995162 27.21333639 -15.05116039
-243.4283092 -0.3594136134 -9.738784092e-05
93.52585982 -2.461344798e-05 -57.84544839
289.5143248 -2.461344798e-05 -94.85005339
86.53497582 -2.461344798e-05 -65.38792839
348.9995068 101.0307764 -33.15196139
130.1712758 9.831913387 -9.738784092e-05
37.27641582 -2.461344798e-05 -61.57028439
-187.4489542 -2.461344798e-05 -42.93670639
-103.8638082 -2.461344798e-05 -18.36600939
-104.1642112 -2.461344798e-05 -241.9263694
-256.8665552 -2.461344798e-05 -138.7254904
-172.7593742 -2.461344798e-05 -198.5933054
235.0026598 37.52436339 -9.738784092e-05
-344.9995162 16.52591939 -86.85131739
254.2594488 -2.461344798e-05 -9.199976388
-344.9995162 10.91989039 -52.89638539
286.7684148 117.3759924 -9.738784092e-05
348.9995068 84.02076239 -23.92502539
25.00885982 -2.461344798e-05 -106.0832934
-256.1985512 -2.461344798e-05 -192.7740154
-350.9995162 13.78705639 -174.0985544
240.4482678 11.77170539 -9.738784092e-05
153.2153618 -2.461344798e-05 -39.80805939
348.9995068 40.12002439 -118.7284184
196.8129668 -2.461344798e-05 -27.47428039
-350.9995162 39.32384739 -130.8068154
216.7237008 -2.461344798e-05 -67.91745639
-244.2112502 22.68434739 -9.738784092e-05
-344.9995162 31.04046939 -170.0042304
249.9790528 -2.461344798e-05 -110.3553454
193.3344638 41.74439739 -9.738784092e-05
242.9527738 -2.461344798e-05 -177.9044624
107.8938578 59.80800239 -9.738784092e-05
130.4721768 -2.461344798e-05 -12.71251639
344.9995068 46.92437339 -69.41972839
225.3350658 -2.461344798e-05 -178.1344064
-277.1743442 -2.461344798e-05 -18.46409239
97.27465782 5.852769387 -9.738784092e-05
162.8703178 -2.461344798e-05 -194.7848344
-350.9995162 12.12572839 -193.8569774
-66.16863218 -2.461344798e-05 -152.2953104
344.9995068 91.64255839 -44.78088739
28.26963882 29.10542839 -9.738784092e-05
-117.0641362 15.16898739 -9.738784092e-05
54.40902282 -2.461344798e-05 -75.38850239
259.1316288 56.04014439 -9.738784092e-05
318.0175948 -2.461344798e-05 -0.3463483878
325.3049108 -2.461344798e-05 -143.9591604
-341.9779982 17.69640139 -9.738784092e-05
273.6206998 -2.461344798e-05 -226.0273614
234.9218948 -2.461344798e-05 -202.2138924
243.6789388 -2.461344798e-05 -221.7160994
348.9995068 57.02913039 -162.1553284
-296.8561232 -2.461344798e-05 -104.3808784
-350.9995162 45.73967839 -103.7299614
182.8545518 6.026627387 -9.738784092e-05
344.9995068 60.81459739 -9.064705388
348.9995068 12.11611539 -116.2602864
-21.72984418 44.47328239 -9.738784092e-05
-347.0511692 6.105892387 -17.34712639
109.8452628 -2.461344798e-05 -220.7078634
344.9995068 30.85626439 -84.73055539
-230.9392862 -2.461344798e-05 -243.0831394
348.9995068 28.54234239 -106.3209354
348.9995068 43.77278939 -249.8666874
271.3901308 91.18905139 -9.738784092e-05
-350.9995162 11.04633839 -135.3393824
-33.28058218 -2.461344798e-05 -214.0211914
60.68207882 -2.461344798e-05 -48.56512739
-177.6335492 -2.461344798e-05 -229.8028244
170.9583018 -2.099338613 -9.738784092e-05
348.9995068 80.32742639 -61.78624839
269.9011128 -2.461344798e-05 -9.661220388
-213.1631632 -2.461344798e-05 -202.4971194
1.438398821 26.52286339 -9.738784092e-05
-48.11585018 -2.461344798e-05 -239.1575754
-3.344150179 -2.461344798e-05 -227.1339494
-187.6108032 -2.461344798e-05 -154.1401284
267.5674348 -2.461344798e-05 -238.2166674
-270.4079922 -2.461344798e-05 -197.0241214
-143.9645972 -2.461344798e-05 -235.6309414
-166.9866732 -2.461344798e-05 -4.832298388
-156.8148602 -2.461344798e-05 -144.1509704
-298.8791712 -2.461344798e-05 -122.8362884
279.8134998 18.93634739 -9.738784092e-05
208.3906168 16.03506739 -9.738784092e-05
-1.867551179 -2.461344798e-05 -205.5964674
124.1154458 41.41061739 -9.738784092e-05
211.5609138 -2.461344798e-05 -193.6298554
-59.13688818 -2.461344798e-05 -5.562824388
199.1393688 -2.461344798e-05 -83.51344839
-136.5850132 -2.461344798e-05 -170.6322934
-344.9995162 18.71028839 -191.3431784
-213.3659192 -2.461344798e-05 -143.1618664
-344.9995162 43.58923539 -155.9642214
-344.9995162 32.51136439 -128.8230604
28.40960682 -2.461344798e-05 -171.3312884
-321.0773232 -2.461344798e-05 -169.3118354
-270.3409092 -2.461344798e-05 -160.1916764
-344.9995162 8.689630387 -116.2553094
-221.8636382 -2.461344798e-05 -8.181533388
-350.9995162 6.528988387 -61.98945439
344.9995068 22.84519839 -162.7083454
348.9995068 25.23242339 -21.89536039
-336.4367962 -2.461344798e-05 -250.4104144
-171.6594522 -2.461344798e-05 -35.49312739
9.888759821 -2.461344798e-05 -83.89424139
339.6762008 -2.461344798e-05 -214.4003004
-350.9995162 34.39246439 -37.80861039
-21.92190518 -2.461344798e-05 -102.2931284
-328.1775312 51.15173839 -9.738784092e-05
-110.5824282 -2.461344798e-05 -183.2430854
302.5427298 -2.461344798e-05 -219.6837794
-271.9838022 -2.461344798e-05 -187.0036254
190.5709088 -2.461344798e-05 -166.1487174
-350.9995162 44.99905839 -9.546971388
185.4634138 -2.461344798e-05 -30.79668239
13.15605182 -2.461344798e-05 -211.7132614
53.03160282 -2.461344798e-05 -175.9483074
-146.4787322 -2.461344798e-05 -12.10538139
-344.9995162 22.50637539 -146.8983394
35.60560582 -2.461344798e-05 -158.0940184
-146.9102722 -2.461344798e-05 -204.2511494
344.9995068 17.51627339 -101.5614304
119.8923918 -2.461344798e-05 -181.6241514
-310.3677982 -2.461344798e-05 -216.1322634
-42.88658118 -2.461344798e-05 -229.1374964
287.2169598 -2.461344798e-05 -194.5595564
343.1387118 -2.461344798e-05 -94.40733339
303.1694528 -2.461344798e-05 -171.7564744
-89.79563818 18.48160439 -9.738784092e-05
114.2842008 -2.461344798e-05 -22.65072439
-350.9995162 8.632331387 -96.29028939
348.9995068 58.47526839 -195.1467794
-187.7883942 -2.461344798e-05 -33.53940339
62.17819882 6.568532387 -9.738784092e-05
43.43311982 -2.461344798e-05 -193.0658174
-141.0968392 22.51023039 -9.738784092e-05
195.4674668 -2.461344798e-05 -106.5824754
-9.978328179 -2.461344798e-05 -177.1512684
254.9143228 -2.461344798e-05 -117.3915734
162.6080328 -2.461344798e-05 -119.4596494
347.5147828 -2.461344798e-05 -200.3124314
166.7514198 -2.461344798e-05 -159.7842654
52.25165982 26.12290939 -9.738784092e-05
299.0571748 -2.461344798e-05 -111.1594664
363.6613758 -2.461344798e-05 -241.8201594
-321.6163672 -2.461344798e-05 -51.41487739
-359.7131192 -2.461344798e-05 -214.3041834
-336.8522522 -2.461344798e-05 -72.63721339
-39.23152118 -2.461344798e-05 -74.72232739
-350.9995162 46.30650239 -141.8047764
-344.9995162 45.41282939 -181.5399524
-177.1230182 8.635241387 -9.738784092e-05
348.9995068 63.99445839 -62.07215939
-350.9995162 42.61903239 -232.7701454
-249.6761912 -2.461344798e-05 -103.4146234
278.1034858 -2.461344798e-05 -37.67436839
-231.1459672 -2.461344798e-05 -46.08396839
-350.9995162 36.14645939 -26.31408939
-228.4977502 17.23112339 -9.738784092e-05
-344.9995162 15.11984739 -237.3111524
-344.9995162 7.816842387 -181.6252864
200.4780968 46.22347639 -9.738784092e-05
348.9995068 26.73248739 -223.2737684
-365.6250812 -2.461344798e-05 -76.22985539
334.1826238 -2.461344798e-05 -13.17258939
-136.9374412 52.01102239 -9.738784092e-05
344.9995068 73.27208339 -121.7424504
270.5217708 21.41424139 -9.738784092e-05
-71.35081918 -2.461344798e-05 -170.0665764
-80.34801918 -2.461344798e-05 -89.64128039
348.9995068 22.31172339 -154.0996814
211.7928288 80.91660139 -9.738784092e-05
-162.9378372 -2.461344798e-05 -242.2123644
230.6764368 -2.461344798e-05 -233.2946814
201.7707248 -2.461344798e-05 -162.2401814
348.9995068 67.24588439 -139.7641194
-350.9995162 17.71420039 -143.5039484
-120.1038622 -2.461344798e-05 -166.9435324
-59.21187318 -2.461344798e-05 -222.1900244
344.9995068 55.95929939 -143.0064624
272.5485588 -2.461344798e-05 -170.8881234
-295.9631082 -2.461344798e-05 -220.1363064
-318.5121132 27.01763139 -9.738784092e-05
309.7250768 -2.461344798e-05 -71.43533739
150.3106618 -2.461344798e-05 -95.68302439
328.3040758 -2.461344798e-05 -176.8209554
348.9995068 47.98485539 -213.4988394
11.99204682 -2.461344798e-05 -30.94730939
-11.23397118 -2.461344798e-05 -19.95059439
344.9995068 6.866756387 -250.1755234
110.2072598 -2.461344798e-05 -62.75368839
158.8168868 -2.461344798e-05 -8.330809388
222.5217448 -2.461344798e-05 -51.81084339
131.9362528 -2.461344798e-05 -111.3526534
-42.40246318 -0.09629061345 -9.738784092e-05
82.80073982 -2.461344798e-05 -73.89376939
348.9995068 6.186806387 -174.1321724
133.7972308 43.20386239 -9.738784092e-05
348.9995068 0.7832023866 -182.8458634
-350.9995162 21.17562339 -227.0152584
347.5571108 72.23055939 -9.738784092e-05
336.3033798 95.73206339 -9.738784092e-05
348.9995068 35.02172739 -225.7606634
38.98643182 36.66434039 -9.738784092e-05
143.6356298 31.87017439 -9.738784092e-05
-222.3067172 -2.461344798e-05 -136.6051374
-49.14517318 48.50859439 -9.738784092e-05
-344.9995162 27.42555539 -243.8601444
23.74042882 -2.461344798e-05 -133.7100034
344.9995068 56.17201139 -65.82276839
8.656109821 17.46449739 -9.738784092e-05
165.5732178 -2.461344798e-05 -244.4429164
344.9995068 43.27649639 -196.3115454
-344.9995162 41.56448439 -64.56724639
-134.4703502 -2.461344798e-05 -89.42707139
315.2728588 -2.461344798e-05 -166.3740684
261.7189408 -2.461344798e-05 -246.2396294
-64.00227018 -2.461344798e-05 -60.04871439
-70.18858418 -2.461344798e-05 -86.71260139
-345.2309432 49.99997539 -202.9780364
348.9995068 35.17527839 -132.7907504
-342.4981232 51.06664039 -9.738784092e-05
-146.1711722 40.85345539 -9.738784092e-05
-346.6787132 -2.461344798e-05 -188.1683954
-344.9995162 19.55656939 -10.87191839
190.1624818 -2.461344798e-05 -144.8108054
-7.999146179 -2.461344798e-05 -128.3553564
-241.7154672 -2.461344798e-05 -31.63724739
101.3232728 -2.461344798e-05 -211.5833384
-344.9995162 23.53570139 -157.8241224
-350.9995162 44.15930339 -166.5961254
262.7550558 -2.461344798e-05 -94.87456439
24.92796682 67.38536739 -9.738784092e-05
344.9995068 23.26125239 -120.6436744
311.6950908 38.11973539 -9.738784092e-05
-66.94771318 -2.461344798e-05 -1.798235388
344.9995068 47.11641839 -140.3551584
-344.9995162 39.21941839 -20.86635039
90.43087582 10.43504339 -9.738784092e-05
148.9619588 -2.461344798e-05 -196.3909814
320.1951338 -2.461344798e-05 -26.87041239
-294.5514682 66.92622639 -9.738784092e-05
-70.12277718 -2.461344798e-05 -185.1802084
275.1218558 78.73788439 -9.738784092e-05
234.1750208 -2.461344798e-05 -215.1174244
144.9384458 -2.461344798e-05 -153.3011344
-354.4189742 -2.461344798e-05 -177.8621794
-350.9995162 40.69907939 -97.23606939
-175.1990892 -2.461344798e-05 -179.3286224
-307.6565112 63.44435439 -9.738784092e-05
-318.8395982 -2.461344798e-05 -107.0641984
348.9995068 42.95716239 -151.6804884
-59.92881418 -2.461344798e-05 -23.26068939
285.4628958 -2.461344798e-05 -67.53533639
218.5025848 -2.461344798e-05 -240.9619344
-347.2537002 -0.5632496134 -9.738784092e-05
-258.2588532 -2.461344798e-05 -54.54710439
344.9995068 61.34251939 -50.51965739
-73.76334518 -2.461344798e-05 -139.2390294
-344.9995162 18.16837739 -214.4273124
44.20147482 -2.461344798e-05 -226.1648014
-350.9995162 14.43732439 -116.7235944
-344.9995162 32.19347139 -212.3691654
-320.3299652 -2.461344798e-05 -212.9902204
341.5678588 -2.461344798e-05 -66.18161939
39.28076782 59.97679539 -9.738784092e-05
-2.725157179 -2.325963613 -9.738784092e-05
-171.7935602 -2.461344798e-05 -238.7748854
103.1594458 -2.461344798e-05 -24.69038539
-107.1447872 46.88601839 -9.738784092e-05
339.0192688 56.64693339 -9.738784092e-05
365.7373538 -2.461344798e-05 -176.3360704
291.4114548 -2.461344798e-05 -147.2945074
-199.0922742 -2.461344798e-05 -17.83817139
274.4063198 108.9081124 -9.738784092e-05
-344.9995162 30.14531339 -117.9706804
144.1041398 -2.461344798e-05 -60.66747339
-344.9995162 33.81015039 -152.8183384
-285.9013332 -1.692831613 -9.738784092e-05
-350.9995162 23.28190139 -88.67995239
100.8616898 -2.461344798e-05 -98.64471439
-184.3231252 -2.461344798e-05 -99.99074839
344.9995068 29.74002339 -236.7323744
297.4062338 -2.461344798e-05 -122.6389794
-30.37242118 -2.461344798e-05 -48.35857639
319.9322498 -2.461344798e-05 -246.9706344
165.9736158 22.01208139 -9.738784092e-05
-149.9174752 -2.461344798e-05 -47.86836639
277.5661788 27.76773239 -9.738784092e-05
348.9995068 98.76841239 -18.13455839
344.9995068 78.42868539 -132.7337604
-162.9977582 -2.461344798e-05 -104.0418444
346.9203208 109.3106804 -38.59287039
113.8041248 -2.461344798e-05 -5.232472388
-359.3596782 60.19793239 -9.738784092e-05
-78.57869118 13.22591639 -9.738784092e-05
-350.9995162 42.45754139 -250.4439104
-242.3898402 46.22374139 -9.738784092e-05
-240.1085132 -2.461344798e-05 -82.33480039
-34.92808618 -2.461344798e-05 -153.4266004
69.82696382 44.10062339 -9.738784092e-05
-230.6737222 -2.461344798e-05 -217.4657744
216.4877478 64.02278739 -9.738784092e-05
171.0613178 29.74019339 -9.738784092e-05
62.15445782 -2.461344798e-05 -176.0852734
344.9995068 66.16403739 -181.5996694
151.9706668 46.49167739 -9.738784092e-05
-101.8290602 -2.461344798e-05 -165.7811454
-350.9995162 24.73730939 -19.82977339
241.0425628 51.27057939 -9.738784092e-05
-360.1323962 -2.461344798e-05 -194.3380644
121.6593178 -2.461344798e-05 -143.8813054
-275.1809842 -2.461344798e-05 -144.8930414
-119.2158192 -2.461344798e-05 -54.74764539
333.9683108 -2.461344798e-05 -226.1761664
348.9995068 10.37818839 -194.4605194
-344.9995162 33.62289039 -97.51731739
264.8317448 78.61544139 -9.738784092e-05
-117.6165452 37.08724539 -9.738784092e-05
