# .PCD v0.7 - Point Cloud Data file format
VERSION 0.7
FIELDS x y z
SIZE 4 4 4
TYPE F F F
COUNT 1 1 1
WIDTH 1186
HEIGHT 1
VIEWPOINT 0 0 0 1 0 0 0
POINTS 1186
DATA ascii
-284.999785 11.54280239 -111.2521294
-200.638262 -2.460883502e-05 -52.26856739
100.736887 -2.460883502e-05 -166.9513474
-103.735369 -2.460883502e-05 -107.4071484
-162.591116 -2.460883502e-05 -201.6596664
-51.099472 -2.460883502e-05 -249.2936384
-63.269397 -2.460883502e-05 -246.6345884
220.046304 -2.460883502e-05 -156.0265864
297.346941 46.64226139 -9.738820836e-05
20.698948 -2.460883502e-05 -114.3786554
-123.304919 -2.460883502e-05 -244.9007684
88.112528 -2.460883502e-05 -208.0428564
9.676002001 12.33017239 -9.738820836e-05
289.577978 -2.460883502e-05 -47.43418539
-227.984773 -2.460883502e-05 -62.77001039
3.742526001 -2.460883502e-05 -20.04855139
-284.999785 38.29604539 -97.50250939
-178.091951 -2.460883502e-05 -238.6703414
195.289955 -2.460883502e-05 -137.9521764
-98.502364 -2.460883502e-05 -94.67920439
-41.763774 -2.460883502e-05 -179.3947124
221.426978 55.35771039 -9.738820836e-05
-39.863834 -2.460883502e-05 -117.9241084
57.002361 40.92502239 -9.738820836e-05
-118.321822 -2.460883502e-05 -182.5471344
45.612041 -2.460883502e-05 -141.8686414
158.694648 -2.460883502e-05 -219.9438724
243.177206 -2.460883502e-05 -28.68728439
15.837188 -2.460883502e-05 -72.62996439
-284.999785 16.28214439 -143.4057704
-94.804024 -2.460883502e-05 -152.7041364
125.226735 -2.460883502e-05 -248.0301754
256.26396 -2.460883502e-05 -48.21894539
-284.999785 23.42595539 -91.39463639
252.775823 12.96136839 -9.738820836e-05
-127.801317 30.51805639 -9.738820836e-05
226.702411 -2.460883502e-05 -102.8610554
-169.253833 27.11587039 -9.738820836e-05
299.493071 -0.9558926088 -9.738820836e-05
100.943306 -2.460883502e-05 -186.5155264
-75.252954 -2.460883502e-05 -31.33419939
152.135399 64.75325639 -9.738820836e-05
71.701864 10.25937139 -9.738820836e-05
-276.085313 -2.460883502e-05 -63.96552739
-119.42198 -2.460883502e-05 -62.64158239
110.257132 20.53189739 -9.738820836e-05
-117.425856 60.91661939 -9.738820836e-05
233.842667 -2.460883502e-05 -205.7904564
-62.044584 16.07560639 -9.738820836e-05
-169.955495 -2.460883502e-05 -10.51950439
274.089829 -2.460883502e-05 -120.1973124
-10.806793 51.64616639 -9.738820836e-05
-53.449062 -2.155284609 -9.738820836e-05
36.329091 -2.460883502e-05 -98.36702339
-189.754342 -2.460883502e-05 -196.5045454
-78.575733 -2.460883502e-05 -67.64176039
303.390888 -2.460883502e-05 -213.7987844
75.761221 -2.460883502e-05 -143.5182054
206.473341 -2.460883502e-05 -13.23108139
85.205399 -2.460883502e-05 -219.7938984
96.0787 -2.460883502e-05 -237.1347014
35.740594 -2.460883502e-05 -196.0491234
267.655362 -2.460883502e-05 -131.6395364
290.513969 -2.460883502e-05 -59.39480339
283.738014 33.95521139 -9.738820836e-05
148.981535 -2.460883502e-05 -59.79211339
95.587753 -2.460883502e-05 -153.9920634
-278.999785 23.53534139 -46.68670739
-267.692168 -2.460883502e-05 -81.02760539
-278.999785 39.35089639 -37.35161939
32.237328 -2.460883502e-05 -58.14819139
-105.745937 -2.460883502e-05 -78.97385339
235.82324 -2.460883502e-05 -235.4309444
-18.775448 -2.460883502e-05 -146.6349744
-278.999785 32.05640539 -121.5569174
88.418583 47.43401739 -9.738820836e-05
-187.35687 -2.460883502e-05 -106.9772254
-284.999785 12.45345539 -193.0958554
-281.674373 -2.460883502e-05 -209.5900474
292.840986 85.95485839 -9.738820836e-05
-284.999785 9.097054391 -44.10464239
129.502379 -2.460883502e-05 -188.6413464
-36.138324 23.73126939 -9.738820836e-05
153.988496 -2.460883502e-05 -177.1365904
281.000215 -2.162046609 -99.51002639
-278.999785 36.83554639 -78.30437739
294.907539 -2.460883502e-05 -236.2195064
-56.250358 30.81533339 -9.738820836e-05
-22.219538 30.82513039 -9.738820836e-05
-284.999785 27.68051639 -101.5913454
-103.000789 -2.460883502e-05 -210.0789874
-272.966192 -2.460883502e-05 -25.65264339
93.980529 -2.460883502e-05 -107.8148124
201.336883 -2.460883502e-05 -34.50789939
-278.999785 42.26971039 -134.1315494
-237.39969 -2.460883502e-05 -140.6756204
178.428172 67.99997539 0.8443636118
-81.329091 -2.460883502e-05 -104.0611124
-140.898473 5.288812391 -9.738820836e-05
124.918321 -2.460883502e-05 -57.87033839
-203.572689 8.926521391 -9.738820836e-05
176.253536 -2.460883502e-05 -63.02600039
-108.101407 -2.460883502e-05 -129.7277444
-284.999785 49.16618139 -7.875262388
-167.727627 -2.460883502e-05 -39.75925939
-194.162298 -2.460883502e-05 -127.8779954
166.99344 -2.460883502e-05 -205.7071234
134.633439 25.72604939 -9.738820836e-05
300.81189 -2.460883502e-05 -144.5867134
-31.845149 -2.460883502e-05 -186.1000264
-63.691671 -2.460883502e-05 -12.12485739
167.781881 -2.460883502e-05 -120.0979034
-288.27564 25.21478039 -9.738820836e-05
-230.242993 -2.460883502e-05 -244.1825584
-218.5828 -2.460883502e-05 -22.90612239
34.248523 -2.460883502e-05 -76.79647439
-174.372942 -2.460883502e-05 -62.03905639
12.020802 -2.460883502e-05 -125.5988984
251.318998 67.99997539 1.166322612
-130.86667 12.22755639 -9.738820836e-05
-209.335288 -2.460883502e-05 -178.1617374
162.616925 -2.460883502e-05 -156.0355474
147.057003 -2.460883502e-05 -200.3580754
157.778414 -2.460883502e-05 -25.83393439
-155.224372 -2.460883502e-05 -89.26346239
-3.955358999 -2.460883502e-05 -101.6306704
-1.193049999 -2.460883502e-05 -153.5538144
112.765194 -2.460883502e-05 -222.3613864
-278.999785 8.949588391 -244.5544154
-12.652121 -2.460883502e-05 -35.54161339
-292.716089 -2.460883502e-05 -184.0861294
-66.267648 -2.460883502e-05 -82.26748539
-278.999785 23.37208139 -109.3394684
-288.788267 -2.460883502e-05 -73.30290339
-10.582602 -2.460883502e-05 -235.4653064
-94.545386 -2.460883502e-05 -182.9674354
-202.762917 -2.460883502e-05 -84.33547739
-173.073509 -2.460883502e-05 -29.98725639
113.317394 -2.460883502e-05 -73.27065739
-293.133792 -2.460883502e-05 -47.68726439
-245.981822 27.78525639 -9.738820836e-05
-284.999785 26.48871539 -80.50236039
-138.571547 -2.460883502e-05 -11.83937839
-220.206168 -2.460883502e-05 -135.8891074
-15.614591 -2.460883502e-05 -128.2304224
296.616938 24.41567539 -9.738820836e-05
-278.999785 39.47624039 -51.48541339
-71.213523 -2.460883502e-05 -51.87972839
-220.865259 8.010976391 -9.738820836e-05
-282.932334 36.24373939 -1.000097388
-86.306824 -2.460883502e-05 -135.1821404
-86.312665 -2.460883502e-05 -238.1194334
172.792758 -2.460883502e-05 -230.8269434
-13.750602 -2.460883502e-05 -169.1126914
-192.844666 -2.460883502e-05 -250.7004454
23.597877 -2.460883502e-05 -141.1692884
-267.286935 21.23391539 -9.738820836e-05
-33.887744 -2.460883502e-05 -28.98240439
-97.05873 -2.460883502e-05 -249.2710624
209.950211 36.65673139 -9.738820836e-05
31.383621 55.42508139 -9.738820836e-05
292.648713 -2.460883502e-05 -110.1678684
69.623743 -2.460883502e-05 -77.64663939
-284.999785 23.08607039 -130.8127894
-132.542305 -2.460883502e-05 -207.3568544
-267.942788 -2.460883502e-05 -11.02793139
-278.999785 24.42280439 -19.30697939
48.653716 -2.460883502e-05 -6.795410388
183.954252 -2.460883502e-05 -90.67888439
277.771004 -2.460883502e-05 -178.3470564
210.427354 -2.460883502e-05 -197.7641074
164.577731 -2.460883502e-05 -108.6845304
-227.594558 17.29329639 -9.738820836e-05
82.154912 -2.460883502e-05 -63.56792539
-61.498764 -2.460883502e-05 -117.5387574
205.58969 -1.558574609 -9.738820836e-05
121.379219 -2.460883502e-05 -182.1192464
298.392263 -2.460883502e-05 -193.0979564
-155.120063 -2.460883502e-05 -136.2405614
259.560197 40.71513439 -9.738820836e-05
-48.55933 -2.460883502e-05 -79.75334039
113.891093 -2.460883502e-05 -100.2419964
-74.021779 46.12100839 -9.738820836e-05
-159.225854 -2.460883502e-05 -222.0509974
-284.999785 49.83973939 -65.72330939
-271.433665 -2.460883502e-05 -43.93561639
-173.526999 -2.460883502e-05 -133.3339964
-278.999785 21.77562939 -66.66075239
-189.709013 39.14281839 -9.738820836e-05
109.167662 -2.460883502e-05 -111.7624904
-16.089302 10.37404839 -9.738820836e-05
-160.472909 -2.460883502e-05 -63.35538239
-284.999785 2.322580391 -225.5989624
-236.058836 -2.460883502e-05 -46.94302539
-284.999785 41.34798739 -22.43809339
-189.134824 -2.460883502e-05 -73.99342439
172.537211 1.908986391 -9.738820836e-05
-2.626434999 -2.460883502e-05 -47.39614739
70.858273 -2.460883502e-05 -100.9986084
70.731576 58.77217539 -9.738820836e-05
118.677933 -2.460883502e-05 -240.1356064
-278.999785 24.99857239 -33.80797339
134.178366 -2.460883502e-05 -108.4890514
-87.398809 -2.460883502e-05 -165.2957314
-207.731767 30.64508039 -9.738820836e-05
-23.965947 -2.460883502e-05 -230.3169914
-22.445869 -2.460883502e-05 -202.2837024
192.56921 -2.460883502e-05 -120.9867804
-97.435836 -2.460883502e-05 -118.2320154
-73.386412 10.85416339 -9.738820836e-05
-237.310114 35.97909839 -9.738820836e-05
-184.075148 -2.460883502e-05 -132.8511164
-219.081707 -2.460883502e-05 -37.99995439
242.66139 6.176894391 -9.738820836e-05
-71.888684 -2.460883502e-05 -170.1112254
-265.526717 -2.460883502e-05 -180.3352194
8.666154001 -2.460883502e-05 -193.5761514
-29.655143 -2.460883502e-05 -101.9202754
151.496347 -2.460883502e-05 -155.5725364
225.590967 -0.02419360884 -9.738820836e-05
-122.201664 -2.460883502e-05 -125.8539784
-168.01191 -2.460883502e-05 -239.6766934
-75.07641 -2.460883502e-05 -217.9238084
291.033225 -2.460883502e-05 -89.29861939
133.534053 -2.460883502e-05 -16.85711239
154.072147 7.128947391 -9.738820836e-05
211.51303 51.73758939 -9.738820836e-05
-276.895641 -2.460883502e-05 -240.3708444
116.158541 53.79838639 -9.738820836e-05
-105.59329 58.12437039 -9.738820836e-05
-129.487821 -2.460883502e-05 -164.8392794
122.28554 5.402569391 -9.738820836e-05
-115.678404 -2.460883502e-05 -237.0606224
-212.638744 -2.460883502e-05 -77.83800739
184.810227 -2.460883502e-05 -4.029184388
196.448245 -2.460883502e-05 -111.3692344
-13.90624 -2.460883502e-05 -64.59550239
-242.776683 -2.460883502e-05 -185.0407724
-85.338735 28.51119639 -9.738820836e-05
-204.890026 -2.460883502e-05 -134.4071394
-170.190028 -2.460883502e-05 -117.5451524
-192.110235 54.92946039 -9.738820836e-05
69.670981 -2.460883502e-05 -9.606308388
-76.262199 -2.460883502e-05 -196.7590134
-147.27697 33.89674939 -9.738820836e-05
-195.523841 -2.460883502e-05 -166.8690024
-44.25293 -2.460883502e-05 -36.06090939
-253.211445 -2.460883502e-05 -176.8932814
-158.110018 -2.460883502e-05 -6.350726388
-239.456004 -2.460883502e-05 -122.6804404
34.897425 32.75624939 -9.738820836e-05
-275.180657 -2.460883502e-05 -198.5202414
25.79281 -2.460883502e-05 -94.29917439
-274.455708 5.548014391 -9.738820836e-05
-47.16328 -2.460883502e-05 -97.20308739
156.835143 -2.460883502e-05 -210.1831754
180.116003 20.58321239 -9.738820836e-05
217.574609 -2.460883502e-05 -39.02227239
-137.053685 34.05705739 -9.738820836e-05
-227.754162 -2.460883502e-05 -142.9187394
-36.309264 -2.460883502e-05 -218.7100494
78.4804 -2.460883502e-05 -162.8591974
-10.45851 -2.460883502e-05 -216.5863814
240.737052 -2.460883502e-05 -83.59767539
-49.39625 -2.460883502e-05 -67.08855339
280.000215 -2.215862609 -198.2993594
7.980045001 -2.460883502e-05 -163.9617904
-9.602420999 19.95462439 -9.738820836e-05
-18.181091 -2.460883502e-05 -8.436063388
24.917723 -2.460883502e-05 -7.245046388
69.825256 -2.460883502e-05 -31.05885639
275.459516 -2.460883502e-05 -62.71174739
-25.046347 -0.4795126088 -9.738820836e-05
-284.999785 1.451782391 -99.96506539
-83.292249 -2.460883502e-05 -21.15886239
-286.221378 56.57082739 -9.738820836e-05
-284.999785 39.51157439 -241.3510644
280.000215 -1.239275609 -44.16153139
-291.400884 -2.460883502e-05 -85.24185939
-0.5558159992 -2.460883502e-05 -239.0945394
129.493721 -2.460883502e-05 -167.4877404
-236.666154 13.10082139 -9.738820836e-05
-137.57526 -2.460883502e-05 -176.2625794
3.867835001 -2.460883502e-05 -31.45141539
149.449223 -2.460883502e-05 -108.5060974
31.632266 -2.460883502e-05 -149.7138474
-278.999785 6.052891391 -169.1171634
248.856033 21.97863539 -9.738820836e-05
285.147009 -2.460883502e-05 -119.6775054
-21.040732 -2.460883502e-05 -250.0999994
-263.609442 -2.460883502e-05 -113.6378114
-23.43654 -2.460883502e-05 -110.2015704
149.953547 -2.460883502e-05 -224.3810994
177.49831 -2.460883502e-05 -164.6180174
82.062601 -2.460883502e-05 -136.0128224
90.123802 -2.460883502e-05 -42.85369339
-112.788303 -2.460883502e-05 -210.2098034
-74.260671 -2.460883502e-05 -143.5507274
-278.999785 29.57215739 -153.1444004
209.620841 -2.460883502e-05 -175.5024174
257.699841 -2.460883502e-05 -148.7929264
-137.013473 -2.460883502e-05 -238.5577334
24.452465 -2.460883502e-05 -31.78867239
226.503912 -2.460883502e-05 -135.8884694
154.316794 -2.460883502e-05 -67.94696339
54.489384 -2.460883502e-05 -42.98512639
-263.974653 40.46049739 -9.738820836e-05
173.47506 -2.460883502e-05 -72.61102339
204.200352 -2.460883502e-05 -51.68888039
-278.999785 41.18938039 -229.2598504
-257.342393 -2.460883502e-05 -76.91339739
-186.05767 -2.460883502e-05 -43.21024539
209.229609 -2.460883502e-05 -72.28874839
216.512183 -2.460883502e-05 -102.8625674
-32.593701 -2.460883502e-05 -49.86286439
-284.999785 9.450244391 -82.07691139
-159.525057 -2.460883502e-05 -16.00761839
149.444825 -2.460883502e-05 -9.174520388
133.867556 -2.460883502e-05 -241.1485744
-285.596431 -2.460883502e-05 -152.7908064
91.54666 11.53961339 -9.738820836e-05
-11.034302 -2.460883502e-05 -79.70444239
-229.574747 -2.460883502e-05 -106.3680004
231.861203 47.20018839 -9.738820836e-05
205.610375 -2.460883502e-05 -135.2404634
-219.76231 -2.460883502e-05 -161.3800924
-245.618119 18.16695639 -9.738820836e-05
-256.547929 -2.460883502e-05 -167.0415264
86.00144 63.46353839 -9.738820836e-05
67.769129 19.03734639 -9.738820836e-05
105.668908 -2.460883502e-05 -195.0579474
275.388841 10.61008539 -9.738820836e-05
66.383884 -2.460883502e-05 -206.5748734
167.733174 -2.460883502e-05 -54.67628839
0.9245680008 -2.460883502e-05 -132.8844544
-56.60609 66.36363239 -9.738820836e-05
-288.361935 -2.460883502e-05 -234.2296884
-152.49793 -2.460883502e-05 -23.91337739
-39.974864 -2.460883502e-05 -130.2545954
-288.104402 -2.460883502e-05 -175.7403574
-227.584352 -2.460883502e-05 -117.6492324
-135.057083 -2.460883502e-05 -44.32934039
131.268024 -2.460883502e-05 -230.2298354
-223.085066 -2.460883502e-05 -224.5501914
263.445008 68.22597639 0.005876611792
3.054563001 -2.460883502e-05 -183.7381064
-246.850816 51.11530239 -9.738820836e-05
258.769519 -2.460883502e-05 -245.2150354
-284.999785 40.01856239 -13.05627739
-20.962197 -2.460883502e-05 -40.08991939
184.554358 -2.460883502e-05 -189.2695474
58.934767 -2.460883502e-05 -139.3779884
121.891595 -2.460883502e-05 -31.46934639
-284.999785 6.279323391 -145.4536074
46.284144 -2.460883502e-05 -181.6867404
85.525992 -2.460883502e-05 -193.7892554
59.690182 12.18860439 -9.738820836e-05
214.705176 16.13637739 -9.738820836e-05
38.721988 -2.460883502e-05 -14.30274239
-284.999785 25.83929339 -246.2830164
-210.514025 -2.460883502e-05 -199.5413254
-278.999785 21.04117339 -137.8435694
4.057918001 -2.460883502e-05 -230.8238624
178.907337 37.42432339 -9.738820836e-05
-266.668801 -2.460883502e-05 -149.2297244
139.830529 -2.460883502e-05 -159.3146594
-251.962599 -2.460883502e-05 -6.538930388
-258.182511 -2.460883502e-05 -212.9418094
-278.999785 17.58224639 -210.0147844
-150.466834 -2.460883502e-05 -197.4888964
122.135378 -2.460883502e-05 -104.7539664
-57.648183 -2.460883502e-05 -47.66866939
-284.999785 41.76221239 -73.01319039
197.200356 51.92222239 -9.738820836e-05
170.055874 -2.460883502e-05 -146.9449614
-284.999785 41.53945739 -197.5904534
284.942379 64.22370039 -9.738820836e-05
191.65328 -2.460883502e-05 -242.7897044
-281.607525 -2.460883502e-05 -83.22696739
56.341376 -2.460883502e-05 -204.0830214
-177.237346 -2.460883502e-05 -176.1617404
56.331188 -2.460883502e-05 -173.3714204
-41.210628 -2.460883502e-05 -189.1998294
-58.339172 -2.460883502e-05 -213.8434504
-278.999785 8.615492391 -96.93985839
221.851874 -2.460883502e-05 -9.898721388
-147.59935 -2.460883502e-05 -218.0419904
-281.78128 10.67099239 -14.77225339
-19.460583 -2.460883502e-05 -182.0133794
277.215204 -2.460883502e-05 -75.13703139
-284.999785 8.930720391 -62.60385339
12.211324 -2.460883502e-05 -204.5128154
-207.265376 -2.460883502e-05 -13.99439439
77.959316 -2.460883502e-05 -225.5142034
-170.997285 -2.460883502e-05 -76.90780839
162.200647 45.18030439 -9.738820836e-05
130.025553 -2.460883502e-05 -42.39316839
-38.636911 -2.460883502e-05 -10.70092939
247.517008 57.72763039 -9.738820836e-05
-117.384566 12.13079239 -9.738820836e-05
-143.56608 -2.460883502e-05 -66.50524039
-293.30133 66.52745239 -9.738820836e-05
-284.999785 20.84129439 -228.4511804
285.018062 -2.460883502e-05 -157.3924944
-217.741529 -2.460883502e-05 -52.14290039
-60.360064 -2.460883502e-05 -133.2191394
38.547348 -2.460883502e-05 -242.9994504
178.037726 -2.460883502e-05 -137.0100914
-191.009727 -2.460883502e-05 -4.965334388
224.549769 -2.460883502e-05 -111.9144834
37.497282 67.99997539 2.411900612
-284.999785 41.47540339 -217.1680394
-160.328046 -2.460883502e-05 -111.7533934
-47.703704 -2.460883502e-05 -6.788457388
302.578288 86.54047839 -9.738820836e-05
245.40625 -2.460883502e-05 -7.369312388
-213.6702 -2.460883502e-05 -153.6074084
-45.607201 -2.460883502e-05 -157.2614984
-278.999785 44.41983539 -94.36880739
92.855225 -2.460883502e-05 -251.0280754
23.265218 -2.460883502e-05 -184.2682124
263.439281 -2.460883502e-05 -195.5928994
65.272537 -2.460883502e-05 -149.8729064
-239.844982 -2.460883502e-05 -174.5459384
42.080201 -2.460883502e-05 -23.71664039
234.192537 -2.460883502e-05 -182.0735614
-238.487205 -2.460883502e-05 -68.15573039
-284.676533 -2.460883502e-05 -40.31604239
-278.999785 41.64999539 -113.2655494
116.226159 -2.460883502e-05 -135.5856464
-292.735671 -0.5447566088 -9.738820836e-05
-139.03383 -2.460883502e-05 -188.9843584
-101.679005 -2.460883502e-05 -26.49712039
69.038361 -2.460883502e-05 -238.8310484
-256.43585 -2.460883502e-05 -26.80176739
-284.999785 49.04513039 -132.0968824
-64.535929 34.43589539 -9.738820836e-05
232.472107 21.07555939 -9.738820836e-05
-194.880132 -2.460883502e-05 -209.7656744
-215.273343 -2.460883502e-05 -210.3092224
292.530813 71.76570539 -9.738820836e-05
-278.999785 10.05542139 -151.3948774
-19.485726 -2.460883502e-05 -120.0930604
212.77987 -2.460883502e-05 -19.66323339
210.548149 67.64548839 -9.738820836e-05
-284.999785 21.60185739 -180.3684894
-206.164577 19.60485139 -9.738820836e-05
275.230724 -2.460883502e-05 -7.368969388
-284.999785 26.89016239 -117.2763754
-176.728955 -2.460883502e-05 -215.2653034
164.601797 15.64828839 -9.738820836e-05
48.574857 -2.460883502e-05 -158.2616314
-197.110975 -2.460883502e-05 -60.51410439
-65.524013 -2.460883502e-05 -151.5178764
-284.999785 15.12206539 -218.7018304
194.911907 -2.460883502e-05 -200.9725164
247.805977 -2.460883502e-05 -51.15365939
-165.377306 -2.460883502e-05 -137.0383874
-295.277856 -2.460883502e-05 -26.09595239
-227.576903 -2.460883502e-05 -87.57308639
103.987585 -2.460883502e-05 -142.0116334
-142.557069 -2.460883502e-05 -83.29815539
-97.532098 -2.460883502e-05 -75.18697039
197.713747 -2.460883502e-05 -158.3530494
301.220732 -2.460883502e-05 -122.9676334
-14.12044 59.93085039 -9.738820836e-05
-7.472618999 -2.460883502e-05 -124.3871114
-284.999785 15.33655439 -126.3984494
-240.050446 -2.460883502e-05 -16.30582539
22.246434 32.16401739 -9.738820836e-05
-271.770545 -2.460883502e-05 -162.5988284
0.6890820008 -2.460883502e-05 -199.0730774
-89.784344 36.20235039 -9.738820836e-05
197.622585 -2.460883502e-05 -215.1192564
206.217717 -2.460883502e-05 -98.29254839
274.973172 -2.460883502e-05 -138.5131794
-25.711487 -2.460883502e-05 -152.1599084
131.757296 5.864204391 -9.738820836e-05
-40.919799 52.69362239 -9.738820836e-05
178.297858 -2.460883502e-05 -37.07631339
-242.111365 -2.460883502e-05 -193.8785414
-109.537675 -2.460883502e-05 -218.7733744
-80.973021 -2.460883502e-05 -128.1342774
-90.67739 -2.460883502e-05 -228.1043754
63.167607 -2.460883502e-05 -19.25148539
-277.2705 27.44648739 -9.738820836e-05
98.968151 -2.460883502e-05 -177.3662734
-284.999785 40.94256839 -125.9840874
0.6235320008 -2.460883502e-05 -113.5901094
256.81503 -2.460883502e-05 -231.0838674
-253.212628 -2.460883502e-05 -140.2668754
-278.999785 49.98676839 -228.1136864
-278.999785 24.64655239 -186.0296954
53.866846 -2.460883502e-05 -51.75376239
161.841397 -2.460883502e-05 -130.4487044
-159.057477 -2.460883502e-05 -178.3082604
258.435049 22.84487339 -9.738820836e-05
-241.733837 -2.460883502e-05 -211.9138154
9.061716001 -2.460883502e-05 -52.74351739
142.408858 -2.460883502e-05 -15.94252339
-170.943816 57.94077039 -9.738820836e-05
150.226946 35.08909739 -9.738820836e-05
-26.650002 -2.460883502e-05 -88.46959739
-220.250376 40.39015639 -9.738820836e-05
-33.239375 -2.460883502e-05 -73.16303739
266.016394 -2.460883502e-05 -111.8114284
6.824769001 39.03910139 -9.738820836e-05
-278.999785 44.20106239 -29.84722139
211.300327 -2.460883502e-05 -238.5185864
215.508784 -2.460883502e-05 -147.6536814
-95.543295 43.21921539 -9.738820836e-05
-246.382548 -2.460883502e-05 -107.1303194
262.876669 48.76785839 -9.738820836e-05
161.88675 -2.460883502e-05 -248.6093194
95.85675 -2.460883502e-05 -145.2654314
-255.349181 34.80030139 -9.738820836e-05
-196.72449 -2.460883502e-05 -38.54881139
261.854413 6.071538391 -9.738820836e-05
-133.992111 46.45546939 -9.738820836e-05
-230.340379 -2.460883502e-05 -156.3298404
-108.187352 3.156225391 -9.738820836e-05
-136.597365 -2.460883502e-05 -226.8958284
290.621093 13.62714839 -9.738820836e-05
-13.954533 -2.460883502e-05 -26.02307939
-284.999785 42.20385239 -81.67967639
-110.245954 -2.460883502e-05 -139.3244444
262.716652 -2.460883502e-05 -166.4554434
-33.866161 -2.460883502e-05 -241.4493874
-47.727747 -2.460883502e-05 -241.2882514
-278.999785 41.43607239 -160.1081774
141.010794 -2.460883502e-05 -206.5450604
-124.606103 -2.460883502e-05 -95.57096539
-293.480026 -2.460883502e-05 -241.2893914
102.405766 -2.460883502e-05 -26.74806139
106.12115 -2.460883502e-05 -216.8386784
-259.478637 56.82267739 -9.738820836e-05
-278.999785 8.975635391 -209.2859914
148.975913 -2.460883502e-05 -120.1994844
184.084393 -2.460883502e-05 -105.7877294
246.716451 -2.460883502e-05 -218.6465674
-92.401647 -2.460883502e-05 -6.108506388
-211.882746 -2.460883502e-05 -33.26648239
20.921712 -2.460883502e-05 -232.5936114
109.28855 -2.460883502e-05 -165.9223674
-62.512855 -2.460883502e-05 -90.01711339
-144.093228 -2.460883502e-05 -250.4309134
-175.640843 21.25208739 -9.738820836e-05
108.390549 7.123795391 -9.738820836e-05
-217.16204 -2.460883502e-05 -169.5692644
-112.165415 -2.460883502e-05 -104.7948334
-21.988235 -2.460883502e-05 -221.0590024
109.077475 -2.460883502e-05 -242.2716034
232.885751 -2.460883502e-05 -141.6247284
-272.607505 63.02305839 -9.738820836e-05
-59.656923 4.725022391 -9.738820836e-05
-278.999785 45.55150939 -43.27201839
-284.999785 41.70137639 -142.8370054
-127.423731 -2.460883502e-05 -109.7371514
-239.848151 56.03166439 -9.738820836e-05
-63.817279 -2.460883502e-05 -237.5739784
168.681782 -2.460883502e-05 -13.06019239
-203.432165 -2.460883502e-05 -225.0887664
28.933923 -2.460883502e-05 -219.5307314
-284.999785 17.50046139 -47.18419539
-93.609125 17.02936839 -9.738820836e-05
97.197272 -2.460883502e-05 -9.692703388
248.638131 41.13879639 -9.738820836e-05
-248.968656 -2.460883502e-05 -226.3585404
282.478052 -2.460883502e-05 -144.2737014
89.079758 -2.460883502e-05 -82.89409439
-71.636066 -2.460883502e-05 -72.55683039
111.323398 -2.460883502e-05 -149.6726474
275.295754 32.96101139 -9.738820836e-05
-284.999785 5.769784391 -187.8466534
-278.999785 7.658274391 -228.3788144
-57.021829 -2.460883502e-05 -81.67097539
-120.018811 -2.460883502e-05 -44.12108239
-90.727745 -2.460883502e-05 -142.4337054
198.770524 66.97159739 -9.738820836e-05
-193.34509 -2.460883502e-05 -47.55779139
-102.877587 -2.460883502e-05 -242.2849874
-131.266578 -2.460883502e-05 -182.3109554
-278.999785 28.62051039 -225.5025604
161.679999 -2.460883502e-05 -227.8665774
193.045305 -2.460883502e-05 -36.21759339
-277.134744 55.04615239 -9.738820836e-05
94.362792 -2.460883502e-05 -70.76111939
80.602015 -2.460883502e-05 -6.527994388
218.157528 -2.460883502e-05 -251.7709594
-278.999785 5.037517391 -57.84373639
-153.802306 -2.460883502e-05 -169.6577694
-193.379362 -2.460883502e-05 -223.2239684
-44.226201 -2.460883502e-05 -206.2379814
-278.999785 31.47629339 -97.04461539
-229.712139 39.62722639 -9.738820836e-05
-108.497016 -2.460883502e-05 -148.2322604
241.257476 25.61468839 -9.738820836e-05
-143.446919 -2.460883502e-05 -100.3214684
-284.999785 43.34996639 -55.94027739
-185.152608 -2.460883502e-05 -203.5501144
-72.362507 -2.460883502e-05 -108.4923754
-231.047046 -2.460883502e-05 -54.93599339
-33.024596 4.480459391 -9.738820836e-05
208.915702 -2.460883502e-05 -219.6573764
-284.999785 8.461413391 -175.6464864
-50.129045 -2.460883502e-05 -178.7068734
-34.917607 -2.460883502e-05 -140.0762494
-74.377498 60.17846139 -9.738820836e-05
48.694617 -2.460883502e-05 -191.1299664
-153.60067 -2.460883502e-05 -234.5632184
103.48164 60.72477139 -9.738820836e-05
-275.954951 -2.460883502e-05 -106.6661504
-249.564403 -2.460883502e-05 -55.84510039
145.926265 -2.460883502e-05 -74.21227539
124.136614 -2.460883502e-05 -210.9992834
20.561224 -2.460883502e-05 -204.8707514
-295.13602 -2.460883502e-05 -66.04059839
234.345897 -2.460883502e-05 -214.1265884
264.110106 -2.460883502e-05 -97.47475739
17.073806 -2.460883502e-05 -45.39385939
224.822684 -2.460883502e-05 -20.47875539
-74.266659 -2.460883502e-05 -153.4944874
-169.570054 -2.460883502e-05 -87.55199939
10.931248 -2.460883502e-05 -62.38212239
244.773731 -2.460883502e-05 -130.4924344
-278.999785 41.49143139 -7.488107388
197.327507 39.97619039 -9.738820836e-05
-174.429979 -2.460883502e-05 -166.2313834
-278.999785 17.48343439 -195.8765674
-284.999785 30.22450939 -36.18960639
-278.999785 22.75454839 -161.5269314
-284.999785 36.18901039 -188.9634064
-189.992785 29.15269639 -9.738820836e-05
-284.36238 -2.460883502e-05 -217.4324644
-252.530908 67.45142539 -9.738820836e-05
216.2631 -2.460883502e-05 -111.7463084
39.516342 -2.460883502e-05 -36.15690839
57.438753 32.64993639 -9.738820836e-05
245.549706 -2.460883502e-05 -93.26485439
-125.979853 -2.460883502e-05 -197.8770404
156.332532 29.10417939 -9.738820836e-05
224.051219 -2.460883502e-05 -126.6693254
-284.999785 17.43959239 -241.7419454
-293.231745 -2.460883502e-05 -123.8939724
-164.527999 -2.460883502e-05 -188.4540604
-95.035058 -2.460883502e-05 -50.65260639
284.049828 -2.460883502e-05 -21.53634839
274.533033 -2.460883502e-05 -94.88584339
91.09532 -2.460883502e-05 -160.8889004
245.798193 -2.460883502e-05 -183.0417004
-208.422886 -2.460883502e-05 -214.8518034
-162.162123 45.52636339 -9.738820836e-05
225.120657 -2.460883502e-05 -87.61442239
-284.999785 33.02635039 -199.8037444
208.928862 -2.460883502e-05 -117.9325354
156.702701 -2.460883502e-05 -43.73441239
-278.999785 11.22364039 -105.6815734
238.549876 -2.460883502e-05 -16.19147239
-185.914747 -2.460883502e-05 -66.46335039
225.725691 -2.460883502e-05 -181.8067054
-302.473041 -2.460883502e-05 -95.68744339
-155.345888 51.65144839 -9.738820836e-05
-65.949567 -2.460883502e-05 -58.72363239
-25.105514 -2.460883502e-05 -68.82091939
-278.999785 45.88106239 -149.5683464
-207.975022 -2.460883502e-05 -251.6936134
54.859998 66.45766539 -9.738820836e-05
204.066356 -2.460883502e-05 -188.2199944
-93.166564 -2.460883502e-05 -23.70986239
184.983596 -2.460883502e-05 -156.8593454
-279.440353 -2.460883502e-05 -119.2217874
-88.897272 -2.460883502e-05 -89.68002839
-120.131711 -2.460883502e-05 -157.2658354
296.600147 -2.460883502e-05 -209.3248344
-81.177007 -2.460883502e-05 -212.5485134
102.119927 -2.460883502e-05 -93.15188439
88.090336 -2.460883502e-05 -227.3719704
-73.374577 29.02958739 -9.738820836e-05
-105.024461 -2.460883502e-05 -47.60640939
133.923919 -2.460883502e-05 -80.36460239
-278.499785 -0.2255486088 -158.0962174
28.717428 -2.460883502e-05 -120.2303754
-151.754621 -2.460883502e-05 -77.63587039
137.480287 -2.460883502e-05 -225.0446954
-237.749063 -2.460883502e-05 -89.36692239
-278.999785 9.200379391 -68.00380739
130.930658 62.74829739 -9.738820836e-05
113.429847 -2.460883502e-05 -203.9297354
-278.999785 3.164854391 -128.4268154
-198.202191 -2.460883502e-05 -193.0840444
112.491165 -2.460883502e-05 -52.91245939
213.346612 -2.460883502e-05 -63.36370239
195.676688 -2.460883502e-05 -15.48715039
195.916504 17.93452539 -9.738820836e-05
25.673693 -2.460883502e-05 -40.66629039
-278.999785 37.52785439 -17.80433239
-284.999785 49.73322339 -93.70415539
-121.328701 -2.460883502e-05 -115.3132584
-107.59271 -2.460883502e-05 -162.4761304
-278.999785 27.90262439 -213.1867414
-42.128203 61.84194939 -9.738820836e-05
131.309243 -2.460883502e-05 -206.0069784
-185.880315 -2.460883502e-05 -240.6182784
-98.451825 -2.460883502e-05 -201.8223624
225.269447 -2.460883502e-05 -60.41696639
-14.049481 -2.460883502e-05 -245.5058344
-59.524467 -2.460883502e-05 -230.2595014
-246.296384 -2.460883502e-05 -158.7847164
155.466486 -2.460883502e-05 -86.70678839
115.560837 -2.460883502e-05 -26.57549139
223.987281 -2.460883502e-05 -78.98097939
-106.018221 -2.460883502e-05 -91.40194239
-207.444588 67.99997539 0.2238496118
4.221282001 -2.460883502e-05 -85.26153839
-33.119229 -2.460883502e-05 -170.1582394
241.099259 -2.460883502e-05 -39.78315239
288.061661 -2.460883502e-05 -132.3051484
-264.182115 -2.460883502e-05 -121.5955694
-278.999785 28.95555439 -63.18377739
6.623798001 23.62221539 -9.738820836e-05
-225.502017 -2.460883502e-05 -79.24233339
-290.12705 -2.460883502e-05 -109.0388704
77.165093 -2.460883502e-05 -44.90930239
60.565874 -2.460883502e-05 -28.04954439
-148.603684 19.72567139 -9.738820836e-05
182.459772 -2.460883502e-05 -82.86387239
107.241028 -2.460883502e-05 -4.486453388
-5.148942999 -2.460883502e-05 -64.15799939
125.647877 -2.460883502e-05 -136.6808134
127.959659 38.67618539 -9.738820836e-05
-284.999785 38.72980839 -117.5827154
224.757402 -2.460883502e-05 -170.6651384
277.373508 -2.460883502e-05 -32.09096339
-44.704988 11.37740039 -9.738820836e-05
-211.353382 -2.460883502e-05 -239.5625394
44.509546 -2.460883502e-05 -231.7356264
-183.905627 -2.460883502e-05 -180.4310604
-234.489995 -2.460883502e-05 -100.1728384
-77.812368 -2.460883502e-05 -4.251055388
96.299137 46.87347239 -9.738820836e-05
-134.983361 55.62706439 -9.738820836e-05
-58.71172 -2.460883502e-05 -196.7061924
-278.999785 3.418458391 -192.5154724
-162.552536 -2.460883502e-05 -92.19102939
-93.600071 -2.460883502e-05 -35.55810839
15.997057 -2.460883502e-05 -196.4841064
115.446697 -2.460883502e-05 -175.3744864
23.725374 -2.460883502e-05 -21.47212439
-278.999785 49.89725739 -59.34293839
-71.993126 -2.460883502e-05 -227.2151924
181.142847 -2.460883502e-05 -218.6423254
226.793458 -2.460883502e-05 -33.86493139
119.331254 -2.460883502e-05 -94.56568639
-128.66251 -2.460883502e-05 -220.3057844
-284.999785 44.41872239 -233.5759804
76.438643 -2.460883502e-05 -81.52946039
-284.999785 10.74476339 -51.77284139
-128.490145 -2.460883502e-05 -8.173123388
-299.659351 39.24536239 -9.738820836e-05
-284.999785 40.54287939 -42.79631239
-260.48845 -2.460883502e-05 -131.5115474
-273.294027 13.28665939 -9.738820836e-05
16.703166 -2.460883502e-05 -107.6542414
-129.19421 -2.460883502e-05 -238.5550814
-184.384642 67.99997539 1.014741612
-282.611815 -2.199976609 -145.3768424
-284.999785 24.08363639 -142.9726814
-231.401143 -2.460883502e-05 -219.4143734
-284.999785 29.02791039 -13.65776439
63.311665 -2.460883502e-05 -163.5188474
167.857822 -2.460883502e-05 -88.57719339
-278.999785 41.62920839 -179.6206834
-171.774515 8.727030391 -9.738820836e-05
-39.767005 43.25974439 -9.738820836e-05
-278.999785 37.70040439 -236.7676494
258.606889 -2.460883502e-05 -87.41116539
-138.477033 -2.460883502e-05 -164.0562484
-255.72699 -2.460883502e-05 -230.1652234
195.566306 -2.460883502e-05 -128.1351014
289.293596 -2.460883502e-05 -250.6602664
-146.09687 -2.460883502e-05 -123.1199954
126.112263 -2.460883502e-05 -236.0088784
201.190298 -2.460883502e-05 -142.9619814
51.651514 -2.460883502e-05 -71.82538239
-278.999785 42.63193739 -169.1073274
47.976663 -2.460883502e-05 -38.85290039
-278.999785 7.840036391 -29.89277539
-278.999785 38.58612939 -212.6641504
-13.672289 -2.460883502e-05 -93.05870439
247.478474 -2.460883502e-05 -200.8067074
-48.898989 -2.460883502e-05 -45.06539139
39.020614 45.70097039 -9.738820836e-05
-94.190634 -2.460883502e-05 -15.58381639
-284.999785 29.34883939 -5.610386388
-278.999785 9.621588391 -86.98131639
-158.924882 5.065043391 -9.738820836e-05
188.477116 -2.460883502e-05 -77.09810139
95.913633 -2.460883502e-05 -79.37345339
-85.379921 -2.460883502e-05 -78.25906539
233.879138 -2.460883502e-05 -164.2220414
-284.999785 45.43925439 -162.7275604
-284.999785 18.68527039 -159.0224474
-245.483111 -2.460883502e-05 -2.436496388
-88.62383 -2.460883502e-05 -115.2377694
-63.369319 -2.460883502e-05 -109.6565284
-284.999785 49.99220839 -45.01635839
174.767543 -2.460883502e-05 -123.2384674
39.264658 -2.460883502e-05 -163.6272514
-114.065603 -2.460883502e-05 -6.738594388
-140.465536 -2.460883502e-05 -145.0230684
93.992076 56.15569139 -9.738820836e-05
137.625503 -2.460883502e-05 -215.0006904
-55.433754 -2.460883502e-05 -96.39769639
-284.999785 39.93693139 -32.66513139
161.322982 55.35392939 -9.738820836e-05
-284.999785 20.54559439 -32.26749439
179.903949 -2.460883502e-05 -228.0656244
-278.999785 43.57275939 -190.3852904
141.662042 -2.460883502e-05 -29.86879939
-117.137878 -2.460883502e-05 -35.49557139
-278.999785 13.41477439 -115.5574144
-296.122435 -2.460883502e-05 -91.21980139
240.121867 -2.460883502e-05 -107.8780614
-183.801807 7.861262391 -9.738820836e-05
-213.411947 9.551818391 -9.738820836e-05
165.250951 -2.460883502e-05 -27.26437639
-283.617353 -2.460883502e-05 -11.21955439
-50.380742 -2.460883502e-05 -59.35183939
116.353965 -2.460883502e-05 -14.21945939
-56.09166 54.97510339 -9.738820836e-05
-278.999785 48.66324139 -216.2903304
-298.338647 -2.460883502e-05 -152.4663854
-226.011719 -2.460883502e-05 -250.4796784
135.50805 -2.460883502e-05 -183.7365554
-162.409423 -2.460883502e-05 -228.9339714
-56.767597 -2.460883502e-05 -139.8889324
97.599023 -2.460883502e-05 -20.90210439
-284.999785 29.09140539 -137.3031184
120.648209 -2.460883502e-05 -122.2845264
-278.999785 18.07102039 -170.9969014
90.326721 31.81045139 -9.738820836e-05
204.509673 -2.460883502e-05 -232.9248444
266.632403 -2.460883502e-05 -51.03548939
-284.999785 39.99170439 -248.8851974
-87.436822 -2.460883502e-05 -47.14876539
195.991795 0.5407233912 -9.738820836e-05
-42.438137 19.59098139 -9.738820836e-05
-278.999785 29.51561739 -243.5948174
169.561846 -2.460883502e-05 -96.80747339
72.859202 -2.460883502e-05 -251.4406804
226.099866 -2.460883502e-05 -243.4438644
-91.389174 -2.460883502e-05 -62.78323639
102.314554 -2.460883502e-05 -127.4756764
166.984579 -2.460883502e-05 -181.3119784
-298.960217 -2.460883502e-05 -216.0811224
41.140974 -2.460883502e-05 -147.8988314
213.445449 6.505949391 -9.738820836e-05
262.675736 -2.460883502e-05 -21.84770939
282.62036 12.56957339 -9.738820836e-05
104.342199 -2.460883502e-05 -64.63818039
235.045879 5.741593391 -9.738820836e-05
-164.543343 -2.460883502e-05 -23.02219439
59.929498 -2.460883502e-05 -188.8218894
-169.073726 48.35289539 -9.738820836e-05
-284.999785 22.99270939 -23.51101939
-184.872515 45.12489039 -9.738820836e-05
-157.821598 -2.460883502e-05 -143.3537674
-284.999785 28.27285939 -173.3189464
0.6556550008 -2.460883502e-05 -160.7727044
76.899902 -2.460883502e-05 -57.40879439
-278.999785 4.202043391 -45.49184439
-302.283851 -2.460883502e-05 -48.35771339
296.000473 -2.460883502e-05 -22.74910139
-27.671498 -2.460883502e-05 -33.07165039
156.558608 -2.460883502e-05 -101.0149864
-97.961189 -2.460883502e-05 -226.5003324
-1.738504999 -2.460883502e-05 -215.8018574
-131.580074 4.825182391 -9.738820836e-05
-47.072552 2.964295391 -9.738820836e-05
268.498438 -2.460883502e-05 -34.83144739
61.464266 -2.460883502e-05 -225.3665694
143.697595 44.45661139 -9.738820836e-05
242.923604 46.38759539 -9.738820836e-05
-12.397197 -2.460883502e-05 -48.78466139
-275.072289 -2.460883502e-05 -134.1890414
160.307004 -2.460883502e-05 -72.32321539
-27.105621 25.24784339 -9.738820836e-05
276.379028 -2.460883502e-05 -233.6197344
-179.054865 -2.460883502e-05 -159.9952534
-278.999785 35.85824439 -223.7787264
-170.631311 -2.460883502e-05 -69.51455839
-59.907849 -2.460883502e-05 -189.4013574
-278.999785 6.004647391 -236.5904464
-234.874712 -2.460883502e-05 -147.6315054
119.965451 -2.460883502e-05 -220.6551174
-54.596132 -2.460883502e-05 -159.4136544
-199.687484 -2.460883502e-05 -9.825977388
0.6820940008 -2.460883502e-05 -92.54798839
-264.860219 -2.460883502e-05 -230.9590934
262.662477 -2.460883502e-05 -202.9378654
-103.935721 -2.460883502e-05 -71.50982939
32.526737 -2.460883502e-05 -174.7749244
25.119852 -1.392325609 -9.738820836e-05
-295.399117 -2.460883502e-05 -190.9592994
290.957591 32.49906839 -9.738820836e-05
-253.917647 -2.460883502e-05 -40.50354139
138.102186 -2.460883502e-05 -50.02288439
68.955767 -2.460883502e-05 -191.6534674
-14.50636 29.51152339 -9.738820836e-05
-198.044856 38.97622539 -9.738820836e-05
281.000215 -2.431462609 -205.5777984
-183.571193 18.10272539 -9.738820836e-05
69.706829 -2.460883502e-05 -84.99207239
292.621599 -2.460883502e-05 -197.8643364
-168.533224 -2.460883502e-05 -173.1887344
-284.999785 13.20624239 -101.9413754
-278.999785 36.41499039 -140.1842404
169.096176 34.49773339 -9.738820836e-05
-278.999785 10.25032439 -197.1056524
17.117727 -2.460883502e-05 -130.8758194
147.227262 -2.460883502e-05 -136.2071404
-278.999785 2.445397391 -247.9381894
-278.999785 29.69428239 -74.45229339
-113.00331 -2.460883502e-05 -176.9569484
-297.892992 22.12977039 -9.738820836e-05
228.084294 -2.460883502e-05 -223.6009854
-258.084893 6.413666391 -9.738820836e-05
-278.999785 44.58895039 -248.6700244
-177.129119 -2.460883502e-05 -11.91901139
-143.356409 -2.460883502e-05 -224.1174984
43.764183 -2.460883502e-05 -221.7453764
-24.770805 -2.460883502e-05 -165.8080654
225.708697 -2.460883502e-05 -151.4234874
-234.969594 -2.460883502e-05 -80.40677339
187.451464 35.16371239 -9.738820836e-05
262.199062 -2.460883502e-05 -178.2904274
-257.641482 -2.460883502e-05 -51.57793139
-253.196266 -2.460883502e-05 -104.5573744
-192.162764 -2.460883502e-05 -159.9068944
42.722311 31.63412839 -9.738820836e-05
135.06704 41.13412239 -9.738820836e-05
-278.999785 18.75928839 -232.0048214
-97.285047 -2.460883502e-05 -176.2254324
269.331433 37.89263639 -9.738820836e-05
121.487035 -2.460883502e-05 -199.1529554
-278.999785 36.84602439 -106.2450314
-243.252417 -2.460883502e-05 -47.87816739
136.354172 -2.460883502e-05 -169.8431094
290.197024 -2.460883502e-05 -223.8404794
-150.350771 -2.460883502e-05 -103.6559994
-297.170098 10.58673739 -9.738820836e-05
127.715048 -2.460883502e-05 -5.914381388
-284.999785 20.83514239 -149.4525614
-284.999785 44.77418039 -2.109993388
221.517576 -2.460883502e-05 -189.4220244
-254.038807 -2.460883502e-05 -195.0707244
188.397606 -2.460883502e-05 -140.9099224
36.166054 -2.460883502e-05 -211.0927454
-278.999785 43.94527939 -68.41295439
-278.999785 38.91635139 -204.9720284
251.171069 -2.460883502e-05 -22.59032039
-230.207684 -2.460883502e-05 -124.5128184
-284.961364 49.99997539 -187.7318224
283.697545 -2.460883502e-05 -173.2725894
290.997678 -2.460883502e-05 -171.9329984
-199.257392 67.99997539 1.208901612
-284.999785 34.83100839 -59.79250139
93.173895 -2.460883502e-05 -28.36223539
-46.960746 -2.460883502e-05 -123.7691964
-278.999785 10.76989739 -189.4632724
31.356875 -2.460883502e-05 -242.4624234
-62.347562 -2.460883502e-05 -124.6883334
-256.416447 -2.460883502e-05 -15.13430039
-278.795869 -2.460883502e-05 -95.10164839
144.793074 -2.460883502e-05 -65.62307439
-179.565238 -2.460883502e-05 -24.46749739
-206.979863 -2.460883502e-05 -156.1993804
-284.999785 43.87093439 -89.33662839
298.616936 -2.460883502e-05 -242.3581944
-274.974163 -2.460883502e-05 -186.0745234
229.4437 53.94971539 -9.738820836e-05
-174.696837 -2.460883502e-05 -101.3381634
-29.127353 -2.460883502e-05 -16.02720939
25.269605 -2.460883502e-05 -56.52274639
276.859201 -2.460883502e-05 -189.9208064
-233.007421 -2.460883502e-05 -40.47396539
-127.04014 -2.460883502e-05 -32.10701939
293.142828 -2.460883502e-05 -41.23485739
50.634886 55.04523039 -9.738820836e-05
-137.213307 -2.460883502e-05 -19.99032939
252.480548 -2.460883502e-05 -110.8107464
175.191334 -2.460883502e-05 -201.6702124
-284.999785 8.519296391 -25.87603439
150.854875 -2.460883502e-05 -194.3221634
26.936636 -2.460883502e-05 -226.9832374
-281.036292 -2.460883502e-05 -172.2865394
-284.999785 6.245869391 -134.9938494
-284.676392 -2.199976609 -129.8335834
78.572814 24.26372739 -9.738820836e-05
188.159605 -2.460883502e-05 -209.0180694
-9.633579999 -2.460883502e-05 -144.7527264
-278.999785 27.00839039 -251.6316394
207.768879 27.26397339 -9.738820836e-05
176.863876 -2.460883502e-05 -91.23804039
-284.999785 12.52622139 -34.37271339
160.468206 -2.460883502e-05 -6.987483388
45.822176 -2.460883502e-05 -14.43418439
62.416304 -2.460883502e-05 -241.3857824
255.95154 -2.460883502e-05 -41.13258039
-224.435342 -2.460883502e-05 -240.1131754
-297.151032 60.57271139 -9.738820836e-05
207.848846 -2.460883502e-05 -31.70255939
243.359332 -2.460883502e-05 -153.3986844
-292.523021 -2.460883502e-05 -132.9921744
249.420245 -2.460883502e-05 -1.529233388
43.410238 14.50401539 -9.738820836e-05
-284.999785 24.83745239 -215.3813004
-192.021812 19.35575539 -9.738820836e-05
-278.999785 34.65541639 -172.0881374
-143.744296 51.97618339 -9.738820836e-05
-40.504644 -2.460883502e-05 -57.62871939
292.307557 -2.460883502e-05 -68.96733639
-101.372175 -2.460883502e-05 -147.5970314
238.018313 60.97386939 -9.738820836e-05
231.210964 -2.460883502e-05 -71.52274439
105.488571 -2.460883502e-05 -53.81776239
-278.999785 28.95224739 -236.3486844
76.51293 -2.460883502e-05 -26.75274039
175.11205 -2.460883502e-05 -16.70215439
-219.059329 -2.460883502e-05 -0.4045003882
-278.999785 25.82813539 -179.0736614
-279.325477 16.20206139 -7.584020388
-296.895891 -2.460883502e-05 -18.74240039
-278.999785 4.020962391 -204.2794614
-182.061969 -2.460883502e-05 -55.12224139
-284.999785 46.10583539 -243.8138014
-271.244322 -2.460883502e-05 -87.10029239
130.050407 -2.460883502e-05 -49.42797639
65.102226 54.55775239 -9.738820836e-05
-144.51053 -2.460883502e-05 -108.7524544
168.089193 -2.460883502e-05 -46.06073539
-278.999785 38.70536439 -24.96180939
75.295049 -2.460883502e-05 -150.5270794
-275.035339 -2.460883502e-05 -224.2796764
291.434413 42.85534839 -9.738820836e-05
247.818317 -2.460883502e-05 -166.8312414
292.742915 1.363275391 -9.738820836e-05
-100.675446 8.698172391 -9.738820836e-05
240.740207 -2.460883502e-05 -173.4621834
-284.999785 9.582698391 -241.0038804
48.046482 -1.564847609 -9.738820836e-05
-81.200768 -2.460883502e-05 -231.7266464
43.182714 -2.460883502e-05 -96.97866739
-284.999785 19.77455239 -201.8484304
274.787117 71.63374839 1.650767612
-207.610549 -2.460883502e-05 -205.8911324
-234.770718 -2.460883502e-05 -206.2818694
282.3624 45.63146739 -9.738820836e-05
-284.999785 36.82493139 -88.04824339
-220.176602 56.08779039 -9.738820836e-05
-19.877428 -2.460883502e-05 -139.7153884
-284.999785 14.72995239 -136.6095114
20.869785 13.28838339 -9.738820836e-05
-284.999785 46.09331239 -169.8863314
111.749809 -2.460883502e-05 -142.7158664
-248.740157 -2.460883502e-05 -118.6716284
99.325051 -2.460883502e-05 -113.6694794
-22.566426 -2.460883502e-05 -128.6563674
-278.999785 19.94163739 -129.2008904
275.636487 -2.424206609 1.141321612
-284.999785 11.66700339 -182.4490184
-7.180601999 59.40179539 -9.738820836e-05
174.781259 16.11815439 -9.738820836e-05
-278.999785 12.35050939 -45.43468139
-40.685158 -2.460883502e-05 -72.58374839
-236.12551 -2.460883502e-05 -26.09289239
-134.058784 -2.460883502e-05 -67.73699439
-265.685929 -2.460883502e-05 -68.21454739
9.836036001 -2.460883502e-05 -99.59711139
-73.586152 -2.460883502e-05 -38.06427239
-228.428571 -2.460883502e-05 -8.549685388
-7.982026999 -2.460883502e-05 -20.60462739
-44.850068 67.99997539 1.619129612
146.425848 -2.460883502e-05 -178.7344354
-72.657901 -2.460883502e-05 -234.2729694
-49.929573 -2.460883502e-05 -20.79645939
-278.999785 3.488785391 -35.32640639
-33.930242 -2.460883502e-05 -252.3309244
-284.999785 26.44382939 -48.46409939
-284.999785 27.31880339 -208.9424064
-212.869448 -2.460883502e-05 -161.6816144
-82.824095 62.08334539 -9.738820836e-05
-209.711277 -2.460883502e-05 -45.80914239
-284.999785 7.761633391 -165.9477884
-275.40889 40.15871439 -9.738820836e-05
176.842909 -2.460883502e-05 -149.0470254
-284.999785 49.61831039 -180.5138424
-266.418084 -2.460883502e-05 -30.23572039
71.241711 36.50533339 -9.738820836e-05
-284.999785 34.20035939 -177.0952864
-278.999785 13.75807339 -26.42499739
-284.999785 19.32068539 -39.01457139
-290.704014 -2.460883502e-05 -33.54883439
197.887864 -2.460883502e-05 -208.2720244
-211.822185 25.14751639 -9.738820836e-05
-179.720517 -2.460883502e-05 -78.81891339
-248.719452 -2.460883502e-05 -85.18031739
-278.999785 22.55243539 -10.47096339
283.006372 -2.460883502e-05 -6.231013388
153.123889 -2.460883502e-05 -1.188472388
48.709301 -2.460883502e-05 -149.4884824
53.224802 -2.460883502e-05 -212.2094634
-274.61064 -2.460883502e-05 -49.98840639
-284.999785 20.77535639 -169.1548274
62.724997 27.38608239 -9.738820836e-05
195.80343 -2.460883502e-05 -169.3915264
227.921118 -2.460883502e-05 -96.14121539
63.276707 -2.460883502e-05 -170.8442544
62.648835 37.06373139 -9.738820836e-05
-278.999785 45.84995639 -202.6905614
-54.032907 -2.460883502e-05 -121.0036764
292.248229 52.53187839 -9.738820836e-05
-31.073816 -2.460883502e-05 -131.6102724
170.734102 -2.460883502e-05 -163.7519654
43.796127 -2.460883502e-05 -117.3520434
67.979509 -2.460883502e-05 -199.8720444
-4.003671999 -2.460883502e-05 -233.2238674
152.026254 -2.460883502e-05 -216.1857264
-278.999785 33.04384539 -164.4820564
-253.541822 -0.9839026088 -9.738820836e-05
191.462322 -2.460883502e-05 -174.6555554
203.730763 -2.460883502e-05 -196.6188054
-200.188497 -2.460883502e-05 -124.7457054
8.363503001 -2.460883502e-05 -178.8416624
-76.71071 -2.460883502e-05 -121.4586604
119.773416 37.71476039 -9.738820836e-05
-278.999785 16.01566039 -160.7475994
26.688445 -2.460883502e-05 -247.7703544
201.44947 -2.460883502e-05 -103.1159734
-206.941968 -2.460883502e-05 -184.5014844
266.72906 -2.460883502e-05 -67.64430639
162.340247 -2.460883502e-05 -39.97637939
-97.307709 -2.460883502e-05 -109.5452074
-284.999785 47.56380539 -205.9557934
286.472341 -2.460883502e-05 -102.8621874
23.439911 -2.460883502e-05 -47.69289239
-85.040681 -2.460883502e-05 -36.04959439
-173.917541 -2.460883502e-05 -187.9989254
-259.632802 -2.460883502e-05 -145.8358394
-279.668971 -2.460883502e-05 -70.43981339
-52.784432 -2.460883502e-05 -229.7232244
-159.560433 -1.808441609 -9.738820836e-05
234.168125 -2.460883502e-05 -82.00036439
-135.540667 -2.460883502e-05 -113.1915444
-203.739252 47.92784139 -9.738820836e-05
-284.999785 21.94746839 -112.1022784
-57.628479 -2.460883502e-05 -31.20364739
166.938734 -2.460883502e-05 -238.6076034
-65.241987 -2.460883502e-05 -35.55645839
-112.495809 -2.460883502e-05 -78.83075339
-284.999785 9.053116391 -225.1445524
235.699595 -2.460883502e-05 -31.93901139
-278.999785 15.35094539 -19.43219639
-242.889167 -2.460883502e-05 -26.81815339
200.458924 -2.460883502e-05 -93.19988239
15.138775 29.65808739 -9.738820836e-05
16.754552 -2.460883502e-05 -95.80569139
-278.999785 29.26007639 -39.06500539
274.668382 -2.460883502e-05 -172.3829834
-83.635643 -2.460883502e-05 -196.5463714
-22.164051 -2.460883502e-05 -159.2252544
128.498776 -2.460883502e-05 -90.03293039
-297.187457 -2.460883502e-05 -107.0302564
86.832988 -2.460883502e-05 -107.3788434
89.038996 -2.460883502e-05 -54.84804639
-284.999785 41.28092239 -223.8712654
-132.803724 -2.460883502e-05 -232.9071154
92.996167 -2.460883502e-05 -213.6054134
-278.999785 1.138603391 -229.9290994
-270.173086 -2.460883502e-05 -114.9880634
83.93881 29.79687139 -9.738820836e-05
-278.999785 49.73043039 -141.9436874
30.602691 -2.460883502e-05 -128.1730184
-54.879443 -2.460883502e-05 -172.3855584
-140.332936 -2.460883502e-05 -135.8890244
198.351666 9.963294391 -9.738820836e-05
