# .PCD v0.7 - Point Cloud Data file format
VERSION 0.7
FIELDS x y z
SIZE 4 4 4
TYPE F F F
COUNT 1 1 1
WIDTH 1223
HEIGHT 1
VIEWPOINT 0 0 0 1 0 0 0
POINTS 1223
DATA ascii
-3.095738275 -2.46084544e-05 -36.51503339
-27.00136327 203.3754804 -9.73881256e-05
24.23999273 -2.46084544e-05 0.5541226119
25.64029573 75.60690339 -9.73881256e-05
-7.508184275 -2.46084544e-05 -47.36674839
13.19802773 -1.883013608 -88.00009739
25.67997173 -2.46084544e-05 -18.95660939
0.5067867253 19.19643439 -9.73881256e-05
-40.25016127 5.931150392 -70.68239839
-3.216914275 157.7196784 -9.73881256e-05
-2.865902275 63.11049639 -9.73881256e-05
30.65282573 17.86683839 -94.00009739
-35.86451427 -2.46084544e-05 -5.756096388
-40.25016127 60.43104339 -23.89230639
37.48664673 5.391183392 -94.00009739
-41.70852727 69.49499439 -57.90891539
-11.26624127 64.80713839 -94.00009739
31.10097273 143.9260064 -9.73881256e-05
4.794809725 15.75602439 -88.00009739
-4.333889275 242.6160628 -9.73881256e-05
-40.29373527 99.48939939 -9.587579388
36.81275773 -2.46084544e-05 -30.87616939
-40.72665827 62.56567539 -76.39802339
27.23396573 48.82939639 -94.00009739
35.00524673 66.50113439 -88.00009739
-40.25016127 43.35018639 -65.03132539
-43.35872027 31.58673439 -94.00009739
34.45917073 94.25310139 -9.73881256e-05
-10.24650527 203.0130434 -9.73881256e-05
-40.25016127 21.72027239 -14.02569439
23.75804473 -2.46084544e-05 -84.98648539
-21.67730627 115.3344734 -9.73881256e-05
-40.25016127 35.53941039 -52.16832039
4.428544725 199.3376394 -9.73881256e-05
-40.25016127 12.69147639 -6.773786388
-11.04288427 -2.46084544e-05 -58.34978639
1.060001725 -2.46084544e-05 -66.42736239
37.61821073 -2.46084544e-05 -80.69546239
-41.01508027 -2.46084544e-05 -64.51956039
-40.25016127 60.94432339 -45.71380339
-40.25016127 50.72414539 -78.39902539
-15.73152227 124.4722554 -9.73881256e-05
6.379720725 206.0189824 -9.73881256e-05
-33.58536127 39.37886139 -88.00009739
-37.13582527 47.14842139 -88.00009739
-7.233031275 9.347005392 -94.00009739
33.01319173 207.7976424 -9.73881256e-05
-0.1868572747 10.81460639 -88.00009739
15.54961373 33.91859239 -9.73881256e-05
-40.25016127 13.92467439 1.981719612
30.24419273 -2.46084544e-05 -30.74785139
-40.25016127 38.14573139 -11.94013239
-21.67569727 10.15681539 2.040490612
-27.75860627 38.07747739 -94.00009739
-27.22195227 27.54382939 -9.73881256e-05
-32.26317027 -2.46084544e-05 -75.93574339
15.84296573 105.0314444 -9.73881256e-05
-40.25016127 55.41555939 -32.96703739
-10.34631827 52.10455139 -94.00009739
-35.14156627 5.838914392 -94.00009739
-40.25016127 14.94596639 -36.80818039
-40.25016127 35.23970539 -29.25064639
-14.01648127 66.05642039 -9.73881256e-05
-10.64910527 113.4710824 -9.73881256e-05
-40.25016127 76.75584039 -17.23093339
-40.25016127 1.901123392 -17.49380539
-6.204289275 175.1330384 -9.73881256e-05
-38.67094627 -2.46084544e-05 -82.90415239
20.05317973 57.72602139 -88.00009739
30.42187973 26.52490539 -9.73881256e-05
-40.25016127 22.22682039 -66.52444639
-22.59256827 40.22965339 -88.00009739
15.91852673 133.7319634 -9.73881256e-05
-18.64965027 63.82113239 -88.00009739
-40.25016127 8.470478392 -49.97006939
27.66635973 237.8457724 -9.73881256e-05
-28.57222027 192.1841704 -9.73881256e-05
-34.17540427 108.7497554 0.2630106119
13.32643473 17.53740639 -88.00009739
-40.25016127 15.15334739 -18.19648739
-13.79410627 50.37716839 -9.73881256e-05
-38.04556827 122.8102804 2.497886612
-40.25016127 22.83096039 -46.57900039
41.38607973 2.414284392 -88.00009739
-40.25016127 49.21610939 -62.40120639
-40.25016127 47.61393539 -41.28726639
11.87065973 95.88030139 -9.73881256e-05
-8.585986275 -2.46084544e-05 -17.25175339
-26.69135027 -2.46084544e-05 -23.82730739
-40.25016127 71.40649139 -49.39706339
-40.25016127 81.51821539 -4.336983388
-19.86059727 242.0162173 -9.73881256e-05
-20.58500527 52.92461039 -94.00009739
-23.02851527 13.97357139 -88.00009739
-12.47069527 35.26394039 -9.73881256e-05
20.55883873 17.51315139 -88.00009739
-9.390565275 6.820014392 -88.00009739
7.371945725 245.2350378 -9.73881256e-05
-40.25016127 4.850394392 -12.79594839
-40.25016127 65.00812839 -55.39826339
-6.395346275 75.95495239 -9.73881256e-05
-40.25016127 21.03653839 -35.70825539
7.614549725 21.96547539 -9.73881256e-05
-40.53521827 0.4999753915 -45.28137839
17.69623973 -2.46084544e-05 -58.10816939
-26.90426027 -2.46084544e-05 -48.51005739
-35.57238427 27.61417439 0.7483426119
25.48550273 20.19047639 -88.00009739
38.60838473 -2.46084544e-05 -58.74754839
-40.25016127 46.69742039 -18.04302439
-40.25016127 18.71228739 -25.99880939
-40.25016127 88.18137439 -23.74668439
-40.25016127 62.46739339 -5.014464388
1.311559725 119.4980724 -9.73881256e-05
30.47303373 44.39497939 -9.73881256e-05
17.66456373 175.4928254 -9.73881256e-05
-40.25016127 14.80509139 -51.07976539
38.61155773 36.65787239 -94.00009739
-38.89106527 24.79907239 -88.00009739
33.25350473 8.385666392 -94.00009739
-16.01612527 36.71511539 -94.00009739
-34.60251427 45.24545039 0.3936496119
-40.25016127 34.70705039 -4.069882388
-40.25016127 40.49836039 -55.85427039
-4.465919275 38.93337639 -94.00009739
23.94260873 54.58105639 -94.00009739
-32.68346527 212.9065037 0.04266361187
19.73995673 -2.46084544e-05 -33.16169039
-15.80679227 22.22247339 -88.00009739
27.45812673 119.2181074 -9.73881256e-05
11.10775573 196.3874874 -9.73881256e-05
26.44583773 27.17199639 -88.00009739
-21.28432627 1.919377392 -88.00009739
-40.25016127 54.79021839 -8.874022388
-40.25016127 13.59363239 -25.88734739
4.372792725 240.5504693 -9.73881256e-05
0.1398007253 62.55845739 -94.00009739
5.008691725 84.70042339 -9.73881256e-05
-12.11058627 3.985839392 -9.73881256e-05
-40.25016127 91.23330239 -8.875559388
-28.63583727 51.09378139 -9.73881256e-05
3.511172725 217.7538648 -9.73881256e-05
-40.25016127 81.40971439 -23.20445439
-17.80611727 200.9180254 -9.73881256e-05
2.083804725 64.23709639 -9.73881256e-05
-2.266032275 47.12705439 -9.73881256e-05
33.00654173 31.43521439 -94.00009739
-40.25016127 40.69389939 -25.02129439
22.96980173 9.368007392 -94.00009739
-40.25016127 75.68253939 -10.57845839
-40.25016127 14.55070639 -83.34185939
-1.057023275 79.94790139 -9.73881256e-05
5.798903725 -2.46084544e-05 -55.38365639
11.72774773 230.3903172 -9.73881256e-05
19.59554273 39.88918939 -88.00009739
-40.25016127 67.01580339 -38.12604939
-8.830144275 41.53941439 -88.00009739
-40.25016127 19.56853839 -82.64969039
-40.25016127 67.26486139 -8.753882388
-37.51691227 210.3729484 2.020246612
-31.14401227 -2.46084544e-05 -16.18846639
5.128724725 174.4695224 -9.73881256e-05
-39.89322827 67.99997539 -92.84616939
-40.25016127 47.28285839 -4.378380388
-40.25016127 5.974776392 -39.31526639
-40.25016127 40.52795239 -79.63672439
-40.67512127 34.96238139 -85.00009739
-40.25016127 34.61755439 -64.00365139
42.99712873 58.85801739 -94.00009739
-40.25016127 37.21664939 -33.85542539
42.48059673 22.95970239 -88.00009739
-40.25016127 29.40511039 -6.175011388
-41.67505127 0.4999753915 -70.86822739
-40.25016127 61.20580839 -51.31560039
-32.36626427 24.67516639 -88.00009739
5.299794725 127.7751694 -9.73881256e-05
-20.05473127 65.10052139 -94.00009739
-1.394104275 140.7832154 -9.73881256e-05
-40.25016127 9.698189392 -60.52610539
6.011824725 -2.46084544e-05 -47.15873139
24.86488873 68.88099539 -9.73881256e-05
-10.78450027 59.27085739 -88.00009739
27.59343273 86.95356139 -9.73881256e-05
-17.81216027 107.3105634 -9.73881256e-05
-34.90347427 205.1436324 0.4816996119
-32.08475627 18.23202939 -88.00009739
-40.25016127 1.857822392 -57.28343139
-40.25016127 20.97834339 -54.71270539
-40.25016127 25.09589239 -10.50319439
37.52285773 30.60499439 -88.00009739
-40.25016127 46.28962239 -35.82090539
-40.25016127 52.13976339 -4.734248388
-40.25016127 51.35666739 -72.02726439
-40.25016127 32.14952039 -55.92266839
-39.06744727 33.86533939 -94.00009739
-40.25016127 83.68099639 -9.418776388
-12.24957427 -2.46084544e-05 -76.36447239
19.53160573 -2.46084544e-05 -0.5909623881
-27.29434327 41.96095139 -88.00009739
35.68927973 232.6509789 -9.73881256e-05
-29.28056427 142.7945094 -9.73881256e-05
-17.99883027 20.67808339 -9.73881256e-05
-40.25016127 64.77582439 -28.26123139
37.74983873 123.7314104 0.7458476119
-40.25016127 7.501686392 -80.17720239
-20.67732427 39.90752039 -9.73881256e-05
4.286628725 60.67088739 -88.00009739
27.86582973 250.0529811 -9.73881256e-05
-40.25016127 66.10941939 -33.40717439
-9.613496275 18.45643439 -9.73881256e-05
-40.39527327 5.724607392 -85.00009739
26.15584173 8.571365392 -9.73881256e-05
34.87291873 20.89892639 -88.00009739
-35.83021627 65.33688339 -94.00009739
21.08238773 34.86540739 -9.73881256e-05
-17.82918027 58.62069639 -9.73881256e-05
-25.85022227 20.93566039 -9.73881256e-05
15.51035573 -2.46084544e-05 -62.35920339
-40.25016127 33.10318039 -71.71358639
-16.92658227 -2.46084544e-05 -5.939991388
-40.25016127 89.89037439 -14.33456539
-22.43666427 51.95206139 -9.73881256e-05
-40.25016127 17.70067239 -61.82334539
-40.25016127 35.18943439 -18.70282139
-38.12939527 37.65441339 -88.00009739
19.11525273 13.50958039 -94.00009739
-23.22497327 88.47365039 -9.73881256e-05
-41.85947527 0.4999753915 -34.17601739
-31.00893927 99.54302639 -9.73881256e-05
3.398507725 95.48734039 -9.73881256e-05
17.64822073 67.99997539 -92.49882639
-1.219370275 173.3243884 -9.73881256e-05
9.623845725 190.2501634 -9.73881256e-05
-28.57585627 81.90152439 -9.73881256e-05
-26.49928527 160.5623464 -9.73881256e-05
-18.05755727 -2.46084544e-05 -50.44933539
-40.25016127 12.42884739 -31.57141339
7.112727725 67.99997539 -89.72575939
-41.06052627 0.4999753915 -78.90864239
-33.13927827 133.6627384 0.08764461187
-4.130048275 149.1652574 -9.73881256e-05
-40.25016127 22.66851539 -30.07451039
12.35274373 30.81321239 -94.00009739
-40.25016127 64.74893539 -68.03976739
-40.25016127 40.79738939 -46.09648039
-32.04642127 39.05817939 -9.73881256e-05
-40.25016127 103.7803834 -0.3127313881
-4.062862275 67.82314939 -9.73881256e-05
-32.10061527 4.658580392 -88.00009739
-40.25016127 59.49978739 -60.98134639
-40.25016127 4.031515392 -30.95737039
-40.04298827 47.09327839 -94.00009739
8.797088725 4.115261392 -94.00009739
-24.47997127 48.55157139 -94.00009739
5.598359725 117.7648784 -9.73881256e-05
-1.399705275 123.2436684 -9.73881256e-05
-39.20068027 -0.09613960845 -88.00009739
-40.25016127 73.92587239 -38.33956139
-40.25016127 57.03830639 -20.77492039
-40.25016127 54.24458939 -81.71826039
-40.25016127 45.85964139 -76.99877239
37.74983873 246.5885379 1.446591612
-40.25016127 68.05533739 -45.88792839
-40.25016127 13.58419239 -74.54789039
-23.81530127 35.06893639 -88.00009739
26.70305073 38.58708039 -94.00009739
-22.42514327 230.2744638 -9.73881256e-05
-40.25016127 73.23876739 -25.42536339
-40.25016127 49.92723439 -27.10798339
-40.25016127 4.385588392 -53.17351139
-2.028651275 87.77112239 -9.73881256e-05
-40.25016127 41.18510139 -74.38905539
-40.25016127 30.66133439 -83.68684539
16.31823073 -2.46084544e-05 -25.41894439
12.61064973 78.85141439 -9.73881256e-05
-16.35181927 9.996083392 -88.00009739
-40.25016127 94.83782139 -4.874794388
6.806140725 -2.46084544e-05 -81.68999139
-23.78218027 29.96662339 -94.00009739
-28.08276527 238.5921506 -9.73881256e-05
-2.111311275 -2.46084544e-05 -22.76912139
-40.25016127 41.55917139 -9.024529388
5.694912725 194.8748684 -9.73881256e-05
33.89300573 -2.46084544e-05 -27.33603839
-38.60875727 59.28849039 -88.00009739
-40.25016127 25.82774339 -38.63537639
-35.48002327 159.9681154 0.6954866119
10.75128473 45.63388939 -94.00009739
-33.68435327 -2.46084544e-05 2.099473612
-5.379892275 21.83716939 -94.00009739
-25.76814627 218.1699018 -9.73881256e-05
-13.41516027 -2.46084544e-05 1.465876612
23.69858073 174.7334304 -9.73881256e-05
-41.02537627 74.75675039 -46.46556739
-40.25016127 23.78385639 -25.20945339
35.11693273 1.669473392 -94.00009739
-40.25016127 57.47411739 -36.86722239
-35.61917627 -2.46084544e-05 -78.79572139
14.99555173 -2.46084544e-05 -78.72918639
-40.25016127 26.45793239 -62.94945039
-16.03378227 14.67836839 -94.00009739
-40.25016127 21.71381639 -73.99649939
4.389732725 233.1643034 -9.73881256e-05
-40.25016127 23.33767739 -3.199664388
-40.25016127 9.176022392 -67.75200939
-5.225767275 5.575508392 -9.73881256e-05
27.31274473 -2.46084544e-05 -2.877989388
4.006702725 41.65377739 -94.00009739
34.19837073 -2.46084544e-05 -4.450014388
-36.26975127 104.8058584 1.119671612
-34.35672727 -2.46084544e-05 -41.84982139
6.415930725 -2.46084544e-05 -22.75094939
-10.49226527 -2.46084544e-05 -35.12449839
-25.96586127 57.25853539 -94.00009739
-40.25016127 39.91756139 -62.40797039
36.14141573 -2.46084544e-05 -69.79248139
-37.64978427 10.43024839 -88.00009739
-3.146157275 183.5329004 -9.73881256e-05
37.74983873 136.5544454 2.473426612
34.23830273 45.61467539 -88.00009739
2.957693725 65.78140239 -94.00009739
-29.35207627 249.3126839 -9.73881256e-05
28.81962573 -2.46084544e-05 -64.80205739
-29.93080227 108.8731574 -9.73881256e-05
-32.70658727 -2.46084544e-05 -8.603104388
-12.63738627 -0.1085386085 -69.67013239
19.86115673 219.7023126 -9.73881256e-05
0.7876007253 23.40255139 -9.73881256e-05
38.75594473 21.57220739 -94.00009739
31.65465973 229.2241047 -9.73881256e-05
26.06096473 96.14812639 -9.73881256e-05
-27.45342527 15.77469839 -9.73881256e-05
14.37461373 -2.46084544e-05 -35.16797639
21.46848573 -2.46084544e-05 -73.75631739
1.452646725 49.73934139 -94.00009739
37.74983873 81.48122039 0.007455611874
-20.14717127 235.7874824 -9.73881256e-05
-39.30681927 51.79518739 -88.00009739
26.84932573 215.9944161 -9.73881256e-05
25.63640973 -2.46084544e-05 -7.863468388
4.534535725 228.0292171 -9.73881256e-05
18.60721973 61.80173039 -88.00009739
32.99314673 60.46359739 -94.00009739
6.031394725 27.89969739 -9.73881256e-05
25.83558273 -2.46084544e-05 -25.07856539
-37.77159527 -2.46084544e-05 -36.86228539
-5.758890275 89.48508639 -9.73881256e-05
7.768861725 -2.46084544e-05 -38.07216139
-18.92599127 36.22329339 -88.00009739
-12.27871427 -2.235237608 -88.00009739
33.78450273 170.8036314 -9.73881256e-05
32.52296073 186.7824974 -9.73881256e-05
-2.495372275 -2.46084544e-05 -27.38285439
18.25413273 121.6107424 -9.73881256e-05
6.319506725 160.1960364 -9.73881256e-05
13.45679673 10.51789939 -9.73881256e-05
26.18149073 44.24432339 -88.00009739
-36.97521127 226.3642474 1.574008612
-10.43376827 67.99997539 -91.83090839
-19.32211527 -2.46084544e-05 -1.985896388
-23.74804327 93.16897239 -9.73881256e-05
-16.64087927 -2.46084544e-05 -79.22088139
43.09650173 50.19729939 -94.00009739
16.21751673 22.25623839 -94.00009739
-19.86169727 -2.46084544e-05 -84.92882839
-20.79112227 -2.46084544e-05 -13.29171939
-40.25016127 2.164564392 -5.403425388
-1.281098275 54.00422039 -9.73881256e-05
23.39445973 109.9873544 -9.73881256e-05
22.87302373 2.226051392 -88.00009739
18.57347173 127.0021204 -9.73881256e-05
16.89583673 43.60437239 -88.00009739
-30.16960927 147.9182584 -9.73881256e-05
4.741856725 178.3919564 -9.73881256e-05
-25.59660627 67.99997539 -93.11039839
-28.66727327 11.34849539 -88.00009739
-5.918385275 43.91712839 -88.00009739
-5.867381275 -2.46084544e-05 -33.99707139
17.45107873 166.5451664 -9.73881256e-05
2.249818725 19.30289539 -94.00009739
-26.21208527 22.15849639 -88.00009739
16.09237073 58.64808839 -94.00009739
37.33460273 -1.288357608 -94.00009739
-18.88762027 43.46563939 -9.73881256e-05
43.26706273 -2.46084544e-05 -57.59967139
8.671403725 -2.46084544e-05 -84.85327839
12.02004373 63.65941439 -94.00009739
37.74983873 92.98593639 0.9248546119
-24.84224427 77.00518139 -9.73881256e-05
28.06633973 102.4963824 -9.73881256e-05
-28.38447627 25.77359239 -88.00009739
-15.78704327 184.1435134 -9.73881256e-05
29.08871873 -2.46084544e-05 -20.14346839
27.45407073 64.74747239 -88.00009739
-34.08452427 45.17880239 -88.00009739
-33.61898927 -2.46084544e-05 -67.98447139
-12.05292027 153.9217404 -9.73881256e-05
3.352347725 -2.46084544e-05 -49.56567939
5.525718725 134.2699254 -9.73881256e-05
-40.70711227 46.92161139 -88.00009739
-19.21591627 34.49489539 -94.00009739
-3.285817275 73.14891739 -9.73881256e-05
-29.02688927 224.2675637 -9.73881256e-05
-39.41306427 31.89522139 -88.00009739
40.20599873 50.52491239 -88.00009739
-37.05167627 218.7680267 1.637114612
-1.679899275 180.3346774 -9.73881256e-05
-35.71579927 0.3611413915 -88.00009739
-37.43169127 67.99997539 -88.19101039
9.094082725 105.1124774 -9.73881256e-05
20.74467573 149.4616644 -9.73881256e-05
-30.92468627 -2.46084544e-05 -0.5875263881
-28.44959027 4.612958392 -88.00009739
9.757374725 242.7985226 -9.73881256e-05
34.57580573 50.90128639 -9.73881256e-05
21.52348673 11.07187139 -9.73881256e-05
-36.96784127 47.36627539 1.571821612
1.422980725 68.12144539 -9.73881256e-05
28.38495773 36.07331539 -9.73881256e-05
4.422083725 -2.46084544e-05 -66.71560239
-11.86228427 67.27953239 -88.00009739
-18.16219927 -2.46084544e-05 -54.57295539
-27.26865327 44.09718039 -9.73881256e-05
-29.16340327 56.23888839 -94.00009739
39.77233373 -2.46084544e-05 -3.422462388
-34.83160327 164.1377004 0.4607276119
-22.62469727 -2.46084544e-05 -8.750618388
10.38911073 30.03462439 -9.73881256e-05
-37.14974427 81.55024839 1.720810612
18.53468173 63.84836439 -9.73881256e-05
-34.19691827 215.8318281 0.2674336119
-19.62521627 -2.308421608 -88.00009739
-22.67660627 57.13265039 -94.00009739
15.43993573 35.95234939 -88.00009739
2.037450725 130.3238474 -9.73881256e-05
-21.95834227 30.61570139 -9.73881256e-05
39.44385473 51.92803139 -94.00009739
-25.81108527 -2.46084544e-05 -56.46510339
-20.70619827 118.4175334 -9.73881256e-05
0.6565897253 -2.46084544e-05 -4.746547388
4.712700725 2.192803392 -9.73881256e-05
11.84856373 233.6088715 -9.73881256e-05
-23.94961627 -2.46084544e-05 -41.07446939
-41.07862827 29.06004739 -88.00009739
-15.52814327 203.1828294 -9.73881256e-05
36.20975173 207.7380544 -9.73881256e-05
22.00802773 -2.46084544e-05 -30.73069239
9.639846725 163.0165714 -9.73881256e-05
24.88980573 67.99997539 -93.34046839
-22.67546727 48.99181239 -88.00009739
-25.48547227 59.71202739 -9.73881256e-05
-37.32734427 25.22082439 1.868219612
-3.032825275 190.8701384 -9.73881256e-05
17.08243973 2.406626392 -94.00009739
6.863839725 78.92176539 -9.73881256e-05
12.73994773 124.4620324 -9.73881256e-05
-27.82013227 61.54325239 -94.00009739
-5.424715275 41.94716639 -94.00009739
-3.196083275 39.79803839 -9.73881256e-05
-39.76479627 3.535020392 -88.00009739
-23.20113827 31.72968639 -88.00009739
-28.20194327 50.75194939 -94.00009739
-2.187742275 20.74989039 -9.73881256e-05
9.166476725 237.5848546 -9.73881256e-05
-15.25436427 -2.46084544e-05 -82.48956939
-7.346384275 10.39531339 -88.00009739
32.87369873 129.7866944 -9.73881256e-05
-10.63687127 185.7140104 -9.73881256e-05
40.58553273 56.94240939 -94.00009739
20.67239373 -2.46084544e-05 -37.64286539
25.56449473 51.38803739 -94.00009739
5.761895725 31.29026139 -94.00009739
1.361037725 180.5505564 -9.73881256e-05
-2.065015275 -2.46084544e-05 -19.72790639
10.04150373 138.2466324 -9.73881256e-05
-2.563280275 223.7449465 -9.73881256e-05
-25.24189727 39.73823939 -94.00009739
-14.16882527 100.6628234 -9.73881256e-05
3.803679725 220.7512467 -9.73881256e-05
28.01942473 46.09457039 -9.73881256e-05
13.95261073 184.0921284 -9.73881256e-05
-7.754492275 48.18584339 -88.00009739
-17.07780627 18.91101639 -94.00009739
-16.33365227 0.4999753915 1.613763612
-18.41518027 37.94063239 -9.73881256e-05
-1.806332275 50.04474839 -9.73881256e-05
28.73791573 180.2071484 -9.73881256e-05
34.96311773 185.1353884 -9.73881256e-05
19.16917773 17.93465239 -94.00009739
15.30044073 -2.46084544e-05 -65.27904239
-35.75014827 -2.46084544e-05 -83.08775339
41.49386273 -2.46084544e-05 -47.43741439
16.18171873 -2.46084544e-05 -30.55137139
-29.92086627 28.64611839 -9.73881256e-05
-8.464268275 25.51470739 -88.00009739
-6.098767275 245.5517365 -9.73881256e-05
35.04711173 -2.46084544e-05 -15.40458139
-19.36686227 27.39056339 -94.00009739
11.86055973 240.1880242 -9.73881256e-05
3.012240725 -2.46084544e-05 -52.42319839
-7.026936275 47.41019339 -9.73881256e-05
-5.844428275 -2.301190608 -74.03671839
-6.287049275 -2.46084544e-05 -6.077985388
-24.22224827 114.1233494 -9.73881256e-05
22.74320773 58.54675539 -88.00009739
-15.35207927 -2.46084544e-05 -8.258299388
31.66262773 100.1847454 -9.73881256e-05
-18.64382427 67.99997539 -91.34521539
7.617362725 216.4653711 -9.73881256e-05
26.65339273 -2.46084544e-05 -52.64380839
26.42088973 -2.46084544e-05 -66.63273939
5.111401725 137.5917614 -9.73881256e-05
-29.66936227 -2.46084544e-05 -48.67270839
19.39306173 -2.46084544e-05 -53.90765539
33.45496673 40.41809939 -94.00009739
-16.52270727 153.2789314 -9.73881256e-05
-23.48446327 -2.46084544e-05 -12.72390339
8.893316725 2.575245392 -88.00009739
40.64101873 34.59038639 -88.00009739
26.64618673 49.77491339 -9.73881256e-05
36.63441873 118.5731994 -9.73881256e-05
6.307111725 49.63362839 -9.73881256e-05
-2.533131275 63.05745939 -94.00009739
10.51599773 -2.295077608 -88.00009739
41.20029173 20.41851839 -94.00009739
14.95631773 67.99997539 -92.65465939
-40.25016127 0.5140063915 -50.51604239
16.06905973 25.32653439 -9.73881256e-05
24.24940973 11.69020239 -94.00009739
-2.058965275 48.16289239 -88.00009739
31.81108473 57.58693439 -94.00009739
-12.84608627 63.70337039 -9.73881256e-05
-35.49649127 36.11492439 0.7074956119
-14.11107327 37.51244739 -9.73881256e-05
24.09914373 35.89702539 -9.73881256e-05
13.17602673 -2.46084544e-05 -86.23449539
30.21843973 204.5653104 -9.73881256e-05
-7.523221275 219.9980023 -9.73881256e-05
-38.94865827 40.09470539 -88.00009739
28.21131373 75.71075339 -9.73881256e-05
-35.31279427 -2.46084544e-05 -36.14233439
10.59943873 58.21414739 -88.00009739
30.12212573 8.258585392 -94.00009739
11.63130473 -2.46084544e-05 -30.57543039
-1.968404275 147.8535454 -9.73881256e-05
36.18293573 86.98101939 -9.73881256e-05
34.59498573 139.4865314 -9.73881256e-05
40.49362873 27.11500539 -88.00009739
-6.572215275 64.57042239 -9.73881256e-05
-40.25016127 0.6795413915 -62.25522139
-35.07837927 -2.46084544e-05 -9.251505388
-24.30727427 37.47105239 -88.00009739
-9.950374275 244.5624337 -9.73881256e-05
16.48719073 -2.46084544e-05 -76.79931339
28.52254673 17.47330639 -88.00009739
19.98703473 42.48120039 -88.00009739
-23.43929827 240.5085375 -9.73881256e-05
-3.484525275 -2.46084544e-05 -5.019573388
38.35190673 -2.46084544e-05 -29.03648939
33.88418773 127.5494554 -9.73881256e-05
34.63183673 33.19537039 -94.00009739
-13.66623527 172.2929384 -9.73881256e-05
37.74983873 53.71855739 1.387946612
8.530387725 -2.46084544e-05 -69.41095239
-16.37810827 31.72096939 -94.00009739
-23.65579327 52.48564339 -94.00009739
-39.35583627 -2.46084544e-05 -54.16775639
2.967025725 57.65975239 -88.00009739
35.93664673 187.2628984 -9.73881256e-05
-32.79480827 232.6641617 0.05365061187
-9.403256275 58.52025139 -94.00009739
-33.29162027 67.99997539 -91.14787739
32.22799473 169.1581454 -9.73881256e-05
-26.32407927 141.3468684 -9.73881256e-05
0.6750167253 -2.46084544e-05 -70.21656539
35.59955073 -2.46084544e-05 -38.35872839
24.13216773 -2.46084544e-05 -55.54127639
-37.95906827 -2.46084544e-05 -71.23523839
-39.73102227 44.13985039 -94.00009739
0.4259957253 139.4984014 -9.73881256e-05
22.06394373 220.03581 -9.73881256e-05
-4.502102275 60.93865539 -88.00009739
7.497224725 -2.46084544e-05 -48.80652139
-16.23671027 12.20248839 -88.00009739
36.26296273 145.0953404 -9.73881256e-05
-35.17587427 -2.46084544e-05 -66.43229439
-35.96929627 43.63372839 0.9604066119
-12.37471127 21.90018539 -94.00009739
-0.6675742747 176.1215534 -9.73881256e-05
32.14383473 -2.46084544e-05 -81.84459339
8.571899725 62.37280839 -88.00009739
5.482739725 -2.46084544e-05 -53.24930739
-17.42901527 -2.46084544e-05 -52.55272739
-8.788541275 -2.46084544e-05 -42.40874539
-10.35957227 -2.46084544e-05 -32.98984739
28.56872473 26.98038939 -88.00009739
19.17723673 35.81500439 -9.73881256e-05
-23.49300627 67.99997539 -93.39728839
-10.65262527 26.50595639 -88.00009739
16.56964373 177.3082874 -9.73881256e-05
-27.99157727 29.79262939 -88.00009739
2.498418725 -2.46084544e-05 -11.43100939
-7.365371275 -0.04604160845 -88.00009739
16.16729873 46.13215639 -94.00009739
13.32925673 243.9852655 -9.73881256e-05
-29.09876527 -2.46084544e-05 -15.83438739
-21.78740827 -2.46084544e-05 0.7616876119
-11.59192927 0.4999753915 0.6244096119
-30.08123127 -2.46084544e-05 -67.15482439
-28.93912927 104.6867734 -9.73881256e-05
-15.09587127 -0.4806126085 -88.00009739
27.22577873 66.77813439 -88.00009739
28.49922173 -2.46084544e-05 -29.68951539
33.64081773 188.4876094 -9.73881256e-05
26.17097273 175.9512704 -9.73881256e-05
-4.599228275 134.7458204 -9.73881256e-05
-1.915749275 24.94417639 -88.00009739
-17.93926527 -2.46084544e-05 -0.5226263881
8.773998725 67.99997539 -90.86130339
15.35260173 147.1016464 -9.73881256e-05
23.87081973 38.61276539 -94.00009739
20.42647373 -2.46084544e-05 1.176867612
-34.04399427 -2.46084544e-05 -6.535017388
-25.87034527 6.435719392 -88.00009739
0.5433337253 122.8814094 -9.73881256e-05
2.879253725 35.52946939 -94.00009739
-35.78181727 12.66510139 -88.00009739
35.84000073 -2.46084544e-05 -32.56374039
11.50936873 9.821638392 -9.73881256e-05
-4.691568275 25.98548339 -88.00009739
-30.01943827 59.88037839 -94.00009739
-24.88541627 89.39144039 -9.73881256e-05
-11.50980127 37.53955239 -94.00009739
-34.25915627 250.5185206 0.2856106119
10.68299573 236.4548909 -9.73881256e-05
39.85786773 65.89231539 -94.00009739
-7.111503275 -2.46084544e-05 1.017620612
35.39466573 65.11933139 -94.00009739
30.18639973 42.43716339 -88.00009739
33.96118273 24.77064339 -9.73881256e-05
-18.83023627 1.338841392 1.516368612
16.07193573 181.9923244 -9.73881256e-05
-28.92043327 -2.46084544e-05 0.5810616119
3.642059725 18.13086339 -94.00009739
15.09468273 48.40609839 -88.00009739
-2.600949275 14.30730339 -9.73881256e-05
-21.63033427 122.5341164 -9.73881256e-05
-0.4897222747 56.28907839 -9.73881256e-05
38.03673073 0.3489643915 -94.00009739
-33.25821427 26.20621639 -88.00009739
2.960186725 2.145933392 -9.73881256e-05
34.74316873 31.21930439 -94.00009739
-3.707356275 -2.46084544e-05 -2.386019388
22.95676173 53.15224739 -94.00009739
-28.69575527 222.3116906 -9.73881256e-05
-34.00552227 -2.46084544e-05 -45.44577239
37.74983873 248.2309744 1.944106612
40.84559673 -1.335110608 -94.00009739
-16.19950427 -2.46084544e-05 -51.38720139
-7.199631275 247.332817 -9.73881256e-05
27.73668473 50.43864139 -94.00009739
-16.05629927 13.85541339 -88.00009739
18.82624973 -2.46084544e-05 -36.73428039
-9.053920275 65.34493139 -9.73881256e-05
-20.26970727 170.1556504 -9.73881256e-05
-34.34544927 64.67532439 -94.00009739
-22.82290327 142.5355934 -9.73881256e-05
28.05901773 -2.46084544e-05 -21.39886639
-37.10696327 -0.4627996085 -88.00009739
40.86826973 51.18526539 -94.00009739
36.41318473 102.3484844 -9.73881256e-05
7.272075725 204.7469474 -9.73881256e-05
-23.35512227 36.76234639 -94.00009739
-22.03004827 16.09450039 -9.73881256e-05
38.82853373 51.20986839 -88.00009739
-40.25016127 0.9840773915 -0.3763643881
10.09874073 25.22681339 -9.73881256e-05
-34.37542927 -2.46084544e-05 -63.18513739
-27.79751227 55.86234739 -9.73881256e-05
1.758088725 -2.46084544e-05 -51.59840539
3.005605725 4.532987392 -88.00009739
21.22164173 -2.46084544e-05 -31.98526239
-26.19809527 67.99997539 -91.76070439
-26.80430127 42.72736939 -9.73881256e-05
-12.01749227 65.86918039 -88.00009739
4.822025725 195.9681254 -9.73881256e-05
-7.219620275 174.1809274 -9.73881256e-05
6.491582725 -2.46084544e-05 -87.88874339
-26.19627727 227.9148384 -9.73881256e-05
-15.05463027 -2.46084544e-05 -81.13359539
27.47252673 -2.46084544e-05 -65.02044739
-22.71446627 35.86324839 -88.00009739
-2.297587275 206.8951334 -9.73881256e-05
15.86604973 20.95384139 -94.00009739
-28.31750927 55.19317039 -94.00009739
-1.505284275 -2.46084544e-05 -17.87149839
36.48597573 -2.46084544e-05 -39.36488239
-9.509540275 19.76345539 -9.73881256e-05
35.60915373 127.0904294 -9.73881256e-05
6.205257725 190.3337094 -9.73881256e-05
-33.13536127 -2.46084544e-05 -76.85176739
-29.75354827 207.9689634 -9.73881256e-05
-39.59572827 66.81039939 -88.00009739
41.82950473 58.59456339 -94.00009739
30.91083373 82.52900039 -9.73881256e-05
-6.115835275 -2.46084544e-05 -9.397452388
17.37642473 174.3719824 -9.73881256e-05
-33.72756927 213.3784432 0.1485636119
3.232613725 -2.46084544e-05 0.7590216119
12.25546973 137.6883604 -9.73881256e-05
-40.22293627 -2.46084544e-05 -54.86718439
-6.968875275 43.59220139 -88.00009739
19.01366973 41.97827039 -88.00009739
30.61244273 134.8112454 -9.73881256e-05
19.95730873 64.77201839 -88.00009739
-1.066697275 48.50948539 -88.00009739
-21.93189227 -2.46084544e-05 1.797445612
33.61524973 -2.46084544e-05 -5.314563388
-3.211652275 20.90446139 -9.73881256e-05
20.45737273 -2.46084544e-05 -0.1288063881
-34.38432927 -2.46084544e-05 -7.507450388
37.01991873 45.95012339 -9.73881256e-05
33.87242873 95.05491739 -9.73881256e-05
-17.25752727 41.93508839 -88.00009739
-25.82051327 77.10201439 -9.73881256e-05
-15.49816027 67.99997539 -93.38131739
-15.46813927 185.0606054 -9.73881256e-05
-31.88622027 207.7232744 -9.73881256e-05
-30.92328227 -2.46084544e-05 -82.42816939
8.472133725 50.21041439 -9.73881256e-05
-1.470573275 80.75796539 -9.73881256e-05
-9.221069275 245.9110631 -9.73881256e-05
-19.97446427 210.1201664 -9.73881256e-05
-13.08132227 186.1143144 -9.73881256e-05
27.94139273 49.30626839 -94.00009739
18.58597873 -1.952076608 -88.00009739
-1.769051275 88.57447039 -9.73881256e-05
20.98162173 49.21105339 -94.00009739
-19.69156027 -2.46084544e-05 -80.53034339
26.40566673 37.81591639 -94.00009739
37.72722273 102.3410384 -9.73881256e-05
-33.72624527 36.78382139 -94.00009739
41.34897073 57.16711439 -94.00009739
-33.01587627 14.66171139 -94.00009739
-36.73855527 25.33429439 1.383567612
-27.52063927 50.48635439 -94.00009739
-3.350259275 63.64156839 -9.73881256e-05
15.98842073 134.4254154 -9.73881256e-05
-29.28610927 163.7646754 -9.73881256e-05
8.153893725 61.87726039 -88.00009739
17.41493373 13.82742739 -88.00009739
26.88882573 -2.46084544e-05 -66.49417539
-37.71413927 122.9796254 2.184482612
-2.807437275 190.4480324 -9.73881256e-05
30.50526173 44.84099339 -9.73881256e-05
3.217935725 -2.46084544e-05 -52.12339739
19.11873673 -2.129943608 -88.00009739
-27.89536127 37.77611239 -94.00009739
-24.25022327 84.17766339 -9.73881256e-05
31.76322973 32.82920039 -9.73881256e-05
-22.64335527 230.2539278 -9.73881256e-05
4.599037725 16.26394839 -94.00009739
-9.475638275 6.848765392 -88.00009739
-3.823568275 24.27524339 -88.00009739
25.48550273 20.19047639 -88.00009739
8.153893725 61.87726039 -88.00009739
-16.35181927 9.996083392 -88.00009739
-3.170235275 17.76503939 -88.00009739
30.15256573 44.29415339 -88.00009739
-36.65639927 3.757726392 -88.00009739
-18.92599127 36.22329339 -88.00009739
27.45407073 64.74747239 -88.00009739
2.967025725 57.65975239 -88.00009739
40.64101873 34.59038639 -88.00009739
-6.968875275 43.59220139 -88.00009739
17.03108973 13.46887539 -88.00009739
30.18639973 42.43716339 -88.00009739
10.59943873 58.21414739 -88.00009739
19.29007273 -2.420678608 -88.00009739
-4.502102275 60.93865539 -88.00009739
-8.464268275 25.51470739 -88.00009739
17.33339773 5.774765392 -88.00009739
5.579665725 35.13700839 -88.00009739
-29.96450227 29.04122739 -88.00009739
-15.09587127 -0.4806126085 -88.00009739
-1.308436275 30.65173839 -88.00009739
-10.78450027 59.27085739 -88.00009739
-25.87034527 6.435719392 -88.00009739
20.52012873 44.85674939 -88.00009739
7.035520725 -1.272103608 -88.00009739
34.23830273 45.61467539 -88.00009739
-15.80679227 22.22247339 -88.00009739
-16.23671027 12.20248839 -88.00009739
-1.915749275 24.94417639 -88.00009739
20.05317973 57.72602139 -88.00009739
-11.89211727 32.70322739 -88.00009739
8.893316725 2.575245392 -88.00009739
-5.918385275 43.91712839 -88.00009739
-42.96450727 31.65803739 -88.00009739
15.43993573 35.95234939 -88.00009739
-10.13971027 46.41214739 -88.00009739
29.76887473 31.09107039 -88.00009739
16.89583673 43.60437239 -88.00009739
-23.20113827 31.72968639 -88.00009739
19.01366973 41.97827039 -88.00009739
19.59554273 39.88918939 -88.00009739
22.87302373 2.226051392 -88.00009739
-17.09452427 40.95563939 -88.00009739
13.32643473 17.53740639 -88.00009739
-8.830144275 41.53941439 -88.00009739
19.98703473 42.48120039 -88.00009739
9.093532725 60.27593939 -88.00009739
-9.874837275 12.16304239 -88.00009739
41.95554573 10.53518239 -88.00009739
43.37860973 34.38817739 -88.00009739
-1.656862275 66.95623839 -88.00009739
-24.30727427 37.47105239 -88.00009739
-40.70711227 46.92161139 -88.00009739
18.58597873 -1.952076608 -88.00009739
-40.78581427 66.97730039 -88.00009739
-16.33493727 -2.105741608 -88.00009739
-38.94865827 40.09470539 -88.00009739
-38.89106527 24.79907239 -88.00009739
35.00524673 66.50113439 -88.00009739
40.49362873 27.11500539 -88.00009739
-9.390565275 6.820014392 -88.00009739
-26.21208527 22.15849639 -88.00009739
-9.475638275 6.848765392 -88.00009739
-28.44959027 4.612958392 -88.00009739
-11.16491727 24.44641839 -88.00009739
-33.58536127 39.37886139 -88.00009739
-27.29434327 41.96095139 -88.00009739
-16.05629927 13.85541339 -88.00009739
-27.99157727 29.79262939 -88.00009739
42.48059673 22.95970239 -88.00009739
-17.25752727 41.93508839 -88.00009739
5.581830725 42.30914539 -88.00009739
26.44583773 27.17199639 -88.00009739
38.36252773 25.79954739 -88.00009739
-23.02851527 13.97357139 -88.00009739
-20.99965527 46.28634139 -88.00009739
-22.67546727 48.99181239 -88.00009739
-23.81530127 35.06893639 -88.00009739
-13.54944827 55.16124739 -88.00009739
-38.12939527 37.65441339 -88.00009739
-28.17824927 37.19718639 -88.00009739
-39.76479627 3.535020392 -88.00009739
-39.41306427 31.89522139 -88.00009739
-39.59572827 66.81039939 -88.00009739
10.68131873 4.667935392 -88.00009739
-31.97590827 52.59453039 -88.00009739
-33.25821427 26.20621639 -88.00009739
-3.909604275 58.79581139 -88.00009739
-17.89367727 5.762291392 -88.00009739
20.55883873 17.51315139 -88.00009739
24.98710973 62.01237639 -88.00009739
28.52254673 17.47330639 -88.00009739
-30.53660727 45.76897439 -88.00009739
36.87920773 49.31946139 -88.00009739
17.46274273 33.36744839 -88.00009739
-41.07862827 29.06004739 -88.00009739
29.17570073 67.90852739 -88.00009739
17.41493373 13.82742739 -88.00009739
26.18149073 44.24432339 -88.00009739
-2.058965275 48.16289239 -88.00009739
-37.64978427 10.43024839 -88.00009739
-10.65262527 26.50595639 -88.00009739
-34.08452427 45.17880239 -88.00009739
-3.291861275 5.925518392 -88.00009739
-32.08475627 18.23202939 -88.00009739
4.286628725 60.67088739 -88.00009739
-43.07239727 21.72697439 -88.00009739
-22.71446627 35.86324839 -88.00009739
-27.28160827 7.821270392 -88.00009739
-35.71579927 0.3611413915 -88.00009739
28.56872473 26.98038939 -88.00009739
13.40189773 47.75359139 -88.00009739
-20.14687527 32.34759839 -88.00009739
37.52285773 30.60499439 -88.00009739
-17.67615027 14.56885539 -88.00009739
-12.01749227 65.86918039 -88.00009739
-39.30681927 51.79518739 -88.00009739
3.005605725 4.532987392 -88.00009739
22.74320773 58.54675539 -88.00009739
6.431738725 27.42973739 -88.00009739
19.72247273 65.79969539 -88.00009739
-27.20240827 18.57949239 -88.00009739
-22.59256827 40.22965339 -88.00009739
-32.10061527 4.658580392 -88.00009739
4.027469725 5.610664392 -88.00009739
-1.066697275 48.50948539 -88.00009739
19.95730873 64.77201839 -88.00009739
-28.38447627 25.77359239 -88.00009739
34.87291873 20.89892639 -88.00009739
-28.66727327 11.34849539 -88.00009739
-7.346384275 10.39531339 -88.00009739
-33.84449927 12.45827539 -88.00009739
-7.754492275 48.18584339 -88.00009739
-11.86228427 67.27953239 -88.00009739
8.571899725 62.37280839 -88.00009739
35.93318173 2.948581392 -88.00009739
-28.28354927 58.60338439 -88.00009739
30.57489973 18.78334939 -88.00009739
40.20599873 50.52491239 -88.00009739
-35.78181727 12.66510139 -88.00009739
-23.90560927 53.50090839 -88.00009739
-37.13582527 47.14842139 -88.00009739
18.60721973 61.80173039 -88.00009739
-38.60875727 59.28849039 -88.00009739
27.22577873 66.77813439 -88.00009739
-35.22695527 62.23616439 -88.00009739
15.09468273 48.40609839 -88.00009739
38.82853373 51.20986839 -88.00009739
23.73782873 53.52341439 -88.00009739
4.145020725 55.63436639 -88.00009739
10.51599773 -2.295077608 -88.00009739
13.27459873 40.73280539 -88.00009739
-13.11819227 64.15729939 -88.00009739
4.794809725 15.75602439 -88.00009739
-42.28544527 11.24482339 -88.00009739
-3.404319275 40.99388939 -88.00009739
-0.1868572747 10.81460639 -88.00009739
0.2985697253 49.34238339 -88.00009739
-32.36626427 24.67516639 -88.00009739
-21.28432627 1.919377392 -88.00009739
-4.691568275 25.98548339 -88.00009739
41.38607973 2.414284392 -88.00009739
-18.64965027 63.82113239 -88.00009739
34.63183673 33.19537039 -94.00009739
-19.35509727 8.759272392 -94.00009739
-27.75860627 38.07747739 -94.00009739
28.29242873 34.32001939 -94.00009739
2.879253725 35.52946939 -94.00009739
-14.55325027 22.03022739 -94.00009739
-39.06744727 33.86533939 -94.00009739
20.14991273 3.150437392 -94.00009739
-10.92798727 35.73451539 -94.00009739
17.08243973 2.406626392 -94.00009739
-19.56398627 17.28962139 -94.00009739
-12.37471127 21.90018539 -94.00009739
23.87081973 38.61276539 -94.00009739
42.46662773 23.55052939 -94.00009739
21.86815973 38.66829339 -94.00009739
38.61155773 36.65787239 -94.00009739
40.84559673 -1.335110608 -94.00009739
34.74316873 31.21930439 -94.00009739
4.006702725 41.65377739 -94.00009739
-19.36686227 27.39056339 -94.00009739
-35.14156627 5.838914392 -94.00009739
-23.30548927 25.49039539 -94.00009739
-16.03378227 14.67836839 -94.00009739
-7.059755275 15.14941539 -94.00009739
-5.424715275 41.94716639 -94.00009739
33.00654173 31.43521439 -94.00009739
19.16917773 17.93465239 -94.00009739
5.761895725 31.29026139 -94.00009739
-19.21591627 34.49489539 -94.00009739
26.40566673 37.81591639 -94.00009739
2.249818725 19.30289539 -94.00009739
24.24940973 11.69020239 -94.00009739
-25.24189727 39.73823939 -94.00009739
-7.233031275 9.347005392 -94.00009739
8.797088725 4.115261392 -94.00009739
15.86604973 20.95384139 -94.00009739
-5.098731275 2.759317392 -94.00009739
33.25350473 8.385666392 -94.00009739
40.87322173 42.07462439 -94.00009739
4.470003725 16.21986039 -94.00009739
26.70305073 38.58708039 -94.00009739
-23.78218027 29.96662339 -94.00009739
-2.522027275 32.55301139 -94.00009739
37.48664673 5.391183392 -94.00009739
38.03673073 0.3489643915 -94.00009739
-33.78675827 31.43506339 -94.00009739
27.79233673 7.222481392 -94.00009739
33.45496673 40.41809939 -94.00009739
-23.26922527 -0.9688676085 -94.00009739
19.11525273 13.50958039 -94.00009739
40.86164473 0.3791303915 -94.00009739
-33.01587627 14.66171139 -94.00009739
41.20029173 20.41851839 -94.00009739
-11.50980127 37.53955239 -94.00009739
-16.01612527 36.71511539 -94.00009739
-39.73102227 44.13985039 -94.00009739
7.972239725 29.18498439 -94.00009739
16.21751673 22.25623839 -94.00009739
-0.4691732747 11.35598339 -94.00009739
16.26229473 18.36136439 -94.00009739
23.79085073 14.36351039 -94.00009739
4.599037725 16.26394839 -94.00009739
-30.79531127 -0.03055660845 -94.00009739
-32.55290627 15.29628439 -94.00009739
11.65761073 0.4768813915 -94.00009739
12.35274373 30.81321239 -94.00009739
-33.75572027 37.59611539 -94.00009739
-43.35872027 31.58673439 -94.00009739
35.11693273 1.669473392 -94.00009739
43.25885073 8.336781392 -94.00009739
-40.45309127 26.36904939 -94.00009739
30.65282573 17.86683839 -94.00009739
37.33460273 -1.288357608 -94.00009739
-33.72624527 36.78382139 -94.00009739
-39.62782127 16.93256539 -94.00009739
-4.465919275 38.93337639 -94.00009739
2.713082725 37.48815839 -94.00009739
-37.37869627 11.02571739 -94.00009739
-5.379892275 21.83716939 -94.00009739
38.05128973 30.95804739 -94.00009739
3.642059725 18.13086339 -94.00009739
30.12212573 8.258585392 -94.00009739
-27.89536127 37.77611239 -94.00009739
-17.72096827 29.76180739 -94.00009739
22.96980173 9.368007392 -94.00009739
-16.37810827 31.72096939 -94.00009739
-17.07780627 18.91101639 -94.00009739
-38.64018027 42.19373839 -94.00009739
-0.9659842747 21.18588139 -94.00009739
-22.68495827 35.36084739 -94.00009739
33.51810173 37.65458639 -94.00009739
-23.35512227 36.76234639 -94.00009739
38.75594473 21.57220739 -94.00009739
-10.34631827 52.10455139 -94.00009739
20.15506073 49.33467639 -94.00009739
25.89752973 65.05225839 -94.00009739
27.73668473 50.43864139 -94.00009739
15.03994873 44.37223839 -94.00009739
-29.16340327 56.23888839 -94.00009739
-19.17459827 59.36685239 -94.00009739
7.896655725 66.23605939 -94.00009739
39.85786773 65.89231539 -94.00009739
43.09650173 50.19729939 -94.00009739
12.02004373 63.65941439 -94.00009739
42.99712873 58.85801739 -94.00009739
1.452646725 49.73934139 -94.00009739
41.82950473 58.59456339 -94.00009739
16.16729873 46.13215639 -94.00009739
12.67468873 52.43194839 -94.00009739
-31.80495027 59.21326939 -94.00009739
-28.20194327 50.75194939 -94.00009739
16.09237073 58.64808839 -94.00009739
-27.82013227 61.54325239 -94.00009739
-40.04298827 47.09327839 -94.00009739
-34.34544927 64.67532439 -94.00009739
4.979859725 47.50550839 -94.00009739
-39.41555427 56.27331139 -94.00009739
23.94260873 54.58105639 -94.00009739
25.56449473 51.38803739 -94.00009739
35.39466573 65.11933139 -94.00009739
-24.47997127 48.55157139 -94.00009739
22.95676173 53.15224739 -94.00009739
-20.58500527 52.92461039 -94.00009739
2.957693725 65.78140239 -94.00009739
19.48332673 57.17227639 -94.00009739
-22.67660627 57.13265039 -94.00009739
27.23396573 48.82939639 -94.00009739
20.98162173 49.21105339 -94.00009739
10.75128473 45.63388939 -94.00009739
-9.403256275 58.52025139 -94.00009739
-28.31750927 55.19317039 -94.00009739
40.86826973 51.18526539 -94.00009739
-25.97599627 52.93094539 -94.00009739
41.34897073 57.16711439 -94.00009739
-3.674744275 65.95323739 -94.00009739
-2.933593275 43.86176039 -94.00009739
40.58553273 56.94240939 -94.00009739
39.44385473 51.92803139 -94.00009739
41.99532073 53.94374139 -94.00009739
-23.65579327 52.48564339 -94.00009739
-20.05473127 65.10052139 -94.00009739
0.4619277253 57.43693539 -94.00009739
-7.603916275 57.10695139 -94.00009739
31.81108473 57.58693439 -94.00009739
32.99314673 60.46359739 -94.00009739
-2.533131275 63.05745939 -94.00009739
33.72110573 50.41168539 -94.00009739
15.67435273 63.97041839 -94.00009739
-26.77405427 64.50810939 -94.00009739
27.94139273 49.30626839 -94.00009739
0.1398007253 62.55845739 -94.00009739
-35.83021627 65.33688339 -94.00009739
-35.61850627 48.46462739 -94.00009739
-27.52063927 50.48635439 -94.00009739
-25.96586127 57.25853539 -94.00009739
41.68774473 66.35664039 -94.00009739
-11.26624127 64.80713839 -94.00009739
28.45404873 42.94485039 -94.00009739
29.41823473 56.48946439 -94.00009739
35.95389273 63.34244639 -94.00009739
-30.01943827 59.88037839 -94.00009739
14.95631773 67.99997539 -92.65465939
-39.89322827 67.99997539 -92.84616939
17.64822073 67.99997539 -92.49882639
24.88980573 67.99997539 -93.34046839
-16.21701127 67.99997539 -92.72158239
-26.19809527 67.99997539 -91.76070439
-25.59660627 67.99997539 -93.11039839
-15.49816027 67.99997539 -93.38131739
-23.49300627 67.99997539 -93.39728839
-10.43376827 67.99997539 -91.83090839
-31.97551227 67.99997539 -93.00523439
-18.64382427 67.99997539 -91.34521539
-33.29162027 67.99997539 -91.14787739
8.773998725 67.99997539 -90.86130339
7.112727725 67.99997539 -89.72575939
-23.18401827 67.99997539 -89.64151939
-37.43169127 67.99997539 -88.19101039
21.46848573 -2.46084544e-05 -73.75631739
17.28753773 -2.46084544e-05 -73.98066139
30.02242373 -2.46084544e-05 -82.27677639
32.14383473 -2.46084544e-05 -81.84459339
6.806140725 -2.46084544e-05 -81.68999139
40.22949973 -2.46084544e-05 -75.43790339
6.491582725 -2.46084544e-05 -87.88874339
13.17602673 -2.46084544e-05 -86.23449539
14.99555173 -2.46084544e-05 -78.72918639
-15.05463027 -2.46084544e-05 -81.13359539
-20.43599327 -2.46084544e-05 -80.15550539
-35.61917627 -2.46084544e-05 -78.79572139
0.3837997253 -2.46084544e-05 -81.26523739
-35.75014827 -2.46084544e-05 -83.08775339
-7.321427275 -2.46084544e-05 -74.88098439
-15.25436427 -2.46084544e-05 -82.48956939
-12.24957427 -2.46084544e-05 -76.36447239
-38.67094627 -2.46084544e-05 -82.90415239
-16.64087927 -2.46084544e-05 -79.22088139
-12.43976927 -2.46084544e-05 -81.20752239
-30.92328227 -2.46084544e-05 -82.42816939
-19.86169727 -2.46084544e-05 -84.92882839
10.62629373 -2.46084544e-05 -79.30768639
8.671403725 -2.46084544e-05 -84.85327839
16.48719073 -2.46084544e-05 -76.79931339
37.61821073 -2.46084544e-05 -80.69546239
-19.69156027 -2.46084544e-05 -80.53034339
23.75804473 -2.46084544e-05 -84.98648539
-32.26317027 -2.46084544e-05 -75.93574339
-33.13536127 -2.46084544e-05 -76.85176739
-31.36211027 -2.46084544e-05 -81.58745739
0.02826772528 -2.46084544e-05 -30.52901539
3.232613725 -2.46084544e-05 0.7590216119
-7.111503275 -2.46084544e-05 1.017620612
-21.78740827 -2.46084544e-05 0.7616876119
-16.92658227 -2.46084544e-05 -5.939991388
-18.05755727 -2.46084544e-05 -50.44933539
-15.26248827 -2.46084544e-05 -17.37298439
-21.93189227 -2.46084544e-05 1.797445612
-39.12416627 -2.46084544e-05 -0.1405573881
-40.22293627 -2.46084544e-05 -54.86718439
-8.733535275 -2.46084544e-05 0.09168361187
-37.77159527 -2.46084544e-05 -36.86228539
-9.948859275 -2.46084544e-05 -30.82716739
-30.89068927 -2.46084544e-05 -55.56673639
-30.92468627 -2.46084544e-05 -0.5875263881
0.6565897253 -2.46084544e-05 -4.746547388
-30.08480927 -2.46084544e-05 -3.941689388
-35.07837927 -2.46084544e-05 -9.251505388
-10.49226527 -2.46084544e-05 -35.12449839
4.965113725 -2.46084544e-05 -35.12985539
-6.287049275 -2.46084544e-05 -6.077985388
-2.495372275 -2.46084544e-05 -27.38285439
-19.32211527 -2.46084544e-05 -1.985896388
-16.65283727 -2.46084544e-05 -33.25880339
-32.70658727 -2.46084544e-05 -8.603104388
20.42647373 -2.46084544e-05 1.176867612
-1.505284275 -2.46084544e-05 -17.87149839
-15.35207927 -2.46084544e-05 -8.258299388
-28.92043327 -2.46084544e-05 0.5810616119
-7.508184275 -2.46084544e-05 -47.36674839
-33.68435327 -2.46084544e-05 2.099473612
19.53160573 -2.46084544e-05 -0.5909623881
-22.20215327 -2.46084544e-05 -38.37921539
-34.35672727 -2.46084544e-05 -41.84982139
-20.79112227 -2.46084544e-05 -13.29171939
-29.66936227 -2.46084544e-05 -48.67270839
-24.81379727 -2.46084544e-05 -53.37281239
-25.81108527 -2.46084544e-05 -56.46510339
-41.34651327 -2.46084544e-05 -52.89755839
14.86093673 -2.46084544e-05 1.680777612
-3.707356275 -2.46084544e-05 -2.386019388
-6.973820275 -2.46084544e-05 -41.26957139
-32.70672827 -2.46084544e-05 -22.21301439
-7.131638275 -2.46084544e-05 -8.803354388
-25.25786027 -2.46084544e-05 -18.58680539
-32.44341527 -2.46084544e-05 -36.14762739
-20.04271427 -2.46084544e-05 1.882109612
-6.578015275 -2.46084544e-05 -22.30013239
-26.18865927 -2.46084544e-05 -10.37368039
-35.31279427 -2.46084544e-05 -36.14233439
-34.00552227 -2.46084544e-05 -45.44577239
9.338706725 -2.46084544e-05 -19.54936739
2.430856725 -2.46084544e-05 -9.323639388
-26.69135027 -2.46084544e-05 -23.82730739
-34.38432927 -2.46084544e-05 -7.507450388
-6.115835275 -2.46084544e-05 -9.397452388
-39.35583627 -2.46084544e-05 -54.16775639
-21.68798027 -2.46084544e-05 -5.541605388
-10.35957227 -2.46084544e-05 -32.98984739
-3.484525275 -2.46084544e-05 -5.019573388
-16.19950427 -2.46084544e-05 -51.38720139
20.45737273 -2.46084544e-05 -0.1288063881
6.415930725 -2.46084544e-05 -22.75094939
2.498418725 -2.46084544e-05 -11.43100939
-17.42901527 -2.46084544e-05 -52.55272739
-2.094568275 -2.46084544e-05 -3.052331388
-21.53990127 -2.46084544e-05 -26.97557639
-0.9031702747 -2.46084544e-05 -16.67027539
-29.09876527 -2.46084544e-05 -15.83438739
-13.41516027 -2.46084544e-05 1.465876612
-11.04288427 -2.46084544e-05 -58.34978639
-14.86695627 -2.46084544e-05 -53.89295939
-17.93926527 -2.46084544e-05 -0.5226263881
-34.04399427 -2.46084544e-05 -6.535017388
-18.16219927 -2.46084544e-05 -54.57295539
-31.14401227 -2.46084544e-05 -16.18846639
-2.065015275 -2.46084544e-05 -19.72790639
-26.90426027 -2.46084544e-05 -48.51005739
-32.29870927 -2.46084544e-05 -45.66795339
-33.83882327 -2.46084544e-05 -30.17022239
-43.46668727 -2.46084544e-05 -5.354331388
-3.095738275 -2.46084544e-05 -36.51503339
-17.76091627 -2.46084544e-05 -10.86891739
-2.111311275 -2.46084544e-05 -22.76912139
-8.788541275 -2.46084544e-05 -42.40874539
-35.86451427 -2.46084544e-05 -5.756096388
