# .PCD v0.7 - Point Cloud Data file format
VERSION 0.7
FIELDS x y z
SIZE 4 4 4
TYPE F F F
COUNT 1 1 1
WIDTH 1201
HEIGHT 1
VIEWPOINT 0 0 0 1 0 0 0
POINTS 1201
DATA ascii
0.0002150004248 -81.39376013 -64.93754539
-35.053407 -2.498446995e-05 -21.74127639
0.0002150004248 -23.81024217 -34.47173239
0.0002150004248 -224.5768715 22.33093861
-7.289428 -2.498446995e-05 50.95225361
-72.540063 -2.498446995e-05 74.32656261
-15.558903 -2.498446995e-05 0.8086136141
0.0002150004248 -174.2814729 -58.61843539
0.0002150004248 -70.04922478 27.27809161
0.0002150004248 -60.10313295 -49.60492639
0.0002150004248 -74.17229813 73.92823961
-147.685222 -2.498446995e-05 -22.99229139
-157.978583 -2.498446995e-05 -67.93971239
-194.866055 -2.498446995e-05 -24.60838239
0.0002150004248 -241.6384444 -50.30482739
0.0002150004248 -43.41037333 -2.270465386
0.0002150004248 -25.21480035 74.23986761
0.0002150004248 -251.9672453 -20.53884439
-186.331611 -2.498446995e-05 9.443998614
-227.795726 -2.498446995e-05 50.46077261
-200.210067 -2.498446995e-05 -57.90323739
0.02402100042 -131.0161906 -72.24202339
-3.999785 -68.79294434 -22.55177239
-149.062599 -2.498446995e-05 55.26742361
0.0002150004248 -0.4194303245 -47.50773039
-0.06774199958 -25.50002498 23.21945161
-21.137623 -2.498446995e-05 66.07195861
-227.616912 -2.498446995e-05 -22.73736139
0.0002150004248 -101.3437478 -53.49655539
0.0002150004248 -136.1752122 -35.96390739
-19.282006 -2.498446995e-05 22.81855761
-50.79674 -2.498446995e-05 50.61742961
-53.498435 -2.498446995e-05 -14.24200339
-95.858314 -2.498446995e-05 -8.261060386
0.0002150004248 -190.1820926 -4.995994386
-118.528599 -2.498446995e-05 25.76493761
-119.750207 -2.498446995e-05 49.71859961
0.0002150004248 -100.6125409 -27.55339239
-56.795755 -2.498446995e-05 -64.82156039
-34.896059 -2.498446995e-05 -40.86269039
-229.891099 -2.498446995e-05 -3.957256386
-71.491537 -2.498446995e-05 -45.06568339
-18.65938 -2.498446995e-05 -72.91191339
0.0002150004248 -31.1411608 -17.36058139
-67.002137 -2.498446995e-05 4.295118614
0.0002150004248 -97.8668186 49.58403861
0.0002150004248 -136.1742974 41.28051861
0.0002150004248 -92.61106084 71.80017061
1.78873 -2.498446995e-05 -3.870529386
-202.496564 -2.498446995e-05 53.33080161
-157.550659 -2.498446995e-05 -7.177778386
0.0002150004248 -157.2242876 9.289643614
0.0002150004248 -111.1443077 21.57116261
-93.14174 -2.498446995e-05 -59.21752839
-41.328781 -2.498446995e-05 25.19631461
0.0002150004248 -39.5260639 61.42190761
0.0002150004248 -22.12842867 -74.16563039
-167.325087 -2.498446995e-05 58.96761061
0.0002150004248 -194.0476517 14.67866461
0.0002150004248 -200.4943544 -21.66182739
-182.290739 -2.498446995e-05 26.43233861
0.0002150004248 -114.1520854 -9.152186386
-184.430369 -2.498446995e-05 48.87231361
-76.703328 -2.498446995e-05 33.23931661
0.0002150004248 -82.71086691 3.636826614
0.0002150004248 -204.7035555 -59.47745639
-3.999785 -166.763348 -4.470584386
0.0002150004248 -181.9416941 56.55902861
-126.331441 -2.498446995e-05 -9.478509386
0.0002150004248 -39.73267159 -72.37398839
0.0002150004248 -43.4622696 -46.01842939
-89.043215 -2.498446995e-05 -23.79921339
-94.491532 -2.498446995e-05 55.11102461
0.0002150004248 -13.69804602 37.30566761
0.0002150004248 -63.70037942 58.76085761
0.0002150004248 -187.971822 40.46883161
-1.316184 -103.8768857 6.507989614
-205.509803 -2.498446995e-05 72.35749561
-157.221807 -2.498446995e-05 29.27163661
-162.533164 -2.498446995e-05 -32.08772839
-210.927109 -2.498446995e-05 -20.19556239
-3.999785 -12.80981168 60.86865161
0.0002150004248 -216.8485966 -36.03365039
-3.999785 -16.88331588 -49.15012739
-0.4814759996 -152.4358436 47.61430861
0.0002150004248 -38.04970741 36.18676361
-175.110117 -2.498446995e-05 73.93760061
-134.972554 -2.498446995e-05 -35.65990439
0.0002150004248 -55.78693339 -13.55822639
0.0002150004248 -10.59255221 11.48120661
-195.931498 -2.498446995e-05 -6.321229386
0.0002150004248 -84.76929918 34.20140261
-234.881906 -2.498446995e-05 12.93477261
0.0002150004248 -165.3374486 28.85033461
0.0002150004248 -240.1603399 48.62052561
-3.999785 -100.3641762 34.11713261
0.0002150004248 -161.2695208 -69.16865439
0.0002150004248 -188.4206587 -49.52773339
-3.999785 -61.93909688 13.56048061
0.0002150004248 -175.1731857 -35.78564739
0.0002150004248 -141.2008546 9.464254614
0.0002150004248 -161.0313165 -18.86513439
0.0002150004248 -86.14043816 -20.85614739
0.0002150004248 -226.7948239 6.611009614
-241.543625 -2.498446995e-05 27.26232061
-163.603694 -2.498446995e-05 -53.18847039
0.0002150004248 -244.3563032 -34.76434739
-196.783569 -2.498446995e-05 -40.94576139
0.0002150004248 -124.5242245 54.95395361
0.0002150004248 -129.6654001 -7.366610386
-234.213525 -2.498446995e-05 -57.46450639
-83.102125 -2.498446995e-05 4.766593614
-148.766227 -2.498446995e-05 16.01030561
0.0002150004248 -206.5086716 45.16564761
-184.398114 -2.498446995e-05 -54.54255239
-3.999785 -33.36954126 10.57771561
0.0002150004248 -214.8731181 -16.14674139
-203.186852 -2.498446995e-05 15.16530461
0.0002150004248 -15.88949303 -16.44802839
-17.56946 -2.498446995e-05 -14.17994039
-106.290418 -2.498446995e-05 -46.91072039
0.0002150004248 -128.6424386 28.22136861
-234.054042 -2.498446995e-05 64.10880061
-3.999785 -9.121200004 -61.99055939
-87.023811 -2.498446995e-05 68.07195061
0.0002150004248 -110.8776326 -41.93503039
0.0002150004248 -182.6847506 26.56717261
-98.441529 -2.498446995e-05 8.889606614
-47.249639 -2.498446995e-05 -53.59300639
0.4372920004 -198.6927693 74.49155561
-3.999785 -67.83207946 43.00999661
0.0002150004248 -148.736646 70.56574461
0.0002150004248 -136.1239302 -50.83700539
-139.458088 -2.498446995e-05 -57.98166439
0.0002150004248 -209.495949 14.33882261
0.0002150004248 -49.38775823 -61.54589539
-226.782262 -2.498446995e-05 -37.20818939
0.0002150004248 -231.5321253 36.56169161
0.1371110004 -235.1779313 -73.37565739
-33.360901 -2.498446995e-05 -58.73880439
-67.952348 -2.498446995e-05 -30.98848339
0.0002150004248 -70.53315675 -40.04969839
-246.538044 -2.498446995e-05 54.49713961
0.0002150004248 -211.9304562 64.74884561
-133.278523 -2.498446995e-05 45.92673961
-122.41005 -2.498446995e-05 -64.21286639
0.0002150004248 -147.5357243 -22.36784839
0.3784870004 -144.744518 -74.30867739
-51.972679 -2.498446995e-05 11.39994261
-3.999785 -73.51612085 -54.23318939
0.0002150004248 -160.078833 -47.82607539
0.0002150004248 -116.453476 -65.15734139
0.0002150004248 -87.62733486 -52.31915839
-128.885248 -2.498446995e-05 -23.00612639
0.0002150004248 -215.7507737 -51.36885139
-116.409284 -2.498446995e-05 65.33311461
0.0002150004248 -124.2034097 70.48622361
-18.394924 -2.498446995e-05 36.41428961
-28.365177 -2.498446995e-05 53.60898961
-174.488041 -2.498446995e-05 2.521240614
-242.404044 -2.498446995e-05 0.9511846141
0.0002150004248 -169.2874667 61.31141561
-3.999785 -75.50253853 14.17453561
-51.445992 -2.498446995e-05 33.93345661
-3.999785 -53.74972901 32.13556761
-101.960196 -2.498446995e-05 -32.51702439
-3.999785 -97.35181441 -40.57987939
-211.768601 -2.498446995e-05 43.86705161
-3.999785 -29.99241764 -45.75940939
-141.150346 -2.498446995e-05 73.85009761
-155.231784 -2.498446995e-05 43.66275461
0.0002150004248 -79.33153563 -9.640738386
0.0002150004248 -223.623037 -6.374233386
-29.713782 -2.498446995e-05 -9.328330386
-3.999785 -109.3293939 54.39395161
-251.579563 -2.498446995e-05 -49.41731139
0.0002150004248 -146.8364549 -43.30555539
0.0002150004248 -238.3503429 25.56283461
-135.9433 -2.498446995e-05 14.38964461
-3.999785 -123.1764405 -37.68173139
0.0002150004248 -208.8268531 -71.57381139
-212.740185 -2.498446995e-05 28.74163261
-65.431798 -2.498446995e-05 39.43318561
-74.302075 -2.498446995e-05 -57.55562839
-23.686787 -2.498446995e-05 -27.10494939
-89.832331 -2.498446995e-05 43.44854361
-222.208744 -2.498446995e-05 16.99602061
-63.59553 -2.498446995e-05 58.98498261
-3.999785 -51.00125552 58.65069961
-154.647516 -2.498446995e-05 4.921300614
0.0002150004248 -39.41630638 48.98581761
0.0002150004248 -51.31976103 7.305521614
-170.995257 -2.498446995e-05 -22.99826039
0.0002150004248 -3.925462194 -19.73017739
0.0002150004248 -187.1441802 70.01497061
0.0002150004248 -82.04388508 62.40094561
-3.999785 -92.48711567 -68.52960039
-3.999785 -58.0412013 -38.13345039
1.275985 -2.498446995e-05 62.19189461
0.0002150004248 -213.7583354 31.00353761
-3.999785 -31.85263851 -3.259834386
-36.759975 -2.498446995e-05 64.98146561
0.0002150004248 -36.86033263 -34.41622739
0.0002150004248 -67.98884383 -64.24573239
-65.055971 -2.498446995e-05 -17.72620839
0.0002150004248 -240.4169692 68.10718461
0.0002150004248 -9.666462034 48.63004461
-3.999785 -129.2967202 -61.05414239
-234.222935 -2.498446995e-05 40.32525861
-117.733057 -2.498446995e-05 37.98085561
-199.283279 -2.498446995e-05 -69.77563039
-106.862501 -2.498446995e-05 23.38239961
-3.999785 -107.7331882 -18.21481639
0.0002150004248 -233.4838443 58.58269461
-107.037342 -2.498446995e-05 -58.64073039
-17.539387 -2.498446995e-05 -37.53168439
-194.128085 -2.498446995e-05 22.53592661
-63.334648 -2.498446995e-05 -53.67450039
-169.217101 -2.498446995e-05 -65.01424239
0.0002150004248 -178.7829221 -8.450741386
-30.165291 -2.498446995e-05 27.88456061
-3.999785 -24.18784246 62.14022261
-170.87391 -2.498446995e-05 22.49588161
0.0002150004248 -25.12015652 36.95066061
-136.877333 -2.498446995e-05 -13.85043339
0.0002150004248 -42.42061333 -16.33670439
0.0002150004248 -174.4165853 -69.93435439
-242.460861 -2.498446995e-05 -24.70328539
-3.999785 -91.99277042 58.33724361
-123.736547 -2.498446995e-05 13.32391161
0.0002150004248 -14.43691608 25.00091461
0.0002150004248 -180.8842257 4.851126614
0.0002150004248 -184.9023274 -65.69526339
2.156754 1.844167836 37.54185061
-178.041047 -2.498446995e-05 61.77750661
2.397309 -0.5000249845 -36.69798439
-61.068337 -2.498446995e-05 -6.162425386
-2.939406 -2.498446995e-05 12.77507461
-147.244929 -2.498446995e-05 -70.64087939
0.0002150004248 -77.20204826 -28.48732839
0.0002150004248 -193.1811785 50.31933761
-106.830091 -2.498446995e-05 -14.17777239
0.0002150004248 -234.1116941 15.46119461
-3.999785 -125.2042064 41.30512461
-117.211154 -2.498446995e-05 -32.76612039
-183.96903 -2.498446995e-05 -24.74197039
-107.458641 -2.498446995e-05 -1.468692386
-3.999785 -36.10642168 22.37983861
-82.365758 -2.498446995e-05 58.29100861
0.0002150004248 -244.2599054 -60.80709639
-3.999785 -164.5484362 -28.26909339
-248.413005 -2.498446995e-05 -36.05085339
-43.821953 -2.498446995e-05 -3.805358386
-209.636775 -2.498446995e-05 -52.80530139
0.0002150004248 -93.34789775 5.275349614
0.0002150004248 -195.8236717 4.059660614
-3.999785 -163.9688848 16.47162161
-10.505911 -2.498446995e-05 -45.93343239
-3.999785 -36.9919797 70.90896461
-7.872302 -2.498446995e-05 -58.32213139
0.0002150004248 -137.7249791 20.74362361
-3.999785 -63.9059122 68.50615761
-1.969996 -130.4928396 -27.40610339
0.0002150004248 -190.0856839 -20.83995739
-148.03808 -2.498446995e-05 -11.47862139
0.0002150004248 -158.7448634 -59.05906339
0.0002150004248 -168.7830321 4.930616614
0.0002150004248 -247.8857465 38.67722561
-163.023627 -2.498446995e-05 -16.35808739
-38.372292 -2.498446995e-05 50.01279461
0.0002150004248 -159.7604881 39.22524761
-85.93099 -2.498446995e-05 -70.91170839
-128.952353 -2.498446995e-05 0.5343926141
-95.098706 -2.498446995e-05 32.94382361
-221.571237 -2.498446995e-05 40.67273261
0.0002150004248 -147.2869827 38.69609961
-3.999785 -80.05331489 23.37169561
-130.644588 -2.498446995e-05 55.84344461
-200.129081 -2.498446995e-05 3.259543614
-104.734117 -2.498446995e-05 55.44963261
-9.818057 -2.498446995e-05 28.50678161
-174.187869 -2.498446995e-05 -55.21274439
-180.881347 -2.498446995e-05 39.32526161
-191.092199 -2.498446995e-05 -63.73099539
-224.485289 -2.498446995e-05 4.654278614
-3.999785 -112.308966 -32.38796039
-204.380397 -2.498446995e-05 -12.45366939
-3.999785 -11.55227212 -71.81218039
0.0002150004248 -237.4847221 -7.909663386
-219.85852 -2.498446995e-05 56.65570661
0.0002150004248 -214.4729001 -26.27545839
-2.962399 -165.2576132 -39.30414839
-52.843191 -2.498446995e-05 66.15423461
-28.138116 -2.498446995e-05 0.5779376141
0.0002150004248 -251.3005527 5.146000614
-3.999785 -154.313266 21.36550661
-29.629985 -2.498446995e-05 -71.12850539
0.0002150004248 -102.1127659 16.63242961
-167.564347 -2.498446995e-05 -43.41984139
0.0002150004248 -248.8826972 -6.286956386
-44.954166 -2.498446995e-05 -19.37162839
0.0002150004248 -177.3560123 71.76606361
0.0002150004248 -198.358462 -49.29270239
-162.896307 -2.498446995e-05 49.98786261
0.0002150004248 -57.86280033 -2.971405386
0.0002150004248 -116.7953557 62.07903661
-3.999785 -78.87395041 41.08667561
0.0002150004248 -106.6524464 -63.92067139
-146.884007 -2.498446995e-05 -32.82512239
-61.528211 -2.498446995e-05 -43.76158339
-157.726596 -2.498446995e-05 -43.11433539
-3.999785 -18.92465146 -61.17571539
-49.295834 -2.498446995e-05 -73.21930639
-76.745999 -2.498446995e-05 -36.76772639
0.0002150004248 -60.01215266 38.55435361
0.0002150004248 -63.54394948 -29.76657039
0.0002150004248 -116.5250013 0.3285386141
-3.999785 -170.5104839 -13.72296839
-154.233282 -2.498446995e-05 -55.91417639
-15.166499 -2.498446995e-05 56.67821561
0.0002150004248 -191.6092587 -35.66282239
-3.999785 -144.1685379 -32.16387439
0.0002150004248 -199.8639048 -11.98537439
-3.999785 -73.23876975 62.75250761
0.0002150004248 -220.0398183 57.25180861
0.0002150004248 -57.43185061 21.09247761
-251.107844 -2.498446995e-05 26.02292861
-149.44038 -2.498446995e-05 35.95834761
-52.113362 -2.498446995e-05 22.11674861
-218.301116 -2.498446995e-05 -48.60980639
-3.999785 -89.07047336 -2.380838386
-3.999785 -26.76230009 -24.91605239
0.0002150004248 -242.7884902 11.34523461
-3.999785 -41.44201104 -57.95577739
0.0002150004248 -194.6271483 -63.13803539
-34.206766 -2.498446995e-05 14.10912361
-142.606094 -2.498446995e-05 47.99966261
-3.999785 -45.11655914 -37.51393539
0.0002150004248 -66.21736001 -14.28722839
-223.836837 -2.498446995e-05 -11.32026039
0.0002150004248 -24.86330735 12.09314161
-131.252468 -2.498446995e-05 23.45922561
0.0002150004248 -16.58909888 -28.32288039
-3.999785 -17.12143071 71.33296061
0.0002150004248 -177.6568149 41.99514761
0.0002150004248 -132.3491295 12.77737461
0.0002150004248 -192.0731617 27.52509861
-224.660002 -2.498446995e-05 64.77937361
-186.540009 -2.498446995e-05 -5.663271386
-10.55358 -2.498446995e-05 41.60490461
-3.999785 -59.95152283 49.34329161
-3.999785 -57.82135732 -21.80272439
-192.589875 -2.498446995e-05 44.25822861
0.1457210004 -77.55864769 -73.47879639
-113.020049 -2.498446995e-05 16.34290361
0.0002150004248 -71.04728239 6.994183614
0.0002150004248 -92.14788132 39.90695361
0.0002150004248 -59.28554323 -58.88975339
-41.319199 -2.498446995e-05 -28.62724339
-26.754746 -2.498446995e-05 -45.37482539
0.0002150004248 -119.3755118 29.05219761
0.0002150004248 -54.56565239 66.22054761
-3.999785 -172.5097982 24.56954861
-65.130352 -2.498446995e-05 13.36094361
0.0002150004248 -216.6628298 8.486143614
-131.615168 -2.498446995e-05 36.31154961
-3.999785 -99.71772249 24.89199261
-84.678721 -2.498446995e-05 -4.345670386
0.0002150004248 -227.1404307 -14.92166439
0.0002150004248 -93.20515993 -59.68571739
0.0002150004248 -12.72898702 -6.617670386
0.0002150004248 -138.7878559 -8.716109386
-3.999785 -47.49120378 39.73205261
-97.866338 -2.498446995e-05 -50.64396439
0.0002150004248 -178.4631319 -44.38350239
-3.586112 -157.7978515 -2.439749386
0.0002150004248 -90.19056849 -32.91948039
0.0002150004248 -129.0270395 -45.02017039
-63.020097 -2.498446995e-05 -71.54648539
-148.184865 -2.498446995e-05 64.37471861
-9.085624 -2.498446995e-05 -73.35980139
-2.94329 -115.0919424 -73.70084139
-23.385593 -2.498446995e-05 -62.05882139
-3.999785 -37.17910994 -26.22420339
-70.265497 -2.498446995e-05 -4.776583386
0.0002150004248 -19.86554016 45.34342961
-199.865896 -2.498446995e-05 62.01109561
-194.614436 -2.498446995e-05 -15.54227939
-3.999785 -114.8969892 -56.94509139
0.0002150004248 -168.2586698 -51.84467339
-194.675761 -2.498446995e-05 -50.73430039
-47.97337 -2.498446995e-05 -62.78010239
0.0002150004248 -100.1098234 58.66099261
-164.964734 -2.498446995e-05 4.358327614
-139.489247 -2.498446995e-05 57.75329161
-102.195804 -2.498446995e-05 -21.94655839
-3.999785 -77.49497867 -20.14472739
-214.36293 -2.498446995e-05 12.54807961
-137.108736 -2.498446995e-05 -49.28109739
0.0002150004248 -217.9355322 38.96759661
-3.999785 -85.71448344 11.10958161
-117.917005 -2.498446995e-05 -12.64520039
0.0002150004248 -5.180786754 -29.40702239
-3.999785 -32.57602472 -68.70860639
0.0002150004248 -215.6328765 20.88399661
-84.995324 -2.498446995e-05 -31.79550939
-122.940527 -2.498446995e-05 72.08072061
-72.96781 -2.498446995e-05 25.12506861
0.0002150004248 -206.283772 54.08969761
0.0002150004248 -67.40624977 -73.14869739
0.2469720004 -225.0575997 -39.50009739
0.0002150004248 -209.8759724 -41.57922839
-0.5278839996 -133.0140586 52.34647861
-84.192564 -2.498446995e-05 -15.71341339
-16.292404 -2.498446995e-05 73.51202061
-0.2783909996 -103.1876574 -2.264902386
-3.999785 -51.05179222 -48.09824739
0.0002150004248 -87.65863426 48.59496161
-171.913259 -2.498446995e-05 -33.16252639
0.0002150004248 -107.4769882 44.01197661
-241.752693 -2.498446995e-05 -51.70493939
0.0002150004248 -139.4760071 -61.15761939
-238.164148 -2.498446995e-05 51.86309761
-3.999785 -81.68885246 70.18323361
-3.999785 -111.6311851 29.88940861
0.0002150004248 -68.37041481 51.35899761
-114.402133 -2.498446995e-05 56.83054161
-144.952683 -2.498446995e-05 23.86330961
-3.999785 -93.70956132 -19.26286439
-250.325576 -2.498446995e-05 -2.643510386
0.0002150004248 -133.0907256 64.85857761
0.0002150004248 -18.90789868 53.96270561
0.0002150004248 -72.18318417 36.70495361
-68.906794 -2.498446995e-05 -64.63891339
0.0002150004248 -111.225545 10.82848061
-8.463135 -2.498446995e-05 5.709418614
0.0002150004248 -229.8182741 -58.70567839
0.1531890004 -226.5709796 -73.51558439
0.0002150004248 -183.2014215 -32.68015539
-26.589326 -2.498446995e-05 -35.20207239
-11.164014 -2.498446995e-05 19.98538061
0.0002150004248 -126.7874567 19.32982161
-6.102436 -2.498446995e-05 -38.57570739
-111.745261 -2.498446995e-05 72.49626561
-182.868528 -2.498446995e-05 -34.04386539
-51.347883 -2.498446995e-05 -46.10200039
0.0002150004248 -154.9649782 -27.70316639
-124.001099 -2.498446995e-05 -37.91536839
-79.476794 -2.498446995e-05 -50.78955139
0.0002150004248 -119.0513657 48.46456261
-42.093721 -2.498446995e-05 -45.35355439
-115.1556 -2.498446995e-05 -56.18560439
0.0002150004248 -172.990261 32.50155761
0.0002150004248 -142.3395267 47.10030761
0.0002150004248 -157.5385288 54.35720261
0.0002150004248 -138.1327316 29.19372761
-58.014389 -2.498446995e-05 -22.40152839
-250.888943 -2.498446995e-05 -24.12665039
0.0002150004248 -35.65342207 -50.56779439
0.0002150004248 -188.9202209 61.28861361
-233.635323 -2.498446995e-05 -48.35306639
-3.999785 -81.55351713 -56.76977139
-97.523161 -2.498446995e-05 46.86829661
-3.999785 -152.4420735 -16.82789339
-2.48045 -25.50002498 -8.551930386
0.0002150004248 -76.87822865 -45.55089539
-3.999785 -46.92970722 -73.92338539
-242.306023 -2.498446995e-05 42.48109461
-215.299132 -2.498446995e-05 69.17033061
0.0002150004248 -31.12122192 29.39713061
-72.239855 -2.498446995e-05 -23.82064239
-3.999785 -43.10413605 15.25591061
-73.21699 -2.498446995e-05 9.856231614
-212.656243 -2.498446995e-05 -28.34522339
-3.999785 -103.0100185 -34.45551139
-243.721162 -2.498446995e-05 19.22864661
-178.307597 -2.498446995e-05 18.76816761
-125.317292 -2.498446995e-05 41.74202761
-77.380607 -2.498446995e-05 64.94100561
-161.064257 -2.498446995e-05 37.75011161
-170.071004 -2.498446995e-05 66.79953361
0.0002150004248 -245.2276429 -15.70019439
-58.959412 -2.498446995e-05 6.311381614
0.0002150004248 -162.941844 -10.79713439
-197.299229 -2.498446995e-05 -32.51962139
-3.999785 -74.74723427 0.6430886141
-218.806889 -2.498446995e-05 -22.81595039
-139.72386 -2.498446995e-05 -25.21355739
0.0002150004248 -156.3621422 31.69938961
0.0002150004248 -20.29844729 -42.78567339
0.0002150004248 -173.8427033 -1.843229386
0.0002150004248 -120.0786963 -44.19808939
-3.999785 -63.22928094 29.59915561
-59.536913 -2.498446995e-05 45.18805361
-215.723796 -2.498446995e-05 -13.50287639
0.0002150004248 -2.153213264 3.871066614
0.3446000004 2.499975016 52.72504261
0.0002150004248 -139.9382064 -25.52090739
0.0002150004248 -250.0420098 52.95856261
0.0002150004248 -208.3797207 24.79339261
0.03973100042 -214.9663513 72.37733661
0.0002150004248 -35.11387896 -9.634491386
0.0002150004248 -59.68519631 6.768504614
-3.999785 -146.4799148 -50.44043739
-4.845917 -2.498446995e-05 -65.91944239
-191.79994 -2.498446995e-05 0.7349516141
-112.676874 -2.498446995e-05 -41.82495139
0.0002150004248 -45.9158418 30.06656161
-69.163414 -2.498446995e-05 64.94216061
0.0002150004248 -5.413594564 56.23163361
0.0002150004248 -140.6829964 69.31937761
0.0002150004248 -7.368205754 67.75709861
-3.999785 -49.30111813 -22.27918439
-3.999785 -51.51791029 0.1800336141
0.0002150004248 -221.0006122 66.54802761
-3.999785 -100.1784087 -61.09990739
-3.999785 -74.64264847 -66.98987239
0.0002150004248 -89.72959211 26.26245961
0.0002150004248 -110.85018 -25.50229739
-3.999785 -31.87832572 64.57547761
-6.222138 -2.498446995e-05 -2.945114386
-104.957531 -2.498446995e-05 15.54816561
0.0002150004248 -46.37949292 68.95381861
-211.888557 -2.498446995e-05 -65.81092939
0.0002150004248 -201.0173535 -4.037231386
0.0002150004248 -137.940186 2.134179614
0.0002150004248 -33.58351978 56.04125861
-141.146643 -2.498446995e-05 37.34236661
-0.1116429996 -174.927163 -27.79058839
-3.999785 -100.2775122 43.09236861
0.0002150004248 -248.3088017 21.19943761
0.0002150004248 -38.37808531 -64.16002139
0.0002150004248 -248.9555804 -54.35669039
-211.909748 -2.498446995e-05 -6.316192386
-3.999785 -140.9173823 35.50002961
-38.771303 -2.498446995e-05 -14.35472339
0.0002150004248 -187.275765 20.06745861
-3.999785 -29.24354109 43.24836261
-25.42027 -2.498446995e-05 41.36081361
-241.197861 -2.498446995e-05 -32.75714039
0.0002150004248 -88.71362744 -13.35608739
-3.999785 -140.2670228 -45.18810839
0.0002150004248 -146.4436883 55.15351261
-3.999785 -5.733029814 -54.49641739
0.0002150004248 -10.23152538 -47.70630839
-3.999785 -102.6806863 -46.83337239
0.0002150004248 -22.1683402 -53.38499239
0.0002150004248 -237.5813686 -64.92801139
-140.172699 -2.498446995e-05 -42.06237539
-222.817726 -2.498446995e-05 -62.56403039
-180.830829 -2.498446995e-05 -47.57799739
-126.820266 -2.498446995e-05 -30.54711539
-3.999785 -132.5617053 33.67274761
0.0002150004248 -200.0818624 22.85706761
-38.194004 -2.498446995e-05 -52.60515939
-3.86645 -2.498446995e-05 -14.21295739
-203.341533 -2.498446995e-05 -45.15030539
-178.679903 -2.498446995e-05 10.82696161
0.0002150004248 -8.792649684 -13.30176239
0.0002150004248 -118.8888436 21.20509661
0.0002150004248 -38.95997765 7.025850614
-33.915369 -2.498446995e-05 -30.86999539
0.0002150004248 -197.908097 -31.20046339
0.0002150004248 -228.5970374 64.55789961
0.0002150004248 -243.1111154 58.29396061
0.0002150004248 -242.9442001 -27.20460439
0.0002150004248 -213.5797141 -65.53793539
0.0002150004248 -129.6344968 4.875115614
0.0002150004248 -181.2389937 34.10307761
0.0002150004248 -220.2367809 0.4986906141
0.0002150004248 -101.4419062 -16.52866739
-232.929856 -2.498446995e-05 27.59922761
0.0002150004248 -23.52039385 -17.70770539
-247.983543 -2.498446995e-05 -61.74582739
-146.451688 -2.498446995e-05 -53.88985939
0.0002150004248 -20.88907727 29.28415361
-56.379423 -2.498446995e-05 56.57938761
-47.583703 -2.498446995e-05 5.220382614
-40.975917 -2.498446995e-05 -59.88526439
-3.999785 -51.01033529 -9.287385386
0.0002150004248 -8.001538414 28.94790361
0.1088010004 -59.40334068 72.94197261
0.0002150004248 -99.90076818 69.89614061
-29.766323 -2.498446995e-05 62.18019761
-3.999785 -37.31053554 42.96358261
-83.848385 -2.498446995e-05 30.89030261
0.0002150004248 -234.7294035 -0.1384193859
-3.999785 -58.99002689 -67.83356439
0.0002150004248 -71.25362604 -8.740845386
-229.958636 -2.498446995e-05 -29.84836339
-243.019575 -2.498446995e-05 71.64174661
0.0002150004248 -154.2740727 -71.78164339
-34.803547 -2.498446995e-05 -3.869810386
-42.140766 -2.498446995e-05 56.44413461
-167.738111 -2.498446995e-05 -9.625375386
0.0002150004248 -52.20065858 -40.44173939
-94.465466 -2.498446995e-05 67.88873361
-190.763051 -2.498446995e-05 52.78403261
0.0002150004248 -207.983277 -34.38650639
-3.999785 -155.4959655 -43.54666839
-175.440284 -2.498446995e-05 54.81539461
0.0002150004248 -160.4528041 22.58565661
-89.994009 -2.498446995e-05 -52.50125239
-3.999785 -107.2245792 -55.59007539
-41.582551 -2.498446995e-05 13.42816261
-77.658235 -2.498446995e-05 -1.993389386
-23.976648 -2.498446995e-05 -17.81653739
-89.952054 -2.498446995e-05 2.061083614
-3.999785 -38.54262767 30.02986361
0.0002150004248 -205.989988 -52.23282639
-3.999785 -39.81224391 55.25781961
-3.999785 -92.77743913 33.77645661
-212.149705 -2.498446995e-05 21.42068861
-90.16326 -2.498446995e-05 26.50664261
-3.999785 -52.08823556 -56.01554539
-2.861768 -105.4492947 -11.11619839
-155.44418 -2.498446995e-05 -33.89999839
0.0002150004248 -104.8665392 28.20501161
0.0002150004248 -95.84643993 12.14636161
-82.604147 -2.498446995e-05 44.52793361
0.0002150004248 -197.8289005 44.69102961
0.0002150004248 -96.41482817 -46.61286639
-231.041249 -2.498446995e-05 19.13451261
-5.942804 -2.498446995e-05 61.17173261
-48.597925 -2.498446995e-05 40.63030861
-3.999785 -114.7906914 -47.18669239
-3.999785 -82.89624818 -46.36811239
0.0002150004248 -77.66672211 -38.33440339
-3.999785 -25.61949208 6.088228614
-3.999785 -99.57893997 -72.16545739
0.0002150004248 -6.325679154 42.19640461
-3.999785 -162.8694472 6.163649614
0.0002150004248 -103.6097701 -40.89104639
-22.095364 -2.498446995e-05 -3.355817386
0.0002150004248 -8.689339094 18.43344861
-225.209575 -2.498446995e-05 -44.24249839
0.0002150004248 -187.8677234 3.079286614
-132.147285 -2.498446995e-05 8.266775614
0.0002150004248 -17.40060052 5.008378614
0.0002150004248 -34.30603012 16.67999661
-65.371719 -2.498446995e-05 32.24513961
-110.746878 -2.498446995e-05 -29.63213139
-0.7048849996 -2.498446995e-05 -57.86806039
-218.752078 -2.498446995e-05 -36.19656739
-125.273939 -2.498446995e-05 28.22285361
-184.354554 -2.498446995e-05 -41.06048839
0.0002150004248 -63.77057185 -42.43731939
-199.597271 -2.498446995e-05 27.11375361
0.0002150004248 -130.4339202 45.50849161
2.268953 -2.498446995e-05 -66.33968539
-3.334915 -2.498446995e-05 32.90159261
-207.599605 -2.498446995e-05 36.04872061
0.0002150004248 -85.31807692 56.08328561
0.0002150004248 -31.16822204 2.572229614
0.0002150004248 -122.6503884 -68.59583639
-3.999785 -31.05394955 -35.10134939
0.0002150004248 -224.4471059 36.19390461
-149.744419 -2.498446995e-05 71.27673561
0.0002150004248 -129.4921239 -55.22148739
0.0002150004248 -67.77117473 13.48790661
-0.4997849996 1.222424626 44.05319961
0.0002150004248 -35.38504107 -41.31773339
0.0002150004248 -108.1869529 63.09789261
-54.293199 -2.498446995e-05 -53.38563139
-216.674412 -2.498446995e-05 4.295254614
-142.45191 -2.498446995e-05 -18.30056339
-174.616505 -2.498446995e-05 -69.50146039
0.0002150004248 -167.4159572 -33.31846939
-3.999785 -119.6500207 36.13146961
0.0002150004248 -52.89811601 -67.60170839
-189.050034 -2.498446995e-05 -19.76883339
-3.999785 -66.55428554 -54.81715439
0.0002150004248 -91.15490557 -25.71713239
0.0002150004248 -225.9036272 15.48943661
0.5336620004 -15.10480317 66.44383761
-26.822748 -2.498446995e-05 -54.81448939
-3.999785 -23.8389835 -68.73414939
-3.999785 -181.1986537 -0.8343913859
0.0002150004248 -54.79564958 13.32145561
-154.551079 -2.498446995e-05 -13.89447639
0.0002150004248 -151.7341959 13.51996161
-3.47563 -181.1734605 13.56056161
-3.999785 -162.2029565 33.54227061
-3.999785 -178.2203363 -14.35716939
0.0002150004248 -174.627183 18.57823361
-3.999785 -150.1002631 30.83016461
-3.999785 -46.23311618 -67.05703339
0.0002150004248 -189.3419515 -56.35031539
0.0002150004248 -150.1075025 -32.52025139
-69.491059 -2.498446995e-05 -11.86355739
-252.429785 -2.498446995e-05 -11.70261439
-82.083175 -2.498446995e-05 51.49899861
-50.443258 -2.498446995e-05 -5.291461386
0.0002150004248 -155.5748195 -53.06079939
0.0002150004248 -190.9172138 34.20390361
-97.364229 -2.498446995e-05 -26.69583739
-2.774263 -2.498446995e-05 67.61488561
0.0002150004248 -205.6743983 -26.00424539
-31.668391 -2.498446995e-05 6.333450614
-150.164881 -2.498446995e-05 -64.56526539
-197.958331 -2.498446995e-05 48.32466861
0.0002150004248 -175.7851892 59.26922961
-3.999785 -40.96241282 -11.13645439
-64.535048 -2.498446995e-05 -37.75217239
0.0002150004248 -156.7570711 -13.58385339
0.0002150004248 -32.06426198 -27.94063239
0.0002150004248 -116.0091816 -36.30062739
0.0002150004248 -203.4021502 69.73795261
-50.813715 -2.498446995e-05 -31.20253439
-120.259577 -2.498446995e-05 -70.52080439
-105.756265 -2.498446995e-05 4.967125614
0.0002150004248 -232.0479577 52.08847661
0.0002150004248 -92.05098708 -40.73660339
-235.057348 -2.498446995e-05 -25.59288539
0.0002150004248 -9.674764914 -23.05424439
-71.897882 -2.498446995e-05 40.90142261
0.0002150004248 -158.4907049 16.25248861
0.0002150004248 -226.881139 -0.01675338588
0.0002150004248 -64.58766887 -7.862544386
-186.777055 -2.498446995e-05 60.04239861
0.0002150004248 -94.33412058 -2.110621386
-3.999785 -65.57144128 -48.27677039
-181.061344 -2.498446995e-05 3.165468614
-94.663806 -2.498446995e-05 19.85044861
0.0002150004248 -122.2431247 -62.02007239
-162.681825 -2.498446995e-05 25.59146961
0.0002150004248 -199.731873 53.27237061
-3.999785 -61.28890815 -12.55168339
-3.999785 -7.523473804 74.34155661
-90.580032 -2.498446995e-05 -12.17424639
-163.753625 -2.498446995e-05 64.99367261
0.0002150004248 -164.0663385 -0.01326338588
-151.795109 -2.498446995e-05 21.82544161
0.0002150004248 -57.48363138 56.71739661
-3.999785 -146.9402461 -38.07854539
0.0002150004248 -129.8248161 -34.47070739
-100.616091 -2.498446995e-05 -59.77090239
-3.999785 -88.43998861 63.79159661
0.0002150004248 -72.7712056 57.65505161
0.0002150004248 -213.7986232 -57.56094139
-3.999785 -98.28046168 3.943012614
-136.40999 -2.498446995e-05 67.87972961
-243.269701 -2.498446995e-05 60.09705761
0.0002150004248 -83.56551566 -27.24750639
-237.697517 -2.498446995e-05 21.62544161
-181.570993 -2.498446995e-05 74.43991061
-128.840202 -2.498446995e-05 -50.28138439
-229.757569 -2.498446995e-05 -13.92780139
-58.667118 -2.498446995e-05 13.08429561
-120.998424 -2.498446995e-05 -5.833178386
-148.90972 -2.498446995e-05 46.59602961
-3.999785 -156.0439264 42.66772561
-240.047553 -2.498446995e-05 -11.46834239
0.0002150004248 -47.73324325 51.77913261
-16.632586 -2.498446995e-05 7.147425614
0.0002150004248 -94.15951099 -52.62806939
-3.999785 -43.62045181 64.75534761
0.0002150004248 -157.8504045 2.908505614
0.0002150004248 -163.0720513 62.86878661
0.2858450004 -104.7579795 74.05139861
0.0002150004248 -73.2407595 -59.21952239
-204.12138 -2.498446995e-05 41.41634161
-235.648304 -2.498446995e-05 -6.740228386
0.0002150004248 -5.158921724 -43.22277639
-3.999785 -74.55564806 29.39499861
0.0002150004248 -245.6389143 32.31749561
0.0002150004248 -167.3956887 12.89472861
-3.999785 -29.93751492 35.81549961
-207.681781 -2.498446995e-05 48.73010661
0.0002150004248 -169.6056445 -18.56553739
0.0002150004248 -133.0471317 -66.23062439
0.0002150004248 -76.534375 19.92855761
0.0002150004248 -11.5861289 -57.73784439
0.0002150004248 -79.28717258 -51.41116239
0.0002150004248 -12.97681536 0.4733906141
0.0002150004248 -111.575728 50.03028361
0.0002150004248 -2.954788434 49.53063761
-3.999785 -86.24592956 -64.23781039
-62.107202 -2.498446995e-05 -61.38709939
-3.999785 -60.91430292 0.8426096141
0.0002150004248 -85.50817072 -5.708294386
-174.634174 -2.498446995e-05 -48.74344039
2.128641 -17.63731053 72.67875061
0.0002150004248 -250.2528826 -62.72732839
-3.999785 -69.0338218 72.14643061
0.0002150004248 -43.99255661 -53.82849139
0.0002150004248 -86.61594853 69.92707761
-3.999785 -71.98948976 22.84524061
0.0002150004248 -32.17183838 71.31260561
-141.164222 -2.498446995e-05 6.246927614
-191.50058 -2.498446995e-05 38.08124461
0.0002150004248 -73.63566884 67.56735761
-177.704932 -2.498446995e-05 -60.40440239
0.0002150004248 -144.7417204 20.42798161
-125.801295 -2.498446995e-05 20.36670861
0.0002150004248 -238.5539625 -31.67327039
-244.277078 -2.498446995e-05 -71.73640039
-3.999785 -53.68596064 53.00474161
-3.999785 -86.61360273 43.90624461
0.0002150004248 -226.1148393 55.78616061
0.0002150004248 -208.3086837 34.06027061
0.0002150004248 -121.667414 14.26953261
-3.999785 -38.72398316 -1.387400386
0.0002150004248 -33.7391787 46.12247461
0.0002150004248 -46.29224573 3.637520614
-3.999785 -132.1615759 -38.62494739
-3.999785 -64.19169497 36.26960961
0.0002150004248 -107.7175732 -33.76260039
0.0002150004248 -219.5505114 -11.05428139
-3.999785 -66.98538364 4.555827614
-3.999785 -96.81016522 54.43601761
-169.810575 -2.498446995e-05 8.222030614
-22.563724 -2.498446995e-05 3.266937614
-67.718505 -2.498446995e-05 54.36992061
-3.999785 -81.91830358 -72.02794939
-246.820389 -2.498446995e-05 -45.46675939
0.0002150004248 -47.67949529 14.16379361
-192.504315 -2.498446995e-05 9.463557614
-102.486662 -2.498446995e-05 63.83651561
-45.157675 -2.498446995e-05 67.09979561
-3.999785 -159.1660679 -25.32482439
-9.348498 -2.498446995e-05 -52.36890739
0.0002150004248 -43.22586492 -25.16156639
0.9956790004 -9.245839694 60.91197461
-3.999785 -117.7218076 52.91474661
-204.844956 -2.498446995e-05 -20.93498739
-221.899102 -2.498446995e-05 -5.508853386
-134.491424 -2.498446995e-05 -19.48495339
-24.772717 -2.498446995e-05 58.54610161
0.0002150004248 -231.6155141 -6.249695386
0.0002150004248 -29.57201925 -50.87951939
-44.490777 -2.498446995e-05 -12.26838039
-89.047698 -2.498446995e-05 49.48114761
-45.702079 -2.498446995e-05 29.41533261
0.0002150004248 -62.8428281 18.33013761
0.0002150004248 -176.5394848 27.57974961
-202.825913 -2.498446995e-05 -2.173529386
-141.292739 -2.498446995e-05 -35.16664739
0.0002150004248 -8.877610894 -66.52912539
-3.999785 -72.91077656 51.42253961
0.0002150004248 -41.29227002 26.17547861
0.0002150004248 -168.5426835 -60.49560439
0.0002150004248 -95.50049242 27.99403661
-62.421894 -2.498446995e-05 -0.2935913859
-3.999785 -87.395405 30.54435761
-3.999785 -39.88218688 -41.53210239
-116.454286 -2.498446995e-05 -65.85292739
0.0002150004248 -25.93728217 58.01440561
0.0002150004248 -83.86938039 27.57518861
0.0002150004248 -116.0969625 -14.83285239
0.0002150004248 -111.7358257 -60.75390739
-206.177179 -2.498446995e-05 21.81624961
0.0002150004248 -44.03273703 45.18587361
-3.815336 -124.2935421 26.74941161
0.0002150004248 -27.89806688 -38.80880239
-203.101932 -2.498446995e-05 -65.20231239
0.0002150004248 -116.5335916 -28.48609439
0.3770250004 -119.664169 74.31337861
0.0002150004248 -21.02922372 -24.37290339
-222.786914 -2.498446995e-05 -27.22782639
-201.689999 -2.498446995e-05 -36.51690939
0.0002150004248 -85.5172751 -42.78265339
0.0002150004248 -169.9351819 -24.59621939
0.0002150004248 -153.333005 -39.75913139
0.0002150004248 -63.04628421 46.27352961
0.0002150004248 -49.02038053 35.65361661
0.0002150004248 -136.1017784 47.33642661
0.0002150004248 -14.58280729 18.83011461
-170.241 -2.498446995e-05 -1.568942386
-3.999785 -79.62895304 35.26218961
-3.999785 -93.99387552 -74.20387639
0.0002150004248 -99.03295241 -36.64226339
0.0002150004248 -159.6526016 -41.98701139
-3.999785 -172.9947609 4.198772614
0.0002150004248 -58.02309381 32.06984761
-41.783756 -2.498446995e-05 19.26267461
-87.375145 -2.498446995e-05 -58.32931839
0.0002150004248 -234.2317335 -20.96827839
0.0002150004248 -188.844374 -15.15790639
0.0002150004248 -98.21050342 20.94977561
-3.999785 -107.6113129 48.62034761
-3.999785 -70.42005823 -35.85044439
-169.730144 -2.498446995e-05 16.81022161
0.0002150004248 -92.61022384 63.30381861
0.0002150004248 -168.4753894 23.43419161
0.0002150004248 -135.9205643 -29.69129539
0.0002150004248 -48.55896314 -35.13980939
-3.999785 -89.70994844 22.08310461
-122.578122 -2.498446995e-05 7.657938614
-128.009082 -2.498446995e-05 -43.78879039
-3.999785 -174.0644048 -6.006701386
0.0002150004248 -54.59615302 40.55435161
0.0002150004248 -173.395997 -10.51231639
0.0002150004248 -182.9568526 -12.43065739
0.0002150004248 -89.09183496 13.51541661
-3.999785 -51.89473146 -14.98583739
0.0002150004248 -131.8675048 59.23730661
0.0002150004248 -202.7328267 63.95840961
0.0002150004248 -54.58778774 -24.36457539
-3.999785 -27.43152708 -64.25056639
-3.999785 -127.0281205 -48.61822139
0.0002150004248 -207.7259321 -65.94486239
-3.999785 -57.76595248 -32.40736839
0.0002150004248 -39.31093471 13.68594861
-226.289298 -2.498446995e-05 12.97628161
0.0002150004248 -72.61808064 -25.05964439
0.0002150004248 -230.569468 10.91179561
-3.999785 -26.71038498 67.27388961
0.0002150004248 -72.48186409 -31.70066739
-3.999785 -93.7628075 -28.84605939
-3.999785 -107.0861445 21.89355661
-3.999785 -154.5037654 27.20324061
0.0002150004248 -109.1496526 -69.04592039
-3.999785 -81.12764808 15.09224461
0.0002150004248 -130.7891409 39.41721061
-46.59388 -2.498446995e-05 45.96429461
-3.999785 -55.98668993 70.02087661
-3.999785 -97.70235148 -55.97307939
0.0002150004248 -148.9424994 -13.26101439
-110.535616 -2.498446995e-05 52.65787961
-3.999785 -18.42124303 61.80055761
-53.345455 -2.498446995e-05 5.397512614
-3.999785 -42.82234852 70.84670961
-3.999785 -44.31284705 -6.178339386
0.0002150004248 -23.12640393 -47.69160339
-185.095623 -2.498446995e-05 14.96943761
-81.224619 -2.498446995e-05 36.64396661
-98.939773 -2.498446995e-05 16.14749661
-83.732458 -2.498446995e-05 72.66052761
-3.999785 -54.68144717 -43.55957139
-134.539051 -2.498446995e-05 60.45824361
0.0002150004248 -186.2288282 31.06758161
-90.835125 -2.498446995e-05 -17.80717339
-3.999785 -87.92266162 36.64067361
-104.919582 -2.498446995e-05 -63.86436839
-3.999785 -53.58582678 20.14313161
0.0002150004248 -164.9659827 36.37966161
-3.999785 -32.40273401 -53.64797039
0.0002150004248 -83.34899309 -15.02937739
0.0002150004248 -71.75122803 42.55504261
0.0002150004248 -214.9843481 59.69569761
-32.37741 -2.498446995e-05 -53.21281339
0.0002150004248 -33.41154167 40.52003461
0.0002150004248 -123.5254963 36.78569361
-35.977067 -2.498446995e-05 -68.60591039
-3.999785 -108.2395421 -37.65491739
0.0002150004248 -90.21872812 -64.42898339
-77.05904 -2.498446995e-05 45.29633761
0.0002150004248 -134.4644798 -43.69410939
-20.370364 -2.498446995e-05 28.30798861
0.0002150004248 -21.84277786 69.66563561
-3.999785 -67.1617261 56.94279761
-166.466653 -2.498446995e-05 -60.14624239
-139.694234 -2.498446995e-05 21.97511761
-3.999785 -79.73395338 -1.872760386
0.0002150004248 -36.97211028 67.01132061
-3.999785 -140.9076527 -50.81593239
0.0002150004248 -104.21089 -23.30138839
0.0002150004248 -48.64437848 -18.45866839
0.0002150004248 -124.8784159 45.86292961
-3.999785 -118.1096443 -39.96987839
-3.999785 -161.5662142 26.26215261
0.0002150004248 -35.38467341 -58.97064539
-29.120614 -2.498446995e-05 33.32924161
-3.999785 -76.60420186 57.70732561
-3.999785 -56.42804667 4.087204614
0.0002150004248 -73.09222337 -50.42925639
0.0002150004248 -191.960973 -10.23850439
-3.999785 -138.5452871 -39.92922239
-3.999785 -94.10481018 43.18875861
-0.7158179996 -105.9166435 12.18163461
-154.558293 -2.498446995e-05 38.03691661
-3.999785 -64.56005595 -65.88923739
-168.532695 -2.498446995e-05 -37.98741039
0.0002150004248 -50.82066272 24.87363561
-3.999785 -10.82536334 69.29264561
-3.999785 -86.57311454 52.51625861
-3.999785 -47.80334439 45.39943561
0.0002150004248 -153.5057024 39.87364161
0.0002150004248 -189.7115928 -68.35957639
-3.999785 -67.98661618 -60.12381939
0.0002150004248 -71.76050519 -3.270512386
-3.999785 -120.3536863 -57.49147939
-3.999785 -42.90930365 50.31755961
-3.999785 -78.64837324 63.95558161
-107.949918 -2.498446995e-05 -19.53377339
-3.999785 -119.4820833 44.75683261
-3.999785 -67.12311333 -30.82578039
0.0002150004248 -81.9984706 19.65817161
0.0002150004248 -165.719358 -65.98770839
-3.999785 -7.774721674 63.00041661
-3.999785 -29.0134984 -72.85353639
0.0002150004248 -206.4669697 9.789534614
-107.256069 -2.498446995e-05 -41.14755839
0.0002150004248 -106.3529546 -46.25486039
0.0002150004248 -78.42726854 27.90666361
0.0002150004248 -151.886932 55.24722261
0.0002150004248 -228.0432969 48.20193761
0.0002150004248 -89.75789333 -70.98516239
-3.999785 -113.8223931 -67.71526139
-95.575521 -2.498446995e-05 4.284012614
0.0002150004248 -100.7921898 39.47216261
0.0002150004248 -5.269590324 -70.57003639
0.0002150004248 -195.9873981 -44.42750439
-3.999785 -100.9551795 -66.45453139
-247.497256 -2.498446995e-05 -7.253772386
0.0002150004248 -87.34938847 -57.71184839
0.0002150004248 -8.739417574 35.16816061
-3.999785 -124.4293533 -42.93345339
0.0002150004248 -243.6281568 24.42663961
-3.999785 -127.4669463 31.64986461
0.0002150004248 -61.78725741 24.28096061
-3.999785 -132.051976 -50.58391839
0.0002150004248 -65.67208466 40.10935461
-3.999785 -81.99521783 57.63499161
0.0002150004248 -127.7221995 64.37243961
0.0002150004248 -110.3635735 33.27217661
-3.999785 -78.35435653 -62.99501839
-124.649756 -2.498446995e-05 51.95372761
-3.999785 -113.8329332 43.07830161
-3.999785 -55.939976 -7.132534386
0.0002150004248 -152.9133377 -22.33803039
0.0002150004248 -27.43030129 -68.85189539
-3.999785 -88.04259417 -16.86864439
-3.999785 -14.91415959 -56.43329339
-3.999785 -133.2212865 -33.36055139
0.0002150004248 -135.7373596 35.28483461
-3.999785 -47.18236652 -58.16379039
-3.999785 -10.65565891 55.97253161
-78.139309 -2.498446995e-05 -45.61458339
0.0002150004248 -3.080226874 -62.17219839
0.0002150004248 -45.498923 8.911651614
-174.947764 -2.498446995e-05 25.93401261
-3.999785 -24.57152109 40.68451061
-3.999785 -60.66230623 -44.07014839
-3.999785 -95.90346001 -35.06190939
0.0002150004248 -65.60272191 -37.44459839
-3.999785 -101.8324849 -5.811065386
0.0002150004248 -132.7288927 -59.43692539
0.0002150004248 -143.2831967 -39.35652639
0.0002150004248 -120.2441027 41.35313261
-130.125807 -2.498446995e-05 -4.637949386
0.0002150004248 -116.4042 -50.27112139
-3.999785 -48.8127703 63.69314361
0.0002150004248 -125.6303277 -28.14974339
0.0002150004248 -105.9254311 55.07759661
0.0002150004248 -72.29929723 16.23392961
-3.999785 -27.78684457 25.93032461
-103.318256 -2.498446995e-05 34.40996261
-3.999785 -41.68980195 10.15578961
-3.999785 -35.68776793 51.94120661
-3.999785 -138.8945293 -31.45394639
0.0002150004248 -81.69858069 43.07851361
-1.191463 -2.498446995e-05 57.51715861
0.0002150004248 -212.9906744 40.82318361
0.0002150004248 -5.231954454 -0.4191623859
-118.757204 -2.498446995e-05 -44.25155639
-3.999785 -88.25829324 6.486235614
-3.999785 -120.5044874 -33.13221639
-3.999785 -95.02127836 8.278097614
0.0002150004248 -84.67798498 -35.21359339
-3.999785 -30.9587922 21.26253261
-3.999785 -170.7558554 -32.55161239
-3.999785 -107.2828063 -24.81318539
-15.594933 -2.498446995e-05 61.92408261
-3.999785 -105.6234598 34.22248761
-17.084373 -2.498446995e-05 -42.77148339
0.0002150004248 -162.9519706 -23.76065339
-3.999785 -49.8944038 11.57250561
0.0002150004248 -102.8031226 -58.92509539
0.0002150004248 -169.581857 -6.370469386
-3.705288 -24.98494192 -29.84601739
0.0002150004248 -19.91211801 37.59178561
-3.999785 -79.97235647 -41.72439539
-189.465026 -2.498446995e-05 -51.34307839
-3.999785 -60.31141153 58.91834961
-3.999785 -117.9947776 24.47322461
0.0002150004248 -31.94730786 61.18930361
-111.928417 -2.498446995e-05 -15.38587939
0.0002150004248 -168.5305993 18.19610761
0.0002150004248 -76.46251613 61.37832261
0.0002150004248 -52.53588049 -31.50079839
0.0002150004248 -173.0826893 9.810424614
-160.53138 -2.498446995e-05 -57.42433739
-3.999785 -41.08102313 -29.71030639
-3.999785 -145.003693 31.99809461
-3.999785 -77.6879785 -6.702067386
-3.999785 -30.48778944 53.48930761
0.0002150004248 -79.23355284 72.47039661
-3.999785 -30.69431863 -14.03931439
-210.168916 -2.498446995e-05 68.22673861
-3.999785 -19.55692883 -72.02219639
-127.46645 -2.498446995e-05 -62.93350239
-3.999785 -42.71349382 41.82050461
0.0002150004248 -227.6802669 -68.42461139
0.0002150004248 -21.88049462 -11.36276039
-3.999785 -43.79595961 58.61643561
0.0002150004248 -62.59354396 -24.64746039
-3.999785 -40.13949511 -35.99076839
-3.999785 -34.4899548 -30.68060939
-207.477004 -2.498446995e-05 -57.53388439
0.0002150004248 -20.66999604 -67.77218339
0.0002150004248 -57.76716583 -18.49565639
-3.999785 -71.91396238 -18.40913239
-3.999785 -28.16220774 72.75278661
-70.21965 -2.498446995e-05 30.41787161
-54.294809 -2.498446995e-05 46.79592361
-30.275637 -2.498446995e-05 -65.98864439
-0.3362869996 -25.50002498 -0.5625303859
-213.816911 -2.498446995e-05 -34.63584439
-3.999785 -54.05120099 43.79179761
-2.785993 -109.2039362 17.33106061
0.0002150004248 -82.43355995 11.18201761
0.0002150004248 -68.56848955 68.61068261
0.0002150004248 -59.64805483 65.26441461
-13.039395 -2.498446995e-05 -58.50373939
0.0002150004248 -111.6715888 -48.14603839
-216.230786 -2.498446995e-05 -3.505230386
-3.999785 -69.96542869 31.73014661
-3.999785 -139.1048492 42.64487161
0.0002150004248 -87.20685117 19.25743361
0.0002150004248 -121.9162065 62.47324261
-3.999785 -37.25973742 -21.08932339
-3.999785 -84.55808301 0.06416661412
0.0002150004248 -93.36318319 55.42906661
-33.640134 -2.498446995e-05 -14.42041739
0.0002150004248 -55.98053702 -52.65854939
0.0002150004248 -29.80694692 -9.823015386
-145.152481 -2.498446995e-05 2.367108614
-3.999785 -43.37996701 -21.96585439
-3.999785 -126.5728697 -56.52709839
0.0002150004248 -53.30555434 61.25791861
0.0002150004248 -53.08153237 -4.778035386
0.0002150004248 -48.62668684 -50.14269639
-203.019322 -2.498446995e-05 -50.24463939
-49.062502 -2.498446995e-05 15.59185361
-3.999785 -27.52077288 13.80879761
0.0002150004248 -5.074217074 24.54992061
0.0002150004248 -45.98066747 -40.55328839
-3.851267 -16.8891962 43.83156761
0.0002150004248 -178.4953786 10.97108561
0.0002150004248 -127.408084 9.977000614
0.0002150004248 -117.6791725 -59.15256139
0.0002150004248 -159.3074749 -35.53050839
-3.999785 -41.62795521 -51.76644839
-3.999785 -51.42600973 -64.83849539
0.0002150004248 -64.2827704 2.980143614
-3.999785 -147.3152449 22.20122261
-3.999785 -11.85117987 50.86472261
0.0002150004248 -47.90948843 -4.620346386
-62.887468 -2.498446995e-05 -31.30395739
0.0002150004248 -61.50882684 -65.22527439
-3.999785 -89.01954095 -49.53749639
-3.999785 -48.89225711 29.16493961
-161.285096 -2.498446995e-05 32.29654361
0.0002150004248 -131.7420048 24.22064061
-206.290277 -2.498446995e-05 31.16140961
-222.284613 -2.498446995e-05 -39.81680239
-3.999785 -64.84000144 63.53567161
-3.999785 -165.0527845 10.87645761
0.0002150004248 -231.3435001 3.610653614
0.0002150004248 -78.45821673 48.31441861
0.0002150004248 -26.72195027 64.20257261
0.0002150004248 -210.7851217 47.83659861
0.0002150004248 -48.39680654 57.02864861
-3.999785 -98.14988642 14.16360861
-3.999785 -88.19861425 -44.26012239
-3.999785 -49.89465854 69.40815061
0.0002150004248 -38.80525286 20.94657161
-2.80639 -2.498446995e-05 17.80685061
-3.999785 -115.0479399 -62.45059139
-3.999785 -58.56055508 35.87480061
0.0002150004248 -183.6006984 66.45679761
0.0002150004248 -70.26084434 63.32120761
0.0002150004248 -57.17671618 26.26337461
-3.15715 -2.498446995e-05 23.15509661
-3.999785 -86.30668902 -69.59587039
-3.999785 -162.5460261 -32.86884739
-3.999785 -101.9274371 -19.51674339
-3.999785 -80.34472581 -15.31187139
-3.999785 -94.27533603 0.9037426141
0.0002150004248 -78.23991047 -58.91649239
-3.999785 -21.15733324 50.24737561
-0.08062399958 -158.8385103 44.14259061
-3.999785 -45.96168006 -11.30001739
0.0002150004248 -56.28542843 -62.89156439
0.0002150004248 -136.9930592 -55.76027639
-3.999785 -50.379093 -27.65150839
-3.999785 -65.81862566 10.41144261
0.0002150004248 -109.9008874 -20.27453439
-163.495471 -2.498446995e-05 -27.19037739
-3.978987 -4.565317934 -49.64435839
-3.999785 -48.18828429 17.09747961
-3.999785 -54.09298226 8.884109614
-3.999785 -95.47572922 -62.75078239
0.0002150004248 -78.3563768 -33.33473739
-3.999785 -116.9882562 31.92560561
0.0002150004248 -29.36258095 -32.11978739
-3.999785 -32.69936372 26.89314061
-3.999785 -53.50651009 -36.08555239
0.0002150004248 -67.92339115 -45.17681539
