# .PCD v0.7 - Point Cloud Data file format
VERSION 0.7
FIELDS x y z
SIZE 4 4 4
TYPE F F F
COUNT 1 1 1
WIDTH 1267
HEIGHT 1
VIEWPOINT 0 0 0 1 0 0 0
POINTS 1267
DATA ascii
-40.25040528 211.1593414 20.20098161
-24.97980928 177.0762124 151.9999026
-40.25040528 114.0480264 23.58204261
12.34525772 168.0747274 -9.738751942e-05
-38.93368828 231.1202618 152.2879146
32.57285872 65.85720539 174.9999026
-36.25040528 68.11016639 106.9850166
28.67942672 -2.461366603e-05 159.0691596
-1.832501275 39.65560739 180.9999026
-40.25040528 5.994389386 157.1005696
-36.25040528 241.8532779 98.04917461
-40.25040528 20.02413939 139.5520766
28.10212572 129.3400814 151.9999026
3.773791725 191.1081874 151.9999026
-40.25040528 209.8265254 80.70548961
-42.51134228 159.3390564 32.24030561
-36.25040528 178.2777174 74.66170961
-40.25040528 40.15310839 165.9006976
-36.22165028 57.05650039 3.753352612
-40.25040528 91.27631339 110.0790096
-36.25040528 54.22624339 54.79926861
-40.25040528 171.2864054 70.60711361
-36.25040528 150.3536914 110.1899956
-3.442665275 -2.461366603e-05 67.12462361
13.72725072 159.4438594 -9.738751942e-05
-40.25040528 53.00723339 108.7527526
-34.84701728 51.63008639 174.9999026
6.342985725 -2.461366603e-05 89.35778261
-6.741727275 -2.461366603e-05 49.98878361
-12.38689128 153.2903024 151.9999026
-36.25040528 230.4868704 110.0412446
-40.25040528 180.1343784 129.2842396
-40.25040528 58.39101739 75.43901561
-8.506498275 60.55195939 180.9999026
26.50596372 190.8981224 -9.738751942e-05
-36.25040528 44.67307839 34.81845861
0.9056367248 135.7131914 155.9999026
-36.25040528 104.3276534 93.65288661
-40.25040528 159.5691494 74.79948361
22.97207772 -2.461366603e-05 115.7053816
-31.53492328 184.4808154 -9.738751942e-05
-42.71177228 24.38953739 43.93208361
-41.24551628 -2.461366603e-05 99.40814661
-15.13097428 120.1182864 155.9999026
-40.25040528 163.5833694 58.01965961
-42.84282828 -2.461366603e-05 14.80542761
1.235880725 -2.461366603e-05 164.2994206
-36.25040528 77.14725439 35.52584961
18.11806272 163.1076254 151.9999026
-40.25040528 130.8338614 122.2247796
-40.25040528 147.6952984 84.97554961
-40.25040528 236.2943375 87.93377361
13.37667472 -2.461366603e-05 128.8898316
-4.826443275 97.21429039 -9.738751942e-05
-40.25040528 247.3403234 6.489141612
28.37246672 36.25380239 180.9999026
-40.25040528 161.7366564 130.9632816
-18.49808628 28.33368639 180.9999026
4.424892725 148.3751914 -9.738751942e-05
-36.25040528 52.82905739 124.4615506
-40.23944928 12.26639339 180.9999026
1.534696725 -2.461366603e-05 80.97136961
31.59645772 204.2908334 -9.738751942e-05
-36.25040528 228.22173 76.82746561
-40.25040528 248.8947824 127.0490046
-1.234886275 246.2191385 155.9999026
-25.26310728 41.08826739 180.9999026
-40.25040528 74.03456139 144.4076796
-40.25040528 50.62683839 144.6242256
-36.25040528 175.1602784 143.0140736
-40.25040528 6.861418386 60.72155161
-7.005181275 -2.461366603e-05 96.04608061
-36.25040528 227.3226999 21.43887861
-40.25040528 99.83262439 109.0049046
-7.674590275 215.4051508 155.9999026
-5.024550275 53.83197439 -9.738751942e-05
-25.86541728 -2.461366603e-05 165.6163156
-40.25040528 89.19403439 22.42318761
5.359309725 203.4703604 151.9999026
34.45730872 -2.461366603e-05 140.3827066
-40.25040528 3.909289386 141.7308316
-40.25040528 179.0991514 61.90054561
-40.25040528 82.81040939 121.3216326
5.844096725 150.5266184 151.9999026
-6.919485275 104.2003654 155.9999026
-36.25040528 90.08355739 68.75006361
-40.25040528 198.3208284 93.20422061
-40.25040528 133.1769784 30.82996261
-40.25040528 241.3258708 70.76878661
-31.83062428 24.15122139 174.9999026
40.09581672 6.437431386 174.9999026
-36.25040528 82.90423939 93.91231961
16.82161972 6.027367386 180.9999026
-40.25040528 19.76881339 11.25654761
-40.25040528 12.49228939 51.01112261
-37.53355428 0.4999753863 72.46294961
-36.25040528 124.6276014 23.43699761
-15.40135528 224.061366 151.9999026
-40.25040528 204.5251594 132.3858476
-8.001266275 200.3297724 151.9999026
-40.25040528 59.18341439 95.58167261
31.65566872 1.490570386 174.9999026
4.853134725 225.3517838 -2.138152388
4.020768725 52.78180439 180.9999026
-36.25040528 6.044872386 27.67343261
-36.25040528 217.7501122 49.59743861
-40.25040528 121.5165834 95.50153961
-30.24979528 243.6336478 151.9999026
-21.09541628 199.7403894 151.9999026
11.98902072 62.53738639 -9.738751942e-05
-36.25040528 217.708456 126.1584736
-32.59825428 116.2389154 151.9307216
19.13126072 240.1712909 -9.738751942e-05
-40.25040528 194.8834894 30.83279961
-16.28185428 78.92488439 -9.738751942e-05
-40.25040528 114.8528254 5.475285612
-36.25040528 138.2388574 133.5461236
-34.79082428 -2.461366603e-05 173.0302986
-36.25040528 25.62707739 97.17940761
-40.25040528 145.1533304 114.6558386
-36.25040528 8.117636386 87.01508361
9.813538725 9.002879386 174.9999026
22.96072072 168.9133374 155.9999026
-36.25040528 121.9882584 135.2090036
-36.25040528 138.3464014 58.77643361
-36.25040528 50.58858739 47.50198261
-21.78780928 246.2076199 155.9999026
-36.25040528 121.9020994 46.66773161
-18.73720228 202.2730234 -9.738751942e-05
8.695946725 195.8003604 155.9999026
-30.05107928 3.930975386 180.9999026
-40.25040528 158.2438264 91.10060561
-40.25040528 151.6946834 52.72863761
-40.25040528 236.0743393 105.5446356
-36.25040528 41.49077739 123.1841396
14.43861272 -2.461366603e-05 165.7741666
-18.73530828 67.89102039 174.9999026
-19.29490728 186.5156914 -9.738751942e-05
-36.25040528 116.0921434 29.99018661
-12.94936128 22.74872439 174.9999026
-36.25040528 242.439598 84.48903661
-40.25040528 123.3172144 54.66762361
30.46837372 137.2982144 151.9999026
-36.25040528 30.12425639 116.2392816
35.91811572 52.16128839 180.9999026
-40.25040528 106.6467014 26.06076161
28.78139972 11.87027539 180.9999026
32.42682272 71.20219539 -9.738751942e-05
-7.226471275 142.8334904 155.9999026
-40.25040528 41.04522039 51.81937461
-40.25040528 180.0080854 17.42889361
-40.25040528 43.16312239 133.3200066
-36.25040528 150.1883234 8.616091612
-40.25040528 13.56623839 22.90610461
-40.25040528 108.2904094 55.77442761
19.30901872 41.67029539 180.9999026
-40.25040528 166.6654974 44.68191061
-15.81183528 180.8725774 155.9999026
-17.18171328 138.1465264 -9.738751942e-05
7.212369725 243.2423144 155.9999026
18.95813272 95.47077239 -9.738751942e-05
-36.25040528 151.9487314 129.2346726
15.35591772 60.03682139 174.9999026
-40.25040528 26.30865839 24.86868561
-27.05239928 234.0893403 155.9999026
-40.25040528 30.38483039 171.9912436
16.55689972 -2.461366603e-05 36.00141561
-18.72817328 167.0525324 155.9999026
-13.59138228 -2.461366603e-05 127.8576236
-40.25040528 147.5189844 102.6774466
35.36909472 -2.461366603e-05 162.7756706
-36.25040528 206.2381634 5.877393612
-36.25040528 9.607012386 75.04040461
-40.25040528 27.65857639 154.0380816
2.060178725 42.31946139 174.9999026
-40.25040528 54.18503039 37.21438461
-40.23252928 44.93415739 180.9999026
-40.25040528 130.1192564 78.36758861
-40.25040528 190.7418454 4.887591612
-43.00714328 11.12359639 123.5255696
-40.25040528 171.3409824 99.87709461
-11.09069428 226.5781863 -9.738751942e-05
37.43738172 227.4055248 -9.738751942e-05
-36.25040528 134.0224094 73.02338361
-40.25040528 250.205954 113.4302396
-40.25040528 94.81990139 63.11260061
-36.25040528 218.3413483 136.6608426
-40.25040528 231.4612168 120.6408736
-40.25040528 223.1421133 71.08182561
-36.25040528 114.4189984 132.7272546
3.315983725 98.14381639 -9.738751942e-05
-40.25040528 113.8200324 98.73964361
-36.25040528 172.8826334 6.794671612
-36.25040528 138.0802234 141.8183426
-23.48119328 -2.461366603e-05 100.2289996
-36.25040528 212.8467336 63.79759161
-7.078838275 118.3354344 155.9999026
-36.25040528 154.3662474 17.02817461
21.95283572 -2.461366603e-05 58.57094161
-36.25040528 204.5023174 121.2320356
8.652661725 39.94626939 -9.738751942e-05
-31.86270028 92.92650639 -9.738751942e-05
-32.10360928 150.7182774 -9.738751942e-05
-40.25040528 229.050946 132.6321136
-35.83663328 -1.293547614 20.67812061
-1.895823275 62.85568139 -9.738751942e-05
13.75076272 123.3549274 -9.738751942e-05
-36.25040528 114.5366684 117.4212846
-18.67442328 61.51814839 -9.738751942e-05
-14.29487828 19.61011939 -9.738751942e-05
37.74959472 237.7720268 154.4899066
-42.27909028 -2.461366603e-05 56.44031761
-36.25040528 193.6894314 50.79889361
34.51919872 -2.461366603e-05 115.2384146
19.63248672 145.4630794 155.9999026
-40.25040528 19.53385339 55.16651861
37.74959472 219.8317652 154.7537966
-40.25040528 106.1101234 16.92329061
-40.25040528 227.5665131 63.11621761
22.41477272 -2.461366603e-05 129.7685946
-36.25040528 59.01560139 23.92536961
36.79894372 162.4704564 155.9999026
-40.25040528 96.09846039 37.90137261
-36.25040528 7.591176386 37.77636161
-7.428703275 15.60359839 174.9999026
15.03988372 156.7259364 155.9999026
43.48524272 -2.461366603e-05 104.9812766
-36.25040528 113.9493744 85.17759561
-22.63273528 -2.461366603e-05 85.44442761
-0.6663362752 27.86690739 -9.738751942e-05
-33.35157528 107.8938914 0.2136696125
31.73918972 187.4696374 155.9999026
-36.25040528 164.2159504 102.6567376
-36.25040528 110.3772744 46.57528961
-40.25040528 25.49709939 73.55975261
3.123431725 67.85947039 174.9999026
-2.019453275 162.4642994 -9.738751942e-05
2.932130725 -2.461366603e-05 52.34287661
30.87722772 112.2975584 155.9999026
-3.002039275 205.2364364 -9.738751942e-05
-40.25040528 226.6619415 101.1235886
-18.09909528 4.679081386 -9.738751942e-05
-40.25040528 13.57047439 6.749469612
-36.25040528 6.253893386 111.6399716
15.74761372 -2.461366603e-05 120.9510026
27.42664472 247.0731489 155.9999026
25.33733472 -2.461366603e-05 87.96736061
-40.25040528 27.75074139 139.4773336
41.09670872 -2.461366603e-05 55.58491261
-40.25040528 214.2097597 9.776303612
9.698299725 -2.461366603e-05 61.80178261
-40.25040528 175.1682984 134.5868566
-40.25040528 157.4567374 45.20070061
13.92257172 142.2822094 -9.738751942e-05
-40.25040528 235.4271574 42.95871161
13.14729072 226.1521876 155.9999026
-3.246803275 80.29392839 -9.738751942e-05
-40.25040528 124.6777664 66.70774461
-40.25040528 62.67256939 29.35998061
-36.25040528 117.4997764 145.8207436
-8.938232275 161.8374994 151.9999026
-36.25040528 74.89668839 74.93130761
0.9828707248 180.9642944 155.9999026
-8.304516275 12.36577639 -9.738751942e-05
14.05008672 49.79974839 180.9999026
-37.97675928 186.7378984 153.4481096
-36.25040528 204.4520754 61.25792561
-40.25040528 101.7841294 84.12711361
-40.25040528 45.40507539 149.8799436
-40.25040528 100.6595984 130.8287066
-5.117798275 41.86034939 174.9999026
-35.90353228 206.1950124 149.5941656
2.252618725 -2.461366603e-05 153.2527646
-40.25040528 90.55422039 93.13391361
-36.25040528 163.1562924 18.87984761
-40.25040528 189.7042414 81.86277461
-36.25040528 177.0120584 104.4151946
-36.25040528 197.8402084 110.8579106
13.03639972 134.9323964 -9.738751942e-05
0.4656927248 22.40954939 180.9999026
-40.25040528 178.5358304 88.86100861
-37.53647128 219.3559608 153.8883976
10.22735972 -2.461366603e-05 16.48532961
-40.73541428 66.73856739 163.8247786
-18.89141428 235.266298 155.9999026
-36.25040528 79.29351939 60.66918061
-36.25040528 134.0090274 36.64334961
10.10068972 219.6448474 155.9999026
-40.25040528 40.82204139 20.54977561
-40.25040528 89.58223739 123.4252996
-36.25040528 241.6501113 9.526226612
18.96242072 23.28893339 180.9999026
-4.626033275 1.508073386 -9.738751942e-05
22.70897172 -2.461366603e-05 107.5549536
-40.25040528 80.70709739 78.00882261
-40.25040528 248.8751751 84.48161561
-36.25040528 39.75716939 78.86009061
24.53617072 204.2136514 -9.738751942e-05
19.97921472 62.63717239 180.9999026
-36.25040528 73.33327639 21.99446561
-5.144848275 172.2815514 151.9999026
-22.96938628 59.45357639 174.9999026
-3.161773275 226.4501352 155.9999026
0.2021617248 211.5101654 -9.738751942e-05
-40.25040528 119.3267104 10.90682761
26.35556972 14.97518539 174.9999026
-40.25040528 238.2643583 14.35871661
-33.77285228 227.8414193 155.7588916
-36.25040528 52.44184239 115.1838326
-36.25040528 205.1364984 98.48527761
-40.25040528 166.0019484 125.2634076
20.35033372 53.24437939 174.9999026
-39.05012428 100.4999754 151.4252986
-40.25040528 181.1582364 32.83821461
-36.25040528 88.17226439 42.85619161
-36.64235128 5.156859386 16.78915261
8.011531725 22.89252439 180.9999026
-14.79389028 242.0222149 151.9999026
-31.19854228 73.10761439 -9.738751942e-05
-36.25040528 101.5227254 60.98622461
-40.25040528 95.67139439 46.24641861
10.89844872 -2.461366603e-05 143.7229416
-28.53171528 42.53002239 174.9999026
-37.13522828 -2.461366603e-05 122.3127866
-5.026843275 -2.461366603e-05 168.3246956
28.42817172 224.2588479 151.9999026
17.52697272 -1.747740614 50.26262561
-36.25040528 167.7740324 34.72168561
-36.25040528 155.1402034 86.33730061
-36.25040528 41.69035739 93.73983961
40.18339472 13.84176439 174.9999026
-40.25040528 125.5402134 112.9981906
-36.25040528 82.61902239 107.5007906
-36.25040528 123.4578474 123.8198846
-5.919046275 190.2201194 155.9999026
-36.25040528 66.20147139 59.93010461
22.51859172 -2.461366603e-05 5.623477612
-42.85762528 107.8172374 133.6645206
-40.25040528 119.8401484 77.58195961
-13.50340628 -2.461366603e-05 157.0218446
-36.25040528 22.13829339 115.6964176
-40.81065328 25.49997539 51.79341361
23.59161372 81.62047139 -9.738751942e-05
-40.25040528 167.3192074 6.370040612
-40.25040528 228.7131911 5.163923612
-40.25040528 236.9483173 31.42872061
-40.25040528 113.3768924 122.8677646
-40.25040528 27.53441339 160.8884036
24.38367372 235.622496 151.9999026
-40.25040528 185.7323374 60.22577561
-2.094394275 111.3716004 155.9999026
-40.25040528 58.75000939 42.55012961
-25.00201128 -2.461366603e-05 140.9553186
-36.25040528 102.5301634 37.92129161
-40.25040528 220.6559372 54.28117961
-21.34065028 -2.461366603e-05 39.61780661
-40.25040528 63.13018239 16.89889061
32.18540672 149.2708934 155.9999026
32.47407372 206.2202944 151.9999026
-32.69815628 129.7885934 0.08228661248
-12.66166828 182.2105984 -9.738751942e-05
24.67015672 13.52424139 -9.738751942e-05
-40.25040528 192.1018384 73.09778061
-40.25040528 18.29900539 63.51248761
31.35797372 123.3470464 -9.738751942e-05
-40.25040528 133.6492254 47.68846361
-18.05963628 4.442558386 180.9999026
14.10514372 -2.461366603e-05 92.90065161
-40.25040528 40.33351339 38.11743261
-40.25040528 134.6861364 103.5910186
-40.25040528 56.48038239 10.24548561
-36.25040528 192.8450214 13.16389961
-40.25040528 68.02220439 130.1163046
-36.25040528 233.1846632 138.7334136
-36.25040528 33.27344539 5.006385612
36.98241372 -2.461366603e-05 106.7782696
-36.25040528 135.0506124 125.6233326
-36.25040528 101.9915384 115.1863706
-36.25040528 35.77599739 56.48063761
-35.00240628 49.51489839 1.121878612
-40.25040528 26.11560639 102.5641406
-39.93344528 18.19881839 125.9984376
15.01565972 170.7416574 151.9999026
-40.25040528 35.86810539 148.2953896
-36.17792528 216.4489877 3.378452612
-36.25040528 158.3505354 26.38405761
-25.70417328 224.1359463 155.9999026
-40.25040528 224.3563411 126.5840656
28.58149272 -2.461366603e-05 74.79901461
-40.25040528 48.83200039 90.07921261
-40.43217528 103.9748964 68.86068961
28.36831672 65.32692839 180.9999026
-40.25040528 180.8669814 144.0456596
-36.50509628 -2.461366603e-05 59.83379761
-36.20148728 54.27368739 180.9999026
-36.25040528 142.6143084 10.65394161
-36.25040528 39.95611239 102.0326406
-40.25040528 185.6202114 133.1072316
-40.25040528 168.9948284 85.21695561
-36.25040528 243.1270032 29.27716261
-18.23157228 -2.461366603e-05 53.28784661
-18.22788228 34.92503339 174.9999026
-35.53625728 -2.461366603e-05 5.117420612
-2.449105275 -2.461366603e-05 29.94997061
-40.25040528 74.17662939 92.06911461
-32.18697428 250.6243208 -9.738751942e-05
-36.25040528 3.464652386 96.66736061
35.45216272 65.45514039 180.9999026
-16.03906528 103.1229934 -9.738751942e-05
-40.25040528 248.3044022 57.20548961
-36.25040528 82.20040139 83.12264461
-36.25040528 146.6013934 137.4880406
-40.25040528 33.88884739 74.96771561
3.955368725 249.0164836 -9.738751942e-05
-40.25040528 6.108714386 119.7041256
-40.25040528 116.7741374 60.87357361
-36.25040528 83.49794639 33.61224861
-40.25040528 45.67815739 -1.344233388
-38.29669128 80.58272439 -1.202222388
10.93723972 198.0656884 -9.738751942e-05
-40.25040528 172.8704024 25.06247461
-40.25040528 130.4357174 15.65209361
-40.25040528 9.518229386 0.8738086125
-36.25040528 106.9549264 85.01224161
-40.25040528 64.33686839 84.79899561
-14.82053728 197.7266414 151.9999026
-40.25040528 109.2068724 106.3840346
-31.58492128 19.86301039 -9.738751942e-05
-36.25040528 143.6243184 73.05545461
-16.01045028 -2.461366603e-05 34.38222961
-40.25040528 78.01050039 7.248360612
-40.25040528 22.87586339 145.5955706
-40.25040528 169.4143324 115.2892656
-40.25040528 105.7530094 139.8588426
22.03841372 199.6486514 155.9999026
8.683344725 231.5200911 155.9999026
-37.56342328 173.1831174 153.8614456
-36.25040528 -0.8094376137 27.17903961
-36.25040528 61.44927639 65.59923661
-40.25040528 224.7884121 113.4672636
-40.25040528 48.83712739 103.4784716
-32.04888528 122.7392344 151.9999026
-38.09877828 32.46875639 125.9984376
-38.55397128 171.7703464 -0.8931123875
-39.92586728 162.2215144 1.833855612
-36.25040528 63.15320139 77.38087061
-11.15240928 51.37659439 -9.738751942e-05
-36.25040528 72.39331239 28.43541361
-23.28051128 -2.461366603e-05 26.44494261
-36.25040528 79.89084639 50.12773061
-40.25040528 214.1723594 100.7007226
-36.25040528 141.3761784 83.44819961
-26.29979828 145.8377954 -9.738751942e-05
22.48679672 35.27500039 174.9999026
-40.25040528 7.915284386 105.2975526
-36.25040528 83.75173939 66.25895061
-36.25040528 117.7422604 54.39431661
-40.25040528 183.3448934 39.29497161
-13.61347328 135.9864784 155.9999026
-40.25040528 62.92365639 111.1177366
-1.781212275 219.5112616 151.9999026
-40.25040528 211.1532044 49.26923361
-36.25040528 187.2055404 29.65388761
-36.25040528 192.9724234 145.3555046
36.22444072 -2.461366603e-05 93.08901461
-42.16541128 148.7562904 26.70878461
-36.25040528 14.60164039 98.20180561
-36.25040528 177.9617354 55.58102061
31.73478172 54.00973439 -9.738751942e-05
-36.25040528 219.8745806 42.73520461
-40.25040528 90.31929639 116.4653976
-13.36898828 -2.461366603e-05 76.40202461
16.19526672 114.4789444 151.9999026
-36.25040528 233.4466708 92.12274861
-36.25040528 119.3785214 18.80791061
7.730327725 59.11340539 180.9999026
-20.11966528 213.6328841 155.9999026
-20.59799528 207.1345654 155.9999026
-26.94490428 109.9181344 151.9999026
-40.25040528 191.7461724 135.7985216
-36.25040528 155.1978304 40.58033261
-40.91664928 -2.461366603e-05 84.48843061
-36.25040528 152.4508444 59.80403161
-8.715925275 4.434263386 174.9999026
-28.54156528 -2.461366603e-05 159.7947356
-36.25040528 145.9693804 20.25582661
-36.25040528 96.92953339 94.88219861
-39.97791828 144.6797814 149.7201076
-33.67456728 -2.461366603e-05 88.39892261
-39.82727328 240.6075597 150.5339596
35.74302972 -2.461366603e-05 59.31292261
-36.25040528 183.7421184 103.0684056
29.14848172 -2.461366603e-05 51.63725661
-40.25040528 64.74356639 120.3541766
-40.25040528 193.8507564 23.25414961
-40.25040528 126.6158394 137.0212446
16.77736272 183.0100764 155.9999026
3.978566725 111.0817844 151.9999026
-36.25040528 165.0538954 50.07452961
-33.83153528 248.8912455 151.6618086
-40.25040528 153.4062214 4.035506612
-40.25040528 180.7394244 47.78545161
-11.26053128 -2.461366603e-05 142.3292686
-40.25040528 10.28535239 138.0275616
10.64664672 182.9397744 151.9999026
-40.25040528 88.32019839 13.06890661
0.7515117248 24.47319039 174.9999026
-28.97927928 122.6688074 -9.738751942e-05
-36.25040528 189.3351884 97.04602161
-40.25040528 64.46056539 37.38883061
-33.04787728 -2.461366603e-05 145.6697176
-10.91944228 226.1029064 155.9999026
-2.173207275 7.798507386 180.9999026
-40.25040528 162.7688224 110.8285546
31.57613772 18.38249539 180.9999026
0.4773167248 31.80612839 180.9999026
-21.81418228 147.8932014 151.9999026
-40.25040528 127.7809324 35.09225761
-40.25040528 129.3252464 70.95890261
-6.773199275 -2.461366603e-05 35.07892161
-14.89474828 34.10058039 -9.738751942e-05
-16.52019528 -2.461366603e-05 25.29476861
21.46787972 66.76351639 -9.738751942e-05
-36.25040528 178.7940174 124.5593036
-9.111313275 -2.461366603e-05 6.238545612
-36.25040528 108.1422254 120.8734336
42.09764272 53.32279739 180.9999026
-40.25040528 68.56361739 150.1488756
-40.25040528 35.41131039 68.10817161
-41.47071428 157.1194094 121.2038136
-36.25040528 198.3597164 20.22380161
38.57090772 9.806966386 180.9999026
31.43601772 31.50258839 -9.738751942e-05
-41.85743528 18.65212939 180.9999026
-41.00193328 -2.461366603e-05 173.8697816
-36.25040528 208.2327164 24.03078761
30.36559172 216.970656 151.9999026
-40.25040528 156.2716544 97.98711561
0.1655867248 -2.461366603e-05 62.00951561
23.69949972 -2.461366603e-05 19.35486561
-40.25040528 86.39705739 28.01405761
-36.25040528 239.3247129 109.0719496
18.67827672 58.50871439 -9.738751942e-05
-36.25040528 55.21642939 104.5004046
-40.25040528 48.26876039 122.9970386
-36.25040528 24.42538739 38.56770161
-12.75246728 -2.461366603e-05 119.7123246
-4.243587275 61.13224439 174.9999026
2.838405725 223.569467 155.9999026
-1.917746275 175.4150474 -9.738751942e-05
-36.25040528 69.71782739 85.72577561
-40.25040528 13.64333939 102.8663966
-37.51827528 103.8341664 -1.976323388
-35.72447628 87.06175039 2.090049612
7.360751725 102.8605054 -9.738751942e-05
-36.25040528 20.97439539 16.09952361
-43.12381528 128.8636584 103.3643336
26.08561472 173.4186594 -9.738751942e-05
-40.25040528 95.80154139 72.13610861
-36.25040528 199.8885864 50.99842261
-32.90592528 -2.461366603e-05 155.3911356
-40.25040528 18.35083939 165.7727336
-35.51307828 162.6091914 155.2057216
-36.25040528 29.73178839 90.83031261
-12.30231528 66.77196139 174.9999026
-36.25040528 12.88033039 91.23685061
-40.25040528 64.48564539 70.37821361
-24.96780028 8.335908386 174.9999026
-28.74167528 100.4999754 155.1449656
-36.25040528 136.8743944 42.79662961
-40.25040528 214.856595 68.05262061
2.185317725 217.3512928 -9.738751942e-05
34.83976172 41.54135939 174.9999026
-36.25040528 188.0128864 123.7181476
-10.48558928 168.0129644 -9.738751942e-05
26.33472872 158.3599664 155.9999026
-29.69938428 -2.461366603e-05 34.18640761
-37.78327928 28.53738039 -1.756559388
-13.10984328 131.6405314 -9.738751942e-05
-36.25040528 210.7882494 139.7942666
-40.25040528 174.5906684 93.95949461
-36.25040528 251.3237453 141.6689586
-40.25040528 9.327462386 149.6722966
13.73367472 213.2471444 155.9999026
-40.25040528 154.2492744 71.33182861
-11.89883628 -2.461366603e-05 63.40418961
16.55252072 -0.8027346137 174.9999026
-32.05449528 187.4799874 151.9999026
-36.25040528 170.8157954 29.23846561
-40.25040528 139.0508504 22.01331661
2.638224725 134.1006924 -9.738751942e-05
-36.25040528 182.9130664 87.30190461
-40.25040528 54.47717739 60.28089861
-4.178853275 128.8800894 151.9999026
6.270868725 -2.435011614 111.3283236
-36.25040528 149.8093744 117.1149336
4.577014725 115.8078784 155.9999026
-36.25040528 71.76882139 96.43771061
-40.25040528 178.5710954 8.054506612
-21.17520428 173.2539594 -9.738751942e-05
21.06013072 62.97902139 174.9999026
-30.42154528 201.8050244 151.9999026
-36.25040528 159.8793994 60.73926261
-36.25040528 130.9156254 83.09855561
-40.25040528 46.94658939 82.19768161
23.50384372 19.49185339 -9.738751942e-05
6.903207725 125.7855424 151.9999026
-40.25040528 5.213301386 48.87863061
-23.98537228 12.93021139 -1.888902388
-40.25040528 69.77427639 19.12769761
-40.25040528 105.1401164 48.67057361
-40.25040528 39.14666239 109.3611056
2.052383725 39.91061839 -9.738751942e-05
-32.75723328 32.59933639 0.09988561248
42.86072972 44.88639339 174.9999026
-40.25040528 130.3081474 23.46179561
-40.25040528 237.1648742 125.7364886
-30.39411128 12.38716339 180.9999026
-36.25040528 71.72693439 4.752512612
-40.25040528 33.99684239 35.47787461
-10.54698628 159.6365984 -9.738751942e-05
-29.27992228 -2.461366603e-05 97.44303561
-40.25040528 117.5948214 105.5222376
-40.25040528 34.53318339 138.0119176
-16.99680528 125.8582294 155.9999026
-36.25040528 32.51417339 63.58099061
-35.90973028 106.2789314 149.5848906
-40.25040528 40.01413239 128.1825306
6.647050725 29.34479639 174.9999026
-40.25040528 50.43241339 52.23368361
-40.25040528 42.00255939 171.9324536
-38.81987328 229.8637541 -0.5564933875
-30.40475828 213.8985916 -9.738751942e-05
-36.25040528 97.39851139 85.04088561
-35.68407228 5.984675386 180.9999026
-36.25040528 168.7439814 76.90527161
-36.25040528 169.1683194 142.9907996
-40.25040528 71.83813839 59.20170761
-40.25040528 52.89595839 98.57288261
-30.20173128 210.6252014 151.9999026
-40.25040528 108.5123784 73.74931861
-40.25040528 180.6692204 68.11383761
24.52935172 110.9111584 151.9999026
-40.25040528 150.1118214 142.1120876
-24.00101328 -2.461366603e-05 15.60499161
-36.25040528 132.2382944 66.80834061
18.54019072 41.91069939 174.9999026
19.01383172 245.6381307 151.9999026
-22.04747728 53.56165139 174.9999026
-36.25040528 20.59944239 72.82643361
-41.71036128 0.4999753863 6.144775612
-40.18387328 120.4397704 3.408965612
-23.44809828 181.5767894 155.9999026
-7.653280275 232.7300283 151.9999026
-15.99847228 231.5854745 151.9999026
-36.25040528 121.3821044 111.5395656
5.079198725 185.0180844 151.9999026
-9.589282275 191.9936294 -9.738751942e-05
-40.25040528 58.87250239 -0.2117883875
-40.25040528 37.60462539 95.33104761
-36.25040528 68.92299339 123.5098166
-18.12379128 84.55962639 -9.738751942e-05
25.36124872 46.92396339 180.9999026
-36.25040528 22.21610239 4.136395612
6.956780725 55.03895739 174.9999026
-40.25040528 215.2914195 131.7176566
-40.25040528 143.7256014 121.3766106
14.55399472 35.20992139 180.9999026
0.1960207248 100.4999754 153.5462736
35.37026172 245.5437265 -9.738751942e-05
-35.67965828 -2.461366603e-05 128.0299316
27.15547972 207.5223634 155.9999026
20.65271172 190.1780954 -9.738751942e-05
12.22533872 135.6461164 155.9999026
7.252699725 214.2786851 151.9999026
-36.25040528 75.03217539 120.2859946
10.81730672 172.5166924 155.9999026
-40.25040528 71.10102839 111.0858906
-40.25040528 217.4599066 20.59164561
-40.25040528 135.3364624 61.86208461
0.2492837248 45.15062239 180.9999026
-40.25040528 162.9225674 87.54728561
-40.25040528 248.4214592 44.28286161
-36.25040528 151.8137774 102.8546916
-40.25040528 242.6181124 58.65897961
32.65796672 235.3003331 155.9999026
-36.25040528 251.4526158 80.73971361
-7.004735275 65.71970739 -9.738751942e-05
-40.25040528 79.36842639 134.0963396
-39.95596328 215.8686435 149.8587106
-40.25040528 200.8376324 107.8147856
-40.25040528 97.96554139 125.6374066
-39.02971128 111.7975214 -0.1944953875
-36.25040528 201.0974734 32.09036161
-40.25040528 21.34688139 21.22529061
-6.927785275 154.5202384 155.9999026
-17.74489428 140.1123644 155.9999026
-11.52949928 110.9982244 -9.738751942e-05
-40.25040528 5.109063386 70.12944161
1.611420725 123.1322334 151.9999026
-9.421335275 100.7654054 151.9999026
-36.25040528 199.6638634 146.5666296
-22.38993928 26.72424839 -9.738751942e-05
-36.25040528 141.9119084 111.9282916
31.86595672 226.7315358 155.9999026
-24.58467728 167.3590194 151.9999026
-24.03759028 108.3097844 -9.738751942e-05
-36.25040528 110.8493334 20.81271361
8.613064725 -2.461366603e-05 164.9035696
-36.25040528 192.1330964 34.38768061
-36.25040528 127.9724184 119.1222586
-40.25040528 125.2705114 81.57539161
-36.25040528 134.2618144 119.6092056
-36.25040528 120.5923574 70.41979461
-40.25040528 88.95637339 80.07911661
-38.24734728 68.27958839 -1.261445388
-10.88824328 173.4106584 151.9999026
-36.25040528 142.2407154 32.90167261
-36.25040528 66.88338339 114.3866556
-40.25040528 77.30945839 39.71214761
-34.70392628 135.9866494 0.9191816125
6.608698725 172.3403144 -9.738751942e-05
-3.241976275 141.5656514 151.9999026
37.90138272 -2.461366603e-05 21.59648461
9.200517725 33.92632639 -9.738751942e-05
-7.217952275 239.9327479 151.9999026
-40.25040528 138.1815294 72.83278361
-36.25040528 26.78510139 85.87196061
-40.25040528 35.60731239 103.9825116
-40.25040528 207.0227834 57.99878161
-21.38754228 174.9965384 155.9999026
-16.04218328 49.50818439 174.9999026
24.29419372 180.7413144 155.9999026
-40.25040528 147.8962364 75.60611261
-11.58475528 220.3932685 155.9999026
-40.25040528 211.3844424 36.11090961
-17.91024128 210.2699194 -9.738751942e-05
-40.40982728 25.49997539 67.81811861
-40.25040528 172.6192914 146.2569816
-40.25040528 126.2470894 49.64279761
-23.77036628 230.0825519 -9.738751942e-05
12.98141572 143.6557894 155.9999026
-40.25040528 77.34543539 21.14940361
-40.25040528 28.85360239 122.1150196
-36.25040528 218.4345155 104.6464006
-36.25040528 104.6677224 110.1260316
-36.25040528 246.8913467 61.04174961
-5.990404275 117.5435524 -9.738751942e-05
-21.19850928 117.8304824 151.9999026
14.47316572 218.294083 -9.738751942e-05
-40.25040528 110.1987654 8.784146612
-36.25040528 3.933778386 63.95173761
-40.25040528 224.918681 95.69866761
7.089258725 -0.7332186137 -9.738751942e-05
-36.25040528 143.8638124 67.34379661
-35.83187928 223.8202535 149.7014026
-36.25040528 92.56526539 20.19764661
-10.04378428 -2.461366603e-05 171.6999006
-12.58958028 124.4599584 151.9999026
-10.64861328 78.20312339 -9.738751942e-05
8.858946725 108.1777414 151.9999026
-36.25040528 186.4009424 42.71627261
-40.25040528 187.9296614 66.55988461
-21.72726628 -2.461366603e-05 59.14967861
-36.25040528 62.79158539 52.64207861
-40.25040528 86.17933539 69.70728461
-36.25040528 43.51879939 29.26851161
2.685880725 11.72463039 -9.738751942e-05
-40.25040528 76.07582539 63.05816061
-40.25040528 102.9950114 77.56985261
-36.25040528 8.510245386 56.41036161
-22.98164628 140.7436124 -9.738751942e-05
-40.25040528 18.16675339 94.44343461
-28.63803028 159.1378484 155.9999026
36.82626072 132.1008644 151.9999026
-40.25040528 4.958926386 136.1490256
9.908490725 152.9071654 -9.738751942e-05
-40.25040528 168.0921774 54.63376361
-39.65667328 87.94990839 133.1865056
23.67684172 57.77794239 174.9999026
-2.521218275 234.1952857 155.9999026
-36.25040528 66.50343639 31.63946561
-10.44502428 -2.461366603e-05 55.03424561
-40.25040528 67.84611639 103.0619846
-36.25040528 194.4769424 89.10477261
-40.25040528 46.81296339 17.07829161
19.93759272 232.3509335 -9.738751942e-05
22.15764372 231.6561952 155.9999026
-40.25040528 173.2328564 45.46979961
-40.25040528 42.16057539 46.33250061
31.25099072 156.3872494 -9.738751942e-05
-41.66957828 25.06375939 172.9999026
-36.25040528 199.8460864 11.59595361
-40.25040528 156.5350404 55.53423861
-40.25040528 30.44063539 14.41644861
11.70125472 10.38652739 -9.738751942e-05
23.52510372 145.7435294 151.9999026
-7.679653275 185.2427184 -9.738751942e-05
28.34834572 189.3932984 151.9999026
-30.90886628 -2.461366603e-05 108.5898156
-16.85641928 51.58974839 -9.738751942e-05
-36.25040528 117.7128824 64.75946261
-40.25040528 165.3303554 75.06370561
-40.19524828 182.2002004 3.495106612
-40.25040528 79.43604639 95.61711161
-40.25040528 137.5647194 38.14165861
-30.57523028 48.07853739 174.9999026
24.49672572 123.2379314 151.9999026
-36.25040528 169.1295474 94.86053761
33.22171072 142.1132644 151.9999026
-40.25040528 63.09732639 46.72353161
-40.25040528 116.3765954 37.81985061
-40.25040528 41.86376039 66.60730261
-36.25040528 9.841022386 47.55414661
-40.25040528 116.5030564 113.3171016
-36.25040528 104.4580064 55.71700561
-40.25040528 76.56732239 105.3610626
-40.25040528 155.8432224 78.89820961
-36.25040528 92.54090139 98.26117261
-36.25040528 113.5208684 68.97845761
-36.25040528 20.78427039 90.12534561
-28.79374628 148.8680734 155.9999026
-40.25040528 139.5277624 107.6073376
-36.57729528 -2.461366603e-05 77.89282061
37.74959472 39.54399139 -0.8260773875
-40.25040528 176.0754504 83.90407261
-36.25040528 159.0609694 35.48364861
-40.25040528 229.4554086 141.9557146
-40.25040528 195.4870124 105.7009076
-36.25040528 29.13834839 109.3411926
-36.25040528 217.9007823 56.89869961
14.81967772 22.04682439 174.9999026
-40.40082228 70.16228839 159.5156676
-36.25040528 150.6085234 29.46981561
-40.25040528 162.0180154 119.0032716
-40.25040528 151.8409094 88.98745361
22.39432072 -2.461366603e-05 163.4754456
-36.25040528 200.4075564 138.6354986
-36.25040528 49.44475739 13.36648861
30.62599072 -2.461366603e-05 33.25776161
-40.25040528 62.82901939 99.95095061
-40.25040528 206.2748504 17.68627661
-40.25040528 84.71168939 48.81242961
-41.16248128 52.88029639 172.9448526
-36.25040528 101.2027954 28.58783261
-36.25040528 75.23441239 68.59865661
-40.25040528 44.23129739 111.4230286
-36.25040528 61.45254039 118.1726556
-40.25040528 215.0516125 118.4943416
-36.25040528 62.37932239 87.99369161
-40.25040528 34.10033939 41.36764861
-36.25040528 96.11309639 109.3695346
10.92443472 130.2858974 155.9999026
-36.81815128 132.1531464 154.5406846
-40.25040528 77.31755939 112.5562426
-40.50323928 15.36334339 120.9957026
27.37889772 42.54959239 -9.738751942e-05
-36.25040528 227.2240661 105.6724946
-36.25040528 121.3068774 33.28702961
27.20056572 215.5014994 -9.738751942e-05
3.374477725 196.5444274 151.9999026
21.11681472 159.9351444 155.9999026
-40.25040528 247.9986825 118.4510326
-23.35366728 193.1311234 155.9999026
-40.25040528 146.8232424 108.0720616
-40.25040528 17.60583439 26.54197861
-36.25040528 179.9435714 114.1744986
-2.219440275 17.14398439 174.9999026
-1.592236275 237.1673809 -9.738751942e-05
-36.25040528 216.154255 97.22505261
-40.25040528 123.5650894 39.97711661
-1.824228275 121.8493384 155.9999026
38.73288272 -2.461366603e-05 66.37280761
-40.25040528 42.00211439 156.0446886
-36.25040528 91.62685639 83.59407761
-40.25040528 100.0762454 65.00963261
-40.25040528 75.08234339 15.91911161
-40.25040528 207.2606564 106.0794476
20.17927172 10.49860839 -9.738751942e-05
19.27638272 140.0603844 151.9999026
-36.25040528 98.08676239 19.02840561
-40.25040528 234.0744695 7.381091612
-36.25040528 238.4969056 102.2876856
-36.25040528 111.0537884 144.6194736
-0.2666742752 148.2758034 151.9999026
16.45760272 107.2784464 155.9999026
31.31271672 -2.461366603e-05 27.42627761
-21.30730628 118.6976244 -9.738751942e-05
-27.44870528 217.0991894 155.9999026
-36.25040528 235.9022657 68.01847061
21.81406072 177.0993434 -9.738751942e-05
23.26032772 55.80235739 180.9999026
27.48317972 63.98765839 174.9999026
-40.25040528 109.0610384 96.23195861
-36.25040528 132.2840054 18.72596061
-40.25040528 22.46054739 158.7762586
-40.25040528 167.5236604 61.66065161
-40.25040528 34.41716939 27.06958761
20.99225972 -2.461366603e-05 14.20737361
-36.25040528 126.6140084 140.5810106
-40.25040528 74.54662639 47.29192561
-19.41079528 217.8058179 -9.738751942e-05
-2.392437275 130.6959284 -9.738751942e-05
-40.25040528 228.9454648 33.74980561
21.04701272 171.9093904 151.9999026
-36.25040528 33.81419639 15.91662661
-40.25040528 56.96390839 89.29764861
-40.25040528 110.7709494 29.46313561
-13.59758228 7.553424386 -9.738751942e-05
-40.25040528 43.54599039 78.07959761
21.78997872 -2.461366603e-05 121.3926426
-36.25040528 49.35760239 32.25984461
-36.25040528 121.9533534 13.27142461
-40.25040528 187.8564344 76.85771661
-40.25040528 19.94520639 150.0530776
-36.25040528 76.03090139 83.47867361
-40.25040528 94.09573039 31.59720661
-36.25040528 223.2252234 74.96801961
12.20884872 125.2675854 151.9999026
-14.89376728 129.2640644 151.9999026
-36.25040528 188.7155814 24.50160661
-40.25040528 239.6324551 142.8655606
16.86282972 -2.461366603e-05 132.9026226
-40.25040528 172.2865114 106.2162566
-40.25040528 166.5513844 135.1171716
-36.25040528 30.39285739 75.03692561
-40.25040528 74.16820939 136.4511586
-40.25040528 103.9202634 118.0949496
-40.25040528 245.7334448 16.54247961
-40.25040528 23.52976939 62.62307561
-40.25040528 11.13305539 155.7851236
-38.54014728 148.2671574 -0.9099423875
-40.25040528 216.45858 107.5132926
-40.25040528 8.332202386 23.73129861
-36.25040528 51.62427939 39.55886561
-40.25040528 51.22313039 85.35420661
-40.25040528 130.6799884 114.2671526
-40.25040528 69.11393239 67.01059361
-40.25040528 168.5348404 19.80539461
26.83722672 238.8359364 -9.738751942e-05
-36.25040528 25.18771339 57.39042561
-40.25040528 54.89850539 23.27048361
-40.25040528 212.2767377 58.57300761
-36.25040528 16.35325339 20.86597861
31.68130672 163.7754584 155.9999026
-36.25040528 184.0701764 97.45866761
8.106155725 -2.461366603e-05 129.1473716
-36.25040528 126.4168974 101.7148776
-40.25040528 53.73294139 166.7961026
-36.25040528 201.4206254 26.08429861
-40.25040528 135.5581464 131.4038756
-36.25040528 79.24284639 4.048707612
14.32144372 -2.461366603e-05 57.22465861
28.17123972 153.6009064 151.9999026
-40.25040528 104.9437614 9.538774612
-34.13826928 209.9635544 0.5378566125
-36.25040528 195.3629704 72.09341461
-36.16788928 27.40496739 3.292403612
-19.60939728 -2.461366603e-05 114.4923856
-36.25040528 17.70993539 6.842390612
-2.073348275 203.0945594 151.9999026
-40.25040528 86.02085639 107.4013796
-40.25040528 30.33094539 21.50419161
-36.25040528 157.8743854 134.4243546
-36.25040528 48.91099439 98.08837061
21.90740072 107.6056344 -9.738751942e-05
-36.25040528 177.6036314 79.85397361
-40.25040528 51.90868039 119.2358626
-14.70241428 -1.685937614 174.9999026
-41.24344128 -2.461366603e-05 39.95375661
-5.973348275 123.7184054 151.9999026
-40.25040528 90.04494939 101.0995716
-40.25040528 45.22461039 127.7969256
22.39795672 106.5662524 155.9999026
-36.25040528 67.91096439 8.928621612
-36.25040528 56.25213539 66.09358561
2.520906725 155.3030664 155.9999026
-36.25040528 12.62585039 26.12443661
-36.25040528 238.7066468 73.63821061
-40.25040528 92.45112839 3.803590612
32.24677972 106.7905484 154.3120766
33.77707472 173.0324334 155.9999026
-36.25040528 116.1231294 11.86051461
-36.25040528 116.9753814 43.22471161
-36.25040528 174.6592484 109.0646796
-36.25040528 21.00254239 31.24819461
-3.311469275 33.11402139 -9.738751942e-05
-36.25040528 99.89226939 78.78225461
-40.25040528 74.48877639 78.23740361
37.74959472 216.4416046 -0.7740033875
3.179994725 -2.461366603e-05 93.49088661
-40.25040528 219.7499204 114.7684076
-1.138157275 93.54634939 -9.738751942e-05
-2.610403275 177.2037264 155.9999026
-40.25040528 82.71935739 90.59613761
-40.25040528 123.8737214 131.6244316
33.10213572 210.9911774 155.9999026
-40.25040528 58.71482839 150.6272376
14.80439372 190.0364784 -9.738751942e-05
-36.25040528 146.2799624 146.4816346
-40.25040528 105.7713674 38.57243461
29.93965772 244.9286532 151.9999026
-36.25040528 94.04422839 114.1241886
-34.73684028 -2.461366603e-05 134.3232026
5.124294725 -0.8503716137 174.9999026
-35.46676628 96.36004239 1.722552612
-40.25040528 128.5982414 127.4516036
-37.31908628 66.13954339 180.9999026
-16.21141628 164.9466314 151.9999026
-40.25040528 123.1799654 145.1561156
-36.25040528 190.5105604 70.23168061
9.681804725 118.5731944 151.9999026
-16.13357328 149.5464694 151.9999026
-40.25040528 42.89343139 104.1610246
-36.25040528 131.9788974 88.61896361
-40.25040528 37.38379739 16.70633161
19.17462872 29.12067739 174.9999026
-40.25040528 157.9176714 84.64531861
-40.25040528 186.7200084 118.7622946
-23.00978228 157.0958414 151.9999026
-40.25040528 221.7247979 143.7724036
-40.25040528 16.71873639 82.15799861
-40.25040528 64.05150539 147.6709446
-40.25040528 0.4470303863 32.62229161
-40.25040528 133.7107904 109.1389036
-32.06786628 219.3554761 155.9999026
-40.25040528 57.38431439 127.1384666
24.89417872 197.0793074 -9.738751942e-05
-36.25040528 8.236839386 81.88232561
-36.25040528 92.60006639 89.57922861
-36.25040528 226.9009304 119.6418246
-40.25040528 52.10148939 44.67718461
-36.25040528 223.7233585 32.95202861
-35.71792528 234.7093384 149.8719496
-23.90366728 -2.461366603e-05 48.14095061
-8.447498275 230.9519876 -9.738751942e-05
-35.49019028 126.0666144 150.2127836
-40.25040528 44.73734839 9.436800612
-17.92232728 159.3779734 151.9999026
37.36934672 67.59524939 174.9999026
-36.25040528 75.19900439 57.04549761
-36.25040528 100.7840754 89.99090661
-40.25040528 216.098007 45.79553661
-40.25040528 157.2156254 23.43937061
-36.25040528 46.52349839 69.76614961
-10.71427028 119.7256454 151.9999026
-39.20174828 209.4109234 151.7617586
-40.25040528 139.0957684 32.78155061
3.179325725 1.260850386 180.9999026
-40.25040528 99.92347539 49.03931361
21.66663172 29.25655639 -9.738751942e-05
10.07686372 250.5832186 -9.738751942e-05
-8.197482275 184.4228564 151.9999026
-40.25040528 243.5244996 47.04281061
-6.785668275 227.7212794 151.9999026
12.93059372 192.9883644 155.9999026
-3.143993275 33.69881539 174.9999026
-40.25040528 229.7020287 79.59090661
-40.25040528 17.10786539 135.3958966
-40.25040528 238.9282724 99.14617161
-36.25040528 47.31981939 51.97356061
-24.67608028 72.06353939 -9.738751942e-05
-40.25040528 68.23703039 13.54175861
-40.25040528 10.64678439 18.02403061
-40.25040528 114.0809604 82.08150161
-40.25040528 117.3756014 142.2412886
-31.21633328 -2.461366603e-05 48.24023661
1.041509725 152.1319114 -9.738751942e-05
26.37813472 87.83384639 -9.738751942e-05
-40.25040528 73.74391539 25.66024861
-40.25040528 202.2478224 119.1258356
34.76910172 23.05032139 -0.5450173875
-36.25040528 60.48924539 57.42661161
-36.25040528 91.79120139 133.8665186
18.67524672 123.7628484 151.9999026
-10.29761028 11.99189439 180.9999026
15.84055072 164.0248504 -9.738751942e-05
-40.25040528 106.2666404 31.73460361
37.74959472 224.9702951 155.7944486
-20.48422128 102.3790364 151.9999026
-13.63703328 242.7107391 -9.738751942e-05
-36.25040528 115.1513394 125.3580896
-40.25040528 32.44848039 83.39417461
6.433742725 143.8710864 155.9999026
-40.25040528 187.0820384 111.0254716
-40.25040528 137.2779114 123.5425436
-40.25040528 51.89551439 75.38622161
-36.25040528 107.7591924 14.38191461
-36.25040528 145.4803264 87.03952261
-40.25040528 198.4664784 25.43105061
-36.25040528 176.0662564 34.59173561
-36.25040528 205.8525894 129.6789016
-36.25040528 223.7801716 15.32663061
-40.25040528 161.7173124 36.89154361
21.03779672 137.0768874 -9.738751942e-05
-13.90938628 -2.461366603e-05 71.30713661
21.56315672 -2.461366603e-05 30.89858761
-40.25040528 20.16424239 113.4490896
4.640335725 135.9947574 151.9999026
2.067914725 -2.461366603e-05 10.28928861
0.2269297248 65.91643639 180.9999026
-36.25040528 201.0089444 68.21068061
9.068839725 164.2962524 151.9999026
-36.25040528 182.3731584 35.55483861
-37.11093328 235.0022074 16.44462361
-36.25040528 44.15043739 118.9714286
-40.25040528 34.43286339 169.0876196
-40.25040528 140.1680034 14.15145861
12.41849972 -2.461366603e-05 154.8775036
-40.25040528 29.37949639 87.88623761
-40.25040528 145.7485544 48.49015961
-40.25040528 26.90313039 40.40904961
-30.68902928 17.35672539 180.9999026
6.572880725 48.50902639 180.9999026
-40.25040528 139.2380684 139.0937956
-36.25040528 37.64663339 118.7384466
-40.25040528 64.47283539 90.92373061
-23.37075328 208.1457514 151.9999026
-40.25040528 43.13147839 138.2899596
-40.25040528 244.8661317 92.82262061
-36.25040528 154.3764064 50.38999661
-40.25040528 49.21181639 27.93607761
-40.25040528 252.3283523 61.68722661
-36.25040528 144.3112864 133.0926386
-40.25040528 161.3786004 69.74029361
-29.16346828 -2.461366603e-05 8.907320612
-36.25040528 9.474173386 62.02687461
6.301269725 -2.461366603e-05 57.90675961
-40.25040528 207.2955164 143.0354026
-28.99663028 249.9115473 155.9999026
12.40972272 25.15741139 180.9999026
25.98304672 127.3474184 155.9999026
-36.25040528 113.8275434 36.27788961
-10.40893828 217.7367059 151.9999026
-36.25040528 221.9338513 123.5927186
-40.25040528 145.1832344 40.01816361
28.75551672 -2.461366603e-05 101.7193676
5.432607725 -2.461366603e-05 160.9694176
4.490576725 124.1913154 155.9999026
-40.25040528 213.0313276 141.6163776
-37.39938728 160.0023814 -2.075401388
-40.25040528 118.9544374 46.01838161
-4.421248275 -2.461366603e-05 100.2404156
23.58802572 168.6075294 -9.738751942e-05
-40.25040528 49.13652339 65.69596761
27.15696672 33.93861439 -9.738751942e-05
-40.25040528 47.96016139 160.3496216
11.99456172 31.89315439 174.9999026
-36.25040528 122.6747624 6.749518612
-26.24232828 98.17387439 -9.738751942e-05
-42.70829228 154.0191124 61.87736061
-36.25040528 173.3135804 68.59840661
-33.31178128 77.53685139 0.2075716125
-40.25040528 83.45685039 85.74028161
29.15372272 234.4611991 151.9999026
-40.25040528 86.21954739 59.64128561
-36.25040528 72.26681239 43.43313961
-33.12673828 119.9097954 155.8611746
-36.25040528 111.8919424 96.10563161
-40.10310128 40.03447339 180.9999026
7.420663725 -2.461366603e-05 30.23406361
30.07292272 221.9621108 155.9999026
-40.25040528 57.66299939 69.58793061
-36.25040528 93.19195539 47.58216661
-40.25040528 113.8795304 56.93071161
-40.25040528 32.06549839 142.5212706
-40.25040528 75.97028839 117.6412326
-40.25040528 82.34499639 53.75849561
-34.17527328 102.1019434 151.4321536
-40.25040528 115.6757804 32.75979961
-36.25040528 205.5479454 66.01285861
-40.25040528 101.8698054 19.71698561
27.73201272 -2.461366603e-05 128.4045366
-36.25040528 111.3760874 61.90516161
-42.92286428 117.5913634 100.2643576
-40.25040528 102.0065934 95.15704061
-40.25040528 36.93085639 161.8218426
-34.76201628 33.70536039 174.9999026
-40.28161228 0.4999753863 138.2639696
-29.51638328 125.3843084 155.9999026
-18.57030528 250.2212466 151.9999026
-40.25040528 149.2003294 129.4320476
-40.25040528 56.73839239 47.94683061
-36.25040528 117.5291004 137.1218536
40.92705772 -2.461366603e-05 116.8539076
-4.571302275 100.6587444 151.9999026
-40.25040528 56.70734539 55.96548261
-40.25040528 171.0802234 65.06352261
-40.25040528 175.5500404 74.86653261
-40.25040528 103.5627654 125.6067006
-40.25040528 56.87646939 162.8656356
-4.914606275 221.6788019 155.9999026
-36.25040528 126.8708364 88.95960061
-40.25040528 83.86693839 43.07797761
34.41756172 -2.461366603e-05 3.353693612
-36.25040528 188.0771344 129.8285046
1.084324725 191.2444534 155.9999026
-40.25040528 194.2561134 113.6216746
6.178659725 245.8071833 151.9999026
-40.25040528 74.90839639 34.03929261
-36.25040528 89.98673439 35.20985961
30.81039972 182.0581024 151.9999026
-23.38780428 203.5108824 -9.738751942e-05
-8.735699275 45.02945539 174.9999026
-41.63550728 -2.461366603e-05 70.00424761
-40.25040528 122.5208184 109.1346866
-36.25040528 164.4650384 107.4536936
-36.25040528 136.8728494 85.11745261
-42.35748528 1.808241386 158.1473656
-40.25040528 65.27466039 8.638244612
-39.74416928 126.6366514 1.316524612
-40.25040528 187.5714174 146.1834936
-40.25040528 32.06275539 108.0834646
-40.25040528 118.1394034 122.3405126
-40.25040528 121.3886234 20.58315661
2.918289725 40.25718439 180.9999026
-40.25040528 106.5845544 92.13416861
-40.25040528 66.49291539 62.54418561
-40.25040528 160.9099694 20.24081661
18.38766172 84.34213539 -9.738751942e-05
-40.25040528 154.3248164 30.52345761
-40.25040528 50.15745239 4.315517612
37.70918472 1.515268386 174.9999026
-36.25040528 119.4666074 26.60929861
-40.25040528 153.4344464 38.65634561
-40.03148728 30.10564039 2.145651612
-40.25040528 55.31714539 122.5672576
-40.25040528 60.43546139 51.56405861
-36.25040528 222.7809789 109.1873496
-36.25040528 103.2443874 100.7718366
32.60683272 25.54763039 174.9999026
-42.25986028 -2.461366603e-05 45.32643661
28.89528672 169.5770444 -9.738751942e-05
11.74641772 47.69856439 174.9999026
-19.18762628 243.8419084 151.9999026
-6.221662275 -2.461366603e-05 174.9004226
-36.25040528 202.6944594 115.6107436
-40.25040528 59.95185439 80.28040361
-40.25040528 155.2734134 146.0107116
-36.25040528 114.2571564 101.2493196
15.96726872 -2.461366603e-05 99.44513661
-40.25040528 126.2815664 20.57172261
-40.25040528 67.93540939 29.15727361
-36.25040528 36.71036239 31.65488861
-40.25040528 92.67472239 105.5495096
-40.25040528 65.45628339 158.9702656
-40.25040528 222.5180158 134.8865926
-40.25040528 137.9950484 45.07553261
7.107319725 5.115106386 174.9999026
-35.87406028 233.7949098 2.313442612
-40.25040528 37.69837239 1.953380612
-32.74884528 143.8306434 155.9209976
-36.25040528 42.79349839 18.96439861
-40.25040528 238.8085315 77.58710861
20.89964872 179.5235584 151.9999026
-35.81595128 119.0711054 2.221360612
4.214019725 208.0577764 151.9999026
30.21812672 228.6337948 151.9999026
-0.2713012752 131.5318024 151.9999026
-36.25040528 143.2897204 44.44068061
-40.25040528 94.89732639 84.83892961
30.94056872 38.87896039 174.9999026
-22.64175828 14.02116139 180.9999026
-40.25040528 135.0686034 16.55070661
-40.25040528 70.30277039 76.07221761
-40.25040528 60.73827739 140.2047006
-40.25040528 78.30101439 11.94990761
