# .PCD v0.7 - Point Cloud Data file format
VERSION 0.7
FIELDS x y z
SIZE 4 4 4
TYPE F F F
COUNT 1 1 1
WIDTH 1258
HEIGHT 1
VIEWPOINT 0 0 0 1 0 0 0
POINTS 1258
DATA ascii
-40.25016128 58.58611839 6.314213613
-43.28552428 59.67916439 201.9999026
-39.94460728 187.1464514 1.885670613
40.65620872 -2.461323402e-05 109.5119096
-37.90290628 210.1806644 153.6608136
30.13882772 174.8938474 155.9999026
-36.25016128 78.93097639 131.0924206
-39.12110628 -2.461323402e-05 166.0045766
-40.25016128 123.1502454 32.69476261
-21.25894628 -2.461323402e-05 35.15852961
-27.56129228 250.9245032 -9.738708331e-05
21.83166372 60.21816339 -9.738708331e-05
11.60144672 37.81417339 155.9999026
-40.25016128 71.36982439 68.72507161
37.74959472 187.2957154 -0.5950543871
-19.08609128 135.8547234 155.9999026
-40.25016128 187.0163204 60.92211361
29.06503172 64.32179339 201.9999026
33.27121872 -2.461323402e-05 55.88201561
-5.892275275 22.94808539 201.9999026
-36.25016128 250.643931 123.8486756
-12.18071828 97.32599639 -9.738708331e-05
-2.689116275 -2.461323402e-05 128.9266856
-36.25016128 195.2338634 108.6117196
-4.920333275 156.1196064 -9.738708331e-05
-0.5559782751 214.0466226 -9.738708331e-05
-37.52174828 224.2498445 36.49990261
-40.25016128 35.98420739 139.8130476
7.806399725 215.4042565 151.9999026
-11.70682628 22.92974639 -9.738708331e-05
36.05580772 -2.461323402e-05 153.2471736
-6.578346275 -2.461323402e-05 75.43750161
-40.25016128 167.6657134 139.9003846
-36.25016128 38.89873939 43.75534561
-36.25016128 112.0714434 72.64539461
-1.000164275 76.18480939 155.9999026
-13.85913328 250.7964189 155.9999026
33.24611572 136.5644744 155.9999026
-42.82481428 16.20529539 201.9999026
-41.22887728 -2.461323402e-05 1.838603613
-36.25016128 161.9674344 29.15412961
-40.25016128 52.94630839 104.6285726
-40.25016128 117.2523424 126.8504056
-40.25016128 85.66504139 31.76003061
5.020992725 -2.461323402e-05 173.2777466
-6.312843275 179.0882594 155.9999026
-39.94776928 -0.8397876132 129.4999026
-6.913051275 60.05151739 201.9999026
-40.25016128 148.2879814 64.46951861
-38.12691028 144.2635464 -1.404502387
-41.37558528 68.18790339 164.1116936
8.986288725 -2.461323402e-05 17.98211461
-36.25016128 216.2098339 77.83183861
-31.13996728 102.8774414 155.9999026
42.17140372 32.87522439 195.9999026
37.74959472 63.26470439 155.0881056
-36.25016128 93.84404439 100.7512756
33.64516772 91.92972239 -9.738708331e-05
0.9320827249 109.3112894 151.9999026
-39.08773628 0.4999753868 62.83266461
21.38528572 26.94223839 -9.738708331e-05
-40.25016128 33.95515239 172.1280446
-15.65126528 19.23528039 151.9999026
-40.04065428 218.7765691 2.187723613
-40.25016128 111.7593394 0.5059016129
-9.454031275 66.03023939 -9.738708331e-05
-40.25016128 40.87249839 75.27810661
3.228000725 244.7483066 -9.738708331e-05
32.33058972 218.2932303 -9.738708331e-05
10.93564972 -2.461323402e-05 101.4589636
37.74959472 210.3544734 154.0085516
36.65041672 154.6641674 -9.738708331e-05
-40.25016128 225.2878091 108.4744936
3.763442725 123.7526414 -9.738708331e-05
-15.54565628 49.79968439 155.9999026
5.011689725 185.2067234 -9.738708331e-05
-36.25016128 25.03889039 17.88880361
-20.82904528 -2.143699613 195.9999026
-36.25016128 172.7922714 89.94929161
6.630604725 148.4394584 151.9999026
-40.25016128 252.3419456 30.97837961
4.973110725 -2.461323402e-05 49.36416461
38.65875872 -2.461323402e-05 28.86489661
-39.65660728 236.7979401 151.0016836
39.02283072 -2.461323402e-05 82.01373361
-36.25016128 197.3407874 36.74316361
9.911078725 -2.461323402e-05 199.3790366
-42.81028428 143.8446544 126.6851516
37.49348972 36.16028139 151.9999026
-27.47062628 37.49003839 201.9999026
-21.35453428 -2.461323402e-05 103.8555736
15.41612372 42.49734139 201.9999026
-42.68935928 166.0662524 114.5047456
-30.88460028 184.8912604 155.9999026
10.75568772 247.0806806 151.9999026
26.66532172 -2.461323402e-05 130.0881276
13.61103772 10.17003639 151.9999026
-40.25016128 194.2549434 135.0276746
-33.48083628 81.38306139 0.2410366129
-40.25016128 103.0152114 50.26854561
-16.95991628 -2.461323402e-05 6.584927613
-36.25016128 63.23324539 42.39383061
-17.77778428 177.2565544 -9.738708331e-05
-36.25016128 247.4170872 99.85033861
-41.32337028 117.2421464 99.98715461
-36.25016128 222.6722019 132.0240636
8.020563725 82.25074539 -9.738708331e-05
-39.89369228 126.4273094 150.2355976
-21.35171328 203.3382224 -9.738708331e-05
-19.49519228 125.9111504 -9.738708331e-05
-25.65998628 41.68669239 -9.738708331e-05
-13.07563828 225.3906135 151.9999026
-40.25016128 23.86101339 120.1351636
-36.25016128 231.9510462 61.15465561
-26.44469128 159.2810034 155.9999026
-43.46099228 -2.461323402e-05 40.06337261
-23.07256728 81.62238539 155.9999026
-36.25016128 56.45816239 129.7333086
-36.25016128 132.9639084 80.40456161
-36.25016128 127.2036734 56.37232261
-29.78430228 -2.461323402e-05 83.35125361
-10.37238228 202.7927824 151.9999026
16.04578272 194.8838704 151.9999026
-40.25016128 238.6175115 12.96766761
-17.39080028 -2.461323402e-05 168.8486906
-40.25016128 208.4172464 56.31716061
-40.25016128 71.72829739 93.55159461
-24.82540928 -2.461323402e-05 147.9269256
-1.845258275 45.71888539 -9.738708331e-05
16.22563672 0.4999753868 -2.397893387
-38.18934928 19.32074139 153.3108396
18.36076272 -2.461323402e-05 71.33574061
-40.25016128 21.93468639 63.40290061
15.44743572 149.5790904 -9.738708331e-05
20.94625072 75.71569139 151.9999026
-40.28734328 141.1557554 21.77250861
-38.84200128 166.3421624 -0.5170123871
-40.25016128 105.6264384 21.19618161
26.26357472 15.47949439 195.9999026
25.39413572 231.4230651 151.9999026
-40.25016128 44.88114839 22.44522561
-36.25016128 197.9096644 87.54629561
8.028040725 57.71044739 151.9999026
-40.25016128 167.7054934 53.91465561
-41.09298228 -2.461323402e-05 186.4056386
-40.25016128 147.4784084 43.08126661
37.74959472 47.35837139 -0.7883383871
16.03093772 102.2849594 -9.738708331e-05
-36.25016128 210.7927424 20.58502961
-36.25016128 90.40568139 80.66017861
-36.25016128 4.623612387 21.04042061
28.86239172 117.1040524 151.9999026
-36.25016128 98.48199639 136.8093136
25.38901472 -2.461323402e-05 181.5628906
-40.25016128 49.90820839 155.4600916
-25.18751028 67.99997539 198.8219066
-37.38848228 24.44481639 -2.081439387
-16.40526928 234.4668662 -9.738708331e-05
9.199728725 126.6057644 155.9999026
-36.25016128 248.9163 51.40597661
-40.25016128 232.23984 88.24738961
18.00717672 170.6723064 -9.738708331e-05
-40.25016128 49.34492739 185.7484916
16.50106072 229.4190972 -9.738708331e-05
43.37861872 51.20907539 201.9999026
-36.25016128 152.0785024 83.07406461
-40.25016128 80.75958239 50.41012861
-19.15874528 -2.461323402e-05 60.84853661
-36.25016128 75.89191739 111.9213176
-43.41825928 -2.461323402e-05 110.6437476
-40.25016128 51.32289839 57.78987461
-40.25016128 145.2943724 147.6712016
-40.25016128 178.8874204 21.41885861
-36.25016128 20.60738839 38.94553661
23.49854972 155.7216114 155.9999026
-40.25016128 36.75659739 93.57100161
-10.01294428 40.64461139 195.9999026
19.17190872 197.2408104 -9.738708331e-05
12.67154672 92.28348739 151.9999026
-16.89296828 114.1273304 151.9999026
-9.218294275 93.06093039 151.9999026
7.817310725 166.7968634 151.9999026
-40.25016128 16.58074739 177.9626566
-36.25016128 178.8944624 125.9123896
-27.90417528 34.21326339 155.9999026
-24.68425428 18.54390139 201.9999026
-40.25016128 94.84881739 118.5526816
-40.25016128 123.5796284 14.26738161
-40.25016128 180.0207424 39.67818861
12.52767672 60.53155239 195.9999026
20.55098472 -2.461323402e-05 40.42341461
-40.25016128 42.11700139 118.9357986
37.74959472 68.33165239 -1.513207387
-40.25016128 65.44134539 144.7122966
-40.25016128 165.4500384 71.88696361
-20.34532028 145.0366014 -9.738708331e-05
-40.25016128 68.85136539 25.79977461
29.59730872 20.69285539 155.9999026
19.66339572 251.2962555 -9.738708331e-05
-40.25016128 29.68576439 189.7351626
-40.25016128 252.4701422 140.7945846
-20.68734428 -2.461323402e-05 131.0808746
-5.934350275 33.51069239 151.9999026
-4.407410275 -2.461323402e-05 92.40834561
43.12791572 14.96705039 201.9999026
-8.230374275 0.7425933868 151.9999026
-36.25016128 57.39814639 85.18905061
-9.611062275 -2.461323402e-05 21.96044861
-0.4065272751 -2.461323402e-05 0.9031336129
-40.25016128 13.09957039 80.87707761
22.83884272 -2.461323402e-05 87.62280761
24.41800872 53.37593439 151.9999026
-36.25016128 18.39119539 135.5431766
23.15454672 -2.461323402e-05 113.6440966
-10.73057628 153.3407944 155.9999026
-40.25016128 92.18184439 11.25987561
10.64767172 24.73003639 201.9999026
-15.24193428 66.42169639 155.9999026
-40.25016128 91.35451339 63.17048461
-40.25016128 185.0282264 77.36098761
-40.25016128 204.8410364 121.3605116
-5.885244275 197.9529044 -9.738708331e-05
-39.37773128 89.45187639 151.5570786
34.48038272 171.2911014 -9.738708331e-05
-36.25016128 155.0206044 10.93226561
-36.25016128 201.2523164 71.33730761
37.74959472 194.1712094 155.9996136
-40.25016128 129.6280054 116.2807486
-40.25016128 211.3510244 95.78365161
-40.81323728 0.4999753868 146.7386666
-5.864728275 0.7518723868 201.9999026
-43.18779028 106.1184324 88.64169261
-38.35242728 -2.143099613 201.9999026
8.297690725 17.99907439 -9.738708331e-05
37.37121372 79.04710939 155.9999026
-40.25016128 158.7267994 97.35500461
-40.25016128 180.0776394 107.0893956
16.07912372 133.8529214 -9.738708331e-05
34.57286172 -2.461323402e-05 168.8526946
30.09218172 -2.409757613 12.71662161
-27.19012328 52.74823639 195.9999026
-9.278778275 -2.461323402e-05 182.1975076
-40.25016128 195.8084374 19.23494061
-40.25016128 237.4107288 135.0422346
0.08578572488 -2.461323402e-05 34.61632461
9.011143725 181.7054944 155.9999026
-36.25016128 109.1524764 114.2784026
14.54329972 -2.461323402e-05 139.5894026
41.41406672 -2.461323402e-05 134.4596366
-25.16522328 240.3804645 155.9999026
2.772839725 233.9489094 151.9999026
29.55181472 14.01375739 -1.449840387
-28.84824928 101.5286924 -9.738708331e-05
-32.96455628 232.1601703 0.1291966129
-40.25016128 11.93436939 50.84803461
28.69654672 50.30108239 195.9999026
-0.2763622751 15.03985239 155.9999026
-36.25016128 149.2435414 114.0359396
-14.19825628 82.22479139 -9.738708331e-05
1.454296725 138.7940634 -9.738708331e-05
-40.25016128 39.84070539 3.834910613
-10.26874228 112.3879584 -9.738708331e-05
-22.44500328 11.12748539 -2.161836387
-5.351839275 125.7896564 151.9999026
-21.22979528 220.1636127 -9.738708331e-05
25.53781772 79.22579639 -9.738708331e-05
-41.11027428 43.82114139 201.9999026
-36.80641728 170.0658534 154.5669746
-36.25016128 208.2913314 138.4679236
-36.25016128 111.9532404 145.2851516
36.05112072 139.7451664 -9.738708331e-05
4.725586725 59.11140839 -9.738708331e-05
22.68520272 215.6662783 151.9999026
-29.33131028 66.47264739 -9.738708331e-05
-36.25016128 27.24603439 82.75403861
4.701929725 -2.461323402e-05 65.85134961
28.83068272 31.49956639 201.9999026
3.691122725 201.6004004 155.9999026
-0.9514452751 -2.461323402e-05 114.4121036
21.86388872 104.2979764 151.9999026
-37.58025628 0.4999753868 95.62224861
14.31817272 39.63468339 -9.738708331e-05
-40.25016128 62.07391639 178.7474566
-29.63406428 -2.461323402e-05 50.86758861
-39.84880828 194.7276104 150.3881246
-36.25016128 119.0656674 86.66229161
37.15054272 151.2230434 155.9999026
-33.82367628 224.5911374 155.8213506
-12.96536528 167.0227004 151.9999026
18.54984472 141.5285814 155.9999026
-40.25016128 61.20189939 116.3568496
-36.25016128 30.60285839 108.1429956
-40.25016128 224.2902424 17.99004461
-5.125048275 170.4269894 -9.738708331e-05
-10.48716928 248.7538821 -9.738708331e-05
-40.25016128 73.20097039 9.772363613
16.50959672 116.4733174 -9.738708331e-05
-36.01830228 130.4945864 2.718947613
14.02789572 215.5907181 -9.738708331e-05
37.72687272 33.31192839 -0.6477713871
-36.25016128 152.3317474 136.2069776
-14.46627028 -2.461323402e-05 47.34228461
32.97862572 -2.461323402e-05 97.15916661
-28.20424228 56.84005639 155.9999026
-40.25016128 205.3023724 5.571662613
-25.72680128 -2.461323402e-05 179.9605416
-40.25016128 222.953375 51.39953961
-40.25016128 33.15579539 29.80182961
-40.25016128 133.6643964 43.09039961
-42.26859728 -2.461323402e-05 77.02830361
-40.25016128 34.88715239 58.77485561
-40.25016128 55.70751539 30.79338961
-25.04706728 165.6985884 -9.738708331e-05
-21.27169028 195.6755174 155.9999026
8.234854725 -2.461323402e-05 80.41139261
33.39049272 231.8443143 -9.738708331e-05
37.74959472 223.8679635 152.9600976
14.68231672 25.25053339 151.9999026
-36.25016128 134.5298364 134.0007886
-39.97499528 15.13795639 9.497960613
-36.25016128 115.4205974 46.79801161
-40.25016128 228.9034009 75.20300861
-22.06356428 55.17089539 -9.738708331e-05
-2.766454275 48.98107439 151.9999026
-40.25016128 10.40396239 118.4747466
-36.25016128 231.1172208 119.8521656
-40.25016128 131.6739074 93.57149261
-7.005649275 139.7643274 151.9999026
-36.25016128 80.93761639 19.98176361
-40.25016128 209.6788924 108.9429926
3.524867725 226.6739698 -9.738708331e-05
-36.25016128 237.20815 38.85753361
26.64823672 0.7499753868 198.1422916
24.77978072 36.69451939 155.9999026
37.33922872 48.72576939 155.9999026
6.966156725 -2.461323402e-05 157.1311526
-40.25016128 218.4403212 64.87560161
-31.27339628 70.53905339 155.9999026
2.342088725 43.84826039 201.9999026
-40.25016128 48.13031839 172.6676646
21.76456572 0.5259063868 155.5876966
-36.25016128 244.5809787 86.29339261
-37.34366228 236.2021066 25.49990261
37.74959472 200.3393514 -0.4776753871
-25.02828328 209.1513464 151.9999026
-40.25016128 191.6733244 120.4795176
-15.99172628 10.93274339 195.9999026
21.67350672 -0.08882861323 22.36493661
-1.577421275 252.3249391 151.9999026
19.16688272 -2.461323402e-05 58.37917961
-36.25016128 185.0399634 95.80495461
-40.25016128 156.6040404 124.6528026
-40.25016128 110.2288284 33.58026361
-26.87167428 125.5136764 155.9999026
-36.25016128 213.0948562 42.92954761
-14.44513828 -2.461323402e-05 114.7659946
37.73688172 -2.461323402e-05 41.71865161
-40.25016128 65.92845039 57.08473361
8.009149725 12.24302039 195.9999026
-36.25016128 174.6903194 9.962916613
13.35058872 -2.461323402e-05 187.0094516
-40.92304828 13.28065339 29.54581861
-40.25016128 184.0430684 142.7412776
-40.25016128 31.58842039 158.0869476
-24.39864828 -2.461323402e-05 19.71034061
-4.605284275 216.6950375 155.9999026
26.39339072 202.2505004 151.9999026
14.22136172 227.0359147 155.9999026
-38.35501428 93.27503039 -1.132094387
-10.29087328 236.9710339 155.9999026
-36.25016128 47.32119939 143.3561086
3.451479725 67.99997539 200.3480186
42.07116872 -2.461323402e-05 121.9689556
-40.25016128 192.4728204 49.66874161
-29.16171828 6.867201387 201.9999026
-40.25016128 110.4835884 60.92146361
-40.25016128 155.2586114 52.99357361
-40.25016128 226.7672701 143.6076616
15.36374372 114.1573774 155.9999026
-17.11152328 -2.461323402e-05 82.08134561
-40.25016128 58.98307039 67.72287061
-40.25016128 97.13937839 36.53234161
-40.25016128 16.03052939 165.5805876
-5.417542275 -2.461323402e-05 165.7771386
-40.25016128 134.5040354 65.49842561
-40.25016128 246.2692931 62.76105161
-31.30221028 250.2637684 151.9999026
35.05244972 164.3662344 151.9999026
-36.25016128 218.2991504 117.7359646
15.59272372 -2.461323402e-05 166.1730456
-22.18136728 176.2729834 155.9999026
-13.92558228 38.20019339 -9.738708331e-05
-40.25016128 237.1801057 105.2061906
5.424096725 96.20800439 -9.738708331e-05
-40.25016128 123.5350004 71.85866861
-16.72795228 48.81699939 201.9999026
-40.25016128 26.36573039 48.83732861
-28.52782428 -2.461323402e-05 2.972422613
-10.72275028 7.966885387 -9.738708331e-05
-36.25016128 79.12701439 143.1462416
-8.179221275 -2.461323402e-05 139.9682366
34.65559272 -2.461323402e-05 67.83002561
16.94716672 183.7866254 -9.738708331e-05
-27.45003628 -2.461323402e-05 71.56727061
-40.25016128 150.6702824 29.69742361
-36.25016128 249.794528 14.68636361
-36.25016128 82.01284539 98.79022561
-40.25016128 100.8792854 74.13504261
-3.551181275 76.77887439 -9.738708331e-05
26.79499772 162.1357844 -9.738708331e-05
-40.25016128 166.8223384 42.00272961
-40.25016128 34.07041439 128.0300126
-40.25016128 70.03862539 80.58753861
28.14190872 188.3790294 151.9999026
-15.26793428 27.18384439 195.9999026
-22.03225728 114.3241094 -9.738708331e-05
-40.25016128 104.9867644 101.4288646
27.70551172 41.10963339 -9.738708331e-05
-21.09482028 96.58382039 155.9999026
-40.25016128 175.9250254 65.08966961
-40.25016128 67.35890539 127.4295576
18.73749072 171.3530354 151.9999026
0.7151797249 88.03674739 155.9999026
-36.04093028 159.6484674 149.0956656
-36.25016128 66.87620039 104.3364046
10.49539572 70.32668539 151.9999026
-25.76657428 14.77840939 155.9999026
-31.72897828 -2.461323402e-05 111.3687866
37.74959472 124.0205384 155.1512546
-36.25016128 222.1241718 97.89985461
6.012650725 166.9012864 -9.738708331e-05
27.49895972 104.3848514 -9.738708331e-05
1.388244725 112.3111594 -9.738708331e-05
11.94470772 -2.461323402e-05 116.8385226
-34.30829328 116.5934464 155.7120346
2.999958725 190.7349714 151.9999026
4.614221725 137.7968684 155.9999026
-40.25016128 128.5925294 104.7806726
-36.25016128 138.4444884 33.37294161
-36.25016128 142.1485874 11.02130961
-12.30745928 80.94893239 151.9999026
-24.32446828 186.6996594 -9.738708331e-05
-2.609205275 11.93803839 201.9999026
23.00889572 208.4355544 -9.738708331e-05
22.38565772 -2.461323402e-05 102.0881916
-40.25016128 11.74335739 68.65499461
-36.25016128 55.02085339 18.93836061
-30.86114828 27.84727239 195.9999026
-5.058942275 61.24685639 155.9999026
-40.25016128 123.6357044 139.1664926
-30.53114928 212.8532026 -9.738708331e-05
-40.25016128 245.1552438 114.7116866
-40.25016128 45.78839939 132.8171196
-36.25016128 185.7622214 30.72047661
22.10652672 247.5370839 151.9999026
-29.70610128 149.1674994 151.9999026
-36.25016128 239.199988 72.59759761
-36.25016128 168.6348924 101.0320386
25.35192472 65.31202339 151.9999026
-36.25016128 92.73244839 47.91751761
38.32599972 66.65336639 195.9999026
-40.25016128 106.1141414 125.1064176
-35.98169828 66.42856139 195.9999026
16.41190272 70.07950839 -9.738708331e-05
-40.25016128 29.49035339 8.374510613
-36.25016128 83.76578939 70.42200461
-36.25016128 167.7205084 126.9368966
-36.25016128 38.20656539 14.19066061
-25.15005128 -2.461323402e-05 159.1197166
-0.2616842751 52.93655439 195.9999026
-15.55145128 213.5664155 155.9999026
-36.25016128 87.07236139 111.3765776
-36.25016128 74.02382539 39.41974561
-36.91654228 198.2906754 -2.473674387
-36.25016128 118.2347104 23.49262661
-40.25016128 207.0982054 33.06342761
-40.25016128 40.91225739 106.7855236
-40.25016128 82.95235339 121.5047636
-34.46073028 48.83351239 0.7590276129
-31.45337928 -2.461323402e-05 29.93376961
-40.25016128 11.11844639 -0.8370293871
33.99016872 42.62327339 201.9999026
21.00148072 92.40542439 -9.738708331e-05
22.92036972 125.5303934 155.9999026
-11.27536128 190.9590034 155.9999026
-33.39774028 15.35072839 195.9999026
43.18780772 -2.461323402e-05 18.80127261
-36.25016128 48.73702439 68.11409261
1.249215725 98.32035139 151.9999026
-36.25016128 158.7453844 64.22023261
-2.962754275 162.6096204 151.9999026
-40.25016128 11.56819439 107.3310306
-34.68666228 140.1227214 155.5804216
-42.69613328 5.891710387 195.9999026
-40.25016128 89.64571339 131.7814016
35.41525772 107.4232184 155.9999026
-18.19158428 60.12279539 195.9999026
26.28732172 151.3018024 -9.738708331e-05
13.14088872 240.3670369 -9.738708331e-05
-40.25016128 80.06996439 86.63842661
3.754206725 -2.461323402e-05 137.6059526
-40.25016128 162.0400954 84.31259061
-36.25016128 130.8680244 21.14240061
14.00321172 205.4758034 151.9999026
-36.25016128 199.1502284 60.08022661
-40.25016128 246.3037174 5.352957613
17.45065072 14.20437039 201.9999026
-40.25016128 47.49472539 84.09170561
-40.25016128 142.4171934 89.60360961
-36.25016128 202.3442724 48.37741561
-40.25016128 29.80181039 70.68859561
-20.32799028 72.24631439 -9.738708331e-05
-40.25016128 200.8487284 100.4429836
-40.25016128 6.688226387 155.4270476
-11.38217628 103.5169604 151.9999026
31.70532372 239.048481 155.9999026
12.30303772 80.53851839 155.9999026
-40.25016128 48.92188339 39.02692761
-13.81853028 9.538699387 155.9999026
-11.17400728 50.81583039 -9.738708331e-05
-0.8577252751 -1.150571613 103.8702216
31.84108072 24.24659439 -9.738708331e-05
-40.25016128 39.13780139 182.9488606
-40.25016128 64.46943539 -2.460523387
-40.25016128 139.2104894 110.0156886
-0.3942532751 35.27920939 -9.738708331e-05
-36.25016128 46.41568939 97.39982661
-27.00818828 -2.461323402e-05 122.6674266
-36.25016128 175.0032484 79.66334061
-36.25016128 137.2562694 53.30786261
17.03556272 49.77704139 -9.738708331e-05
-43.30012228 124.1493194 49.27467561
2.950782725 28.46909539 195.9999026
-40.25016128 64.24496139 16.18903661
-40.25016128 10.43767039 143.6492736
-40.25016128 222.1634363 85.65888861
12.32880572 103.3560794 155.9999026
-41.35975328 181.7270414 87.13521661
-40.25016128 102.3240854 9.168206613
20.42174772 -2.461323402e-05 7.056337613
-40.25016128 239.6312253 54.82132161
-40.25016128 91.49745939 21.56984061
-40.25016128 59.33888939 96.51616261
-39.71017028 154.5062014 1.217221613
-38.12309828 -2.461323402e-05 11.67925661
21.65725672 181.4296304 155.9999026
-40.25016128 38.12200639 150.1187896
-3.387722275 16.94097239 -9.738708331e-05
-7.170223275 116.5312844 155.9999026
-36.25016128 182.0755224 48.88493261
-36.25016128 10.67213739 127.8917766
-14.01579528 160.7575244 -9.738708331e-05
-11.81589928 -2.461323402e-05 100.2326316
-40.25016128 119.8428304 113.4285846
-40.25016128 17.60303939 188.8246006
37.55030672 184.5151254 151.9999026
-4.662509275 -2.461323402e-05 10.13290761
-40.25016128 141.7551334 77.24055061
-12.70348328 67.99997539 199.5148876
-36.25016128 6.952481387 87.91680761
12.77557272 -2.461323402e-05 33.93261461
-36.25016128 171.3039534 33.84858261
-18.66076428 33.27651839 151.9999026
12.78717372 49.77698039 155.9999026
-32.31005128 82.07014239 151.9929376
-23.34092428 241.7568711 -9.738708331e-05
-27.76226128 -2.461323402e-05 93.50318761
-40.25016128 157.8700014 109.2129406
-40.25016128 49.03164639 9.449085613
31.91980172 23.79122139 195.9999026
-40.25016128 27.51856739 147.8745896
-36.25016128 140.2303104 119.1622596
-36.25016128 24.17038239 27.86800961
21.15810472 88.77939839 155.9999026
-40.23849428 103.2395304 148.1184916
27.01722672 -2.461323402e-05 76.24198061
10.58936872 -2.461323402e-05 5.778172613
-40.25016128 21.47929439 107.1672646
1.900468725 39.56802739 151.9999026
-25.11273028 229.2929759 155.9999026
-5.997049275 223.9634934 -9.738708331e-05
-14.93845028 212.5215521 -9.738708331e-05
-40.25016128 90.53831739 89.71068961
28.53629672 194.0503714 -9.738708331e-05
16.20587272 161.0521004 151.9999026
-40.25016128 88.83552739 141.7438136
-36.25016128 68.98286639 136.2971506
11.52388672 52.78249539 201.9999026
-25.72667528 92.18618939 -9.738708331e-05
19.81398672 238.4799862 155.9999026
-15.42799628 35.04089139 201.9999026
-33.86955628 -2.461323402e-05 137.1344166
-29.93808328 92.01220039 151.9999026
-29.88508228 17.07961039 -9.738708331e-05
-40.25016128 202.8524054 80.13039461
-11.10494428 42.07307139 151.9999026
-40.25016128 164.5050804 20.62574161
43.14458072 25.25726239 201.9999026
5.937680725 147.4456274 -9.738708331e-05
-40.25016128 194.8721484 7.812900613
-2.805596275 243.5291802 155.9999026
-40.25016128 53.97026039 76.03398061
33.23591472 12.40648239 201.9999026
-36.25016128 74.47186439 59.21598961
-2.208746275 148.7842504 155.9999026
-22.78993328 44.85194739 151.9999026
-36.25016128 105.8127994 41.96627261
-40.25016128 214.7056806 10.91151061
-40.25016128 237.8659164 125.4095386
29.27346872 -2.461323402e-05 30.91594861
25.14425872 13.19129839 151.9999026
37.74959472 209.8967914 -1.279129387
-36.25016128 9.337113387 59.15933361
-11.73447028 -2.461323402e-05 67.36205561
-40.25016128 177.9648704 134.5526066
-40.25016128 143.8543824 138.0676896
-40.25016128 113.5655064 135.6622956
-28.08395728 174.7447724 -9.738708331e-05
-40.25016128 52.74761639 120.7683576
-36.25016128 125.0291884 42.90240461
-36.25016128 13.77956339 18.43938761
30.80999372 242.5052328 -9.738708331e-05
-4.648921275 128.1365924 -9.738708331e-05
-29.22151428 157.1890744 -9.738708331e-05
1.727003725 176.0621984 151.9999026
21.35190372 67.99997539 197.9111006
-43.03618128 25.49997539 97.76974061
-13.02616628 -2.461323402e-05 125.5325106
-31.39812328 48.76561739 151.9999026
-40.25016128 55.07643439 138.1847516
-40.75016128 -0.2318806132 28.34063061
-41.12556628 -2.461323402e-05 49.20390561
-32.81031728 -2.461323402e-05 39.24376761
-36.15078128 219.0811979 148.5608906
-40.99049728 0.4999753868 177.0270126
-36.25016128 19.20652439 72.71218761
21.24615772 8.054504387 -9.738708331e-05
34.36968972 -2.461323402e-05 116.6105516
37.74959472 77.69018339 -1.221685387
-30.86342128 117.4082014 -9.738708331e-05
-15.80920328 -2.461323402e-05 158.6954236
-36.25016128 57.16389939 146.3948636
-36.25016128 49.12621139 112.1606346
-40.25016128 73.64414239 -0.7036053871
-36.25016128 126.3315604 129.5269906
-36.25016128 210.9242894 68.69425961
-18.50993228 126.5102234 151.9999026
-38.75478428 24.58772539 201.9999026
22.48939572 28.27441339 195.9999026
-30.12884928 23.76552239 151.9999026
29.08776772 54.41197539 -9.738708331e-05
-22.99335428 71.81969839 151.9999026
19.74285572 54.69898639 195.9999026
19.15866172 4.575751387 201.9999026
-40.25016128 24.83969139 170.5550326
-40.25016128 135.0272714 125.6796696
-42.85110828 119.7139634 6.316629613
-40.25016128 133.8836724 10.26225461
-40.25016128 43.36225939 31.53152361
-7.572658275 69.56242739 151.9999026
26.89680772 -2.461323402e-05 163.7847006
-14.40557628 180.8501974 151.9999026
-40.25016128 53.74370339 165.3833156
23.72293272 -2.461323402e-05 139.0480926
4.299348725 -2.461323402e-05 146.7671686
-29.78460828 223.4802763 -9.738708331e-05
11.90303872 234.9555917 151.9999026
-40.25016128 83.05640639 59.33185261
26.20970572 -2.461323402e-05 64.18729361
31.08895372 -0.6609726132 21.61612161
-0.3857762751 224.7804288 155.9999026
-40.25016128 250.4928009 43.36883861
16.14191172 -2.461323402e-05 49.78319461
25.97706272 166.7878554 155.9999026
24.58914572 120.6399784 -9.738708331e-05
31.08244372 -2.461323402e-05 1.579603613
6.524895725 -2.461323402e-05 26.72901361
-36.25016128 8.831242387 35.93083361
2.907864725 25.27546239 -9.738708331e-05
-40.25016128 231.755646 49.27831261
-15.21426328 196.6891754 -9.738708331e-05
18.46943472 36.45399139 195.9999026
-36.25016128 172.7608064 47.52666461
-40.25016128 243.9379255 34.30004961
42.20548872 -2.461323402e-05 54.53171161
-12.61994128 149.7172834 -9.738708331e-05
25.52673972 145.6290754 151.9999026
40.36845272 44.72853539 195.9999026
3.224318725 66.84781539 155.9999026
-40.25016128 102.6224584 65.29358361
-13.14601228 -2.461323402e-05 191.8448156
-3.389423275 182.0111164 -9.738708331e-05
-36.25016128 146.8098664 51.10242561
-38.46569528 122.5322344 -0.9992763871
-33.03108828 -2.461323402e-05 151.5786696
-40.25016128 149.3580024 18.13053361
-36.25016128 110.5589634 8.445286613
-40.25016128 156.2771854 41.34878661
-36.25016128 22.96806539 90.63447761
-15.87979628 -2.461323402e-05 147.3640696
-36.25016128 245.409517 135.6329666
-21.14471128 61.00038039 151.9999026
-40.25016128 175.8144564 118.5389736
-36.25016128 101.3464894 29.76024361
-36.54355228 217.5835932 30.65621661
20.95561672 44.74626539 155.9999026
-40.25016128 54.64082539 45.86408261
-37.22945528 34.03786439 -2.212547387
4.497821725 58.24975539 201.9999026
29.75316072 251.7792577 -9.738708331e-05
-36.25016128 75.02710139 121.4497196
-40.25016128 175.6585924 97.36200061
-36.25016128 85.43541239 42.87299061
-17.87615528 149.9387204 151.9999026
-37.92147628 175.0691764 -1.642448387
-36.25016128 35.74655539 85.19615161
-40.25016128 31.69948439 40.53596961
2.822061725 18.91530639 201.9999026
29.17201672 -2.461323402e-05 43.90425661
36.66082972 87.85052239 155.9999026
35.83176072 101.4807964 -9.738708331e-05
-36.00651128 179.9120244 149.2749766
25.34740772 235.583863 -9.738708331e-05
-37.68871328 152.4071794 153.8460996
-18.42617728 3.841996387 201.9999026
-33.68017328 57.58951539 0.2821466129
18.59202372 18.45671039 155.9999026
-34.16832328 130.4268544 155.7598596
-36.25016128 212.336522 124.1934996
34.54218572 -2.461323402e-05 177.6337716
-40.25016128 72.91173239 149.3271086
-40.25016128 112.4093264 80.45196261
-11.18788628 -2.461323402e-05 39.20018861
-36.25016128 23.88503339 127.9438526
-19.77358728 106.8819674 155.9999026
-0.06669027512 3.405743387 195.9999026
-11.42094628 121.0550954 -9.738708331e-05
-29.92297128 148.4761604 -9.738708331e-05
-36.25016128 149.7002134 103.6324896
-40.25016128 58.50800439 156.9954426
-36.25016128 183.5716714 118.4298016
-40.25016128 240.367786 92.78762161
7.916965725 45.53418739 -9.738708331e-05
28.57599672 43.55256939 151.9999026
14.67060672 -2.461323402e-05 93.63120861
13.08206972 -2.461323402e-05 150.9963656
-40.25016128 77.77124339 76.68359961
7.126935725 29.47891939 151.9999026
-25.91092328 114.5153844 155.9999026
-40.25016128 43.17106339 54.91079161
-40.25016128 117.2754624 39.01584761
-36.25016128 16.73274139 114.1868076
33.62147172 5.535392387 195.9999026
-36.25016128 209.4892184 83.89274961
21.35994672 -2.461323402e-05 172.5589096
-34.03879128 63.71323939 151.5596166
37.29256172 17.08851239 195.9999026
-33.53385328 36.51461039 195.9999026
-40.25016128 250.83131 90.59824161
-36.25016128 153.5110594 74.61575661
27.23125072 66.86099039 -9.738708331e-05
-13.39135728 27.85258039 155.9999026
-40.25016128 45.18666239 162.5538526
-41.82319328 -2.461323402e-05 121.2385856
-40.25016128 190.6700144 83.73335961
-36.25016128 114.9418864 107.7366556
-40.25016128 215.7210303 139.5709706
-32.23525628 216.2470042 155.9999026
34.81445772 202.6390424 155.9999026
-36.25016128 182.4168894 68.80948961
-7.631863275 13.77712039 151.9999026
17.92403372 133.0874644 155.9999026
-36.25016128 225.6578429 5.337172613
22.77921972 177.6642824 -9.738708331e-05
-12.70666828 184.0224964 -9.738708331e-05
-36.25016128 100.7678624 95.29230761
-40.25016128 15.68114039 88.92412961
-31.04523828 193.3404594 155.9999026
15.12908772 19.67952439 195.9999026
39.56329972 -2.461323402e-05 91.86940561
-40.25016128 28.11953639 136.7556336
-42.09411728 -2.461323402e-05 85.46020561
32.22339372 179.4171054 -9.738708331e-05
5.558902725 8.229718387 155.9999026
0.6245087249 192.3588214 -9.738708331e-05
3.183859725 122.3430244 151.9999026
-36.25016128 232.5137427 95.60657361
-36.25016128 187.6495384 131.7781266
-40.25016128 68.36521139 47.66234961
-40.25016128 25.25853039 182.6307776
-36.25016128 216.2896711 90.34724761
-36.25016128 239.0507336 4.370919613
29.66026472 128.3681744 151.9999026
-40.25016128 31.82807839 20.60086361
-40.25016128 32.15556339 119.3593326
-36.25016128 197.0502294 141.7738956
-40.25016128 246.4232791 21.15280161
-40.25016128 40.37301739 66.98141261
-40.25016128 77.36726139 31.28889561
-2.601985275 195.3893404 155.9999026
-36.25016128 154.4076174 23.37819261
34.28221672 51.61377339 201.9999026
-36.25016128 142.9268444 59.56012561
18.27636572 -2.461323402e-05 80.69336061
-36.25016128 126.3308724 65.15335561
-35.25474928 201.6196734 150.5710126
22.16532072 243.218704 -9.738708331e-05
21.60532472 222.9119553 -9.738708331e-05
32.11769872 37.26988839 195.9999026
-21.49306128 169.0867224 151.9999026
-19.68179128 -2.461323402e-05 95.16909861
-36.25016128 65.30478839 87.53257261
-36.25016128 160.3091054 115.9991386
-36.25016128 102.0149444 86.92272161
-20.39413928 33.10510539 -9.738708331e-05
32.41821372 216.2997094 155.9999026
-40.25016128 95.81788239 107.6612716
-40.25016128 197.4187744 127.4364226
22.73762672 46.24261039 201.9999026
-40.25016128 96.91872839 126.5044066
7.252978725 15.37410339 151.9999026
-36.25016128 215.1669668 53.90265161
-40.25016128 66.91353739 33.77586861
-33.47679528 -2.461323402e-05 103.3527526
27.12942372 92.73541239 151.9999026
3.866026725 -2.461323402e-05 181.3979316
-40.25016128 67.07543439 156.0644306
-4.522267275 67.99997539 198.4501916
-20.28708828 234.5639058 151.9999026
-40.25016128 186.7759064 10.06025661
23.41456172 193.7237134 155.9999026
32.12093572 57.40640639 155.9999026
11.85390572 124.8986794 -9.738708331e-05
5.512361725 82.68444939 151.9999026
-5.719518275 -2.461323402e-05 83.55952561
-36.25016128 121.1813284 78.77571861
-41.30962828 10.88727339 184.3074366
-36.25016128 98.37417139 55.66091261
-40.25016128 152.8459964 143.2985416
-40.25016128 126.1314484 87.45150261
-40.19631428 249.9450242 148.5472086
42.08824772 39.48799939 201.9999026
2.795539725 158.5434384 155.9999026
-40.25016128 92.53254039 73.94279361
-36.25016128 16.97179239 56.45547761
-40.25016128 10.65952239 172.4389086
-36.25016128 158.8419494 131.3939586
-36.25016128 166.2254404 109.6186796
-43.02823928 104.4522804 132.5079206
-36.25016128 80.01664039 8.117898613
-36.25016128 37.54341139 35.43410161
-35.26517728 2.750893387 195.9999026
-43.48419328 0.4999753868 139.1399316
-36.25016128 10.42374839 44.03079661
-40.25016128 18.46066639 143.1911836
-4.211734275 132.6563854 155.9999026
17.73405672 62.78839039 151.9999026
9.052499725 74.30658039 -9.738708331e-05
-36.25016128 186.8990404 108.3611946
26.58746572 59.63783339 195.9999026
22.70577372 25.31525839 155.9999026
-36.92123728 208.7394504 -2.470036387
-36.25016128 162.7047284 49.13973461
-17.22809228 157.9859934 155.9999026
-40.25016128 50.30784439 193.6768586
-19.76967228 -2.461323402e-05 68.80474561
-33.16480028 44.48945339 201.9999026
9.813472725 -2.461323402e-05 59.74047661
-40.25016128 211.4792604 116.7568336
19.74305972 209.2765394 155.9999026
-36.25016128 170.7089524 23.60464261
-40.25016128 110.4765344 95.66552961
5.267626725 -2.461323402e-05 128.7433166
-40.22393628 138.4513954 3.751372613
-31.76797628 242.2695801 151.9999026
-36.25016128 56.74310039 37.58082561
-6.707139275 15.15238239 195.9999026
27.89291772 30.57819439 151.9999026
0.3541907249 65.74208639 -9.738708331e-05
-24.72242528 -2.461323402e-05 11.78209461
-35.33373828 251.2196425 1.533519613
-20.90105928 -2.461323402e-05 188.3704946
-40.25016128 121.2402124 59.72445861
-36.25016128 168.3042084 118.5303746
-1.874527275 -2.461323402e-05 42.28587361
-36.25016128 113.2027834 54.65496661
7.181928725 227.3747436 151.9999026
26.76218772 7.902173387 201.9999026
-40.25016128 205.4984024 90.50309661
-36.25016128 211.7105534 145.7866176
-36.25016128 173.3330074 58.82266861
-40.25016128 17.25757839 124.4204036
-30.69705428 -2.461323402e-05 173.8606446
-36.25016128 246.6961108 108.1165396
-6.322571275 -2.461323402e-05 173.5843886
21.04597072 224.886687 151.9999026
13.45250972 6.589310387 195.9999026
-5.846149275 172.3531334 151.9999026
-36.25016128 219.4884653 22.73254861
-40.25016128 132.2230004 30.76009061
-36.25016128 194.6251534 67.15469661
15.28251172 207.1507264 -9.738708331e-05
-36.25016128 232.0388111 14.40531661
-40.25016128 18.07117939 45.18202761
-38.04370628 186.7883054 153.4918926
-12.69653728 129.8769224 155.9999026
-38.33836228 104.3622134 -1.151893387
17.90941372 156.9974744 -9.738708331e-05
-16.02104428 141.8223084 151.9999026
-36.25016128 35.26626639 50.66672461
-1.183364275 206.2046174 151.9999026
-40.25016128 42.33733739 190.0616916
-2.676726275 43.28099539 195.9999026
-13.00651628 -2.461323402e-05 133.3265856
-40.25016128 228.5291164 24.52009361
-14.84902128 -2.461323402e-05 14.07826861
37.70895972 234.0953603 155.9999026
-36.25016128 167.2375244 79.97132261
-39.54750028 227.9284693 151.2466526
-40.25016128 151.0985334 95.98720461
-36.25016128 38.30663639 23.25465261
-40.25016128 75.63955339 100.5774026
37.43266772 -2.461323402e-05 13.00822661
-40.25016128 172.1312184 146.2112816
6.792189725 21.73896139 195.9999026
-36.25016128 98.19922939 22.70378961
-17.18417028 86.62051739 155.9999026
-40.25016128 26.34824939 34.10585961
32.14008472 -2.461323402e-05 124.0034546
-24.03553628 140.2163574 151.9999026
-40.25016128 78.90471439 65.82982561
-42.86367028 139.6928924 50.17988061
37.70746472 55.02407139 -9.738708331e-05
-42.78687928 0.4999753868 17.78373961
-36.25016128 66.10797939 75.32183761
-22.91458228 106.4192624 -9.738708331e-05
-12.26765028 0.4999753868 -0.9458993871
-36.25016128 8.786942387 101.4131286
-36.25016128 42.41858139 127.2257246
-36.25016128 198.3508234 120.6791656
-36.25016128 206.2048724 39.60148861
-25.24004628 196.7534594 -9.738708331e-05
3.125180725 246.2260984 151.9999026
-21.99194128 -2.461323402e-05 46.00667661
-13.43306928 141.7762764 -9.738708331e-05
-40.25016128 179.8190684 58.24815961
35.79214072 25.12005239 155.4256376
33.56243372 143.0601424 151.9999026
-40.25016128 137.8221384 146.1537406
-36.25016128 116.4361314 31.69127961
-40.25016128 202.2001364 110.3590756
5.178523725 49.80084839 155.9999026
9.083934725 -2.461323402e-05 109.7916386
-32.19649728 139.7182944 -9.738708331e-05
-36.25016128 64.87738139 4.849061613
-36.25016128 96.54045139 67.45311261
-10.84727428 -2.461323402e-05 29.44961361
-31.18085328 -2.461323402e-05 163.7280066
-21.76741328 -2.461323402e-05 112.7917876
-18.73840728 222.3401051 155.9999026
-5.423967275 185.4573954 151.9999026
-40.25016128 104.0113914 140.5866486
14.53992572 191.2599794 -9.738708331e-05
17.24916372 46.72022339 195.9999026
13.93682972 185.8161124 151.9999026
37.53503172 -2.461323402e-05 188.7653666
-36.25016128 141.2503754 129.3884566
-40.25016128 223.6409776 43.50276761
19.65499972 -2.461323402e-05 147.3179736
-40.25016128 234.5182435 143.8576546
37.38266672 130.8385324 151.9999026
36.89980172 -2.461323402e-05 49.21855261
-36.25016128 184.2511474 18.02300261
-9.604189275 190.8539474 -9.738708331e-05
-37.11463128 55.41431339 201.9999026
-36.25016128 67.49188139 115.5324546
-8.801421275 54.75169839 155.9999026
-21.10626428 56.71343739 201.9999026
15.49859172 217.7727579 151.9999026
-40.25016128 20.93046439 83.11282961
-40.25016128 14.07045439 158.2112946
33.53054172 132.3579634 -9.738708331e-05
-36.25016128 174.2592834 72.23306661
22.74783472 98.07130939 155.9999026
-36.25016128 162.0056014 13.52044061
-40.25016128 35.10483539 102.1268136
-33.63111228 180.8434954 0.2649666129
-38.32476828 108.3706274 153.1485106
-43.36635828 -2.461323402e-05 154.5197976
-9.510920275 246.2889717 151.9999026
37.27716572 176.9511904 155.9999026
-40.25016128 33.30231139 77.23610661
-36.25016128 25.29017839 114.0542916
22.74574272 37.26859539 201.9999026
-22.59557928 132.6375954 -9.738708331e-05
-35.75016128 -2.350266613 117.1188446
-10.93648128 239.4426129 -9.738708331e-05
5.374272725 106.0842034 -9.738708331e-05
1.841728725 57.14000039 155.9999026
-3.359424275 154.8794024 151.9999026
27.20630672 43.08958839 195.9999026
24.40837572 111.2433184 151.9999026
24.51227572 53.38651739 201.9999026
-40.25016128 162.7908824 35.85535961
-36.25016128 125.3333584 110.0145346
-40.25016128 147.0327474 119.7837656
-2.867392275 120.6033764 -9.738708331e-05
22.12283172 34.24489939 -9.738708331e-05
20.27271072 201.7158854 155.9999026
11.52737472 92.14877039 -9.738708331e-05
-36.25016128 88.35958939 56.23420561
33.59343872 -2.461323402e-05 132.4636596
-13.37232128 -2.461323402e-05 107.3851106
-40.25016128 57.77776939 171.4852366
-22.16731328 245.7182931 151.9999026
-40.25016128 24.19479939 163.2712256
20.98601872 -2.461323402e-05 120.6229126
-13.30420528 223.9336423 -9.738708331e-05
-36.25016128 210.0756474 102.8451366
30.61245572 157.3649324 155.9999026
11.28881972 140.7761484 155.9999026
-40.25016128 165.1913684 132.4897076
-23.92332028 25.59198839 195.9999026
-40.25016128 138.1236684 83.64914061
32.82505072 -2.461323402e-05 89.10480461
37.74959472 240.9584599 -1.553651387
-36.25016128 9.045061387 76.34834261
-40.25016128 44.83648339 45.04490361
-36.25016128 228.3131341 101.7200616
39.06409472 -2.461323402e-05 61.09112961
-40.25016128 63.40388439 133.5320976
-2.893970275 9.695339387 -9.738708331e-05
-36.25016128 140.7162264 95.45086161
26.61756872 -2.461323402e-05 52.98141261
-5.137196275 43.09638139 155.9999026
7.963714725 -2.461323402e-05 191.8675326
-36.25016128 23.46059339 8.870659613
-36.25016128 98.49806239 80.57989861
5.678603725 239.2404232 155.9999026
-36.25016128 24.50501139 100.0830586
-28.71981728 -0.3568376132 201.9999026
-3.180684275 102.4131194 155.9999026
1.546130725 -2.461323402e-05 163.8268566
-36.25016128 113.6594744 122.0249346
30.60096172 81.53511239 155.9999026
-40.25016128 128.0031564 123.3006946
-40.25016128 83.71319139 106.4199536
-36.25016128 223.112041 73.70220461
-40.25016128 164.1000634 60.14251261
-40.25016128 100.7566894 112.8924406
-18.12591928 185.5306974 155.9999026
-40.25016128 236.8170247 64.61991261
-36.25016128 173.9783304 138.9992226
-33.64640828 39.74069539 0.2764996129
6.972176725 38.36155939 201.9999026
-39.92740328 231.8218392 1.833203613
1.892718725 21.87943139 155.9999026
6.453710725 8.628498387 201.9999026
30.83327072 67.99997539 196.1030666
-40.25016128 243.4114311 42.23855961
17.71396172 86.03456939 -9.738708331e-05
-35.01244528 233.6715657 155.4689676
-12.35464328 175.2431024 155.9999026
-40.25016128 229.9246133 39.91150261
-36.25016128 40.22322039 144.3052176
-4.311778275 232.9635924 151.9999026
-26.27711228 216.192714 151.9999026
-11.62155028 122.1266844 155.9999026
21.55621672 19.80343039 -9.738708331e-05
-20.18636028 50.54457739 195.9999026
-10.00799428 211.5150914 151.9999026
10.56002372 63.85371439 201.9999026
-40.25016128 55.56865039 111.9806666
-40.25016128 242.4954972 27.15875861
-36.25016128 6.110836387 49.90460961
30.07101972 221.7090378 151.9999026
10.46417272 192.9922404 155.9999026
-38.87821328 5.715779387 201.9999026
28.74243172 71.56582339 151.9999026
-36.25016128 30.06813439 90.24917961
-40.25016128 6.363951387 4.853432613
-36.25016128 29.02660139 59.21925561
43.16375172 -2.461323402e-05 153.2610086
-36.25016128 160.4588284 142.0389986
-40.25016128 81.14559639 -1.888526387
-36.25016128 198.4907484 24.44436061
-36.25016128 244.8064527 127.8768506
-36.25016128 241.6513426 49.32658661
-25.42519028 105.3634674 151.9999026
7.802934725 155.5290434 151.9999026
-36.25016128 72.18324039 15.52770161
-11.70058628 72.74087039 -9.738708331e-05
-31.47804228 -2.461323402e-05 14.11016761
-36.25016128 36.46298039 71.30923061
9.190725725 96.95325139 155.9999026
-40.25016128 45.15592739 90.75808961
-40.25016128 163.9982174 122.4443376
37.74959472 222.4840255 -1.702768387
-20.09479928 39.69945739 155.9999026
-40.25016128 73.14664739 131.6743166
-20.88584828 65.21425839 -9.738708331e-05
-40.25016128 202.5871054 139.5561906
-36.25016128 162.0310784 92.58119261
-40.25016128 56.34557339 184.9198906
-6.750935275 38.92190239 201.9999026
-40.25016128 87.95628039 5.624939613
-9.669146275 57.60429339 195.9999026
-36.25016128 130.4611634 38.27354361
-36.25016128 115.1427934 64.34525661
-36.25016128 119.0693644 142.7088036
-15.87754628 207.1501404 151.9999026
-16.38548728 240.4432937 155.9999026
37.15404372 4.691587387 201.9999026
-36.25016128 172.9514544 107.6783166
-36.25016128 191.0783894 39.85188561
7.556512725 208.1569584 151.9999026
-23.85009228 26.80241439 151.9999026
-17.65219128 76.29906139 151.9999026
-4.127605275 -2.461323402e-05 26.25586961
-35.58141028 95.60821139 150.0784616
13.78376372 -2.461323402e-05 159.4597966
5.231527725 -2.461323402e-05 12.13224461
31.47421572 -2.461323402e-05 158.5588336
-4.506092275 163.5208824 -9.738708331e-05
-40.25016128 213.4039536 25.60869461
0.7525397249 25.53136339 201.9999026
8.591893725 -2.461323402e-05 -0.8540073871
0.7251677249 82.22201639 -9.738708331e-05
-40.25016128 116.6930084 18.06574961
-36.25016128 57.96390139 122.9113676
15.25621772 109.1540804 -9.738708331e-05
-36.25016128 50.08324539 30.60592061
20.09365272 7.794898387 151.9999026
-36.25016128 108.7522904 132.7521626
-0.7055392751 -2.461323402e-05 15.78104261
-40.25016128 126.3852484 26.61140261
-36.25016128 211.0571184 132.1579416
-36.25016128 145.1775324 81.68384261
1.218996725 -2.461323402e-05 71.79281661
-40.25016128 141.4193504 39.80952061
-36.25016128 103.9617544 59.85704061
5.041553725 -2.461323402e-05 97.91240461
-36.25016128 224.24245 56.84115961
-36.25016128 16.23868739 24.85945261
-20.73863828 80.13360639 -9.738708331e-05
-29.24909228 130.9482674 -9.738708331e-05
-31.73988428 18.22756239 201.9999026
-21.38466928 18.73954539 195.9999026
-14.63076428 -2.461323402e-05 175.1070706
-40.25016128 207.9614424 45.03444661
-40.25016128 172.7972644 4.373391613
-36.25016128 180.3991034 101.5554816
-40.25016128 212.0902917 62.35066961
37.74959472 241.3060237 153.7530056
-40.25016128 148.6916624 71.89007661
6.854987725 104.1642834 151.9999026
-40.25016128 123.8543664 98.66989861
0.6450227249 214.9611113 151.9999026
19.13626272 -2.461323402e-05 31.46740061
-40.25016128 40.22844839 169.4496326
-40.25016128 189.0734854 92.02992161
-10.36265128 59.27171239 -9.738708331e-05
-28.75187228 25.39575239 201.9999026
38.26919772 20.51487539 201.9999026
-40.25016128 81.39833039 138.1388596
-36.25016128 42.33644039 112.2858096
-7.541703275 19.25800039 155.9999026
31.48842072 245.4623468 151.9999026
-24.23700128 149.0556714 155.9999026
-36.25016128 79.56043539 92.08316561
-40.25016128 24.54250039 55.36019861
-40.25016128 82.73730039 14.82741561
-12.09647528 135.3054644 151.9999026
-40.25016128 24.65357439 77.46262761
-12.90142728 -2.461323402e-05 198.6056096
-10.62118728 22.27103239 195.9999026
28.04450772 213.0639219 -9.738708331e-05
-36.25016128 32.56426139 145.8200016
-36.25016128 105.5787204 70.77100661
-36.25016128 187.6717984 146.7747516
-40.25016128 218.0876602 36.51908561
-40.25016128 88.51869539 99.73740161
-36.25016128 59.31173339 78.73123461
-40.25016128 173.4865914 125.7257666
-17.97029928 33.37085639 195.9999026
-36.25016128 86.78061239 11.24487561
37.74959472 145.8224234 -2.309718387
-14.40801128 171.4430624 -9.738708331e-05
29.79806172 57.64870439 201.9999026
-40.25016128 41.55385239 39.03549661
-42.65704328 29.78354939 195.9999026
-40.25016128 57.96018639 56.79794861
-36.25016128 239.7601624 145.1044906
-36.25016128 43.64844439 9.275222613
-40.25016128 109.6873204 106.5549586
-36.25016128 192.8947964 114.8940646
-40.25016128 155.2668544 59.69703561
-40.25016128 9.696148387 22.82654361
-0.09537227512 114.5798754 155.9999026
-29.23417228 -2.461323402e-05 185.6620256
-23.15406328 202.7258384 151.9999026
-40.25016128 226.9864052 92.39257761
-35.43082128 177.1131484 155.3213356
-9.290718275 12.01096639 201.9999026
1.904736725 -2.461323402e-05 90.22250461
-35.04116728 59.81605039 195.9999026
-36.25016128 204.8087784 116.0170106
43.34919672 -2.461323402e-05 38.11523561
-40.25016128 100.6518484 16.75680361
-20.97957528 -2.461323402e-05 1.267599613
-40.25016128 18.42495639 -2.096351387
25.75092172 131.9904964 155.9999026
-40.25016128 226.1381465 121.7378786
-4.471034275 135.7589154 -9.738708331e-05
-22.78892628 209.8375094 -9.738708331e-05
36.80249672 -2.461323402e-05 146.6401106
6.458890725 89.91481839 151.9999026
-40.25016128 207.1251344 127.5995206
-36.25016128 131.9726794 109.7847786
9.012876725 16.51635339 201.9999026
14.14352572 21.13916339 -9.738708331e-05
-36.25016128 3.582075387 67.97806261
-11.78399728 43.24213839 201.9999026
-40.25016128 51.01429039 178.6374496
-27.87591828 48.91794939 -9.738708331e-05
-36.25016128 41.15902639 61.76490161
-36.25016128 222.5913552 11.20437661
-31.64403228 17.33171439 152.2222186
30.12512072 -2.461323402e-05 150.3227006
-32.20833728 32.87914639 201.9999026
-27.69492328 50.02108839 201.9999026
-40.25016128 20.19458239 19.93759461
-36.25016128 8.758611387 28.00093461
-40.25016128 45.35990239 15.85932961
-40.25016128 196.2501174 80.06953861
-7.335362275 38.53924639 -9.738708331e-05
-40.25016128 50.10514639 127.8318256
-0.8147002751 29.35571539 151.9999026
24.92851572 175.4636424 151.9999026
-39.40293928 0.4999753868 34.74712461
-40.25016128 246.8623624 81.58397461
-11.92295028 108.7206374 155.9999026
2.286661725 52.04095039 201.9999026
-36.25016128 186.6481604 53.61611961
-36.25016128 6.991545387 122.4288876
18.39616672 164.1189444 -9.738708331e-05
-36.25016128 12.50833939 93.05045461
-40.25016128 119.9678544 106.3830196
-40.25016128 50.49358339 147.4821546
-36.25016128 219.5491949 46.71299261
28.21459772 181.6192334 155.9999026
-36.68477728 -2.461323402e-05 56.74985561
-36.25016128 16.95291739 33.50081961
-40.25016128 171.2743504 84.98251661
29.37537172 101.1969314 155.9999026
-40.25016128 93.31962739 53.07690461
32.65150172 55.52413939 195.9999026
-36.25016128 55.04897739 93.60265561
