# .PCD v0.7 - Point Cloud Data file format
VERSION 0.7
FIELDS x y z
SIZE 4 4 4
TYPE F F F
COUNT 1 1 1
WIDTH 1214
HEIGHT 1
VIEWPOINT 0 0 0 1 0 0 0
POINTS 1214
DATA ascii
0.0002636413428 23.84129239 118.0678966
144.2667466 -2.461304075e-05 -125.5250094
172.9418016 -2.461304075e-05 145.0818676
0.0002636413428 88.34351439 138.1740936
250.9385456 42.04609939 -139.2500974
59.99547264 54.47436039 -145.2500974
208.2004356 17.73916439 -145.2500974
230.4236346 -2.461304075e-05 -32.39662039
-0.8387103587 -2.461304075e-05 -47.25269839
130.3635376 49.57977339 148.7499026
197.9803696 -2.461304075e-05 32.27856661
204.3768366 20.30597939 148.7499026
68.45241264 18.03051639 -145.2500974
3.870643641 -2.461304075e-05 147.6342116
161.6553086 44.27946439 -139.2500974
0.006017641344 43.50859339 -139.2500974
16.43956264 -2.461304075e-05 -95.26498539
140.9824706 -2.461304075e-05 115.6973976
22.79248164 18.88788339 148.7499026
46.02833264 -2.461304075e-05 79.62888761
22.01869664 2.721214387 -145.2500974
25.09014764 -2.461304075e-05 -20.76682239
23.66338964 65.53828739 148.7499026
50.14490364 38.98408739 148.7499026
111.7777816 -2.461304075e-05 -23.87491339
161.9042826 62.19579239 148.7499026
200.6845296 38.32086139 -145.2500974
67.81377864 -2.461304075e-05 -133.2281314
203.8808436 -2.461304075e-05 4.805851614
227.5942596 57.54637139 148.7499026
111.3684086 12.19282739 -139.2500974
-0.06346035866 107.9592544 106.4867476
0.0002636413428 6.617295387 94.16562761
128.2766956 -2.461304075e-05 20.47549161
204.2663736 -2.461304075e-05 114.4444816
5.780077641 110.6007424 148.7499026
0.0002636413428 12.88415839 -91.57744439
0.0002636413428 17.20151339 -35.01164839
126.6504886 -2.461304075e-05 134.9867926
163.5888946 -2.461304075e-05 -47.07520239
30.84572564 24.93257339 -145.2500974
165.3817596 -2.461304075e-05 26.33875561
142.0374436 59.93033839 -139.2500974
0.0002636413428 41.56936139 142.3271536
0.0002636413428 55.37161939 -95.94535939
180.7131656 -2.461304075e-05 -10.19703339
84.41415364 -2.461304075e-05 85.39737861
52.45741864 -2.461304075e-05 -56.28531639
232.6473886 -2.461304075e-05 4.710016614
141.3544916 -2.461304075e-05 -14.00689539
0.0002636413428 81.14746139 95.49932861
75.43343064 26.36802539 148.7499026
0.0002636413428 26.67312739 69.55068761
195.2150136 38.70612339 148.7499026
40.91199964 -2.223519613 148.7499026
88.92039064 -2.461304075e-05 62.57953561
75.15955564 -2.461304075e-05 -89.13843939
0.0002636413428 21.67130239 43.82790861
0.0002636413428 60.45923739 42.09716461
134.6325286 -2.461304075e-05 49.59014361
64.52921864 111.8448974 148.7499026
-0.2054873587 93.76416639 66.13143861
229.4073896 -2.461304075e-05 45.05547561
18.17760764 -2.461304075e-05 114.7904646
44.36153364 -2.461304075e-05 -34.41152239
119.2838676 -2.461304075e-05 74.78021861
191.5620606 -2.461304075e-05 132.0997356
69.22903964 66.20436039 148.7499026
0.0002636413428 66.71900839 113.5490206
117.9597156 -2.461304075e-05 36.78871461
163.3933566 -2.461304075e-05 126.2490486
53.54761164 -2.461304075e-05 58.84880261
107.1203536 -2.461304075e-05 -80.87812639
35.99566464 83.32923939 148.7499026
158.2185956 13.12639639 148.7499026
20.08432764 65.94381639 -139.2500974
86.29483164 -2.461304075e-05 -122.4847974
78.61104864 49.72511639 -145.2500974
0.0002636413428 43.12366839 78.80070261
233.2301136 21.16298539 -139.2500974
0.0002636413428 -2.242581613 -77.95777439
0.0002636413428 75.70367139 77.05513161
125.2428326 23.88254739 -145.2500974
59.92920664 -2.461304075e-05 146.1989486
48.33980264 -2.461304075e-05 -116.8013754
55.33968264 -2.461304075e-05 1.986852614
15.61446064 -2.461304075e-05 49.55762761
209.9618336 -2.461304075e-05 -121.0525304
90.27797664 -2.461304075e-05 8.359989614
201.6671896 -2.461304075e-05 -57.61528939
0.0002636413428 44.86617139 -14.42424639
127.3803176 50.90568139 -145.2500974
11.70549164 -2.461304075e-05 -120.8316724
35.26691164 -2.461304075e-05 121.4509506
183.1896876 8.447638387 -145.2500974
88.48292464 39.14846739 148.7499026
180.1514286 -2.461304075e-05 -30.41789239
229.3369486 -2.461304075e-05 -98.61463539
201.4498646 -2.461304075e-05 75.82288761
248.9967186 2.266231387 -145.2500974
126.6613536 -2.461304075e-05 -106.0627454
53.65355264 85.75486839 148.7499026
78.54359364 -2.461304075e-05 130.9321466
92.98450764 88.00918839 148.7499026
0.0002636413428 54.21461939 -42.17928939
-2.008232359 11.74281239 134.3573466
105.1794846 -2.461304075e-05 128.4265876
0.0002636413428 35.00604239 14.84099261
178.5936786 -2.461304075e-05 -98.22870539
0.0002636413428 48.54840539 -75.87893339
17.67034864 -2.461304075e-05 1.812026614
244.5788836 48.32495539 148.7499026
86.71973764 12.40678839 -145.2500974
112.7628466 18.46015939 148.7499026
139.2622346 11.28383439 148.7499026
12.09414664 -2.461304075e-05 -35.89180039
0.0002636413428 57.49505239 69.32961661
182.4448296 67.99997539 -141.9340864
128.8485686 -2.461304075e-05 -25.86593139
239.3480486 -2.461304075e-05 117.4884286
46.41453964 121.8200974 148.7499026
0.0002636413428 50.47724739 101.4103996
164.2771016 28.50732039 -145.2500974
0.0002636413428 0.495087387 21.03121861
84.28005864 -2.461304075e-05 -51.12993239
0.0002636413428 9.947381387 77.32101561
65.31602564 38.45110439 -145.2500974
74.91635264 -2.461304075e-05 -24.60336239
36.44422764 -2.461304075e-05 -61.53509939
0.0002636413428 40.16531939 -104.9522224
51.61839564 17.86218339 -145.2500974
167.6595406 42.49553339 148.7499026
209.4422066 52.09039039 148.7499026
210.6300236 -2.461304075e-05 -34.65942839
120.1693926 85.83150339 153.4882216
106.2628126 -2.461304075e-05 -8.052054386
0.0002636413428 58.67548339 132.3928396
0.0002636413428 83.36784339 42.81294061
62.53523964 -2.461304075e-05 85.31685061
153.9721126 -2.461304075e-05 81.55658961
245.6325536 -2.255997613 148.7499026
135.7763556 -2.461304075e-05 75.98227461
139.7290986 -2.461304075e-05 -53.25532239
0.0002636413428 34.35118139 33.26101961
215.5528976 -2.461304075e-05 -66.52441739
117.9816436 -2.461304075e-05 99.53093561
223.6979636 -2.461304075e-05 -9.065933386
126.1680816 -2.461304075e-05 -71.40838839
38.38866664 -2.461304075e-05 -102.1083374
193.0084006 -2.461304075e-05 -123.4370494
0.0002636413428 76.06870339 126.9096386
248.7690906 -2.461304075e-05 71.06810261
14.21527864 -2.461304075e-05 98.48203161
224.7820386 19.74127839 148.7499026
0.0002636413428 9.875903387 -8.839610386
57.99704064 -2.461304075e-05 -97.51407839
250.1631736 -2.461304075e-05 4.816528614
18.30278564 -1.750569613 65.93976161
93.91909264 -2.461304075e-05 145.0482856
76.35112964 -2.461304075e-05 48.40182761
28.80621264 -2.461304075e-05 37.92882061
42.33214664 48.93056739 -139.2500974
214.0897796 -2.461304075e-05 137.6978276
164.8944176 -2.461304075e-05 65.43580361
207.3618956 52.80622939 -145.2500974
116.2957666 -2.461304075e-05 -40.61966339
41.10504164 -2.461304075e-05 -15.28579739
184.1547936 -2.461304075e-05 94.02179161
10.52292464 31.72282739 148.7499026
110.6117476 -2.461304075e-05 -97.71775039
70.12984164 -2.461304075e-05 -3.012044386
8.024894641 -2.461304075e-05 132.0915926
214.2532876 -2.461304075e-05 -136.5343004
0.0002636413428 47.56198239 3.649319614
247.3804276 -2.461304075e-05 -26.34709739
155.2331496 -2.461304075e-05 -6.013749386
128.7961566 -2.461304075e-05 -125.5895924
13.12962464 53.87614539 148.7499026
16.59987364 82.68888039 154.3622996
171.3168586 -2.461304075e-05 4.330881614
0.0002636413428 27.47914339 -19.76804039
0.0002636413428 14.08239039 57.18312661
0.0002636413428 28.66647639 134.0240676
191.0198026 -2.461304075e-05 64.59906461
14.36997164 -2.461304075e-05 -51.27988339
0.0002636413428 68.31682239 15.69059861
59.17485864 -2.461304075e-05 21.62110361
35.20680964 27.72770839 148.7499026
31.89614464 -2.461304075e-05 72.75070361
185.3354786 8.012632387 148.7499026
38.89435264 12.18931439 -139.2500974
146.1580426 1.369130387 -145.2500974
26.18717664 -2.461304075e-05 -83.66075039
0.0002636413428 14.11545339 -130.2144984
0.0002636413428 23.26146539 -103.4831144
215.9568896 -2.461304075e-05 85.95632761
214.9834656 -2.461304075e-05 40.51599361
92.46351264 53.70194239 148.7499026
102.5205816 22.80264839 -145.2500974
55.91477864 -2.461304075e-05 108.0941726
91.41529064 103.6333534 148.7499026
86.63738864 -2.461304075e-05 100.1792506
17.93353964 132.9999754 152.7240226
239.6402626 57.98934339 -139.2500974
-0.6228173587 71.44989639 -13.11050939
115.2119336 -2.037575613 -139.2500974
158.4383776 -2.461304075e-05 -121.5328704
101.7268326 67.99997539 -142.3778734
167.7063336 -2.461304075e-05 111.7673266
0.0002636413428 53.25299039 -27.28991739
0.0002636413428 21.45545739 -78.04212039
43.80197664 52.13346839 148.7499026
236.5933706 67.99997539 153.4865416
238.9085766 36.40598139 -145.2500974
152.8227276 -2.461304075e-05 -80.51717439
0.0002636413428 23.90278839 -53.63652739
-1.027196359 28.45353039 -137.7500974
95.71825264 -2.461304075e-05 75.41139461
211.3139606 -2.461304075e-05 -90.70025439
165.7819726 -2.461304075e-05 -62.73110339
9.843281641 -2.461304075e-05 -12.75076339
74.33765164 -2.461304075e-05 34.08431961
178.1162706 67.99997539 151.0511316
3.986208641 78.48398239 148.7499026
81.97683264 -2.461304075e-05 -106.8715764
0.0002636413428 13.24274539 106.9476896
154.8469566 -2.461304075e-05 52.29809361
242.1050786 -2.461304075e-05 -53.31547039
49.03134064 -2.461304075e-05 132.9941186
238.5736526 15.66223039 148.7499026
132.9554006 -2.461304075e-05 6.989493614
64.14974164 16.63341239 148.7499026
28.10443264 110.1604264 148.7499026
122.7387966 7.483652387 148.7499026
115.6430676 56.03946539 148.7499026
61.40414264 67.99997539 -141.3905614
110.2136116 -2.461304075e-05 5.988414614
150.5305116 53.84224539 148.7499026
129.9632006 -2.461304075e-05 63.14855261
184.3616146 -2.461304075e-05 -73.33425039
18.63930664 2.009204387 148.7499026
219.6250976 -2.461304075e-05 9.952516614
220.3746956 14.30928939 -139.2500974
137.8704496 -2.461304075e-05 -92.95806239
110.3859236 54.19361939 -139.2500974
0.0002636413428 38.38924939 109.4757886
149.6029786 30.20400939 -145.2500974
179.0163136 -2.461304075e-05 -132.4626684
239.2327106 -2.461304075e-05 87.86279661
81.21271264 79.25716339 148.7499026
132.9336176 11.81258239 -139.2500974
195.0539286 60.11776939 148.7499026
191.5230686 -2.461304075e-05 48.65359761
233.7685226 31.77637839 148.7499026
62.62989864 31.47302539 148.7499026
224.9015276 -2.461304075e-05 111.4192066
54.83843564 -2.461304075e-05 -78.87722639
0.0002636413428 38.14051839 -46.13247339
75.55154664 128.8984174 149.6403886
197.7010196 -2.461304075e-05 18.59714561
187.4132216 -2.461304075e-05 -87.78570639
129.5977076 -2.461304075e-05 -43.69881939
160.8935186 16.40994239 -139.2500974
196.2051186 12.01152639 -139.2500974
102.0015256 -2.461304075e-05 32.98090961
0.0002636413428 20.18671339 5.327573614
139.9287286 -2.461304075e-05 -74.51392939
166.7810876 28.93079139 148.7499026
235.7561266 -2.461304075e-05 -86.11133639
36.81401864 -1.911325613 -139.2500974
249.2075486 -2.461304075e-05 41.77977861
7.241758641 7.858404387 -145.2500974
14.39343664 55.35998639 -145.2500974
87.18832664 -2.461304075e-05 -81.33452639
32.38203764 55.95648639 -145.2500974
0.0002636413428 28.40925939 55.99656161
0.5012406413 -2.482419613 82.18864161
177.3831056 -2.461304075e-05 60.72600561
51.17877464 -2.461304075e-05 92.31417561
100.9671676 -2.461304075e-05 -127.4476554
-0.7376433587 -2.461304075e-05 -94.84725139
53.08356964 -2.461304075e-05 -132.8367764
0.0002636413428 94.16638139 98.88564061
149.7367546 -2.461304075e-05 105.7435066
39.41654464 132.9999754 149.9067826
89.62669264 -2.461304075e-05 21.57800561
237.5255336 5.003187387 -139.2500974
242.5329966 -2.461304075e-05 15.61869461
41.26153964 -2.461304075e-05 42.32483461
28.93530164 -2.461304075e-05 107.1440676
10.88338664 36.03784939 -139.2500974
207.7031316 33.76476139 148.7499026
166.1520986 55.11846939 -145.2500974
2.101416641 -2.461304075e-05 -62.89361539
179.7393076 37.28980439 148.7499026
128.5126136 66.13315839 148.7499026
72.64107864 29.32621439 -139.2500974
62.49340064 98.53300439 148.7499026
218.7683166 -2.461304075e-05 70.13409961
211.7998416 -2.461304075e-05 21.91689061
61.70523364 -2.461304075e-05 -29.10235739
194.0947206 -2.461304075e-05 -3.906198386
0.0002636413428 72.71304039 34.55628761
178.9140296 -2.461304075e-05 128.7481856
250.9808336 -2.461304075e-05 109.4821906
29.67562164 -2.461304075e-05 90.41880561
152.2953316 -2.461304075e-05 -28.10253439
215.8029776 6.699772387 148.7499026
192.2945956 25.76091039 148.7499026
185.2603866 -2.461304075e-05 26.47531261
0.0002636413428 44.53721939 43.41646561
95.67085164 -2.461304075e-05 48.23553461
210.5347656 -2.461304075e-05 101.0949036
66.39733764 5.300011387 -145.2500974
236.5938096 -2.461304075e-05 -125.8184024
240.3891406 -2.461304075e-05 32.10374061
29.93805164 8.113995387 148.7499026
105.4957646 85.11280239 148.7499026
214.0271636 43.71337139 -139.2500974
0.0002636413428 100.1158424 123.5494296
35.97855564 34.95978439 -139.2500974
145.0307486 -2.461304075e-05 20.22075161
83.29311764 11.54950639 148.7499026
0.0002636413428 89.15058239 54.27273161
130.9565616 67.99997539 -140.3853004
-0.8523023587 -2.461304075e-05 -122.8033044
79.92864264 3.541175387 -139.2500974
252.3100526 -2.461304075e-05 -111.5538874
190.7951736 58.87311339 -139.2500974
101.1915126 9.873613387 148.7499026
82.51036264 -2.461304075e-05 -5.467943386
139.9514616 -2.461304075e-05 -105.3978224
2.140294641 -2.461304075e-05 105.5885176
121.4200166 35.27551739 148.7499026
11.83051964 -2.461304075e-05 -83.53900939
159.3773946 0.593479387 148.7499026
99.99528664 8.064758387 -145.2500974
91.04587764 -2.461304075e-05 130.9976186
175.4516496 -2.461304075e-05 -43.21597139
90.36136964 63.30664739 -139.2500974
233.0194826 45.61190239 -139.2500974
3.237565641 94.09360939 148.7499026
16.50250364 -2.461304075e-05 -132.3213274
152.1427496 -2.461304075e-05 -52.79615339
149.9150746 22.35656439 148.7499026
188.0525016 -2.461304075e-05 -20.88538539
122.0434936 10.47450639 -145.2500974
133.9992746 37.77219439 148.7499026
0.0002636413428 103.3616504 136.8756556
32.67582364 -2.461304075e-05 -73.21873939
52.83258864 -2.461304075e-05 32.13199561
146.0425536 45.35672739 -139.2500974
94.35996064 -2.461304075e-05 -29.59445239
0.0002636413428 35.27429439 123.7055936
165.7515166 -2.461304075e-05 84.86611161
34.44749464 -2.461304075e-05 15.04069161
81.81474764 -2.461304075e-05 -39.17691939
0.0002636413428 61.13974939 57.69365761
168.4744396 -2.461304075e-05 52.43441361
0.0002636413428 73.40670139 2.891897614
102.3090316 -2.461304075e-05 -62.39592139
219.5250076 24.81283039 -145.2500974
121.3552156 -2.461304075e-05 87.91261561
149.0268806 -2.461304075e-05 -113.3980034
147.3687296 -2.461304075e-05 93.75789561
0.0002636413428 11.41708339 -112.1739474
220.9224976 53.59715439 -139.2500974
26.37348664 -2.461304075e-05 -102.6457654
154.4484866 52.35427939 -145.2500974
207.5555846 -2.461304075e-05 127.6380736
58.71425964 -2.461304075e-05 73.41358561
42.17543264 -2.461304075e-05 62.65139461
206.0837106 -2.461304075e-05 -46.49752739
-1.018972359 120.3875014 148.7499026
103.3457956 58.49745039 148.7499026
191.3846626 -2.461304075e-05 -111.6656934
0.0002636413428 36.98004139 -73.19233839
204.4761886 6.006148387 -145.2500974
248.0705996 51.85336539 -145.2500974
0.0002636413428 13.81314739 -20.00550039
0.0002636413428 47.38607539 -53.52760039
49.30643164 -2.044315613 -23.87280039
0.0002636413428 39.29184539 -128.2121134
199.5631866 -2.461304075e-05 -89.50922339
4.174422641 11.72895639 148.7499026
155.4929686 -2.461304075e-05 116.0269066
163.4861716 -2.461304075e-05 -33.66260639
51.34060464 -2.461304075e-05 -43.86178939
14.12356764 -2.461304075e-05 37.90516961
156.7872126 -2.461304075e-05 15.22366861
0.0002636413428 61.01406139 28.37418361
168.5147956 -2.461304075e-05 37.65248161
247.5835716 29.52257439 -139.2500974
228.8541836 -2.461304075e-05 -19.59218339
36.17229864 71.56428939 148.7499026
27.21149564 12.97060639 -139.2500974
217.2911256 -2.461304075e-05 -111.1594664
48.46944964 -2.461304075e-05 117.7314346
122.9460636 -2.461304075e-05 49.68717061
224.0395926 -2.461304075e-05 -44.21779339
189.2018136 40.43769439 -145.2500974
12.68515364 70.70184539 148.7499026
0.0002636413428 0.815405387 -34.24710439
100.8809176 44.61179539 -139.2500974
99.72262664 -2.461304075e-05 -112.1314884
198.8252356 24.64568139 -145.2500974
-1.456687359 -2.461304075e-05 52.08257261
18.95776364 22.61637139 -139.2500974
37.21322064 39.57996239 148.7499026
61.20747864 43.99879039 148.7499026
80.55372364 62.88589139 148.7499026
232.3067446 47.02315139 148.7499026
69.22117164 -2.461304075e-05 111.5619796
232.7979736 -2.461304075e-05 56.03940961
173.8605166 10.85282939 148.7499026
62.49422364 78.41260339 148.7499026
154.2023016 -2.461304075e-05 -40.38232239
0.0002636413428 45.20099939 91.23677261
0.0002636413428 31.81711339 80.58598761
18.07380764 122.2735234 148.7499026
51.08755064 61.62072539 -145.2500974
0.0002636413428 72.59799339 46.58775861
101.0692626 -2.461304075e-05 -19.13162939
0.0002636413428 47.38939239 130.7666526
173.9889036 43.62770039 -145.2500974
58.24665464 27.51717539 -139.2500974
139.4272036 25.60704939 -139.2500974
137.4807716 -2.461304075e-05 139.8375926
0.0002636413428 11.07224139 120.0442756
174.9404356 13.46333139 -139.2500974
29.97420764 -2.461304075e-05 -130.3897274
11.83606564 -2.461304075e-05 -24.54587439
203.2084496 8.763677387 148.7499026
36.52222264 -2.461304075e-05 138.5961106
129.7556126 -2.461304075e-05 114.7035456
201.6289606 -2.461304075e-05 137.7497676
62.69471464 57.06338339 148.7499026
173.5317446 -2.461304075e-05 18.30216561
126.2226346 -2.461304075e-05 -14.81529239
167.8512076 -2.461304075e-05 -109.2891014
33.54991964 56.65805639 148.7499026
77.44416964 -2.461304075e-05 6.318226614
42.36560664 25.55564839 -139.2500974
0.0002636413428 67.16436839 96.08017661
-0.2068453587 119.6373654 136.3385426
69.33182864 53.04657939 -139.2500974
23.00346064 -2.461304075e-05 -31.74070639
171.2301836 -2.461304075e-05 101.1958036
103.7516576 69.63240139 148.7499026
0.0002636413428 14.55357239 -47.57519939
134.1201996 -2.461304075e-05 -115.8159814
226.6807196 -2.461304075e-05 -66.66260639
150.4718456 67.14500239 -139.2500974
80.73750864 19.56331039 -139.2500974
95.74557564 -2.461304075e-05 -88.37301239
117.4231646 -2.461304075e-05 128.8583336
0.0002636413428 68.84804839 68.43101261
24.96996464 35.23737239 -139.2500974
24.56254264 -2.461304075e-05 124.0181306
82.63945364 -2.461304075e-05 -61.99568939
95.97407464 -2.461304075e-05 105.9490706
225.6903406 67.99997539 151.4951546
0.0002636413428 69.36366839 139.3390476
71.16621164 -2.461304075e-05 140.4289766
134.4263696 -2.461304075e-05 38.65253261
193.4414326 -2.461304075e-05 7.961647614
221.3471126 -2.461304075e-05 -125.2787314
245.0988036 12.42959139 -145.2500974
216.5218846 60.35056739 148.7499026
55.66600764 -2.461304075e-05 -108.1375504
100.0588456 -2.461304075e-05 117.1783186
236.0262896 67.77473139 -145.2500974
73.59849864 -2.461304075e-05 86.42477661
0.0002636413428 50.91391439 -128.7356134
100.7374796 -2.461304075e-05 62.21635561
29.14924564 -2.461304075e-05 26.96749961
182.2084626 -2.461304075e-05 2.824987614
80.86715964 36.37260939 -139.2500974
75.83421064 -2.461304075e-05 -125.2893524
34.58123964 -2.461304075e-05 -29.76908939
77.00012264 109.2906264 148.7499026
69.65240964 -2.461304075e-05 -98.45878839
0.0002636413428 23.64282639 -90.38031139
99.80454664 -2.461304075e-05 3.156590614
161.5140456 -2.461304075e-05 138.1975646
211.2072936 62.87301439 -145.2500974
51.67434964 -2.461304075e-05 -68.58243339
91.30574964 21.62029239 -139.2500974
0.0002636413428 8.960874387 32.19976761
126.5204536 36.97958439 -139.2500974
36.02784164 94.06656039 148.7499026
64.89946464 -2.461304075e-05 6.843324614
22.79960064 -2.461304075e-05 -7.601362386
62.79188164 -2.461304075e-05 -53.45014339
18.44092864 -0.305104613 -112.5516724
239.1297546 -2.461304075e-05 66.49267961
5.614502641 54.52459439 -139.2500974
116.4474236 24.50701339 -139.2500974
190.6536086 29.26681639 -139.2500974
109.9993026 -2.461304075e-05 138.1327246
105.6590946 -2.461304075e-05 44.58862061
0.0002636413428 97.26343039 111.2567516
139.0855316 -2.461304075e-05 -137.4339094
8.878507641 -2.461304075e-05 57.74757461
-0.5352223587 53.75043739 -107.5803904
0.0002636413428 36.68199039 99.02410761
119.4529106 58.57502639 -145.2500974
43.86973664 -2.461304075e-05 -127.6316914
0.0002636413428 35.91651439 -116.4841494
25.32704064 76.95149439 152.8899416
0.0002636413428 27.70754439 -43.80074439
210.0851686 -2.461304075e-05 -80.23592339
59.43146064 123.3997724 148.7499026
215.9434596 27.21507739 148.7499026
215.4539746 -2.461304075e-05 -25.32571739
150.4919966 -2.461304075e-05 -90.76020839
41.22689964 8.263719387 148.7499026
115.1892946 43.38304939 -145.2500974
95.47871864 31.37074339 148.7499026
-2.109905359 104.4149524 96.86066661
130.4838586 -2.461304075e-05 103.0340796
0.0002636413428 65.52716439 123.9392566
143.7703656 -2.461304075e-05 55.99189061
142.9820566 46.66881639 148.7499026
176.1369856 -2.461304075e-05 87.37898361
221.0542186 -2.461304075e-05 51.26506861
75.36845964 -2.461304075e-05 -13.02659839
11.28721264 -2.461304075e-05 -104.2733654
187.1418716 17.65897339 -139.2500974
114.0591446 -2.461304075e-05 65.83063861
45.05833064 -2.461304075e-05 -3.107011386
231.7503336 -2.461304075e-05 -75.69161739
0.0002636413428 7.813400387 44.82346061
107.7797976 -2.461304075e-05 101.2502566
201.7805256 -2.461304075e-05 -29.31598939
0.0002636413428 47.24203739 -65.62613239
224.1742096 -2.461304075e-05 33.83256361
7.124360641 -2.461304075e-05 28.46395861
242.8514316 -2.461304075e-05 -39.10012039
141.9710776 -2.461304075e-05 -3.726365386
15.51548864 107.2567704 148.7499026
0.0002636413428 44.24002539 -95.09759539
49.34167864 9.844649387 -139.2500974
117.0842366 -2.461304075e-05 -66.61920739
0.0002636413428 34.40480739 45.08027361
28.17470364 67.84398539 -145.2500974
0.0002636413428 10.90801039 -101.6055404
39.31635264 114.4662244 148.7499026
132.6645436 -2.461304075e-05 -81.93674839
0.0002636413428 86.30662739 73.10078061
94.33974964 111.6612794 154.3350326
241.0159626 -2.461304075e-05 -69.58130839
-1.738551359 2.005054387 129.9474856
138.8958226 26.27284139 148.7499026
0.0002636413428 10.86642839 9.426021614
-0.9824123587 -2.461304075e-05 -6.579651386
44.58146864 -2.461304075e-05 51.94017661
199.2114716 -2.461304075e-05 103.7561016
171.1390566 -2.461304075e-05 -71.35611939
188.7838836 -0.555215613 -145.2500974
0.0002636413428 54.19780739 146.1673106
0.0002636413428 28.56981239 106.9215936
0.0002636413428 14.91205039 88.33579761
201.0599376 58.07429139 -139.2500974
12.08878264 18.04727339 148.7499026
140.7921296 -2.461304075e-05 -63.68732839
153.7255946 -2.461304075e-05 129.1943856
0.0002636413428 30.26742239 24.03085861
231.2437096 -2.461304075e-05 132.1424396
168.1784186 52.56484539 148.7499026
57.57384364 40.80534239 -139.2500974
157.4051216 3.982901387 -139.2500974
116.1610286 -2.461304075e-05 -14.56838739
84.71558564 -2.461304075e-05 140.9900596
74.40605464 -2.461304075e-05 58.27034361
66.58814264 -2.461304075e-05 -83.89127339
140.9500666 67.91836639 -145.2500974
39.38233164 -2.461304075e-05 -112.2556314
195.9970426 -2.461304075e-05 -67.13810239
0.0002636413428 23.01429139 -63.61719039
199.3687276 -2.461304075e-05 54.87890861
242.0673016 -2.461304075e-05 135.4056866
12.06957464 65.25425139 -145.2500974
0.0002636413428 84.90305839 105.1474906
207.2200416 -2.461304075e-05 -111.4729544
84.58033464 -2.461304075e-05 -27.76681839
9.028941641 -2.461304075e-05 77.75470461
151.6340536 -2.461304075e-05 -132.2356814
196.2639596 -2.461304075e-05 84.43666061
50.58496964 1.995619387 148.7499026
143.7830006 8.850749387 -139.2500974
9.798691641 -2.461304075e-05 -69.08608239
0.0002636413428 62.07133839 -16.10913939
0.0002636413428 27.27389639 -29.62613239
187.7311656 -2.461304075e-05 103.1989176
80.43654164 57.98789739 -139.2500974
167.1822196 62.85033539 -139.2500974
68.80882864 -2.461304075e-05 121.6397206
58.60868964 -0.706084613 -145.2500974
44.79541864 41.58303639 -145.2500974
136.8191576 48.32662239 -145.2500974
102.9597626 31.64568439 -139.2500974
40.38533264 -2.461304075e-05 31.77705161
93.27343864 38.24952339 -145.2500974
171.2083396 22.46893439 -139.2500974
0.0002636413428 19.61957339 -8.982314386
0.0002636413428 19.80217439 76.45502361
-1.253626359 0.313509387 -145.2500974
134.2259776 19.34332839 -145.2500974
210.6637356 10.45504039 -139.2500974
128.1763846 -2.461304075e-05 -135.2668404
8.481847641 -2.461304075e-05 114.6981266
74.15782964 -2.461304075e-05 -77.09378139
29.34671064 -1.550168613 148.7499026
56.60616464 108.3099414 153.0430196
174.1078976 29.63617539 -145.2500974
185.7196046 45.31563339 148.7499026
192.6793296 -2.461304075e-05 -54.07830039
0.0002636413428 89.94898139 87.87345861
105.2813896 -2.461304075e-05 74.12954061
240.8990206 21.10504039 -145.2500974
0.0002636413428 35.37000139 65.39674461
128.7971516 -2.461304075e-05 148.3497336
240.0621816 -2.461304075e-05 44.79536161
164.6944026 -2.461304075e-05 -12.31297139
241.0148666 6.183333387 148.7499026
71.34212064 43.64302239 -139.2500974
246.7827096 -2.461304075e-05 -88.49598839
16.50152764 10.55676639 -145.2500974
0.0002636413428 86.21216239 124.3557526
33.36118464 4.678919387 -145.2500974
195.3571356 -2.461304075e-05 -14.72549339
60.52144664 -2.461304075e-05 -63.58428439
143.6489396 -2.461304075e-05 124.8557966
113.1306916 -2.461304075e-05 -88.28327939
30.53079264 -2.461304075e-05 62.25015861
0.0002636413428 32.71417139 145.8423626
0.0002636413428 79.07415439 86.20069361
0.0002636413428 44.20799739 -24.31713239
0.0002636413428 21.15556539 100.9715736
28.43139464 132.9999754 152.4259066
183.1693676 -2.461304075e-05 144.1284646
187.2326186 -2.461304075e-05 123.6693586
0.0002636413428 44.40695139 15.86101261
191.7883386 -2.461304075e-05 76.10841461
43.23865464 -2.461304075e-05 -54.20436839
8.619371641 -2.461304075e-05 17.23353261
81.83437064 101.1956574 148.7499026
242.3091056 47.41893639 -139.2500974
113.1485476 -2.461304075e-05 81.93203661
0.0002636413428 8.192844387 -58.12086739
53.05110864 50.41968939 148.7499026
129.9026746 -2.461304075e-05 126.1629496
217.6152086 -1.055547613 -145.2500974
115.8754466 -2.461304075e-05 -105.5001314
204.6989206 -2.461304075e-05 -134.2614054
56.21444064 9.506967387 148.7499026
242.8443566 -2.461304075e-05 79.20137361
0.0002636413428 51.83416239 56.56561561
228.0933946 53.21236339 -145.2500974
86.90350764 54.92792939 -145.2500974
0.0002636413428 59.62306839 12.30373161
127.0959236 75.33861439 148.7499026
20.91378464 -2.461304075e-05 -59.62349839
106.5736466 -2.461304075e-05 -71.58614839
210.5859616 -2.461304075e-05 -99.97827139
120.2517076 48.37540639 -139.2500974
150.5869636 -2.461304075e-05 -14.98142039
43.81617164 55.85109239 -145.2500974
-1.281100359 50.45845539 -145.2500974
159.3496016 -2.461304075e-05 -88.02292139
64.01179564 -2.461304075e-05 -124.7817104
50.52099064 -2.461304075e-05 42.40396861
223.9016926 43.99728339 -139.2500974
100.4788166 15.09446039 -139.2500974
138.4836996 -2.461304075e-05 66.74459361
21.97615964 56.90052339 -139.2500974
32.33459964 18.95706639 148.7499026
221.8604386 -0.255401613 148.7499026
0.0002636413428 11.09827039 -82.53067639
17.34887764 42.60523639 -139.2500974
169.4147826 -2.461304075e-05 -91.87548939
0.0002636413428 67.76901939 81.73779861
0.0002636413428 54.06103739 77.87878861
0.0002636413428 60.49845239 102.4280776
243.1813386 62.20103439 148.7499026
56.36014664 -2.461304075e-05 -7.152918386
15.88303964 31.19720239 -145.2500974
70.72253064 -2.461304075e-05 25.63827561
235.4300336 -2.461304075e-05 -13.18886439
49.43835564 -2.461304075e-05 -100.8260114
36.23195464 -2.461304075e-05 -40.66042239
75.44754364 -2.461304075e-05 -113.8205384
168.4053136 -2.461304075e-05 74.47023361
-0.1495963587 112.7379744 118.9980466
0.0002636413428 10.14891339 -28.38649339
70.14716064 -2.461304075e-05 -32.83366239
121.2555966 1.288263387 -145.2500974
24.17094764 -2.461304075e-05 45.79981661
10.67404164 -1.194937613 -139.2500974
0.0002636413428 43.92911439 34.31526661
0.0002636413428 48.80878339 66.55264461
71.55219764 6.005905387 148.7499026
85.29974864 -2.461304075e-05 46.68458561
229.1848266 8.666330387 -139.2500974
109.6996466 64.90159039 -139.2500974
158.2410566 35.30869639 -145.2500974
26.09915964 88.60266539 150.3124656
209.7310896 -2.461304075e-05 71.08177661
251.3070496 8.685161387 -139.2500974
106.0908366 -2.461304075e-05 -105.6542814
35.74592264 63.51837039 -139.2500974
0.0002636413428 -0.250811613 72.57550061
69.68158864 64.94058839 -139.2500974
217.7325786 -2.461304075e-05 -50.73761139
234.4912676 -2.461304075e-05 -48.38692039
95.82613864 76.13763639 148.7499026
33.80586464 45.88012239 -139.2500974
53.72032264 115.7311014 148.7499026
198.5817876 50.64016339 -145.2500974
0.0002636413428 53.92723739 -5.421814386
187.8461736 -2.461304075e-05 -134.3660784
74.53460864 -2.461304075e-05 -65.96786239
7.864740641 121.9803834 148.7499026
174.1724716 -2.461304075e-05 28.36709761
152.7662496 44.05501139 148.7499026
28.77433264 -2.461304075e-05 81.39354461
233.4043046 -2.461304075e-05 -106.6491724
13.31215564 92.32203139 148.7499026
202.2017496 31.78108439 -139.2500974
48.68161864 130.5162094 148.7499026
57.14840164 10.77861139 -145.2500974
0.0002636413428 56.74769739 -54.40642039
126.0260456 59.76410039 -139.2500974
150.4369456 1.405753387 148.7499026
0.0002636413428 9.053608387 0.09642961369
71.33807264 -2.461304075e-05 -50.79691639
72.14307164 56.06730439 148.7499026
41.24294864 -2.461304075e-05 128.5939016
237.1734016 -2.461304075e-05 -61.50389839
108.6455356 -2.461304075e-05 -133.5386324
0.0002636413428 78.57599139 66.10314261
194.6034156 44.22062339 -139.2500974
223.3949506 45.10012539 148.7499026
170.7005656 -2.461304075e-05 132.1419046
121.6034976 17.27458339 -139.2500974
84.13653664 50.64533039 148.7499026
176.4209326 -2.461304075e-05 -107.0264764
0.0002636413428 39.23474639 6.684979614
122.1443396 46.31096339 148.7499026
123.1892846 -2.461304075e-05 4.949632614
43.65886764 30.31902839 148.7499026
0.0002636413428 55.92829839 114.8451836
5.318245641 -2.461304075e-05 96.59518461
250.8695796 57.69198639 -139.2500974
103.3797576 23.43191339 148.7499026
10.51025064 -2.461304075e-05 123.2715046
-1.935172359 8.223501387 -137.7500974
148.4458576 59.32472739 -145.2500974
41.60839664 -2.461304075e-05 71.42094961
60.01091864 -2.461304075e-05 -116.8690704
201.3282766 48.72849239 148.7499026
139.4720786 -2.461304075e-05 83.94217761
0.0002636413428 72.75983739 102.8262876
66.86069264 128.2258174 148.7499026
206.2937746 -2.461304075e-05 87.59625661
62.14250564 17.08276939 -139.2500974
176.9556986 54.15787539 -139.2500974
0.0002636413428 52.36460139 -87.72585839
169.2924866 66.88325839 148.7499026
153.7932476 65.45677439 148.7499026
240.7392156 37.03425539 148.7499026
230.0708986 -2.461304075e-05 65.22218461
0.0002636413428 34.23406739 -11.88288439
187.2132896 -2.461304075e-05 34.97465161
245.6230156 21.00572339 148.7499026
192.4456456 -1.915097613 148.7499026
100.2172906 -2.461304075e-05 135.5777396
76.42916164 11.50880739 -139.2500974
223.4116496 30.03440839 -139.2500974
9.023055641 -2.461304075e-05 2.713499614
129.4807826 -2.461304075e-05 29.07686661
212.7127236 -2.461304075e-05 48.89437661
146.6858506 -2.461304075e-05 73.70705861
110.2243746 -2.461304075e-05 27.77416161
250.9222566 4.601432387 148.7499026
134.8132426 31.05113639 -145.2500974
49.93007164 48.55242039 -145.2500974
139.2601816 -2.461304075e-05 -22.40229039
85.75356864 -2.461304075e-05 70.62750961
151.9293856 7.809373387 -145.2500974
115.3758426 17.29294939 -145.2500974
0.0002636413428 97.47557139 78.32349561
21.94185564 34.71259839 148.7499026
209.7160276 -1.345893613 148.7499026
129.5585696 -2.461304075e-05 -58.80427839
216.8949956 -2.461304075e-05 -14.36549039
88.61209664 4.009559387 -145.2500974
0.0002636413428 101.8515814 146.9118336
0.0002636413428 18.92262639 130.0814956
3.619450641 -2.461304075e-05 -115.3995044
237.1838016 -2.461304075e-05 -94.57347439
99.60308764 94.63916339 148.7499026
233.0276386 -2.461304075e-05 -133.9354964
139.6112466 -2.461304075e-05 13.57821961
0.0002636413428 104.6811874 116.1061576
235.9789536 14.10231239 -145.2500974
81.31594364 -2.461304075e-05 23.58023461
-0.3964513587 65.71015439 -38.76032639
85.82354964 92.66748039 148.7499026
219.0364666 61.92435039 -139.2500974
5.336101641 39.79252339 148.7499026
-1.589684359 77.33109239 10.29483961
249.2297216 35.34785439 -145.2500974
104.5137676 0.840396387 -145.2500974
96.90236564 -2.461304075e-05 89.70251461
0.0002636413428 77.14913439 118.4724946
233.1311166 27.17928939 -145.2500974
84.49837264 -2.461304075e-05 108.3859876
0.0002636413428 35.17394739 -96.94939239
212.5871936 55.71698139 -139.2500974
0.0002636413428 11.78258939 -120.6265464
216.5434106 15.12616439 148.7499026
149.3228956 -2.461304075e-05 40.61290761
0.0002636413428 8.745767387 19.18590561
126.9722216 -2.461304075e-05 -96.44052039
243.2740866 -2.461304075e-05 101.2841536
232.8563256 -2.461304075e-05 28.35758561
189.8137326 23.43137439 -145.2500974
94.44036264 -2.461304075e-05 -76.85690339
185.3854236 62.26728439 148.7499026
165.0356696 -2.461304075e-05 -101.3790464
167.6870616 9.245559387 -139.2500974
86.32308664 31.06002539 148.7499026
0.0002636413428 55.22475939 34.41622561
128.2532906 -2.461304075e-05 83.17570361
42.16189964 -2.461304075e-05 11.79937761
115.2683576 78.75892639 148.7499026
205.6913056 47.23630639 -139.2500974
1.126891641 -2.461304075e-05 12.10535161
0.0002636413428 69.02407239 26.02372361
0.0002636413428 38.58350839 23.42447361
150.9826166 35.82038939 -139.2500974
232.5565766 -2.461304075e-05 142.1175446
0.0002636413428 16.50130739 15.56186061
0.0002636413428 113.1179544 141.5204366
157.8054256 -2.461304075e-05 -58.90407639
198.2278026 -2.461304075e-05 43.71957161
119.9364706 -2.461304075e-05 146.4203616
92.18622264 52.63073639 -139.2500974
60.15516364 -2.461304075e-05 49.73257361
212.5741566 -2.461304075e-05 114.2227536
120.7294376 -2.461304075e-05 -131.5955374
31.48453964 -2.461304075e-05 -8.101845386
158.7899596 -2.461304075e-05 -67.54227539
180.6204326 -2.461304075e-05 -83.03080839
196.8487256 65.65679839 -145.2500974
69.61130264 -2.461304075e-05 78.77662461
0.0002636413428 8.144341387 -38.09421539
9.693671641 27.85231239 -139.2500974
0.0002636413428 9.717786387 64.20650061
0.0002636413428 36.63900339 -21.00558839
22.43066064 -2.461304075e-05 99.34525261
35.59290864 -2.461304075e-05 -84.05847739
202.2314626 -2.461304075e-05 -5.216057386
12.75910664 -2.461304075e-05 107.6623896
111.9748326 6.588089387 -145.2500974
69.05280364 -2.461304075e-05 129.8665256
242.6535596 62.89801939 -145.2500974
235.8190516 -2.461304075e-05 -114.9450964
182.1798876 31.09978139 -145.2500974
0.0002636413428 32.08614239 -81.53046039
247.3750296 -2.461304075e-05 88.73865561
215.1453386 31.70073239 -145.2500974
69.16728264 36.35869239 148.7499026
0.0002636413428 44.31390939 -6.282015386
0.0002636413428 2.635316387 -87.16162139
29.24475964 -2.461304075e-05 -57.71121639
75.48594364 118.1091594 148.7499026
136.3861166 63.96081439 148.7499026
89.38714964 -2.461304075e-05 -93.45585539
0.0002636413428 93.15340639 128.6075026
203.7546306 -2.461304075e-05 -69.57614839
157.7656196 -2.461304075e-05 23.49176261
152.0325676 20.62084439 -139.2500974
246.3700786 67.45822939 -139.2500974
97.45668664 -2.461304075e-05 -120.1417414
110.2511726 8.947410387 148.7499026
10.27851164 132.9999754 150.1075896
39.78467364 30.32111739 -145.2500974
36.09757864 40.37550139 -145.2500974
49.65159564 -2.461304075e-05 72.14268561
218.7181846 36.93144339 -139.2500974
232.7576266 -2.461304075e-05 94.11481061
27.21410764 26.63925139 148.7499026
143.3510716 17.26995939 -139.2500974
234.5261056 61.83080339 148.7499026
167.7172516 18.40587439 -145.2500974
91.23938164 12.78632239 148.7499026
190.5882126 51.72038539 -145.2500974
158.7919026 -2.461304075e-05 75.12346661
132.2427456 57.27602439 -145.2500974
21.83655964 -2.461304075e-05 72.91515261
222.6267276 -2.461304075e-05 -28.89291839
97.89992464 47.82368339 148.7499026
198.3162386 -2.461304075e-05 -129.4396994
96.79615164 -2.461304075e-05 125.4735146
55.37420364 -2.461304075e-05 80.65368761
179.0539926 4.180120387 -139.2500974
81.90809064 42.46834139 -145.2500974
8.765871641 84.85931039 148.7499026
140.4344806 -2.461304075e-05 4.253282614
241.0405166 -2.461304075e-05 -31.16440639
20.71291864 113.2740204 148.7499026
9.474349641 5.802675387 148.7499026
208.4177246 -2.461304075e-05 79.93997161
42.35665864 88.08063239 148.7499026
17.11520864 -2.461304075e-05 91.09438761
118.4025636 -2.461304075e-05 -113.9827694
50.69374964 -2.461304075e-05 8.415421614
92.19515264 -2.461304075e-05 -51.58845639
83.05291664 -2.461304075e-05 -132.8850194
214.4512506 -2.461304075e-05 -57.94626539
81.80540064 21.69875039 148.7499026
206.2152916 27.43647639 -145.2500974
0.0002636413428 55.23118439 48.00484761
221.5029226 5.808621387 -145.2500974
61.23195864 87.94314639 148.7499026
131.2467776 47.54957739 -139.2500974
131.6497546 -2.461304075e-05 -3.734721386
2.879020641 16.37084839 -145.2500974
80.22790164 70.75252139 148.7499026
221.9187886 -2.461304075e-05 138.5295836
0.0002636413428 64.73828239 6.345883614
58.02059464 32.57310539 -145.2500974
0.0002636413428 45.63068039 -36.16842939
3.103231641 -2.461304075e-05 139.8272026
53.43566264 63.14900039 148.7499026
239.3532736 -2.461304075e-05 -79.15587839
200.0127936 -2.461304075e-05 62.67438661
243.5119596 -2.461304075e-05 -122.1766584
53.58887964 67.99997539 -141.4936604
17.66265964 -2.461304075e-05 -44.19833139
37.10389964 123.6786614 148.7499026
180.3370116 -2.461304075e-05 67.96831961
8.355980641 -2.461304075e-05 43.14415761
127.7018906 29.28014539 -139.2500974
26.66309964 53.27706839 150.0839346
-0.3835733587 71.50164539 148.7499026
173.3974156 -2.461304075e-05 -12.85594439
0.0002636413428 26.57211739 33.07040261
16.59987364 47.38982539 151.2711026
51.32061064 -2.461304075e-05 20.18143661
184.6316976 -2.461304075e-05 136.4978606
35.72494664 -2.461304075e-05 22.83131461
31.36584164 -2.461304075e-05 -109.7589454
104.8339256 57.41076439 -145.2500974
118.2230206 -2.461304075e-05 -48.64305739
0.0002636413428 54.44823739 -17.55913039
0.0002636413428 56.03099339 -73.84020639
59.44849264 -2.461304075e-05 13.87311461
54.33049164 57.93997239 -139.2500974
138.1063856 -2.461304075e-05 -43.19765739
166.9028446 46.73937039 -145.2500974
113.7554886 36.29329339 148.7499026
0.0002636413428 82.33865339 133.3120346
44.93144064 -2.461304075e-05 -138.5179144
89.03619264 -2.461304075e-05 0.7347066137
178.7156766 58.68504739 -145.2500974
0.0002636413428 16.52727139 140.0675016
90.87106864 -2.461304075e-05 -61.17957839
38.22373864 16.98731439 -145.2500974
94.70003964 25.05705539 -145.2500974
25.84088064 -0.230449613 -139.2500974
235.4407836 -2.461304075e-05 12.62429261
215.1896316 14.51753239 -145.2500974
88.43719464 -2.461304075e-05 -44.65367839
216.9501376 -2.461304075e-05 61.10122761
47.01031864 81.90652639 148.7499026
152.2395166 -2.461304075e-05 28.82864861
201.8471066 56.57169739 148.7499026
0.0002636413428 64.01333939 74.37212761
0.0002636413428 5.643730387 -15.22125239
39.10129264 56.47694439 -139.2500974
136.9438756 -2.461304075e-05 31.42249061
60.81177464 -2.461304075e-05 -136.3052974
161.6021466 53.86247139 -139.2500974
132.4469306 42.07506639 -145.2500974
193.0299916 15.48565139 -145.2500974
11.63211064 9.546286387 -139.2500974
22.37127964 -2.461304075e-05 30.70318361
188.6745346 34.80702639 148.7499026
44.16778964 -2.461304075e-05 -67.32660939
68.82902364 9.300424387 -139.2500974
146.8632296 10.91433239 148.7499026
177.8074606 29.93019939 148.7499026
218.5574936 42.55074339 -145.2500974
146.2086276 64.87713839 148.7499026
110.9234866 95.07745639 153.1783516
0.0002636413428 37.70248539 90.00425261
215.5200496 -2.461304075e-05 107.2184056
92.93896864 -2.461304075e-05 82.47398861
47.42534164 -2.461304075e-05 -93.51512939
71.36241764 57.21267639 -145.2500974
204.1416206 67.39953039 148.7499026
0.5012406413 -0.732324613 -70.26355139
125.9159366 55.70195439 148.7499026
41.15591664 63.74465639 148.7499026
36.04496964 -2.461304075e-05 79.34374861
232.7511006 24.29195439 148.7499026
87.35767364 109.9993314 148.7499026
10.06193164 -2.461304075e-05 -91.22828839
-1.211513359 29.26966439 -145.2500974
125.4207346 7.400542387 -139.2500974
13.59928064 99.96508739 148.7499026
0.0002636413428 22.31424639 51.56720061
145.9431666 40.80103339 -145.2500974
3.521388641 -2.461304075e-05 -53.38951139
190.0609376 -2.461304075e-05 110.3556356
57.56946664 22.44680839 -145.2500974
124.8450576 -2.461304075e-05 107.9890656
186.3952016 -2.461304075e-05 54.12835861
157.0199656 24.75709439 148.7499026
63.52605964 47.85842839 -145.2500974
251.3024746 51.62081539 148.7499026
183.9410656 -2.461304075e-05 -112.4699504
77.40573564 63.39033339 -145.2500974
0.0002636413428 83.08637839 143.4911766
165.6651386 -2.461304075e-05 -123.4465264
235.7967906 -1.173316613 148.7499026
113.0280756 -2.461304075e-05 15.37591761
218.4661446 -2.461304075e-05 120.1510846
250.9906246 -2.461304075e-05 34.16441461
0.0002636413428 76.23578839 18.56476961
29.86237464 20.65157339 -139.2500974
0.0002636413428 12.78806739 38.56876461
198.1859606 -2.461304075e-05 -22.82691439
143.2482016 52.02211839 -145.2500974
81.15149764 -2.461304075e-05 12.73793761
211.9457466 -2.461304075e-05 92.39312161
140.6203426 33.48070639 148.7499026
245.3632836 -2.461304075e-05 -46.66058639
147.7989946 -2.461304075e-05 -22.21350439
109.3595536 52.12515339 148.7499026
249.5386976 36.62047739 148.7499026
181.0756766 -2.461304075e-05 81.86708361
106.6696306 -2.461304075e-05 -118.4440754
-2.362830359 50.10424939 -136.8840794
9.883758641 -2.461304075e-05 -42.94880139
194.7424366 -2.461304075e-05 140.4361076
214.9449416 -2.461304075e-05 127.4431016
72.06248064 -2.461304075e-05 -105.4244554
0.0002636413428 61.03747339 -44.95928939
243.0049676 -2.461304075e-05 -129.5255644
0.0002636413428 82.11317639 31.61300861
219.9473466 -2.461304075e-05 -75.18249639
117.4103516 -2.461304075e-05 -73.97507939
186.5305736 -2.461304075e-05 -95.09442139
244.7442306 2.294084387 -139.2500974
79.80705264 8.929101387 -145.2500974
7.576845641 61.61000039 -139.2500974
133.2691076 7.579043387 -145.2500974
91.96309264 67.23354739 -145.2500974
0.0002636413428 82.77453339 50.13274361
22.74415064 9.569854387 148.7499026
26.68474864 28.10304039 -139.2500974
203.5360486 -2.461304075e-05 14.14840661
0.0002636413428 1.960882387 28.22018261
156.3827126 -2.461304075e-05 -19.47796539
157.0108926 -2.461304075e-05 1.101719614
170.8671546 2.145354387 -145.2500974
204.4962266 -2.461304075e-05 22.53982961
177.3188486 -2.461304075e-05 105.2757036
232.3910536 59.06499939 -139.2500974
87.33761764 83.27808039 148.7499026
160.5612826 40.69082039 148.7499026
179.9423936 -2.461304075e-05 -52.61519639
123.6413186 -2.461304075e-05 -81.08826639
134.2247636 -2.461304075e-05 -17.09817939
43.09249264 -2.461304075e-05 -43.18562239
107.7247866 -2.461304075e-05 -16.12327139
192.2537566 -2.461304075e-05 24.38359061
233.4678786 41.27214739 -145.2500974
196.7172416 12.09917639 148.7499026
48.64948564 43.10346439 -139.2500974
81.25513864 -2.461304075e-05 53.78306061
85.91700264 -2.461304075e-05 -115.2150674
125.8755416 63.88233539 -145.2500974
23.47789664 -2.461304075e-05 -90.41477439
0.0002636413428 29.75139939 2.750686614
121.9659886 27.57118339 148.7499026
66.86677064 -2.461304075e-05 16.66059661
0.0002636413428 28.21736339 -68.68330739
15.16314964 37.30611839 148.7499026
0.0002636413428 32.37336739 -35.92216439
182.7248446 -2.461304075e-05 -120.2151104
242.1750186 15.27478939 -139.2500974
81.29031064 -2.461304075e-05 36.12683261
10.82587264 -2.461304075e-05 -4.302406386
147.9046346 -2.290982613 -139.2500974
182.7284016 59.26187439 -139.2500974
169.5528846 -2.461304075e-05 -26.54090739
96.44243164 15.02872939 -145.2500974
70.19525664 -2.461304075e-05 -19.12605939
0.0002636413428 44.11150039 -117.3265064
100.9574886 -2.461304075e-05 -93.37566439
0.0002636413428 8.452087387 127.2108496
206.9316886 40.12897839 -139.2500974
162.1956906 35.91977239 -139.2500974
179.0684966 33.59830139 -139.2500974
85.09393764 8.767538387 -139.2500974
188.3649736 62.01967839 -145.2500974
56.37107964 97.55428039 152.4040126
40.90154464 23.33111539 148.7499026
18.40609264 47.76537739 -145.2500974
82.18475964 -2.461304075e-05 116.7885926
136.4759256 -2.461304075e-05 -122.6047724
192.2710586 -2.461304075e-05 -74.67694739
57.70728564 -2.461304075e-05 -47.17541539
25.64597964 -0.814891613 57.05711461
111.6385296 45.04073739 -139.2500974
0.0002636413428 72.66584139 89.38903961
118.1661996 9.964820387 -139.2500974
38.48297364 48.35504439 -145.2500974
179.3144736 3.854593387 148.7499026
99.97741264 -2.461304075e-05 69.34022261
53.43008364 -2.461304075e-05 138.6251436
32.92618264 -2.461304075e-05 -123.8100034
166.5361856 -2.461304075e-05 -116.3569714
197.5528576 31.67215539 -145.2500974
136.0721096 44.90539239 148.7499026
198.5118096 -2.461304075e-05 -111.8865234
17.68290264 17.58327039 -145.2500974
203.5922906 -2.461304075e-05 -83.63345739
125.0244666 -2.461304075e-05 35.92482461
239.6691176 -2.461304075e-05 124.5937626
0.0002636413428 39.75556139 70.99323161
40.17746764 -0.124893613 -145.2500974
170.3462966 -2.461304075e-05 -35.49512339
0.0002636413428 9.409534387 -72.91778139
146.8501116 40.13954739 148.7499026
95.50830564 -2.461304075e-05 17.61923261
53.08012164 -2.461304075e-05 50.04403961
211.2790726 -2.461304075e-05 -72.16982839
171.7398176 -2.461304075e-05 68.22502961
0.0002636413428 24.43160739 61.84568861
100.7555246 -2.461304075e-05 23.11918961
131.7478246 -2.461304075e-05 -52.08277039
121.1297056 -2.461304075e-05 67.95849261
221.3250796 -1.434098613 -139.2500974
44.42453964 18.80250839 -139.2500974
199.7421626 13.16418839 -145.2500974
217.5752036 51.98467039 -145.2500974
0.0002636413428 36.96645739 0.006050613694
6.684880641 -2.461304075e-05 -77.92599539
13.92977664 -2.461304075e-05 -58.66802239
177.3583176 -2.461304075e-05 -66.46631939
0.0002636413428 25.37382139 83.42273761
83.04611564 22.43067439 -145.2500974
158.8923796 8.803081387 -145.2500974
17.46562964 -0.149005613 -124.8641804
0.0002636413428 51.77800039 93.72390261
141.7474496 -2.461304075e-05 108.7115066
98.81640264 57.62700839 -139.2500974
17.33046164 1.042501387 -139.2500974
18.93472664 -2.461304075e-05 -17.38721339
54.03834964 21.68781539 -139.2500974
0.0002636413428 41.50560739 134.5617326
81.93515564 -2.461304075e-05 62.12369761
32.57814864 33.77502839 -145.2500974
24.85400864 103.9674944 148.7499026
43.44632064 -2.461304075e-05 112.8647366
5.117427641 -2.461304075e-05 86.81722261
0.0002636413428 68.79447639 56.46584361
164.1877886 -2.461304075e-05 -79.22127139
129.8900716 -2.461304075e-05 44.45902261
115.2827076 -2.461304075e-05 43.23982561
140.9382676 10.99993239 -145.2500974
103.1291566 4.120609387 -139.2500974
0.0002636413428 23.14691639 17.67923861
176.8003996 50.29324039 148.7499026
0.0002636413428 55.39668739 17.84555861
101.3139366 -2.461304075e-05 -29.17259439
171.9055396 -2.461304075e-05 -100.2441174
121.5350336 66.79172439 148.7499026
45.59852764 44.25075839 148.7499026
0.0002636413428 5.473822387 82.63859461
83.06999364 51.55719839 -139.2500974
222.9025116 -2.461304075e-05 85.76391361
143.8738566 -2.461304075e-05 143.6243916
0.0002636413428 35.98099539 -52.73337939
0.0002636413428 18.61879939 -117.7619804
0.0002636413428 69.77941539 -3.023818386
141.7548346 -2.461304075e-05 26.33802961
191.8256146 4.995630387 148.7499026
155.4489986 12.11077239 -139.2500974
211.5910616 19.96532639 148.7499026
155.8898306 -2.461304075e-05 -114.3028164
218.6111646 21.48382639 -139.2500974
237.9806606 26.15150439 -139.2500974
68.73037564 101.4482714 148.7499026
2.892205641 -2.461304075e-05 125.2721866
166.1699006 35.11891139 -145.2500974
29.11898364 -0.957654613 -145.2500974
92.52724664 60.38161839 -145.2500974
151.2233006 53.27622039 -139.2500974
0.0002636413428 32.37068139 -103.2196864
173.6190046 -0.799873613 -139.2500974
46.04276664 10.35067739 -145.2500974
220.2384436 58.83392739 -145.2500974
237.6526366 55.34416239 -145.2500974
33.22805164 118.0392344 148.7499026
146.5109366 -2.461304075e-05 -48.91366939
85.09031764 57.77028239 148.7499026
