# .PCD v0.7 - Point Cloud Data file format
VERSION 0.7
FIELDS x y z
SIZE 4 4 4
TYPE F F F
COUNT 1 1 1
WIDTH 1175
HEIGHT 1
VIEWPOINT 0 0 0 1 0 0 0
POINTS 1175
DATA ascii
-84.22263918 -0.7497426135 -9.738637027e-05
-294.3919622 -2.461352892e-05 182.5951406
99.08407782 46.44320839 -9.738637027e-05
125.9838688 -2.461352892e-05 191.8802976
3.981150821 -2.461352892e-05 210.7690606
-144.7354292 11.50279939 -9.738637027e-05
164.4266968 -2.461352892e-05 244.0536076
189.7745538 -0.8300296135 -9.738637027e-05
-223.2593122 -2.461352892e-05 94.09540061
-210.5004832 15.45739739 -9.738637027e-05
-296.1333592 -1.723417614 -9.738637027e-05
46.57204382 -2.461352892e-05 140.9205436
-64.43964918 -2.461352892e-05 167.3405856
318.9454488 -2.461352892e-05 230.7832126
338.0557818 1.092370386 -9.738637027e-05
344.9995068 24.94906639 156.1060026
76.07618682 -2.461352892e-05 163.4307096
367.3847478 -2.461352892e-05 62.17591861
276.4567648 -2.461352892e-05 202.6868226
-33.62993918 -2.461352892e-05 65.28362561
-367.5632062 -2.461352892e-05 126.0052146
217.9882748 65.98549439 -9.738637027e-05
20.72897882 -2.461352892e-05 244.5939736
-117.8483792 -2.461352892e-05 151.9207926
344.9995068 13.72035039 132.2301546
-12.34712018 -2.461352892e-05 104.4437756
366.9150758 37.97611739 -9.738637027e-05
-350.9995162 39.51891139 228.6544676
348.9995068 16.28695839 24.09769961
24.79199282 -2.461352892e-05 68.47555061
160.4694498 -2.097943614 -9.738637027e-05
-178.6479912 -2.461352892e-05 217.0683086
-366.9950962 -2.461352892e-05 220.0779526
-7.999146179 -2.461352892e-05 159.6446436
-286.6825312 -2.461352892e-05 217.6449016
-350.9995162 23.23934939 25.58030361
-302.4599152 -2.461352892e-05 53.73749761
82.36341082 -2.461352892e-05 14.24767161
51.27546582 67.99997539 -1.415568386
348.9995068 48.66024639 14.58856761
-59.74969318 67.99997539 -1.841932386
153.6622278 43.94256439 -9.738637027e-05
22.56208982 67.60464539 -9.738637027e-05
-350.9995162 44.86061839 177.1839086
361.2283048 -2.461352892e-05 155.6220896
-344.9995162 24.47884639 251.0519596
348.9995068 15.10064339 185.8699066
344.9995068 0.7706813865 80.45436961
-113.5982602 -2.461352892e-05 89.62506961
-220.2983142 60.80448439 -9.738637027e-05
-369.2048562 28.76907339 -9.738637027e-05
-325.5128562 -2.461352892e-05 227.2795396
-182.2302772 18.30317739 -9.738637027e-05
286.7828748 18.20978939 -9.738637027e-05
165.4016208 -2.461352892e-05 169.1139166
-193.9816902 -2.461352892e-05 50.34537561
95.63662382 -2.461352892e-05 54.30991861
-230.2316772 -2.461352892e-05 26.79025561
-87.58552218 -2.461352892e-05 192.0409166
-108.4882022 34.11839539 -9.738637027e-05
344.9995068 53.23751039 158.3397126
304.2677778 -2.461352892e-05 211.1976616
-300.8347472 49.47925539 -9.738637027e-05
110.5589688 -2.461352892e-05 252.4561826
-16.31128118 43.68185839 -9.738637027e-05
225.7000228 -2.461352892e-05 134.7584436
52.01661082 -2.461352892e-05 27.36851961
344.9995068 11.52519539 228.6917936
192.6427008 -2.461352892e-05 205.7354296
344.9995068 1.905089386 45.64682261
-342.6969342 67.57431539 -9.738637027e-05
111.3406468 67.99997539 -1.887789386
52.10019582 -2.461352892e-05 193.6751466
113.9327888 -2.461352892e-05 171.2286986
-8.641740179 -2.461352892e-05 55.60469961
-44.52790118 20.50485439 -9.738637027e-05
-73.42897518 -2.461352892e-05 21.27046661
-258.2579962 -2.461352892e-05 172.6598316
-332.5631322 -2.461352892e-05 135.9181506
-368.4330352 -2.461352892e-05 101.9145396
-36.29210118 67.90781339 -9.738637027e-05
-350.9995162 20.27974039 195.3407166
214.1009568 -2.461352892e-05 45.96542161
51.40804382 -2.461352892e-05 53.89288261
321.3204248 -2.461352892e-05 86.55682261
-45.40327818 -2.461352892e-05 25.47480561
-325.3352712 -2.461352892e-05 96.82331561
-366.5777452 -2.461352892e-05 28.27525861
164.1898228 -2.461352892e-05 101.4499816
206.9757508 -2.461352892e-05 103.9746156
-37.61874818 -2.461352892e-05 141.8379046
-26.85266318 -2.461352892e-05 249.6461486
-3.641601179 -2.461352892e-05 11.73038261
-363.1964592 -2.461352892e-05 50.93860061
-322.1312822 41.27001939 -9.738637027e-05
-233.1493982 -2.461352892e-05 221.0740716
165.5732178 -2.461352892e-05 43.55708361
212.8044348 -2.461352892e-05 188.1612926
-256.8912662 -2.461352892e-05 65.82836861
-70.79456718 -2.461352892e-05 66.48445361
-137.4327802 -2.461352892e-05 194.0616546
-258.5031062 7.772730386 -9.738637027e-05
203.7458698 18.28230439 -9.738637027e-05
-176.7016612 -2.461352892e-05 118.8568786
120.0705138 -2.461352892e-05 95.17640361
-167.9597862 -2.461352892e-05 82.04629761
69.10452082 -2.461352892e-05 251.1952156
45.20438582 -2.461352892e-05 104.3675136
115.5776818 -1.149684614 -9.738637027e-05
29.32202582 -2.461352892e-05 188.5591246
-344.9995162 1.152280386 77.22972561
-279.8956642 15.25261039 -9.738637027e-05
-230.4680352 -2.461352892e-05 172.3282966
-120.0892072 -2.461352892e-05 43.95933161
-259.5963662 -2.461352892e-05 216.8863996
-350.9995162 47.52941339 131.0333566
-195.4368352 -2.461352892e-05 202.2990606
-70.66437618 -2.461352892e-05 113.6233766
271.4651568 -2.461352892e-05 143.7361856
-296.1525842 -2.461352892e-05 107.6037986
324.3111288 47.87178539 -9.738637027e-05
11.81599182 -2.461352892e-05 132.2762266
-58.99054718 -2.461352892e-05 222.9832326
-108.3638072 62.67688839 -9.738637027e-05
327.0791168 -2.461352892e-05 129.2356316
-197.1691982 -1.869710614 -9.738637027e-05
167.5139488 -2.461352892e-05 219.6598626
-140.2309152 67.99997539 -1.513985386
347.6850898 56.67179339 51.57551461
288.7922288 -2.461352892e-05 166.0149346
91.06961482 -2.461352892e-05 212.9232576
-254.0513802 -2.461352892e-05 24.88883061
-31.14471218 -2.461352892e-05 86.76855861
-368.8918092 -2.461352892e-05 169.3470506
-143.9645972 -2.461352892e-05 52.36905861
82.21159782 -2.461352892e-05 132.2376336
348.9995068 45.56154939 114.4665246
-34.81471618 -0.8723946135 -9.738637027e-05
209.3541978 -2.461352892e-05 24.98744561
-129.5620222 29.53253539 -9.738637027e-05
344.9995068 57.23306639 95.64464361
295.1474648 -2.461352892e-05 100.4013736
140.0130638 -2.461352892e-05 231.4559256
-135.7447442 -2.461352892e-05 95.95721061
-194.6306922 -2.461352892e-05 159.6238606
360.7322758 -2.461352892e-05 203.9649046
348.9995068 63.26979939 181.0112266
140.4631318 65.96238039 -9.738637027e-05
82.58369682 -2.461352892e-05 108.9371546
-78.53969318 -2.461352892e-05 151.5421086
-16.01048418 -2.461352892e-05 219.8318786
-350.9995162 48.91602239 52.69190261
-348.8792282 49.99997539 9.758041614
-264.1346092 -2.461352892e-05 139.9142396
127.1901988 -2.461352892e-05 37.16517961
297.8661828 -2.461352892e-05 123.7768316
191.1449918 -2.461352892e-05 252.1593096
-288.6277412 -2.461352892e-05 29.47171261
178.5018268 40.90820239 -9.738637027e-05
235.1712688 -2.461352892e-05 17.17022061
-138.7311392 -2.461352892e-05 223.6773386
12.26665382 -2.461352892e-05 93.24198861
253.2859898 45.67726039 -9.738637027e-05
-173.8474502 50.04958239 -9.738637027e-05
236.2624678 -2.461352892e-05 217.8097736
-344.9995162 20.19259539 113.0663856
278.1034858 -2.461352892e-05 250.3256316
-318.8429582 12.53153839 -9.738637027e-05
112.2887728 30.63710639 -9.738637027e-05
-156.9976062 -2.461352892e-05 18.55553361
248.2266758 -2.461352892e-05 163.5953056
-286.6649942 -2.461352892e-05 69.12172661
-335.3230532 -2.461352892e-05 207.0294966
172.4902828 -2.461352892e-05 120.9807056
136.2581768 -2.197814614 -9.738637027e-05
299.8191298 -2.461352892e-05 55.22666861
166.9432938 -2.461352892e-05 23.02789161
11.97160882 -2.461352892e-05 52.32244861
-183.7992202 -2.461352892e-05 97.53597761
-147.0669612 -2.461352892e-05 119.1723406
98.96731082 -2.461352892e-05 89.24065261
-288.5534142 -2.461352892e-05 241.9548286
348.9995068 82.28635239 234.7480236
-115.0033022 -2.461352892e-05 17.14560661
318.4752388 -2.461352892e-05 197.3064746
76.89158782 14.33917239 -9.738637027e-05
71.93796882 -2.461352892e-05 193.9526966
257.6991798 -2.461352892e-05 25.91587361
348.9995068 32.99014739 231.5569646
184.7011858 -2.461352892e-05 148.2079996
-350.9995162 29.87899439 156.1135816
146.6542338 -2.461352892e-05 185.3314366
-243.0365932 21.07088239 -9.738637027e-05
-77.79658018 -2.461352892e-05 239.3260906
-49.17749418 -2.461352892e-05 179.8740626
344.9995068 0.6036673865 173.0786556
-215.0120712 -2.461352892e-05 75.39178061
362.7249758 18.79156339 -9.738637027e-05
365.7373538 -2.461352892e-05 111.6639296
-52.30900718 -2.461352892e-05 57.13007561
-233.3683962 -2.461352892e-05 136.4101606
62.94843582 -2.461352892e-05 232.6046946
-215.3668532 -2.461352892e-05 121.4559826
317.4818008 -2.461352892e-05 146.7393756
-351.3106202 -2.461352892e-05 233.1607426
-64.46790918 18.71042339 -9.738637027e-05
-340.6618432 -2.461352892e-05 162.5659406
-294.9974622 -2.461352892e-05 135.7113316
-113.9118962 -2.461352892e-05 245.6132956
-352.7454772 -2.461352892e-05 14.69284961
-93.88186718 16.04000839 -9.738637027e-05
-89.00535818 49.08011639 -9.738637027e-05
62.68651082 -2.461352892e-05 94.08899661
15.68466782 -2.461352892e-05 20.83243561
348.9995068 42.64979139 83.56549361
-187.9529892 -2.461352892e-05 233.9733766
3.151624821 13.67739039 -9.738637027e-05
17.34455582 48.82086639 -9.738637027e-05
-155.9497382 -2.461352892e-05 238.4982296
367.9972248 -2.461352892e-05 246.4174366
356.0160988 -2.461352892e-05 17.18109861
208.6244968 -2.461352892e-05 227.6355296
-272.4373782 52.26439539 -9.738637027e-05
257.4000668 -2.461352892e-05 123.9059866
40.18406582 -1.561607614 -9.738637027e-05
-235.2506822 -2.461352892e-05 77.19137161
-66.96774218 50.63505039 -9.738637027e-05
344.9995068 46.38793839 199.6800416
71.16093982 50.52223639 -9.738637027e-05
115.0106708 -2.461352892e-05 125.7813596
-344.9995162 48.10038839 91.64897061
344.9995068 86.12022639 199.5754016
-160.9027622 -2.461352892e-05 138.8594896
-149.8489062 49.76545939 -9.738637027e-05
-344.9995162 8.609988386 56.69287761
268.3588188 -0.6717136135 -9.738637027e-05
231.3438248 -2.461352892e-05 190.5540166
201.3983058 -2.461352892e-05 79.57586161
36.33157982 -2.461352892e-05 124.4663226
-73.05850418 -2.461352892e-05 84.99344561
147.4574288 -2.461352892e-05 138.7888486
322.2227778 -2.461352892e-05 9.774491614
-166.1072772 -2.461352892e-05 195.4472276
-217.8369032 -2.461352892e-05 197.2777056
-263.3381062 -2.461352892e-05 106.2860676
344.9995068 18.79693939 84.68912261
238.1282148 -2.461352892e-05 79.46760361
252.9637038 -2.461352892e-05 45.62193561
-158.5962232 -2.461352892e-05 162.7277316
35.44166682 -2.461352892e-05 158.1193456
-20.98629418 -2.461352892e-05 18.01113161
-218.0115322 -2.461352892e-05 238.0363166
64.74688682 -2.461352892e-05 143.9586926
-194.8195152 -2.461352892e-05 137.3680526
344.9995068 64.81360239 135.0874236
138.1712438 -2.461352892e-05 68.32877761
-349.5202332 -1.800073614 129.0088426
-91.77040418 -2.461352892e-05 81.82764261
92.40697682 -2.461352892e-05 173.1438446
348.9995068 51.48409239 247.7589816
344.9995068 26.06167239 118.6842816
344.9995068 73.27208339 166.2575496
33.79082582 -2.461352892e-05 90.15299961
348.9995068 72.79020639 219.2419706
-112.2789012 -2.461352892e-05 174.5543646
-96.06849818 -2.461352892e-05 232.4025786
-181.0582492 -2.461352892e-05 12.46637261
348.9995068 15.53362739 247.6627246
223.3239718 -2.461352892e-05 95.15019661
344.9995068 21.88246339 49.30492461
295.0449028 52.65507639 -9.738637027e-05
-89.26989118 -2.461352892e-05 46.46645161
86.93863082 29.40979639 -9.738637027e-05
-51.22844418 -2.461352892e-05 153.5763736
-127.9121662 -2.461352892e-05 209.2879286
49.57228682 -2.461352892e-05 218.7682386
-282.2291882 33.00971539 -9.738637027e-05
-80.60470918 -2.461352892e-05 128.5121026
-344.9995162 28.91901939 70.80984661
122.2107668 -2.461352892e-05 236.1795726
344.9995068 103.1226844 233.6525416
-254.6755972 51.04127039 -9.738637027e-05
288.0114478 -2.051415614 -9.738637027e-05
-308.0560442 -2.461352892e-05 224.1443036
222.9187518 -2.461352892e-05 154.4065766
-103.6972732 -2.461352892e-05 107.7533886
153.4520608 15.28695339 -9.738637027e-05
260.4264768 -2.461352892e-05 250.8682756
-353.0338182 -2.461352892e-05 204.6653176
233.8430318 -2.461352892e-05 57.57579761
261.6417328 65.06653339 -9.738637027e-05
348.9995068 0.09442738647 63.32382161
-326.8274612 -2.461352892e-05 31.98497261
-48.90304218 -2.461352892e-05 204.6539316
-140.1753952 -2.461352892e-05 13.48528761
-344.9995162 30.13172739 213.7894846
37.22331582 -2.461352892e-05 234.7034536
-98.90237118 -2.461352892e-05 9.699006614
325.7391878 24.26623539 -9.738637027e-05
312.0666138 -2.461352892e-05 165.2878906
89.62668282 -2.461352892e-05 38.00575961
-278.1202982 -2.461352892e-05 176.5107466
209.7161518 -2.461352892e-05 121.1232346
-328.2704142 -2.461352892e-05 113.9340676
-48.03474918 -2.461352892e-05 127.9492086
119.4940998 -2.461352892e-05 52.72487961
-214.3084212 -2.461352892e-05 163.0181306
-61.45274718 -2.461352892e-05 97.82651261
19.47319382 22.90937639 -9.738637027e-05
-80.35775418 -2.461352892e-05 176.3404036
50.47982682 32.64052439 -9.738637027e-05
-350.9995162 5.114187386 179.1600106
-220.4922262 -2.461352892e-05 12.57116061
235.1058998 45.45022639 -9.738637027e-05
91.97468882 -0.7449096135 -9.738637027e-05
315.5998158 -2.461352892e-05 42.26673261
-326.2435812 -2.461352892e-05 77.53330861
-286.4294142 -2.461352892e-05 197.7411856
169.7480158 -2.461352892e-05 85.26908161
1.303350821 -2.461352892e-05 118.7829826
-49.72894618 -2.461352892e-05 238.3367496
348.9995068 45.47911239 64.40229061
-0.5387981792 50.20443639 -9.738637027e-05
-21.80660018 -2.461352892e-05 177.1152466
348.9995068 0.1868303865 141.7797536
261.6634878 -2.461352892e-05 78.31119261
285.4628958 -2.461352892e-05 220.4646636
-188.2817222 35.11624339 -9.738637027e-05
-272.2808252 -2.461352892e-05 79.01829261
-152.0375522 -2.461352892e-05 76.15122261
-246.5458462 -2.461352892e-05 233.6656376
-252.3670052 -2.461352892e-05 192.9224176
232.3393538 8.068683386 -9.738637027e-05
-185.2955872 -2.461352892e-05 188.8082166
-118.3043252 -2.461352892e-05 129.2555576
-154.8499032 -2.461352892e-05 179.1357436
308.2993018 -2.461352892e-05 243.8050906
-314.7857242 -2.461352892e-05 183.0534666
5.266303821 -2.461352892e-05 227.7226456
257.6898608 -2.461352892e-05 186.3738186
-298.8791712 -2.461352892e-05 165.1637116
280.8279698 -2.461352892e-05 68.18921061
288.5624978 67.99997539 -1.199782386
-313.4607162 -2.461352892e-05 145.5434016
292.1216748 -2.461352892e-05 18.90587661
-265.6719052 67.46189439 -9.738637027e-05
-350.9995162 30.72539339 99.36943561
332.3911658 -2.461352892e-05 99.37494861
348.9995068 32.53851939 18.29321961
-44.25162018 -2.461352892e-05 41.96831561
348.9995068 25.16566839 172.7736126
-22.87827518 -2.461352892e-05 119.3645186
276.0802858 -2.461352892e-05 184.7643736
343.1387118 -2.461352892e-05 193.5926666
209.1094758 -2.461352892e-05 166.0084156
252.7400508 -2.461352892e-05 108.1946216
235.2796588 -2.461352892e-05 234.6799566
-210.8153012 -2.461352892e-05 43.00969561
-17.23600318 -2.461352892e-05 146.2012396
350.8860578 -2.461352892e-05 124.3107016
-259.1188812 -2.461352892e-05 155.4123496
1.822495821 -2.461352892e-05 145.1152686
348.9995068 9.791963386 209.5442316
197.4782028 -2.461352892e-05 43.37114561
125.5949768 -2.461352892e-05 113.5286566
139.6632718 28.82825339 -9.738637027e-05
249.3667348 15.86425839 -9.738637027e-05
-344.9995162 24.65862039 234.9260336
334.5821378 -2.461352892e-05 224.1966686
187.6607808 19.30048039 -9.738637027e-05
-125.7362322 -2.461352892e-05 1.808948614
-164.3336742 -2.461352892e-05 224.4424766
354.3153118 52.89521239 -9.738637027e-05
268.6093548 40.99068539 -9.738637027e-05
219.4969448 41.85402939 -9.738637027e-05
-347.6891512 3.842896386 -9.738637027e-05
284.0797328 -2.461352892e-05 34.77350961
-336.1628852 48.88716039 -9.738637027e-05
311.6294768 -2.461352892e-05 73.89390661
202.1617858 -2.461352892e-05 9.960334614
-259.0812672 -2.461352892e-05 249.2387346
344.9995068 53.63977239 36.19597161
348.9995068 13.71622639 6.180230614
-17.08813018 0.4868473865 -9.738637027e-05
280.6151218 -2.461352892e-05 91.07387661
344.9995068 13.43277439 100.4418196
339.9418098 45.57679939 -9.738637027e-05
-344.9995162 33.16350239 37.97571061
-350.9995162 15.35930239 149.6672066
24.42345582 -2.461352892e-05 225.5006036
36.32940482 -2.461352892e-05 25.90539561
-230.9392862 -2.461352892e-05 44.91686061
178.4650098 -2.461352892e-05 56.80609561
-163.0705562 -2.461352892e-05 44.48967561
75.99850882 -2.461352892e-05 59.89514161
-182.1403652 -2.461352892e-05 66.12044061
249.5442238 -2.461352892e-05 92.80960861
-312.9272462 -2.461352892e-05 10.53510761
-324.3489162 -2.461352892e-05 243.6927446
-160.1692692 18.31230039 -9.738637027e-05
-54.99260318 32.15508339 -9.738637027e-05
-350.9995162 18.26796239 8.090938614
-344.9995162 4.902199386 94.88568661
316.3263398 10.69692439 -9.738637027e-05
-25.45898718 56.36926039 -9.738637027e-05
182.4720398 -2.461352892e-05 14.52759061
243.9943968 -2.461352892e-05 178.9012856
101.8445678 -2.461352892e-05 225.1176506
208.4437048 -2.461352892e-05 65.26974961
149.3813328 -2.461352892e-05 33.07697061
-247.1224542 -2.461352892e-05 103.3401426
-344.9995162 34.69882439 17.02127161
353.6882698 -2.461352892e-05 240.4926056
241.9707378 -2.461352892e-05 127.3890756
-310.4924382 -2.461352892e-05 68.21806461
344.9995068 28.10864239 193.3257836
-298.5199392 -2.461352892e-05 16.03215061
-344.9995162 33.62289039 190.4826826
-280.7501162 -2.470246614 -9.738637027e-05
-350.9995162 30.75703739 122.5249176
-338.2486872 -2.461352892e-05 21.19277561
-123.0520512 67.02727639 -9.738637027e-05
344.9995068 38.59406239 163.0376196
175.1503058 3.633080386 -9.738637027e-05
-257.2158342 -2.461352892e-05 121.8227346
344.9995068 43.50271239 214.6744696
360.6118328 -2.461352892e-05 171.8233166
-143.7348692 35.80925539 -9.738637027e-05
-94.63607418 -2.461352892e-05 205.5367336
-344.9995162 17.37238539 38.28208561
67.22582382 -2.461352892e-05 27.39542661
-202.3633902 -2.461352892e-05 88.45195661
132.8485488 -2.461352892e-05 215.5689836
99.85227482 -2.461352892e-05 126.4850596
123.8534378 -2.461352892e-05 155.2530316
-93.54860318 31.57662439 -9.738637027e-05
189.3892728 -2.461352892e-05 108.8324456
359.7302808 -2.461352892e-05 48.25308861
348.9995068 67.46082539 237.3222836
237.7628268 -2.461352892e-05 152.0254456
-100.4934402 -2.461352892e-05 183.8783026
17.13836282 -2.461352892e-05 177.1029716
330.7642588 -2.461352892e-05 114.7055976
31.62257782 -2.461352892e-05 140.9866556
-177.9923022 -2.461352892e-05 45.26552461
256.0125628 -2.461352892e-05 212.9835036
9.919374821 -2.461352892e-05 69.72444661
-28.59502818 -2.461352892e-05 233.7337376
219.6253458 15.85847839 -9.738637027e-05
-280.7608972 -2.461352892e-05 140.1187096
-234.6240302 56.71053639 -9.738637027e-05
-344.9995162 36.26053739 142.4036166
-68.87773618 -2.461352892e-05 211.8487076
-125.7245712 -2.461352892e-05 182.8548436
-249.7489292 -2.461352892e-05 136.2271676
30.85829982 -2.461352892e-05 11.45116761
344.9995068 86.54522739 250.0384576
16.16055882 -2.461352892e-05 36.67376861
-369.2996862 -2.461352892e-05 152.5340656
-190.7241982 49.66543039 -9.738637027e-05
-322.5023832 -2.461352892e-05 198.8812106
348.9995068 26.23856139 138.8691866
359.9263688 -2.461352892e-05 74.85288761
179.4393878 -2.461352892e-05 164.7702776
-344.9995162 4.587924386 192.5613306
-202.5728652 -2.461352892e-05 62.26228861
348.9995068 7.848863386 157.7263066
-149.9337082 -2.461352892e-05 92.18364161
-228.3826022 21.64916639 -9.738637027e-05
347.8124798 -2.461352892e-05 29.33193761
-336.9174482 13.71988539 -9.738637027e-05
210.3798878 -2.461352892e-05 136.1256756
127.7784638 -2.461352892e-05 18.33068561
184.2141868 -2.461352892e-05 79.63267761
156.7703368 -2.461352892e-05 117.9734486
-354.9780842 41.17848139 -9.738637027e-05
-220.3900132 45.43503139 -9.738637027e-05
-52.21722718 -2.461352892e-05 110.8070096
-124.3749062 -2.461352892e-05 235.6061526
-117.6373752 -2.461352892e-05 73.29265761
-350.9995162 49.50608439 218.1831056
-13.49564818 -2.461352892e-05 202.4755606
83.72871682 -2.461352892e-05 251.2371676
301.9611958 12.65008639 -9.738637027e-05
-246.0727192 -2.461352892e-05 7.993665614
17.11736782 -2.461352892e-05 204.8081816
-25.83425718 -2.461352892e-05 53.15796661
-298.7693252 -2.461352892e-05 39.80699161
223.2249668 -2.461352892e-05 28.83623561
-276.2417122 -2.461352892e-05 249.3770426
-310.1696532 -2.461352892e-05 110.7727776
156.4026958 -2.461352892e-05 232.1353156
329.5733898 -2.461352892e-05 241.6625716
-355.4815972 -2.461352892e-05 164.2307546
-23.82480818 31.45738539 -9.738637027e-05
-287.6503332 -2.461352892e-05 83.43409261
-344.9995162 11.64444539 242.3424166
-79.10202918 12.64162639 -9.738637027e-05
90.41248582 57.84151239 -9.738637027e-05
58.52185182 -2.461352892e-05 41.46749661
66.56548382 -2.461352892e-05 174.1294626
282.8155918 -2.461352892e-05 135.0325416
-299.9546212 -2.461352892e-05 150.9271876
-124.4007652 -2.461352892e-05 29.04011461
38.95084682 -2.461352892e-05 69.77923561
197.0589448 -2.461352892e-05 189.1177766
-223.8333582 -2.461352892e-05 108.2976566
352.9287368 -2.461352892e-05 222.4671896
28.31047582 33.98748339 -9.738637027e-05
105.4513518 -2.461352892e-05 210.2411126
-16.08240118 -2.461352892e-05 67.64499861
-221.2395142 -2.461352892e-05 251.8064356
-344.9995162 14.59966439 69.47656461
-260.7810642 -2.461352892e-05 43.69235261
-227.5720592 -2.461352892e-05 158.1929336
-273.2059982 -2.461352892e-05 213.2259076
-89.61453518 -2.461352892e-05 64.01537361
167.3341138 49.48264839 -9.738637027e-05
344.9995068 37.59285939 53.32677661
263.4896678 -2.461352892e-05 61.53275461
131.9480138 -2.461352892e-05 179.1749826
191.0637058 32.91354939 -9.738637027e-05
197.7462618 -2.461352892e-05 239.8000416
309.3860808 -2.461352892e-05 15.37803261
348.9995068 75.02245739 192.0340886
225.8307538 -2.461352892e-05 245.0018396
-177.9859992 -2.461352892e-05 202.8351196
43.68630982 -2.461352892e-05 38.60426661
102.7783298 -2.461352892e-05 161.3896576
-200.6749792 25.35456739 -9.738637027e-05
96.07010082 -2.461352892e-05 16.80464161
78.91528482 -2.461352892e-05 149.7945276
273.3981438 12.31112739 -9.738637027e-05
-344.9995162 12.99438639 130.4058416
-356.6068692 67.65973139 -9.738637027e-05
-315.5384482 28.23131539 -9.738637027e-05
-344.9995162 37.13195839 241.0238876
-313.1065382 -2.461352892e-05 39.60381361
-13.44187018 -2.461352892e-05 29.66107561
165.7984128 35.32338939 -9.738637027e-05
-358.6219482 -2.461352892e-05 64.36100761
-195.0961892 11.82770639 -9.738637027e-05
247.0902908 33.28813339 -9.738637027e-05
255.5533638 -2.461352892e-05 12.23476661
-341.4724552 -2.461352892e-05 223.4299606
-190.5152462 -2.461352892e-05 119.1108116
196.3125918 -2.461352892e-05 160.8054686
-79.42974318 -2.461352892e-05 36.78345061
-106.3437882 -2.461352892e-05 213.7927386
-199.0546902 -2.461352892e-05 35.81126661
158.3690398 -2.461352892e-05 157.2757436
-296.5708942 66.53104439 -9.738637027e-05
56.42105182 45.04823639 -9.738637027e-05
160.2215618 -2.461352892e-05 183.1513696
64.99072382 67.99997539 -2.095477386
-233.2495952 -2.461352892e-05 60.52332561
112.1228378 -2.461352892e-05 17.80575861
335.4484678 14.58344239 -9.738637027e-05
-293.7055142 -2.461352892e-05 122.0605716
323.3310588 67.99997539 -1.823613386
-17.45788218 -2.461352892e-05 86.29689261
-12.58228918 -2.461352892e-05 188.8223866
-42.25865818 -2.461352892e-05 191.6773716
231.3741998 63.24402839 -9.738637027e-05
-350.9995162 38.88549739 81.70069861
-124.2098502 -2.461352892e-05 163.9713216
-35.60302218 -2.461352892e-05 178.7304836
269.4111028 -2.461352892e-05 157.1780436
104.0034618 -2.461352892e-05 240.3926826
325.7198398 -2.461352892e-05 161.7483796
-303.4895992 9.691857386 -9.738637027e-05
-31.85457318 -2.461352892e-05 208.9665636
-180.6843232 63.09943239 -9.738637027e-05
54.48477982 -2.461352892e-05 156.9506626
293.1020548 32.38852639 -9.738637027e-05
-238.6460012 -2.461352892e-05 185.1323096
175.1139748 67.51716639 -9.738637027e-05
-174.9834662 -2.461352892e-05 132.6316336
-126.7699652 -2.461352892e-05 59.16358661
-189.8384252 -2.461352892e-05 176.0963786
274.5331068 -2.461352892e-05 104.7690606
152.4915408 -2.461352892e-05 78.60786961
0.3935248208 -2.461352892e-05 100.0190726
77.84197482 -2.461352892e-05 96.32755461
-7.429838179 31.07057839 -9.738637027e-05
-133.1244822 -2.461352892e-05 149.1870906
0.6310358208 -2.461352892e-05 252.1821996
344.9995068 42.90778239 149.7275926
-345.3524392 49.99997539 166.1176746
38.11363582 -2.461352892e-05 56.36575961
-220.9392382 -2.461352892e-05 215.4786346
-245.7271592 -2.461352892e-05 216.4264286
96.20661282 -2.461352892e-05 76.12014561
-155.5416532 -2.461352892e-05 5.233837614
82.85866182 -2.461352892e-05 227.5294656
186.0422418 54.42284239 -9.738637027e-05
-207.8732252 -2.461352892e-05 8.083290614
45.98448782 -2.461352892e-05 11.96576261
-132.7669112 -2.461352892e-05 128.0038516
-345.9085212 49.99997539 235.2244236
29.81961482 -2.461352892e-05 170.2458216
6.816527821 62.14849339 -9.738637027e-05
-47.61168718 57.74114339 -9.738637027e-05
-182.1496492 -2.461352892e-05 79.47482461
-31.67734118 -2.461352892e-05 26.35247861
-216.1745062 -2.461352892e-05 25.19131361
348.9995068 58.77435839 215.7850036
268.5191728 -2.461352892e-05 240.2729316
-245.7812982 34.29411939 -9.738637027e-05
348.9995068 22.87193739 222.9119316
-61.26428518 -2.461352892e-05 26.66338561
151.9468628 -2.461352892e-05 96.25808561
234.8100508 -2.461352892e-05 204.6007016
344.9995068 55.95929939 144.9935376
330.1654868 -2.461352892e-05 190.7959546
-108.1539662 -2.461352892e-05 38.17576861
-218.5644102 -2.461352892e-05 181.7892996
356.0014358 -2.461352892e-05 87.79014261
315.2922158 -2.461352892e-05 56.15885661
-293.5231852 -2.461352892e-05 229.6864136
-210.4446262 -2.461352892e-05 98.92474161
-48.76344518 -2.461352892e-05 12.55226161
-289.6496862 -2.461352892e-05 50.50729861
344.9995068 59.05163439 122.1071236
211.6763518 54.39300239 -9.738637027e-05
-354.9864752 -2.461352892e-05 248.8350566
-367.2183982 -2.461352892e-05 233.2562266
330.6517038 -2.461352892e-05 76.10759961
344.9995068 27.21686039 30.24599861
184.3173428 -2.461352892e-05 43.56707761
-331.4169882 -2.461352892e-05 171.9319546
202.5718538 -2.461352892e-05 214.3665196
348.9995068 44.98492239 98.25921361
-335.8233032 -2.461352892e-05 86.53537061
-7.799489179 -2.461352892e-05 172.7542016
183.9135158 -2.461352892e-05 215.5150956
221.1514318 -2.461352892e-05 62.05214861
310.9577358 -2.461352892e-05 124.0772476
-243.4458812 -2.461352892e-05 170.5993536
305.9527608 -2.461352892e-05 229.2614166
287.6618878 -2.461352892e-05 195.0879076
107.4506168 -2.461352892e-05 59.89528061
53.06874782 19.83249039 -9.738637027e-05
344.9995068 16.15781639 198.6016546
-49.19235318 -2.461352892e-05 166.8126466
-327.4781412 22.99339239 -9.738637027e-05
344.9995068 49.71637639 171.1064416
157.0942528 -2.461352892e-05 58.21957061
93.34843582 -2.461352892e-05 100.9590326
163.8834208 -2.461352892e-05 205.8802166
-223.2028612 9.731728386 -9.738637027e-05
-174.1523352 28.43652639 -9.738637027e-05
21.35705782 -2.461352892e-05 84.02982561
344.9995068 56.21125339 191.0908176
-339.4892552 -2.461352892e-05 120.7618926
136.7988888 -2.461352892e-05 201.2340776
-344.9995162 36.98698239 58.07470461
-101.4081822 -2.461352892e-05 73.21624161
-80.47396918 -2.461352892e-05 202.8329226
-313.4728622 54.34420639 -9.738637027e-05
348.9995068 43.45344239 27.98829561
174.7038278 -2.461352892e-05 133.7102736
-191.2427972 -2.461352892e-05 252.1289966
41.00637082 -2.461352892e-05 200.2443586
-267.7822242 -2.461352892e-05 26.43914761
-17.84484918 66.77278639 -9.738637027e-05
348.9995068 10.77802339 56.11045761
76.09866882 -2.461352892e-05 240.3684996
271.9269928 -2.461352892e-05 39.38215861
87.94167082 -2.461352892e-05 64.70182061
61.00029282 -2.461352892e-05 108.0454796
348.9995068 11.01478539 114.7113926
344.9995068 12.98719039 73.21096361
114.3616418 -2.461352892e-05 146.5710016
-106.6773342 -2.461352892e-05 159.7258836
0.7340268208 -2.461352892e-05 198.3457106
-47.42042718 -2.461352892e-05 98.90020961
-319.9500592 -2.085069614 -9.738637027e-05
111.3243418 15.52850339 -9.738637027e-05
-275.7800192 -2.461352892e-05 109.3598646
-66.89459518 -2.461352892e-05 181.9589086
-344.9995162 37.33725439 168.7544716
-344.9995162 13.14303539 18.15977161
-101.8290602 -2.461352892e-05 122.2188546
-151.0133872 -2.461352892e-05 63.01978461
126.4793308 -2.461352892e-05 79.12321561
275.8254718 67.99997539 -0.5511343864
68.99543382 -2.461352892e-05 76.08953961
102.7719578 -2.461352892e-05 180.5406156
-142.4097722 -2.461352892e-05 182.3513196
-65.37288318 -2.461352892e-05 236.5916376
28.55956182 56.42047439 -9.738637027e-05
-238.2180312 -2.461352892e-05 90.85327861
99.24160882 32.48157639 -9.738637027e-05
64.02387682 -2.461352892e-05 55.16596861
-65.86244918 -2.461352892e-05 151.6988106
-344.4995162 -2.483404614 142.4079616
-350.9995162 12.31822139 230.2398436
136.5543998 41.10401039 -9.738637027e-05
-185.5028732 -2.461352892e-05 34.23045361
54.91428882 -2.461352892e-05 207.2949066
71.59355182 -2.461352892e-05 7.600701614
-205.7400242 -2.461352892e-05 193.6085246
-65.44671518 -2.461352892e-05 11.44176261
-363.7554152 -2.461352892e-05 113.9613596
-350.9995162 12.61148839 102.8862086
197.0721358 -2.461352892e-05 22.08862361
-350.9995162 12.36587639 206.1325336
-170.9582662 -2.461352892e-05 94.30018061
308.6403348 -2.461352892e-05 137.7459516
-164.5400942 -2.461352892e-05 122.1506546
156.6415948 56.15850239 -9.738637027e-05
131.9369818 -2.461352892e-05 128.8123026
-108.0572632 -2.461352892e-05 141.1472766
107.4730978 56.19013739 -9.738637027e-05
151.9307698 -2.461352892e-05 170.0610466
-99.31854518 -2.461352892e-05 94.70889361
-182.1495002 -0.5016726135 -9.738637027e-05
-350.9995162 48.81093739 192.4349576
365.4514428 -2.461352892e-05 143.8464136
218.0114798 -2.461352892e-05 15.96706361
3.398153821 -2.461352892e-05 1.409868614
140.4691538 13.76644639 -9.738637027e-05
-151.3094382 -2.461352892e-05 40.28260461
-80.91474218 -2.461352892e-05 163.7849076
-286.1113982 -2.461352892e-05 17.12749161
-350.9995162 8.017310386 117.9419876
352.2535588 -2.449028614 -9.738637027e-05
-22.43964318 -2.461352892e-05 157.5012116
147.6587518 2.762746386 -9.738637027e-05
199.4032388 56.18183539 -9.738637027e-05
-165.4728962 -2.461352892e-05 152.4189546
103.7580398 3.071380386 -9.738637027e-05
147.5812758 -2.461352892e-05 151.1726886
344.9995068 37.06370639 126.1936906
344.9995068 45.90458839 237.4664516
-320.4328082 -2.461352892e-05 211.4697006
90.58339482 -2.461352892e-05 159.3486896
105.8060308 -2.461352892e-05 195.8078876
-269.4330392 -2.461352892e-05 167.3864076
303.8727858 -2.461352892e-05 174.5110416
-111.6480012 22.19453739 -9.738637027e-05
350.6180028 64.65424839 -9.738637027e-05
-295.2809272 34.78730639 -9.738637027e-05
49.54153382 -2.461352892e-05 235.0306076
-245.4948772 -2.461352892e-05 59.29948161
-51.88940218 -2.461352892e-05 69.90405461
64.65172682 13.29891339 -9.738637027e-05
210.4220018 28.59317339 -9.738637027e-05
132.9658138 -2.461352892e-05 56.24078861
348.9995068 12.11611539 171.7397136
-341.1728622 -2.461352892e-05 48.39981961
348.9995068 38.78231539 4.701749614
-71.70041318 -2.461352892e-05 225.6620636
344.9995068 10.97414539 146.5815806
-14.40160218 -2.461352892e-05 42.05496861
-255.3966062 19.61148539 -9.738637027e-05
-36.04104018 30.95572739 -9.738637027e-05
149.5053598 -2.461352892e-05 197.2181426
348.9995068 93.87708439 240.5386416
221.5785368 -2.461352892e-05 118.2642546
-326.9122522 57.24968439 -9.738637027e-05
-334.7729332 -2.461352892e-05 235.2155396
171.5487348 -2.461352892e-05 154.6287616
329.1690598 -2.461352892e-05 39.97683161
-297.6927172 -2.461352892e-05 212.4764996
-354.1689082 28.62286439 -9.738637027e-05
-106.2018112 -0.5577156135 -9.738637027e-05
348.9995068 55.89755039 108.0907406
-13.62013118 -2.461352892e-05 249.5802416
348.9995068 18.89233139 38.11791161
210.3700738 -2.461352892e-05 200.0347766
-10.62196018 57.06862539 -9.738637027e-05
-274.1296062 -2.461352892e-05 225.2865546
-349.9848702 49.99997539 117.7771246
261.8755378 -2.461352892e-05 202.4096596
-75.86287018 -2.461352892e-05 52.01709161
344.9995068 31.39354839 85.28603561
-350.9995162 10.76023539 85.43323261
80.19420982 -2.461352892e-05 174.7572286
356.2900748 28.97920939 -9.738637027e-05
17.74228182 -2.461352892e-05 121.2004476
-210.3161222 -2.461352892e-05 209.8189306
-247.7368342 -2.461352892e-05 204.5596116
147.6637108 -2.461352892e-05 240.7415266
-24.71904718 -2.461352892e-05 131.2357176
157.7281498 -2.461352892e-05 132.5580946
344.9995068 0.7906613865 92.53665261
122.6672318 64.53103739 -9.738637027e-05
-325.2820432 -2.461352892e-05 147.4310776
-267.6393442 15.49400839 -9.738637027e-05
205.4503788 5.748948386 -9.738637027e-05
-138.2521882 54.27814539 -9.738637027e-05
76.70459982 -2.461352892e-05 206.7951786
-84.99568018 -2.461352892e-05 11.89735661
-116.7898292 -2.461352892e-05 204.9293726
242.9127488 -2.461352892e-05 28.08386161
249.4997378 57.42950939 -9.738637027e-05
108.6153598 -2.461352892e-05 42.47509661
23.30832082 -2.461352892e-05 97.74350261
-99.58733718 42.02796139 -9.738637027e-05
-356.7715872 52.94884939 -9.738637027e-05
-179.1234162 -2.461352892e-05 157.5853556
367.8379498 -2.461352892e-05 16.04776361
115.4269028 44.46856239 -9.738637027e-05
274.6369818 -2.461352892e-05 215.6004986
-266.0234222 -2.461352892e-05 5.759215614
-350.9995162 16.83318239 182.0509246
297.1868368 -2.461352892e-05 8.048551614
173.7148518 -2.461352892e-05 183.3693586
317.1918308 -2.461352892e-05 30.57003561
-241.8272812 -2.461352892e-05 24.61512161
-298.3041962 -2.461352892e-05 71.04990761
344.9995068 4.198353386 17.48753061
-142.6065972 -2.461352892e-05 206.3012566
-202.0252872 -2.461352892e-05 148.0706326
295.5567348 -2.461352892e-05 247.3343626
-95.77962618 -2.461352892e-05 145.9205316
145.4451148 52.38786639 -9.738637027e-05
10.97807782 -2.461352892e-05 105.1912876
-193.9717462 -2.461352892e-05 221.2094866
338.8219048 -2.461352892e-05 129.9597676
-167.4146732 -2.461352892e-05 13.11331661
-199.0888372 57.91304439 -9.738637027e-05
344.9995068 67.28318539 156.1708156
-142.2300712 -2.461352892e-05 82.57531561
-144.4484072 -2.461352892e-05 103.8100516
-344.9995162 28.42248239 201.2412226
-360.1323962 -2.461352892e-05 93.66193561
-367.0824782 -2.461352892e-05 201.2478656
-136.7513382 20.04391539 -9.738637027e-05
-154.8015712 -2.461352892e-05 128.8879446
-350.9995162 32.99011939 180.4822206
-315.0768382 -2.461352892e-05 51.10936061
285.3011108 -2.461352892e-05 153.0420956
-350.9995162 13.43358939 47.96159661
-304.9728532 -2.461352892e-05 176.7979386
129.2120108 -2.461352892e-05 102.4713016
-234.9138672 -2.461352892e-05 233.7292356
-268.0621732 41.49553839 -9.738637027e-05
-126.8170042 -2.461352892e-05 220.8575956
-211.2777962 53.48588639 -9.738637027e-05
95.33851582 -2.461352892e-05 251.4363046
80.37571182 -1.282079614 -9.738637027e-05
344.9995068 70.98064539 124.1655766
126.5743818 -2.461352892e-05 5.967658614
336.9000268 -2.461352892e-05 164.7828186
-129.9122692 -2.461352892e-05 18.82267361
272.6290698 23.92075439 -9.738637027e-05
287.5735588 -2.461352892e-05 51.48889561
-340.2943242 -2.461352892e-05 62.71270661
116.6449088 -2.461352892e-05 199.6510996
-344.9995162 48.52364439 62.49402661
-210.5916052 66.96940639 -9.738637027e-05
-169.3686872 11.42251539 -9.738637027e-05
-233.6655672 67.99997539 -1.889420386
-113.8651692 -2.461352892e-05 60.83262361
182.0587578 -2.461352892e-05 194.0574626
-230.5128982 -2.461352892e-05 117.6005716
348.9995068 62.60064339 167.3283606
-264.6805852 -2.461352892e-05 183.0326516
-344.9995162 35.54415739 90.85394461
-311.2317112 -2.461352892e-05 235.1354346
271.3464388 -2.461352892e-05 27.90888961
-3.114776179 -2.461352892e-05 23.14620961
116.2165858 -2.461352892e-05 84.42696061
-193.1324402 -2.461352892e-05 10.51185861
-38.46721218 -2.461352892e-05 240.1932256
323.2140928 -2.461352892e-05 207.6714296
25.94076182 13.52574639 -9.738637027e-05
296.4532648 -2.461352892e-05 66.10738461
-124.8486302 -2.461352892e-05 248.7879966
-13.25927818 -2.461352892e-05 231.7814016
97.87173882 66.39799939 -9.738637027e-05
-253.1263652 -2.461352892e-05 77.13797961
-354.1551732 -2.461352892e-05 44.09684361
-292.1750492 8.979558386 -9.738637027e-05
183.9539458 -2.461352892e-05 66.71899461
297.9639428 -2.461352892e-05 199.8018536
344.9995068 36.03895939 70.45608061
-67.25508118 39.31376039 -9.738637027e-05
-64.67135418 -2.461352892e-05 56.95953761
345.0832708 -1.449502614 230.4977296
-258.2588532 -2.461352892e-05 233.4528956
43.93921282 -2.461352892e-05 185.8343096
121.8451918 -2.461352892e-05 251.6500586
365.5272798 51.38788439 -9.738637027e-05
348.9995068 22.93161839 236.7248836
-293.8894422 -2.461352892e-05 96.52411461
-51.11459518 9.470638386 -9.738637027e-05
-350.9995162 13.68608439 251.6901346
-350.9995162 34.39246439 250.1913896
-344.9995162 9.572553386 157.2592856
6.327489821 -2.461352892e-05 155.4411296
22.30889582 -2.461352892e-05 57.48822261
167.6256848 -2.461352892e-05 231.1764996
-344.9995162 24.30524339 146.4370616
-327.0707512 -2.461352892e-05 19.99775961
51.56839182 -2.461352892e-05 92.45497761
364.1960678 -2.461352892e-05 214.6552736
123.5256468 30.72073039 -9.738637027e-05
-223.0993802 33.58891739 -9.738637027e-05
87.83322582 11.81354839 -9.738637027e-05
-290.1630152 24.79223939 -9.738637027e-05
56.76385482 -2.461352892e-05 15.09628661
-350.9995162 38.78119239 25.58348361
2.925301821 -2.461352892e-05 58.95669961
-64.57662818 -2.461352892e-05 123.0392886
-364.9824262 -2.461352892e-05 39.36975461
-306.3983292 -2.461352892e-05 136.8501606
359.3232358 -2.461352892e-05 189.6455476
249.2333678 -2.461352892e-05 80.55828161
-188.5589052 -2.461352892e-05 23.50400161
-314.2096052 -2.461352892e-05 96.08791661
342.9103928 -2.461352892e-05 216.7836316
312.9095648 24.17786839 -9.738637027e-05
-224.6040522 -2.461352892e-05 83.03309461
67.97823382 -2.461352892e-05 155.7762966
319.1175448 -2.461352892e-05 219.6416296
-162.7660072 48.93462439 -9.738637027e-05
344.9995068 49.55653039 127.9202856
168.6414078 -2.461352892e-05 8.266033614
-178.0034102 -2.461352892e-05 107.8258436
7.490262821 -2.461352892e-05 11.73480261
206.8906298 65.63589539 -9.738637027e-05
-350.7573432 49.99997539 40.45518461
195.2124648 -2.461352892e-05 70.36972261
2.994285821 -2.461352892e-05 45.81835561
-81.64188718 57.56910339 -9.738637027e-05
-352.7853742 -2.461352892e-05 215.7264986
290.9271208 -2.461352892e-05 110.6112976
-131.9258122 -2.461352892e-05 106.8015786
-187.7995072 -2.461352892e-05 210.8979846
179.3364608 27.61964839 -9.738637027e-05
246.2329048 -2.461352892e-05 240.1012686
302.4210258 -2.461352892e-05 113.7345056
344.9995068 42.31805539 227.0593606
-350.9995162 22.02951639 221.9400896
27.20248882 -2.461352892e-05 32.33208861
-225.8447632 -2.461352892e-05 204.8053486
-90.91757918 -2.461352892e-05 123.5340716
-76.93583618 -2.461352892e-05 98.71061961
285.9460358 -2.461352892e-05 209.4924696
-82.20817218 -2.461352892e-05 139.3707346
120.8474708 -2.461352892e-05 182.1815356
305.5905528 -2.461352892e-05 148.2800796
-350.9995162 1.226471386 25.44793761
-297.3606122 -2.461352892e-05 201.5177326
-288.8753722 -2.461352892e-05 147.4913476
9.856785821 -2.461352892e-05 246.2617866
344.9995068 20.79252639 108.5570416
-145.9423472 -0.5736426135 -9.738637027e-05
-350.9995162 27.02403839 80.34019361
-59.98846618 -2.461352892e-05 205.4784776
-149.9534642 -2.461352892e-05 26.91973961
-344.9995162 8.403003386 143.2503766
348.9995068 4.477016386 183.3430056
-45.89001418 -2.461352892e-05 1.448649614
266.0034748 -2.461352892e-05 134.2901886
224.9466258 -2.461352892e-05 47.08007361
344.9995068 57.42671839 84.74452961
-118.9533022 -2.461352892e-05 102.8498126
-9.588374179 -2.461352892e-05 119.0366976
245.0272648 -2.461352892e-05 224.2710876
-77.17891318 -2.461352892e-05 250.1938166
316.0981388 -2.461352892e-05 99.39912061
-151.0021772 -2.461352892e-05 248.1652646
-249.1507202 -2.461352892e-05 244.8514166
-350.9995162 12.74304739 28.31067161
20.32955582 -2.461352892e-05 138.9937446
-195.3919872 -2.461352892e-05 241.8635496
-107.7528722 -2.461352892e-05 236.6964826
-360.9951712 -2.461352892e-05 82.56283461
-349.7383612 49.99997539 105.6834846
-251.8982002 -2.461352892e-05 182.1200066
-236.4841462 -2.461352892e-05 105.2634956
-350.9995162 35.00611939 133.5268516
94.02244782 -2.461352892e-05 27.39352161
-111.7400042 -2.461352892e-05 28.01115261
-288.1045532 -2.461352892e-05 165.2861446
192.6636688 44.72319739 -9.738637027e-05
-359.0064572 -2.461352892e-05 133.7510476
153.9603128 -2.461352892e-05 42.79503361
111.8889668 -2.461352892e-05 136.1170936
69.68657182 -2.461352892e-05 223.5562596
225.9917428 53.96082139 -9.738637027e-05
-344.9995162 20.30204639 157.4079116
-135.3083922 -2.461352892e-05 159.6829076
344.9995068 32.54645239 146.5522676
-81.54538218 -2.461352892e-05 78.45615961
327.6165488 58.35308439 -9.738637027e-05
-344.9995162 39.47995039 124.1435676
-84.36988218 21.94441339 -9.738637027e-05
-218.3829322 0.1957643865 -9.738637027e-05
151.1377548 65.64340539 -9.738637027e-05
348.6817298 -2.461352892e-05 202.7203646
338.5182488 -2.461352892e-05 183.9846066
344.9995068 94.04905739 228.0621956
72.87188882 -2.461352892e-05 86.82280661
220.2279928 -2.461352892e-05 177.7716886
139.3081448 -2.461352892e-05 41.30906761
365.0946918 -2.461352892e-05 101.0337546
-53.18791018 -2.461352892e-05 36.18510361
211.5609138 -2.461352892e-05 94.37014461
-282.2671342 -2.461352892e-05 207.6461166
348.9995068 76.50995939 202.5692606
-136.5850132 -2.461352892e-05 117.3677066
228.8744978 -2.461352892e-05 145.5965746
227.4527328 -2.461352892e-05 84.07686361
-25.68451218 -2.461352892e-05 77.67161361
57.64453482 59.63509839 -9.738637027e-05
348.9995068 56.06175739 63.73411161
-350.9995162 37.57498439 202.8345166
199.9601668 -2.461352892e-05 116.9928806
344.9995068 57.24042339 239.8372226
55.25879982 -2.461352892e-05 134.8910536
219.1597268 -2.461352892e-05 228.5362616
-283.8057342 -2.461352892e-05 185.4190546
204.1175778 -2.461352892e-05 34.16213261
358.4768458 9.120307386 -9.738637027e-05
-359.9030692 -2.461352892e-05 176.6816246
267.1473808 -2.461352892e-05 191.0621456
-311.5777742 41.48449039 -9.738637027e-05
84.83255582 -2.461352892e-05 119.2412806
241.5203288 -2.461352892e-05 47.01145861
-265.8313332 -2.461352892e-05 57.23011961
178.2620858 -2.461352892e-05 100.9830206
-308.2960142 67.99997539 -0.3409793864
55.77862182 -2.461352892e-05 63.42460361
148.2826838 -2.461352892e-05 10.58944361
82.26616782 38.78913139 -9.738637027e-05
-350.9995162 48.94883839 19.96265661
344.9995068 36.39969739 108.3114376
-235.2111912 -2.461352892e-05 10.32606061
344.9995068 81.53499439 215.1254896
134.1779558 -2.461352892e-05 156.9128156
-137.2443772 -2.461352892e-05 62.56642161
223.4984738 -2.461352892e-05 105.5941836
348.9995068 63.99445839 225.9278406
-179.2002912 41.09478939 -9.738637027e-05
114.1723258 -2.461352892e-05 110.3822836
-212.9715122 36.45312939 -9.738637027e-05
-252.3064962 -2.402628614 -9.738637027e-05
202.6141418 -2.461352892e-05 128.7366186
228.6840708 -2.461352892e-05 9.031731614
348.9995068 47.98485539 74.50116061
-95.77443118 5.809226386 -9.738637027e-05
77.21923582 -2.461352892e-05 35.06349161
310.9619928 -2.461352892e-05 87.43513061
325.7123938 -0.5092376135 -9.738637027e-05
-350.9995162 6.882329386 65.93214261
-80.43738618 -2.461352892e-05 110.1066026
29.87256082 -0.3529706135 -9.738637027e-05
336.6741008 -2.461352892e-05 142.5259076
-298.6190582 -2.461352892e-05 239.4260966
267.1018478 52.47792939 -9.738637027e-05
-286.3222312 58.31654339 -9.738637027e-05
237.4763348 21.47824439 -9.738637027e-05
348.9995068 36.75908239 189.2703996
260.1755308 -2.461352892e-05 161.8327986
320.9317338 38.09826139 -9.738637027e-05
-344.9995162 43.07915339 1.887073614
-94.23911218 -2.461352892e-05 222.2356746
128.2177258 -2.461352892e-05 65.58254261
348.9995068 23.80831639 12.79040061
177.2468978 -2.461352892e-05 226.3359786
344.9995068 26.07332139 128.9899826
-341.6800842 -2.461352892e-05 172.8557766
235.8247678 -2.461352892e-05 136.6426396
254.5028148 -2.461352892e-05 171.7500186
348.9995068 46.19130839 46.49930361
156.7606548 -2.461352892e-05 21.61934561
-213.1631632 -2.461352892e-05 85.50288061
19.11463482 -2.461352892e-05 189.7530706
263.3984278 9.950610386 -9.738637027e-05
307.6472428 -2.461352892e-05 186.1456386
13.63267182 14.46418739 -9.738637027e-05
91.39173282 -2.461352892e-05 136.8338586
324.7273528 -2.461352892e-05 52.11313961
36.14139582 -2.461352892e-05 79.64106361
341.4345288 -2.461352892e-05 56.40975061
-189.8569232 -2.461352892e-05 86.23001361
-154.7246302 62.89134139 -9.738637027e-05
303.3757698 -2.461352892e-05 159.8651096
219.5031738 -2.461352892e-05 164.0613306
225.6874938 -2.461352892e-05 215.8346786
-34.09722618 44.45321839 -9.738637027e-05
-53.55416218 49.15596439 -9.738637027e-05
-166.9537892 -2.461352892e-05 71.88325561
124.9278988 -2.461352892e-05 226.3429736
344.9995068 83.59968839 225.4592916
-251.5905792 -2.461352892e-05 112.5012296
-350.9995162 40.84547739 98.19618961
109.9271018 -2.461352892e-05 96.05312161
211.2277498 -2.461352892e-05 82.22615661
126.8741538 -2.461352892e-05 203.4860336
344.9995068 75.47332539 176.1932226
40.24443282 56.54537139 -9.738637027e-05
-337.9125232 -2.461352892e-05 100.2923386
58.03151782 -2.461352892e-05 179.6411546
-344.9995162 41.44581239 216.7802786
-70.18858418 -2.461352892e-05 201.2873986
42.94683082 -2.461352892e-05 211.1010936
-350.9995162 21.10942839 243.6195546
354.1376028 -2.461352892e-05 162.8518826
71.92868682 60.93143339 -9.738637027e-05
344.9995068 35.60515239 202.8912156
-30.11060318 20.52139239 -9.738637027e-05
278.8322928 -2.461352892e-05 78.09529761
-350.9995162 33.62813639 46.08519561
-36.83001318 -2.461352892e-05 95.11259561
-249.6858802 -2.461352892e-05 146.4667616
233.3728368 -2.461352892e-05 94.37599061
67.73982482 -2.461352892e-05 184.7964386
30.27661882 -2.461352892e-05 247.8009366
93.73964482 -2.461352892e-05 111.8123196
-89.70470818 -2.461352892e-05 180.0601346
-350.8153942 -2.461352892e-05 88.30667061
-313.1105432 -2.461352892e-05 192.9527946
160.3141238 25.11357139 -9.738637027e-05
-344.9995162 14.39414139 189.8842136
295.9979208 -2.461352892e-05 216.8313946
-228.4375242 -2.461352892e-05 127.7055766
336.4372238 -2.461352892e-05 20.49187561
-95.42301518 -2.461352892e-05 114.5447816
-40.96073818 -2.461352892e-05 51.40220361
27.31279182 -2.461352892e-05 198.3453686
-350.9995162 15.31673539 166.7198216
-344.9995162 20.17813739 211.6288186
344.9995068 72.50031339 229.6943886
284.0634298 -2.461352892e-05 230.3433346
-277.5852152 -2.461352892e-05 64.99136561
275.1074248 -2.461352892e-05 7.313686614
81.48729882 -2.461352892e-05 51.56964861
345.0283028 82.77501239 169.2687636
348.9995068 32.47261039 220.2300806
-344.9995162 37.80212639 155.3708426
348.9995068 18.10427039 162.1427696
264.2095008 -2.461352892e-05 51.59437461
150.5297618 -2.461352892e-05 224.0857786
-350.9995162 29.54873539 167.1413486
340.5718728 -2.461352892e-05 241.2469166
-329.2780312 -2.461352892e-05 216.0458456
293.0417398 -2.461352892e-05 43.16730761
344.9995068 26.10398939 183.5776646
80.70195182 55.71611239 -9.738637027e-05
-132.6602632 -2.461352892e-05 173.9744636
119.3941688 -2.461352892e-05 24.56706061
-317.5375782 -2.461352892e-05 173.5133026
98.78378082 -2.461352892e-05 43.86168161
-350.9995162 17.40137339 77.91303061
-122.7993812 -2.461352892e-05 93.70385961
-117.0150902 39.15811439 -9.738637027e-05
-20.18457918 -2.461352892e-05 238.9594096
164.7260178 6.837838386 -9.738637027e-05
256.7404098 35.48783939 -9.738637027e-05
-275.1487362 26.10201339 -9.738637027e-05
-6.432126179 40.91104039 -9.738637027e-05
348.8674518 73.87443739 135.9651156
133.5320058 -2.461352892e-05 238.9156436
154.4962288 -2.461352892e-05 105.7997106
-344.9995162 31.75401739 110.3716586
-286.0417552 -2.461352892e-05 131.5609226
-344.9995162 48.58792139 142.5248306
-320.4880032 -2.461352892e-05 67.67240561
-220.4008822 -2.461352892e-05 66.25251861
-87.62134618 -2.461352892e-05 238.4863146
233.2295418 -2.461352892e-05 122.8330406
175.0206338 -2.461352892e-05 173.5990236
-146.7193992 -2.461352892e-05 217.9027436
-242.9476252 5.692151386 -9.738637027e-05
-169.5351582 -2.461352892e-05 161.3947736
275.4654368 -2.461352892e-05 164.9504136
12.93465982 -2.461352892e-05 221.5462726
-63.28298218 -2.461352892e-05 77.96769861
