# .PCD v0.7 - Point Cloud Data file format
VERSION 0.7
FIELDS x y z
SIZE 4 4 4
TYPE F F F
COUNT 1 1 1
WIDTH 1163
HEIGHT 1
VIEWPOINT 0 0 0 1 0 0 0
POINTS 1163
DATA ascii
-348.350123 -2.461342729e-05 -173.0661844
-467.937337 -2.461342729e-05 -222.6517334
-739.144529 -2.461342729e-05 -21.05901639
756.642166 -22.06180061 -9.738785275e-05
-829.965485 -2.461342729e-05 -154.4469234
-140.500029 -25.04504061 -246.7150444
535.237958 -2.461342729e-05 -147.4576074
-847.256733 -2.461342729e-05 -83.66937739
629.358944 -0.2288126134 -9.738785275e-05
312.137577 -2.461342729e-05 -5.042737388
-176.5786 -2.461342729e-05 -221.9280794
458.476578 -2.461342729e-05 -33.83451339
647.01478 -2.461342729e-05 -20.90523439
-516.69526 -2.461342729e-05 -154.5944404
-24.443974 -2.461342729e-05 -140.6432554
-804.429829 -2.461342729e-05 -110.0756064
-814.416254 -2.461342729e-05 -191.6066254
-381.083366 -3.930506613 -9.738785275e-05
702.90075 -2.461342729e-05 -65.91448539
-352.901886 -2.461342729e-05 -250.4533724
387.511367 1.407130387 -9.738785275e-05
-801.103999 -2.461342729e-05 -234.1762354
-657.70123 -2.461342729e-05 -142.0314274
-89.047064 -2.461342729e-05 -222.4706684
-751.758297 -2.461342729e-05 -240.4864334
764.757632 -2.461342729e-05 -68.40439539
-183.013713 -66.43902761 -9.738785275e-05
-789.596745 -41.34820261 -9.738785275e-05
-137.921232 -2.461342729e-05 -107.4665434
-217.978773 -2.461342729e-05 -75.62921239
-407.536331 -23.22798961 -9.738785275e-05
-216.283923 -2.461342729e-05 -214.4285074
906.227838 -2.461342729e-05 -160.3283284
-556.568274 2.456619387 -9.738785275e-05
178.337187 -2.461342729e-05 -133.1802954
-794.214747 -2.461342729e-05 -149.0804494
-650.280286 -50.25368261 -9.738785275e-05
572.3261 -2.461342729e-05 -26.31672939
-667.810476 -2.461342729e-05 -172.0131044
-135.087231 -50.00002461 -230.0495564
-140.500029 -27.88035461 -93.78818939
-693.928911 -2.461342729e-05 -115.5157174
487.164066 -2.461342729e-05 -219.8287334
-447.074928 -60.61264861 -9.738785275e-05
-546.112337 -2.461342729e-05 -184.4386274
-136.825868 -2.461342729e-05 -226.1602984
520.481142 -2.461342729e-05 -184.6283394
31.698553 -2.461342729e-05 -12.04515639
413.158319 -2.461342729e-05 -27.23026139
-479.336966 -2.461342729e-05 -48.92981339
-135.970244 -50.00002461 -109.9352474
-565.102228 -2.461342729e-05 -111.1729654
-903.428145 -2.932848613 -9.738785275e-05
-124.04351 -2.461342729e-05 -68.09830039
-664.874082 -2.461342729e-05 -217.8422474
726.217513 -2.461342729e-05 -59.61702239
-156.437036 -2.461342729e-05 -41.36513639
584.758369 -2.461342729e-05 -177.5052864
-538.256414 -50.16368761 -9.738785275e-05
-699.548092 -14.33866761 -9.738785275e-05
-34.920243 -2.461342729e-05 -226.8820994
833.074127 -2.461342729e-05 -153.0431204
-885.499785 0.3888663866 -58.26212439
-184.719121 -2.461342729e-05 -177.7795154
-658.166453 -5.972745613 -9.738785275e-05
-839.677317 -2.461342729e-05 -116.3506484
-121.29353 -2.461342729e-05 -135.8154214
-72.33829 -49.80298061 -9.738785275e-05
25.892645 -2.461342729e-05 -145.9041614
-434.509002 -2.461342729e-05 -143.6958644
-111.128749 -2.461342729e-05 -235.6426524
367.046514 -68.00002461 1.744393612
-436.936172 -2.461342729e-05 -56.35824839
800.719206 -2.461342729e-05 -45.19057839
111.833167 -41.60195861 -9.738785275e-05
416.413761 -2.461342729e-05 -139.0317104
311.612321 -2.461342729e-05 -163.9871304
-385.542689 -2.461342729e-05 -158.3478374
-78.306933 -2.461342729e-05 -159.8993934
-811.835705 -2.461342729e-05 -81.54314939
231.094534 -2.461342729e-05 -84.34412539
-177.286255 -2.461342729e-05 -130.0005044
-172.857931 -27.21603461 -9.738785275e-05
712.266188 -2.461342729e-05 -111.6420804
-439.508735 -2.461342729e-05 -97.78687739
-671.848012 -2.461342729e-05 -24.52859539
-140.500029 -49.16634061 -133.0154414
-199.212332 -2.461342729e-05 -16.55912739
738.237677 -2.461342729e-05 -147.9430284
77.850219 -2.461342729e-05 -186.1674984
-157.922342 -2.461342729e-05 -238.7431994
-354.667683 -24.42880461 -9.738785275e-05
580.627495 -2.461342729e-05 -198.9068134
-564.215444 -2.461342729e-05 -164.6607064
424.743648 -2.461342729e-05 -187.2473144
-776.6746 -2.461342729e-05 -75.27946539
834.28183 -2.461342729e-05 -56.10919639
244.69909 -2.461342729e-05 -177.0855144
133.213489 -2.461342729e-05 -61.96140639
-104.980195 -2.461342729e-05 -43.96137639
13.589944 -2.461342729e-05 -34.68564439
-277.880295 -68.00002461 1.684431612
469.644653 -2.461342729e-05 -71.29843339
-135.091094 -18.74092961 -9.738785275e-05
343.363869 -2.461342729e-05 -231.9939804
-763.999187 -2.461342729e-05 -197.1373874
51.725998 -2.461342729e-05 -46.25557739
678.888624 -43.00002461 0.5815156121
-326.109313 -30.41014361 -9.738785275e-05
40.485093 -2.461342729e-05 -89.55227239
662.892208 -2.461342729e-05 -103.4602244
906.468465 -16.27658261 -1.728968388
-97.659562 -2.461342729e-05 -203.3493184
-351.665933 -2.461342729e-05 -152.3618034
-68.1643 -2.461342729e-05 -123.1213054
-30.294196 -2.461342729e-05 -20.52933039
-235.511268 -42.90392161 -9.738785275e-05
-249.515336 -2.461342729e-05 -110.9151394
380.310062 -46.20922161 -9.738785275e-05
323.310314 -2.461342729e-05 -36.99225039
117.606443 -2.461342729e-05 -168.0551074
-265.550624 -2.461342729e-05 -166.9063824
-862.245763 -2.461342729e-05 -184.8451804
271.326787 -2.461342729e-05 -213.3524884
-629.832155 -2.461342729e-05 -232.2432594
3.977307001 -2.461342729e-05 -231.3824844
221.827121 -21.03137761 -9.738785275e-05
-608.744705 -2.461342729e-05 -69.97290739
-903.306413 -2.461342729e-05 -200.7241144
726.747668 0.5709783866 -9.738785275e-05
112.547785 1.754292387 -9.738785275e-05
-234.452522 -2.461342729e-05 -242.9884514
-514.912011 -2.461342729e-05 -24.34752739
587.225704 -2.461342729e-05 -69.47297939
364.157733 -2.461342729e-05 -233.5327154
-614.878569 -2.461342729e-05 -109.1357904
417.95694 -2.461342729e-05 -74.20356439
687.45117 -2.461342729e-05 -45.33912339
711.904803 -20.36648461 -9.738785275e-05
-763.287851 -2.461342729e-05 -130.5143574
351.858981 -2.461342729e-05 -49.00127639
-416.414079 -2.461342729e-05 -215.7179564
-145.877508 -2.461342729e-05 -193.7241134
203.317371 -2.461342729e-05 -173.4153994
-775.117503 -2.461342729e-05 -16.05216939
278.367701 -2.461342729e-05 -167.7136174
482.439249 1.985320387 -9.738785275e-05
652.391575 -2.461342729e-05 -69.42280439
492.620626 -2.461342729e-05 -41.51676939
256.278808 -2.461342729e-05 -252.0081944
-519.732866 -2.461342729e-05 -63.68140839
-28.64618 -2.461342729e-05 -72.46624439
-257.445576 -2.461342729e-05 -230.0459244
-56.712521 1.433652387 -9.738785275e-05
-53.521421 -2.461342729e-05 -208.4377614
-293.508549 -46.01355661 -9.738785275e-05
-134.500029 -23.00966261 -170.0593164
799.0269 -2.461342729e-05 -210.8344244
338.365336 -2.461342729e-05 -121.7660824
631.162376 -43.00002461 0.8261446121
292.740517 -57.42173461 -9.738785275e-05
38.863122 -2.461342729e-05 -206.9838434
196.802451 -2.461342729e-05 -24.81536939
867.628921 -2.461342729e-05 -115.8181234
253.065347 -2.461342729e-05 -97.89352639
2.871507001 -59.40207661 -9.738785275e-05
-316.905311 -48.65001061 -9.738785275e-05
-496.048296 -13.34339161 -9.738785275e-05
-318.208922 -2.461342729e-05 -132.3598154
-684.274119 -2.461342729e-05 -185.3304484
-471.292678 -2.461342729e-05 -72.55425039
427.632293 -2.461342729e-05 -95.87469539
781.764367 -2.461342729e-05 -101.5094514
-637.138094 -10.14044061 -9.738785275e-05
-720.431026 -2.461342729e-05 -219.5081704
-86.96732 -2.461342729e-05 -53.34255839
231.484915 -45.24046961 -9.738785275e-05
725.554642 -42.47770061 -9.738785275e-05
547.707254 -2.461342729e-05 -191.8638164
158.501396 -2.461342729e-05 -58.01616139
850.768756 -2.461342729e-05 -242.6436394
-793.735172 -21.76197661 -9.738785275e-05
24.130085 -16.03733761 -9.738785275e-05
74.889088 -2.461342729e-05 -142.7590604
-357.742726 1.959192387 -9.738785275e-05
-881.211611 -2.461342729e-05 -244.2537694
-172.682915 -2.461342729e-05 -202.3537354
519.560474 -2.461342729e-05 -161.2224834
-775.483737 -2.461342729e-05 -169.7210024
-399.107124 -68.00002461 0.7551936121
-688.310069 -2.461342729e-05 -12.67225339
-75.659462 -22.11893061 -9.738785275e-05
-816.08608 -2.461342729e-05 -47.70415339
-457.903125 -16.98220461 -9.738785275e-05
64.971067 -2.461342729e-05 -109.0571424
-583.748977 -2.461342729e-05 -232.4041554
621.079576 -2.461342729e-05 -196.8372384
-214.097291 -2.461342729e-05 -136.9949044
-806.643307 -52.95380461 -9.738785275e-05
-546.900351 -2.461342729e-05 -251.8193084
201.541528 -2.461342729e-05 -69.45774739
-338.883848 -2.461342729e-05 -50.18983039
391.357228 -2.461342729e-05 -43.53695939
-828.951803 -24.29782361 -9.738785275e-05
235.707072 -2.461342729e-05 -49.53117939
622.685018 -2.461342729e-05 -93.46650539
-677.479504 -2.461342729e-05 -103.2980954
809.055034 -10.24076561 -9.738785275e-05
97.819023 -2.461342729e-05 -131.5526594
332.236811 -2.461342729e-05 -250.7958374
-19.45611 -2.461342729e-05 -198.4087344
-404.262987 -2.461342729e-05 -150.7506814
750.596254 -2.461342729e-05 -27.30011739
644.934973 -2.461342729e-05 -112.8447474
-548.304077 -2.461342729e-05 -48.06853439
837.094523 -2.461342729e-05 -207.4155054
-604.479548 -2.461342729e-05 -9.932493388
402.134963 -2.461342729e-05 -152.6186084
-340.654504 -2.461342729e-05 -18.13708539
-881.37308 -2.461342729e-05 -165.5115754
161.67272 -2.461342729e-05 -99.12983339
307.941778 -2.461342729e-05 -135.3101894
510.944794 1.081036387 -9.738785275e-05
274.791375 -2.461342729e-05 -131.0641564
789.055922 -2.461342729e-05 -136.5356754
-291.708987 -12.66587361 -9.738785275e-05
774.129245 -2.461342729e-05 -245.4322754
-65.859819 -2.461342729e-05 -32.38451839
673.129022 -2.461342729e-05 -141.7476304
-583.385951 -2.461342729e-05 -17.52699639
719.124072 -2.461342729e-05 -151.2786744
-301.094717 -2.461342729e-05 -199.2070114
370.555016 -19.41481261 -9.738785275e-05
-7.915936999 -2.461342729e-05 -152.7997304
451.151043 -47.18525561 -9.738785275e-05
-30.339331 -2.461342729e-05 -103.8746484
63.526329 -2.461342729e-05 -237.5989004
-108.402045 -58.31634661 -9.738785275e-05
874.785653 -2.959359613 -9.738785275e-05
480.566921 -2.461342729e-05 -26.48565139
773.865674 -2.461342729e-05 -201.7862674
-5.340519999 -2.461342729e-05 -102.5171774
707.702413 -2.461342729e-05 -191.3320164
-501.494783 -2.461342729e-05 -49.71033839
530.356023 -2.461342729e-05 -27.19246439
-228.283988 -15.23927561 -9.738785275e-05
569.555878 -2.461342729e-05 -137.2348664
201.303075 -2.461342729e-05 -44.33002439
196.319598 -19.26350961 -9.738785275e-05
426.387631 -2.461342729e-05 -242.4346534
-322.55939 -2.461342729e-05 -82.97775139
-130.583248 -2.461342729e-05 -23.66520239
-754.203806 -2.461342729e-05 -159.4935424
-644.717176 -2.461342729e-05 -216.6304154
-101.458429 -2.461342729e-05 -133.8722634
-878.394446 -2.461342729e-05 -204.5077294
410.699658 -68.00002461 2.321082612
-885.499785 0.4961893866 -77.91556739
96.136235 -2.461342729e-05 -232.8479654
-134.500029 -27.93270961 -206.2426814
-828.496588 -2.461342729e-05 -204.4402854
-590.657869 -2.461342729e-05 -139.5177604
544.925719 -2.461342729e-05 -113.5568794
-590.150007 -2.461342729e-05 -181.7865074
-845.857696 -2.461342729e-05 -236.9652434
146.384671 -2.461342729e-05 -188.7329694
200.458229 -2.461342729e-05 -106.1828714
653.125848 -19.33085961 -9.738785275e-05
-751.370417 -26.08972861 -9.738785275e-05
469.735321 -2.461342729e-05 -148.8204474
-376.993035 -2.461342729e-05 -216.8641684
-302.448246 -2.461342729e-05 -101.8001674
-725.270068 -2.461342729e-05 -92.86677539
-474.311376 -47.98666061 -9.738785275e-05
582.277384 -2.461342729e-05 -104.0813744
-131.264189 -2.461342729e-05 -178.2477774
601.041893 -2.461342729e-05 -102.5694474
-418.924576 -2.461342729e-05 -63.74129139
557.908862 -2.461342729e-05 -251.1360554
-266.883073 -2.461342729e-05 -139.8211394
90.321846 -2.461342729e-05 -107.7495864
470.352492 -13.12643561 -9.738785275e-05
-712.47351 -2.461342729e-05 -243.3505484
-157.885894 -2.461342729e-05 -16.13768539
78.970067 -2.461342729e-05 -79.18042339
-446.379383 -2.461342729e-05 -36.79138239
-571.340667 -2.461342729e-05 -68.55129639
307.714711 -2.461342729e-05 -103.0610744
693.022463 -2.461342729e-05 -168.0519844
-440.304255 -2.461342729e-05 -201.8398284
490.93814 -2.461342729e-05 -185.7274204
-536.016034 -0.4539806134 -9.738785275e-05
390.584487 -2.461342729e-05 -233.1222184
50.156715 -2.461342729e-05 -23.31055339
-171.940629 -51.50140361 -9.738785275e-05
795.276893 -2.461342729e-05 -118.4330464
-134.500029 -4.328429613 -207.7745974
-719.518075 1.087824387 -9.738785275e-05
-36.531357 -23.93366661 -9.738785275e-05
-155.269545 -2.461342729e-05 -92.13252339
332.876883 -2.461342729e-05 -77.15228239
-770.952627 -52.29844861 -9.738785275e-05
820.380628 -2.461342729e-05 -17.89561539
-214.335998 -2.461342729e-05 -28.12047939
-248.127756 -2.461342729e-05 -206.9646864
-403.145258 -2.461342729e-05 -238.6810224
235.070751 -2.461342729e-05 -224.3773534
-12.979534 -2.461342729e-05 -46.41241039
31.162781 -2.461342729e-05 -237.8183684
552.036705 -2.461342729e-05 -157.5494774
232.441184 -2.461342729e-05 -161.2357884
-504.585978 -30.34632061 -9.738785275e-05
-207.883721 -2.461342729e-05 -57.85462639
-236.181766 -2.461342729e-05 -173.1270994
672.188297 -2.461342729e-05 -233.3245174
627.894209 -2.461342729e-05 -40.35586039
-475.78925 -2.461342729e-05 -108.9697784
-862.814457 -47.61301561 -9.738785275e-05
-650.761334 -2.461342729e-05 -161.6083194
-698.812857 -2.461342729e-05 -150.0370304
-663.505937 -26.52130361 -9.738785275e-05
-95.053008 -2.461342729e-05 -4.600101388
-449.988471 -2.461342729e-05 -71.85665539
733.378011 -2.461342729e-05 -240.3219224
-47.822942 -2.461342729e-05 -45.86622139
-243.792064 -2.461342729e-05 -138.2776594
892.399558 -2.461342729e-05 -197.0240604
-550.875172 -2.461342729e-05 -212.0736434
-290.499785 1.675479387 -67.43324039
-44.797916 -2.461342729e-05 -248.1661494
-632.443681 -2.461342729e-05 -70.15491039
375.432273 -2.461342729e-05 -198.9361284
-505.146225 -2.461342729e-05 -133.7407644
512.336121 -24.15371461 -9.738785275e-05
329.355683 -2.461342729e-05 -208.1813714
-871.355977 -19.13151361 -9.738785275e-05
-9.548814999 -2.461342729e-05 -66.58825439
-827.64333 -46.41773761 -9.738785275e-05
-538.705945 -2.461342729e-05 -83.42097239
841.655092 -16.70401861 -9.738785275e-05
21.370121 -2.461342729e-05 -202.2702654
448.205614 -2.461342729e-05 -160.5521214
-74.170736 -2.461342729e-05 -235.6572894
-821.313651 -2.461342729e-05 -116.5656414
158.315899 -2.461342729e-05 -205.0422544
544.20703 -2.461342729e-05 -225.5394384
193.411534 -2.461342729e-05 -143.1176204
-874.250509 -2.461342729e-05 -118.9556564
407.00302 -17.47420761 -9.738785275e-05
-140.500029 -19.15213061 -48.88847239
-405.833368 -2.461342729e-05 -168.6943424
783.996224 -2.461342729e-05 -26.53941139
864.527384 -2.461342729e-05 -150.1446334
-146.840803 -50.26731861 -9.738785275e-05
636.563377 -2.461342729e-05 -130.4812344
866.541833 -2.461342729e-05 -176.2604724
529.099687 -43.00002461 0.9816346121
62.828189 -40.39139761 -9.738785275e-05
577.902292 -2.461342729e-05 -224.3389554
765.588278 -6.275485613 -9.738785275e-05
219.210961 -2.461342729e-05 -120.0535274
-395.376869 -2.461342729e-05 -90.83865439
59.758348 -2.461342729e-05 -68.02795139
-238.963084 -2.461342729e-05 -18.02594339
-255.068986 -42.63526261 -9.738785275e-05
790.739658 -2.461342729e-05 -60.00179639
-335.035762 -2.461342729e-05 -143.1710394
-606.051202 -65.02067661 -9.738785275e-05
-37.319947 -2.461342729e-05 -174.8017734
-371.916147 -2.461342729e-05 -250.9133124
16.727931 -2.461342729e-05 -180.7170084
27.1341 -2.461342729e-05 -165.1558434
91.725371 -2.461342729e-05 -55.98833539
-903.220339 -2.461342729e-05 -22.57687139
-904.766247 -2.461342729e-05 -233.2850264
-86.589115 -2.461342729e-05 -117.9512004
-122.301078 -6.386701613 -9.738785275e-05
371.927585 -2.461342729e-05 -71.97799539
205.75585 -2.461342729e-05 -235.1317544
-199.150166 -2.461342729e-05 -167.4437554
220.385876 -2.461342729e-05 -199.9556574
-270.790855 -2.461342729e-05 -199.3008984
92.804251 -36.10898961 -9.738785275e-05
566.802627 -2.461342729e-05 -69.21354639
547.341198 -2.461342729e-05 -44.09389339
-495.47559 -2.461342729e-05 -11.70548439
-274.235245 -2.461342729e-05 -104.2923944
809.729524 -2.461342729e-05 -183.2802414
282.78367 -2.461342729e-05 -194.1632544
843.42061 -44.60081061 -9.738785275e-05
267.957787 -2.461342729e-05 -48.31336239
-265.932219 -2.461342729e-05 -47.81668939
-720.184785 -2.461342729e-05 -179.1196824
-381.699151 -2.461342729e-05 -233.8885154
170.328712 -46.09869661 -9.738785275e-05
-270.189368 -2.461342729e-05 -82.96654939
-613.041496 -2.461342729e-05 -197.1395854
-571.054842 -28.88508461 -9.738785275e-05
107.522157 -2.461342729e-05 -76.36291439
-902.12576 -2.461342729e-05 -101.8519314
-843.492602 -2.637382613 -9.738785275e-05
511.886482 -2.461342729e-05 -91.92167439
820.711872 -2.461342729e-05 -85.52034239
-632.92791 -2.461342729e-05 -105.6300944
-58.996204 -2.461342729e-05 -187.3330474
486.580268 -2.461342729e-05 -66.70490139
695.087058 -2.461342729e-05 -108.0686914
-261.651639 -61.58034661 -9.738785275e-05
730.097687 -2.461342729e-05 -42.52160239
461.254151 -2.461342729e-05 -213.8244554
-290.499785 2.349815387 -167.4891014
495.352275 -32.14854161 -9.738785275e-05
406.336978 -2.461342729e-05 -121.8179244
-899.594449 -2.461342729e-05 -175.1245514
807.314406 -2.461342729e-05 -242.0029684
-181.079723 -2.461342729e-05 -104.3809534
-65.32847 -2.461342729e-05 -142.1793924
-448.498457 -2.461342729e-05 -131.0376754
375.232927 -2.461342729e-05 -114.5397864
601.796061 -2.461342729e-05 -168.1695454
191.831584 -68.00002461 1.899960612
-742.345004 -2.461342729e-05 -83.60222139
287.632107 -2.461342729e-05 -15.99912739
-13.001114 -2.461342729e-05 -235.1047494
764.62334 -2.461342729e-05 -162.9849084
839.134095 -2.461342729e-05 -17.74536639
374.034113 -2.461342729e-05 -140.8977324
-381.834577 -44.31940061 -9.738785275e-05
-325.176906 -2.461342729e-05 -212.0577644
176.11912 -2.461342729e-05 -89.62797339
618.745825 -2.461342729e-05 -234.4255894
-324.487268 -2.461342729e-05 -9.124244388
-9.882974999 -2.461342729e-05 -182.3811714
-359.140314 -2.461342729e-05 -127.3667974
342.274408 -2.461342729e-05 -142.0833674
-634.695153 -42.97603161 -9.738785275e-05
616.431731 -2.461342729e-05 -134.9861674
-640.306483 -2.461342729e-05 -248.1147464
-833.081575 -2.461342729e-05 -45.34018239
315.791326 -2.461342729e-05 -69.92324639
63.249744 -13.24317661 -9.738785275e-05
-744.786237 1.589314387 -9.738785275e-05
287.313954 -2.461342729e-05 -49.75700039
-140.500029 -15.55970761 -114.8279084
422.790005 -2.461342729e-05 -11.10971739
-622.282778 -2.461342729e-05 -165.6537064
-197.416141 -2.461342729e-05 -252.2604224
451.194403 -2.461342729e-05 -125.6514504
817.93153 -2.461342729e-05 -204.7552754
-824.390115 -2.461342729e-05 -175.1518854
761.55775 -2.461342729e-05 -228.8355424
825.235905 -2.461342729e-05 -131.1878944
-346.552295 -2.461342729e-05 -234.6431154
197.968477 -2.461342729e-05 -210.2628644
-758.779176 -2.461342729e-05 -87.98797939
-719.370599 -48.91668661 -9.738785275e-05
-316.93502 -16.09725761 -9.738785275e-05
-525.345833 -14.00665561 -9.738785275e-05
696.733197 -2.461342729e-05 -129.0865734
715.219004 -2.461342729e-05 -24.49316839
390.230879 -2.461342729e-05 -86.82715639
71.365913 -66.68556761 -9.738785275e-05
834.838017 -2.461342729e-05 -98.57828039
436.289531 -37.32466061 -9.738785275e-05
905.240465 -2.461342729e-05 -49.28031839
-300.162553 -2.461342729e-05 -234.6807474
-410.995687 -2.461342729e-05 -25.52931539
-791.467437 -2.461342729e-05 -220.1142324
-421.688239 -2.461342729e-05 -101.2705704
478.184541 -47.96420361 -9.738785275e-05
-11.887881 -2.461342729e-05 -11.47853239
-867.698146 -2.461342729e-05 -87.69137939
529.138685 -2.461342729e-05 -64.77007639
-213.429404 -2.461342729e-05 -104.3257074
139.720712 -2.461342729e-05 -123.5692494
863.247171 -15.28865361 -9.738785275e-05
-134.500029 -11.94256961 -138.7774284
857.481991 -2.461342729e-05 -207.3787984
-704.239645 -2.461342729e-05 -212.0265424
-821.478304 -2.461342729e-05 -16.03346839
-622.157705 -2.461342729e-05 -141.2683444
-421.442356 -2.461342729e-05 -131.2800624
-577.418371 -68.00002461 1.989286612
-905.651618 -2.461342729e-05 -138.6822534
835.434359 -2.461342729e-05 -175.8484404
658.580854 -2.461342729e-05 -46.67594339
-206.842828 2.471137387 -9.738785275e-05
-749.995993 -2.461342729e-05 -120.3450974
349.651042 -2.461342729e-05 -194.2251674
-850.011884 -67.91137961 -9.738785275e-05
610.563569 -2.461342729e-05 -34.57951539
532.247731 -2.461342729e-05 -131.0233454
-845.124609 -2.461342729e-05 -197.0503004
885.56467 -42.31565961 -0.08380238785
-39.513387 -2.461342729e-05 -155.3682004
-137.02815 -50.00002461 -32.99077839
-669.890301 -2.461342729e-05 -69.30410339
161.395747 -2.461342729e-05 -30.52888139
407.379604 -2.461342729e-05 -204.8972664
-673.135341 -2.461342729e-05 -5.908559388
-475.027422 -2.461342729e-05 -237.6738574
351.644639 -2.461342729e-05 -173.5125144
-37.574758 -40.50039761 -9.738785275e-05
697.220111 -28.07750461 -9.738785275e-05
319.442317 -2.461342729e-05 -20.86691839
-127.558608 -2.461342729e-05 -120.4685044
-463.988286 -2.461342729e-05 -39.13342839
-755.827794 -2.461342729e-05 -45.97606439
76.066355 -2.461342729e-05 -206.6376454
885.153697 -2.461342729e-05 -116.3853334
-644.972717 -2.461342729e-05 -194.7337634
-833.194416 -2.461342729e-05 -135.6190154
-71.543647 -2.461342729e-05 -16.85797039
-289.41409 -2.461342729e-05 -211.4599864
123.952234 -2.461342729e-05 -102.8624884
7.483156001 -2.461342729e-05 -212.7687924
-196.47732 -27.51999161 -9.738785275e-05
679.840518 -2.461342729e-05 -200.1387544
-750.25131 0.4705323866 -208.0614614
-581.895401 -2.461342729e-05 -94.77895939
490.555399 -2.461342729e-05 -242.2441864
792.994682 -2.461342729e-05 -227.9817574
263.696566 -2.461342729e-05 -85.32024839
879.796233 -2.461342729e-05 -50.64784739
-392.512602 -15.74965461 -9.738785275e-05
149.251746 -2.461342729e-05 -16.78839439
739.421593 -2.461342729e-05 -184.8675354
-281.462663 -2.461342729e-05 -130.2049524
-363.791788 -2.461342729e-05 -85.84787439
-199.355004 -68.00002461 0.6254236121
88.678521 -2.461342729e-05 -39.21100439
-184.123899 -2.461342729e-05 -50.58971039
-57.337954 -2.461342729e-05 -69.20988439
816.185745 -68.00002461 1.764306612
662.534031 -2.461342729e-05 -82.33478739
253.030744 -2.461342729e-05 -208.4428524
-420.708443 -12.18824861 -9.738785275e-05
508.976468 -2.461342729e-05 -42.75211739
606.912773 -2.461342729e-05 -206.3753954
828.442056 -2.461342729e-05 -234.4904344
-679.941409 -2.461342729e-05 -224.1867414
-882.703425 -51.68976761 -9.738785275e-05
-87.649567 -2.461342729e-05 -87.30675739
-393.089333 -2.461342729e-05 -117.2273724
-498.665292 -2.461342729e-05 -83.91649639
-726.719661 -2.461342729e-05 -32.52095139
-813.978792 -9.179610613 -9.738785275e-05
-323.131656 -2.461342729e-05 -54.30115839
-423.504243 -2.461342729e-05 -178.2290204
565.427542 -2.461342729e-05 -7.213986388
-120.536513 -2.461342729e-05 -84.09044539
-645.712598 -2.461342729e-05 -87.69070239
436.310431 -15.35136561 -9.738785275e-05
742.911991 -32.48206061 -9.738785275e-05
546.764686 -2.461342729e-05 -9.856114388
-208.016853 -13.71806161 -9.738785275e-05
-689.618152 -2.461342729e-05 -136.6639124
-198.23082 -2.461342729e-05 -146.5542824
-723.789084 -2.461342729e-05 -135.0053074
702.962753 -2.461342729e-05 -251.1798744
454.235235 -11.06392261 -9.738785275e-05
-529.062406 -2.461342729e-05 -144.1167094
-797.500182 -2.461342729e-05 -17.65060239
744.938696 -2.461342729e-05 -92.59291739
-150.580557 -14.13741661 -9.738785275e-05
143.795279 -2.461342729e-05 -150.6508774
-263.926873 -9.806712613 -9.738785275e-05
-309.848369 -2.461342729e-05 -38.94145939
353.494896 -2.461342729e-05 -106.9038874
598.092052 -2.461342729e-05 -233.9578944
77.797891 -2.461342729e-05 -97.64846439
-606.692652 -2.461342729e-05 -237.9957974
817.461002 -2.461342729e-05 -149.1982354
179.922859 -2.461342729e-05 -189.7846414
813.069832 -44.33984761 -9.738785275e-05
-134.500029 -36.50920161 -9.646462388
-683.238288 -2.461342729e-05 -167.5372234
126.491691 -2.461342729e-05 -45.87483039
-754.839782 -2.461342729e-05 -14.30386839
-595.861869 -18.19569461 -9.738785275e-05
-140.500029 -9.933014613 -33.76018739
-601.422 -45.09655661 -9.738785275e-05
245.442877 -2.461342729e-05 -240.2040924
887.929096 -2.461342729e-05 -31.00664639
416.865535 -2.461342729e-05 -173.2965874
10.376439 -2.461342729e-05 -18.13285939
183.785084 -2.461342729e-05 -242.6117354
-866.982931 -2.461342729e-05 -24.76979339
612.647469 -27.11326961 -9.738785275e-05
-625.992447 -2.461342729e-05 -187.7270124
-479.180996 -2.461342729e-05 -159.7405314
-567.370295 -2.461342729e-05 -11.54755439
241.774949 -5.142661613 -9.738785275e-05
-434.950076 -2.461342729e-05 -251.0284964
-364.088467 -2.461342729e-05 -48.77569339
143.541628 -2.461342729e-05 -85.53782239
-106.748307 -2.461342729e-05 -251.1037294
-116.677211 -2.461342729e-05 -31.45116439
345.861422 -2.461342729e-05 -10.39965839
565.402606 -2.461342729e-05 -42.25229039
-732.618595 -57.70690161 -9.738785275e-05
-700.07202 -2.461342729e-05 -187.0763844
-546.142939 -32.54387761 -9.738785275e-05
662.757662 -2.461342729e-05 -13.81377439
869.873021 -38.13219461 -9.738785275e-05
294.143053 -2.461342729e-05 -244.6428954
590.248452 -43.00002461 1.678438612
-583.619733 -2.461342729e-05 -35.63011839
-49.939393 -13.41191861 -9.738785275e-05
567.022573 -23.12568161 -9.738785275e-05
84.091024 -2.461342729e-05 -16.18710839
-443.290459 -39.66601361 -9.738785275e-05
215.767662 -2.461342729e-05 -80.39140639
293.693971 -2.461342729e-05 -74.08969339
-134.500029 -39.18706461 -143.6988924
614.676373 -2.461342729e-05 -158.0516604
849.496084 -2.461342729e-05 -88.45236439
119.998351 -2.461342729e-05 -149.8282564
-464.788691 -2.461342729e-05 -5.658261388
-294.51811 -2.461342729e-05 -9.522302388
-564.06181 -2.461342729e-05 -47.58283739
249.369942 -2.461342729e-05 -20.81372239
599.113671 -2.461342729e-05 -13.72922039
61.257659 -2.461342729e-05 -134.1556644
458.145597 -2.461342729e-05 -187.7457314
-187.959135 -2.461342729e-05 -194.3525614
-776.268234 -2.461342729e-05 -0.006357387853
-453.075367 -2.461342729e-05 -112.1153704
66.596087 -2.461342729e-05 -38.16086939
-107.185112 -2.461342729e-05 -173.0590454
782.150355 -64.85801961 -9.738785275e-05
756.348533 -2.461342729e-05 -81.64506539
380.260206 -2.461342729e-05 -179.3928214
-703.099006 -2.461342729e-05 -76.56482139
-267.986536 -2.461342729e-05 -243.5258154
372.181227 -2.461342729e-05 -13.85126539
-2.303651999 -2.461342729e-05 -247.4505194
-408.291554 -2.461342729e-05 -202.3374984
-205.578645 -44.88592761 -9.738785275e-05
-494.105683 -2.461342729e-05 -204.5341854
-534.845007 -68.00002461 1.077987612
-103.616268 -43.42851861 -9.738785275e-05
-598.495555 -2.461342729e-05 -164.4580464
-610.596556 -2.461342729e-05 -49.64065639
-751.522673 -49.19503761 -9.738785275e-05
-10.353731 -51.08474961 -9.738785275e-05
-32.197868 -2.461342729e-05 -127.0847424
337.622452 -33.45332661 -9.738785275e-05
-346.618612 -2.461342729e-05 -188.5771134
883.431548 -2.461342729e-05 -246.8005184
15.846996 -2.461342729e-05 -128.4681504
-558.741374 -2.461342729e-05 -195.5180264
-714.387984 -2.461342729e-05 -150.2666504
-414.349625 -38.36324761 -9.738785275e-05
-607.685039 -2.461342729e-05 -85.50785539
24.089476 -2.461342729e-05 -68.72267639
211.58032 -2.461342729e-05 -14.98807139
587.821698 -2.461342729e-05 -138.8218804
899.399376 -2.461342729e-05 -15.62408339
2.554956001 -2.461342729e-05 -46.05386339
791.286027 -2.461342729e-05 -175.8533304
433.3834 -2.461342729e-05 -72.35740139
324.848652 -2.461342729e-05 -91.75762339
765.702792 -2.461342729e-05 -51.59459039
271.686992 -2.461342729e-05 -16.22910039
-321.973425 -2.461342729e-05 -176.3316734
-145.338766 -2.461342729e-05 -144.6795644
863.533168 -2.461342729e-05 -232.4171374
446.938327 -64.69462661 -9.738785275e-05
594.056786 -2.461342729e-05 -46.98167139
33.524001 -2.461342729e-05 -121.5611274
258.088488 -57.98295161 -9.738785275e-05
39.199294 -8.522716613 -9.738785275e-05
905.322751 -2.461342729e-05 -130.8794024
-54.548549 -53.63542361 -9.738785275e-05
-496.282897 -2.461342729e-05 -102.9114574
655.444807 -2.461342729e-05 -202.8962834
-134.500029 -31.98417561 -189.4262224
801.510299 -2.461342729e-05 -86.37035639
86.912728 -15.93109961 -9.738785275e-05
-220.280295 -2.461342729e-05 -178.2911184
-232.398628 -2.461342729e-05 -155.7481044
-134.500029 -40.70456561 -73.02922539
455.607304 -2.461342729e-05 -64.94792639
-39.315475 0.6071683866 -9.738785275e-05
134.416787 -67.53154261 -9.738785275e-05
-150.286378 -2.461342729e-05 -159.7875774
-714.114588 -27.98133461 -9.738785275e-05
545.212475 -31.99068161 -9.738785275e-05
641.95245 -2.461342729e-05 -235.5751664
-511.156638 -45.25732761 -9.738785275e-05
-890.850319 -65.41723561 -9.738785275e-05
-736.802899 -2.461342729e-05 -174.0105654
-99.302593 -2.461342729e-05 -21.06286639
811.813813 -2.461342729e-05 -115.3598064
-647.387148 -2.461342729e-05 -130.6464544
686.247527 -2.461342729e-05 -217.5514874
-689.825282 -50.39797761 -9.738785275e-05
-396.272745 -2.461342729e-05 -37.36537239
316.904636 -2.461342729e-05 -178.3779634
-687.456111 -27.03927861 -9.738785275e-05
462.701646 -37.11164961 -9.738785275e-05
-452.754889 -2.461342729e-05 -229.4730014
127.748776 -2.461342729e-05 -252.0657024
296.43805 1.003032387 -9.738785275e-05
332.249916 -14.43712861 -9.738785275e-05
-323.397248 -2.461342729e-05 -117.2552714
688.503569 -2.461342729e-05 -60.72816339
-661.873525 -2.461342729e-05 -82.33580339
-140.500029 -5.161984613 -58.65608439
-687.503471 -2.461342729e-05 -49.85065139
-473.972018 -2.461342729e-05 -27.43167539
-134.500029 -11.82997261 -71.30598039
-140.500029 -38.87376161 -215.0645224
-348.849809 -2.461342729e-05 -113.0819934
-890.848093 -2.461342729e-05 -152.5936684
-131.642229 -48.00472261 -9.738785275e-05
-35.050572 -2.461342729e-05 -37.39710339
551.659121 -2.461342729e-05 -77.65945839
-838.588792 -2.461342729e-05 -14.18527239
-860.866193 -2.461342729e-05 -234.3816834
328.504323 -2.461342729e-05 -163.1754294
33.896336 -2.461342729e-05 -53.95000339
905.091733 -2.461342729e-05 -75.45027839
-901.523381 -44.75438861 -9.738785275e-05
507.213624 -2.461342729e-05 -177.1682194
-285.033685 -2.461342729e-05 -114.9929644
666.968302 -2.461342729e-05 -118.4729704
-655.443627 -2.461342729e-05 -249.4992654
-541.633773 -2.461342729e-05 -168.5863924
418.967421 -2.461342729e-05 -108.3393504
658.451062 -2.461342729e-05 -145.6193474
299.7651 -2.461342729e-05 -201.0598854
-451.395317 -2.461342729e-05 -167.4929484
-736.090616 -2.461342729e-05 -69.54525639
-514.274105 -2.461342729e-05 -236.1270154
810.017788 -2.461342729e-05 -32.95771939
-307.434634 -2.461342729e-05 -82.95816639
-566.334949 -9.708306613 -9.738785275e-05
228.45822 -68.00002461 1.622158612
530.481923 -2.461342729e-05 -219.2608974
74.871906 -50.33226061 -9.738785275e-05
449.859534 -2.461342729e-05 -12.66084539
499.36856 -2.461342729e-05 -229.0945874
486.013408 -2.461342729e-05 -199.9806924
258.431344 -2.461342729e-05 -60.00087139
590.746478 -18.27309061 -9.738785275e-05
679.133658 -2.461342729e-05 -174.1554814
-315.232793 -2.461342729e-05 -232.8850154
-816.449513 -2.461342729e-05 -162.3799204
864.9571 -68.00002461 0.5627136121
545.653292 -2.461342729e-05 -206.9713364
267.49876 -2.461342729e-05 -178.0632504
-734.562973 -2.461342729e-05 -235.0967574
-141.689237 -64.33754961 -9.738785275e-05
-67.374547 -2.461342729e-05 -218.3358734
-109.458774 2.330673387 -9.738785275e-05
54.277615 -2.461342729e-05 -150.3065974
118.351804 -2.461342729e-05 -15.89444639
331.692156 -2.461342729e-05 -108.3838834
170.454167 -2.461342729e-05 -167.9270204
513.994826 -2.461342729e-05 -24.20001939
-892.46653 -2.461342729e-05 -10.53960739
392.842317 -2.461342729e-05 -247.8737804
-776.206411 -66.46574861 -9.738785275e-05
268.909395 -2.461342729e-05 -147.6816164
-91.266131 -21.18738061 -9.738785275e-05
-561.098461 -2.461342729e-05 -139.7201234
611.239195 1.557214387 -9.738785275e-05
-165.920838 -13.13050261 -9.738785275e-05
4.200889001 -2.461342729e-05 -117.2643794
-231.285635 -0.7500246134 1.565567612
839.484468 -0.8051176134 -9.738785275e-05
-376.646349 -2.461342729e-05 -31.75772839
-140.500029 -34.26753661 -53.30798939
221.212984 -2.461342729e-05 -45.43631239
29.677301 -30.77797861 -9.738785275e-05
-206.72357 -2.461342729e-05 -199.0026914
321.147692 -2.461342729e-05 -239.7769284
513.735906 -2.461342729e-05 -211.9164044
792.512526 -14.05223161 -9.738785275e-05
323.880413 -2.461342729e-05 -132.4770234
67.202522 -2.461342729e-05 -6.227069388
-134.500029 -33.27338361 -24.72473239
-498.670827 -2.461342729e-05 -155.5551004
902.095499 -2.461342729e-05 -145.3110194
-171.420416 -2.461342729e-05 -168.1753034
177.678788 -2.461342729e-05 -149.8823064
334.882939 -2.461342729e-05 -194.1818794
714.722996 -2.461342729e-05 -209.4933134
831.170901 -68.00002461 2.274452612
-415.208049 -2.461342729e-05 -116.6850334
59.816047 -2.461342729e-05 -165.5453664
-121.52161 -2.461342729e-05 -53.55534739
-134.500029 -35.35772861 -107.8658194
565.988898 -2.461342729e-05 -193.0404994
-88.000007 -2.461342729e-05 -69.98635139
-242.928542 -2.461342729e-05 -80.63578139
633.506423 -2.461342729e-05 -14.15017739
484.010386 -2.461342729e-05 -124.6959704
-223.449087 -2.461342729e-05 -61.94988739
-841.134982 -2.461342729e-05 -101.2348004
169.089141 -11.37880361 -9.738785275e-05
-596.782797 -2.461342729e-05 -44.62700639
-446.026543 -2.461342729e-05 -16.86406839
46.818155 -2.461342729e-05 -193.4399314
670.755571 -10.06937561 -9.738785275e-05
-557.541481 -2.461342729e-05 -231.6542934
-835.338152 -68.00002461 0.3804856121
210.382636 -2.461342729e-05 -94.04434139
532.019688 -2.461342729e-05 -94.71460139
335.327844 -2.461342729e-05 -45.39020739
94.263443 -67.44641361 -9.738785275e-05
-717.206263 -13.38391061 -9.738785275e-05
-612.399076 -9.430242613 -9.738785275e-05
-622.01026 -2.461342729e-05 -219.8648124
478.2414 -2.461342729e-05 -110.9232984
-349.498231 -38.11538761 -9.738785275e-05
601.857566 -2.461342729e-05 -131.5527024
765.799836 -2.461342729e-05 -133.1441904
-140.500029 -7.046338613 -169.3785114
435.824346 -2.461342729e-05 -133.0184614
734.387263 -2.461342729e-05 -121.7636834
-386.669828 -2.461342729e-05 -132.2476384
232.613103 -2.461342729e-05 -27.18356039
516.426275 -2.461342729e-05 -145.4790444
-42.562545 -2.461342729e-05 -68.05231639
-140.500029 -12.31769461 -233.0822974
397.710385 -38.59614861 -9.738785275e-05
876.952768 -2.461342729e-05 -64.93699339
422.293823 -11.32194261 -9.738785275e-05
-302.280305 -2.461342729e-05 -51.80183639
880.398428 -2.461342729e-05 -180.7433184
-704.997629 -2.461342729e-05 -28.79720839
-661.376078 -2.461342729e-05 -115.1214754
714.17847 -2.461342729e-05 -75.75422439
-226.305512 -2.461342729e-05 -230.7759094
-690.129399 -2.461342729e-05 -96.11982839
-183.189532 2.204353387 -9.738785275e-05
268.050333 -34.27286061 -9.738785275e-05
755.104381 -2.461342729e-05 -181.2845694
-140.500029 -35.86916861 -166.8778494
-349.67691 -2.461342729e-05 -219.0880124
-784.861857 -2.461342729e-05 -107.8361334
-823.168229 -2.461342729e-05 -31.41109639
373.671057 -2.461342729e-05 -160.4858194
120.444058 -14.40209661 -9.738785275e-05
877.716172 -2.461342729e-05 -14.00283839
211.374824 -2.461342729e-05 -134.1468514
877.190597 -2.461342729e-05 -142.4395724
273.564865 -2.461342729e-05 -227.6687884
658.7775 -2.461342729e-05 -170.7249454
590.076438 -2.461342729e-05 -86.27085339
217.967239 -2.461342729e-05 -161.2461214
-484.771916 -2.461342729e-05 -131.7525294
329.269155 -61.94050061 -9.738785275e-05
900.530303 -2.461342729e-05 -230.0256204
881.559689 -2.461342729e-05 -84.13688239
-705.145389 -0.5366616134 -9.738785275e-05
218.240571 -2.461342729e-05 -243.4929304
672.855849 -2.461342729e-05 -48.95962439
-806.238959 -2.461342729e-05 -94.86513939
797.171766 -47.26480061 -9.738785275e-05
-123.341968 -2.461342729e-05 -106.6503044
-799.676161 -2.461342729e-05 -248.5459074
102.042663 -2.461342729e-05 -12.08412539
-887.003448 -2.461342729e-05 -131.5733864
-628.257318 -27.58019461 -9.738785275e-05
314.969776 -2.461342729e-05 -52.77753039
709.328677 -2.461342729e-05 -162.1685074
683.931657 -2.461342729e-05 -77.13704439
136.183534 -2.461342729e-05 -28.22577639
434.387019 -2.461342729e-05 -226.7709384
-74.49432 -2.461342729e-05 -44.00070939
-134.500029 -37.69879761 -237.5010794
-783.186792 -2.461342729e-05 -207.5175694
-459.862097 -54.03044661 -9.738785275e-05
-486.205028 -66.56189161 -9.738785275e-05
879.777133 -2.461342729e-05 -213.8395124
-766.050244 -2.461342729e-05 -239.0027634
-639.775839 -2.461342729e-05 -35.14341039
139.22684 -37.56491761 -9.738785275e-05
347.144626 -2.461342729e-05 -155.5896724
242.719599 -2.461342729e-05 -146.0139154
-62.814004 -2.461342729e-05 -109.3641234
53.695161 -2.461342729e-05 -120.9222084
-433.668046 -5.406595613 -9.738785275e-05
291.607398 -2.461342729e-05 -162.2300754
837.465074 -2.461342729e-05 -138.6483884
-772.737148 -2.461342729e-05 -38.31349139
37.384621 -60.70179161 -9.738785275e-05
-467.226265 -2.461342729e-05 -189.3079774
-390.635072 -2.461342729e-05 -202.3490784
457.961832 -2.461342729e-05 -239.5830744
-528.15378 -2.461342729e-05 -95.20648839
-140.500029 -24.11344361 -134.1261904
747.758026 -2.461342729e-05 -106.5964444
820.018783 -2.461342729e-05 -56.86139739
-100.000074 -2.461342729e-05 -102.9271334
22.964745 -53.77327461 -9.738785275e-05
114.574905 -27.41019661 -9.738785275e-05
237.115007 -2.461342729e-05 -65.78277439
-864.423587 -2.461342729e-05 -143.9751464
120.53565 -2.461342729e-05 -237.0915084
-285.473834 -2.461342729e-05 -225.1662884
167.050773 -2.461342729e-05 -46.60624239
859.370778 -2.461342729e-05 -21.45785639
657.66399 -2.461342729e-05 -30.37491839
-211.021081 -2.461342729e-05 -230.2246204
-279.179466 -2.461342729e-05 -55.50007939
331.886756 -2.461342729e-05 -13.91653639
-179.572926 -2.461342729e-05 -235.8554324
-96.333021 -2.461342729e-05 -149.1876964
140.223135 -16.76437061 -9.738785275e-05
-507.430907 -2.461342729e-05 -180.9823244
-429.975851 -2.461342729e-05 -87.21998539
423.506649 -2.461342729e-05 -204.3270684
496.655609 2.463748387 -9.738785275e-05
-855.327039 -35.52466261 -9.738785275e-05
639.52188 -12.52324361 -9.738785275e-05
406.522769 -2.461342729e-05 -13.82378139
-140.500029 -10.24513161 -153.6302484
349.614928 -54.38748961 -9.738785275e-05
22.778778 -2.461342729e-05 -98.36065239
-775.147802 -2.461342729e-05 -119.0324324
-4.177412999 -2.461342729e-05 -169.3779454
109.61597 -2.461342729e-05 -95.19419839
151.413911 0.5385303866 -9.738785275e-05
799.419767 -2.461342729e-05 -153.0690154
345.050832 -2.461342729e-05 -61.44227639
-788.486105 -2.461342729e-05 -164.0589144
-895.956242 -2.461342729e-05 -68.35305639
516.624537 -2.461342729e-05 -119.5268174
-462.291156 -2.461342729e-05 -140.0510164
-389.572509 -2.461342729e-05 -60.60950439
-489.835673 -2.461342729e-05 -233.9027774
200.801355 -32.77032661 -9.738785275e-05
-825.851533 -2.461342729e-05 -83.54168739
735.326205 -2.461342729e-05 -213.0552734
-794.960618 -2.461342729e-05 -46.64194339
-772.864694 -13.72675361 -9.738785275e-05
1.931513001 -2.461342729e-05 -83.69382739
-7.257191999 -32.75288161 -9.738785275e-05
-140.500029 -20.83032661 -81.55224739
-438.032917 -2.461342729e-05 -162.9744484
-649.405774 -68.00002461 2.474712612
52.299807 -2.461342729e-05 -79.97386439
514.075451 -2.461342729e-05 -71.29722039
-362.390962 -2.461342729e-05 -211.1578284
105.997773 -2.461342729e-05 -190.9195164
224.427956 -1.604265613 -9.738785275e-05
-664.149231 -2.461342729e-05 -39.52743539
-593.928151 -2.461342729e-05 -0.6486613879
-285.145129 -2.461342729e-05 -19.98894839
-732.377682 -2.461342729e-05 -149.8828824
654.999971 0.5627393866 -227.1362284
-406.664329 -2.461342729e-05 -70.54938439
-502.680173 -2.461342729e-05 -226.5482284
-231.869126 -2.461342729e-05 -30.76497639
-845.180061 -2.461342729e-05 -68.08061839
848.35596 -2.461342729e-05 -67.91302139
-574.468843 -2.461342729e-05 -147.8686144
441.487391 -2.461342729e-05 -93.85383639
-286.661308 -33.80795261 -9.738785275e-05
174.873657 -2.461342729e-05 -231.8384914
138.888916 -2.461342729e-05 -220.5016974
888.37759 -2.461342729e-05 -153.8118394
595.822355 -2.298734613 -9.738785275e-05
-152.088568 -2.461342729e-05 -116.2455514
-657.474723 -2.461342729e-05 -59.98519439
865.507143 -2.461342729e-05 -46.11823939
-127.484996 -2.461342729e-05 -192.1625584
111.839244 -2.461342729e-05 -131.9065304
-784.117464 -2.461342729e-05 -233.0336654
-121.834649 -2.461342729e-05 -244.5460514
-178.117135 -2.461342729e-05 -144.0528864
-78.651622 -2.461342729e-05 -186.5886104
461.283934 1.235612387 -9.738785275e-05
145.242268 -2.461342729e-05 -71.74200839
-892.458166 -32.60801361 -9.738785275e-05
212.61509 -2.461342729e-05 -186.8873244
635.436942 -2.461342729e-05 -98.96984539
364.896065 -2.461342729e-05 -219.6706764
-688.190247 -5.659988613 -9.738785275e-05
454.115789 -2.461342729e-05 -201.9281564
-506.62828 -66.56675361 -9.738785275e-05
-539.169598 -2.461342729e-05 -37.65171839
162.844346 -2.461342729e-05 -115.6826984
684.916278 -2.461342729e-05 -17.36933739
193.53468 -2.461342729e-05 -55.78936039
363.85899 -2.461342729e-05 -42.09823839
240.517244 -2.461342729e-05 -119.2693624
-896.247998 -2.461342729e-05 -88.88935639
686.018036 -2.461342729e-05 -149.4936174
-185.006725 -2.461342729e-05 -117.6352904
-61.206496 -2.461342729e-05 -156.1149684
157.45796 -2.461342729e-05 -241.9854054
635.500104 -2.461342729e-05 -28.51789439
601.7804 -2.461342729e-05 -70.48017539
-861.388803 -2.461342729e-05 -123.9150014
110.117693 -2.461342729e-05 -37.49467939
-59.48011 -2.461342729e-05 -85.99861739
-147.689479 -2.461342729e-05 -25.39740339
-789.159555 -2.461342729e-05 -68.04344639
-551.816964 -2.461342729e-05 -14.69479539
-94.892473 -2.461342729e-05 -165.7895884
154.424654 -2.461342729e-05 -141.6656294
609.21663 -2.461342729e-05 -224.5415354
-754.999785 0.9463653866 -227.1803174
-677.285303 -58.53656161 -9.738785275e-05
-260.562468 -25.49218661 -9.738785275e-05
46.010576 -37.04248561 -9.738785275e-05
-559.826399 -58.29821861 -9.738785275e-05
23.748241 -2.461342729e-05 -23.20484239
-702.302014 -2.461342729e-05 -50.47299639
-102.601694 -2.461342729e-05 -220.5504784
-159.565541 -2.461342729e-05 -193.7687794
-358.401982 -2.461342729e-05 -103.0723514
-482.686235 -2.461342729e-05 -62.99628439
749.33524 -2.461342729e-05 -156.6993994
-349.031326 -2.461342729e-05 -60.80719339
377.495519 -2.461342729e-05 -41.77399939
-189.663922 -2.461342729e-05 -82.57085539
-367.887185 -7.364106613 -9.738785275e-05
419.593952 -38.75524361 -9.738785275e-05
-234.702796 -2.461342729e-05 -209.5752874
-610.288528 -2.461342729e-05 -22.37133739
255.759298 -24.42111861 -9.738785275e-05
-295.334702 -2.461342729e-05 -142.8378094
481.434089 -2.461342729e-05 -79.29704139
764.897518 -2.461342729e-05 -31.52424539
-140.500029 -11.13713161 -100.0987164
-382.232536 -2.461342729e-05 -186.3554054
-473.034803 -19.33192661 -9.738785275e-05
-584.308404 -2.461342729e-05 -123.2086174
-121.717248 -21.09144761 -9.738785275e-05
-642.611054 2.280565387 -9.738785275e-05
464.207054 -2.461342729e-05 -135.1210244
894.379428 -2.461342729e-05 -168.6842624
-532.080424 -2.461342729e-05 -157.3244194
753.323355 -2.461342729e-05 -211.3061524
186.810008 -2.461342729e-05 -122.1913084
-270.298829 -2.461342729e-05 -154.0107334
892.638904 -65.36834561 -0.6405573879
-590.906892 -2.461342729e-05 -61.33963839
22.267125 -1.734345613 -9.738785275e-05
-249.24122 -2.461342729e-05 -169.8353924
-848.418124 -2.461342729e-05 -164.0038524
-68.050224 -33.22835961 -9.738785275e-05
837.208903 -2.461342729e-05 -125.0373784
-666.982444 -2.461342729e-05 -236.1234864
700.66902 -2.461342729e-05 -179.1103984
11.157734 -2.461342729e-05 -145.1933304
285.150151 -2.461342729e-05 -101.4632424
-23.081144 -23.65388261 -9.738785275e-05
-883.066131 -2.461342729e-05 -39.49204639
637.038333 -2.461342729e-05 -199.1243684
294.269838 -2.461342729e-05 -230.6540524
-868.662138 -0.6258026134 -9.738785275e-05
-471.710029 -2.461342729e-05 -205.5273084
483.245583 -16.74170261 -9.738785275e-05
549.611495 -2.461342729e-05 -239.1687004
78.619814 -2.461342729e-05 -236.1895704
685.348647 -2.461342729e-05 -136.1382384
583.243326 -2.461342729e-05 -37.83085739
149.660147 -54.70397861 -9.738785275e-05
-124.347693 -2.461342729e-05 -166.8289834
-725.958059 -2.461342729e-05 -18.99546939
-359.024084 -2.461342729e-05 -163.4960724
-123.481565 -2.461342729e-05 -226.0280964
-390.596352 -2.461342729e-05 -145.9988974
-21.911635 -2.461342729e-05 -32.51545139
863.891671 -50.04788461 -9.738785275e-05
-121.018224 -2.461342729e-05 -153.3600394
-556.826851 -2.461342729e-05 -100.7278204
-786.608662 -2.461342729e-05 -179.8368084
-287.602913 -57.94953061 -9.738785275e-05
300.553808 -2.461342729e-05 -12.78218239
822.101288 -2.461342729e-05 -72.28239139
66.381706 -2.461342729e-05 -220.7579584
435.59274 -2.461342729e-05 -169.9329374
-790.297706 -54.63233761 -9.738785275e-05
-708.431577 -2.461342729e-05 -120.6724104
565.075331 -2.461342729e-05 -95.20999639
-237.264787 -2.461342729e-05 -52.83292639
742.292407 -2.461342729e-05 -65.04742339
461.112828 -2.461342729e-05 -49.38090339
709.853793 -2.461342729e-05 -139.0512574
-219.268148 -2.461342729e-05 -118.5116234
-134.500029 -1.789439613 -239.0971004
-434.622775 -2.461342729e-05 -30.65295139
-870.4068 -2.461342729e-05 -174.3920064
-838.353649 -33.64879461 -9.738785275e-05
-140.500029 -45.42447761 -192.7066144
-800.935098 -2.461342729e-05 -127.6746614
870.463446 -2.461342729e-05 -92.63044739
-570.338055 -2.461342729e-05 -228.2809224
362.124204 -2.461342729e-05 -84.56064839
777.7795 -2.461342729e-05 -57.38050739
-522.797713 -2.461342729e-05 -187.5581334
-374.495062 -2.461342729e-05 -61.05710639
427.605051 -2.461342729e-05 -36.37041239
270.837306 -49.27605661 -9.738785275e-05
239.233844 -2.461342729e-05 -94.73336739
-170.041571 -2.461342729e-05 -45.40927939
209.395694 -2.461342729e-05 -58.86669039
525.754372 -11.26903261 -9.738785275e-05
794.484411 -2.461342729e-05 -104.9280794
-295.294414 -2.461342729e-05 -249.5668284
-134.500029 -16.84703661 -213.3471134
-63.420548 -17.26954661 -9.738785275e-05
-658.3059 -38.61503861 -9.738785275e-05
108.652875 -2.461342729e-05 -224.0566884
-134.500029 -39.57421061 -94.46851339
-732.843607 -2.461342729e-05 -210.5660914
-110.256488 -2.461342729e-05 -199.3524924
405.839119 -2.461342729e-05 -107.6588644
636.219468 -2.461342729e-05 -82.12955239
-227.966358 -2.461342729e-05 -84.27381039
843.169163 -2.461342729e-05 -46.43911539
487.891486 -2.461342729e-05 -93.19763839
561.135916 -2.461342729e-05 -148.1019034
-186.466555 -2.461342729e-05 -13.49285439
-27.892263 -2.461342729e-05 -208.4367774
614.746609 -2.461342729e-05 -73.28378039
-620.003576 -62.40507061 -9.738785275e-05
-321.030201 -2.461342729e-05 -68.64579739
563.550629 -2.461342729e-05 -56.54259639
-417.41001 -2.461342729e-05 -49.48111839
-446.766377 -23.83085261 -9.738785275e-05
474.154935 -2.461342729e-05 -215.9429344
403.296826 -2.461342729e-05 -79.91713539
-333.646754 -2.461342729e-05 -200.1595904
250.126432 -2.461342729e-05 -49.92588039
-690.046824 -2.461342729e-05 -76.79675539
-682.618909 -2.461342729e-05 -61.95138539
576.837526 -2.461342729e-05 -125.4545294
741.415504 -2.461342729e-05 -11.51450439
-448.439056 -2.461342729e-05 -212.0308314
-731.391415 -28.97314261 -9.738785275e-05
58.982105 -25.54850261 -9.738785275e-05
-730.127532 -2.461342729e-05 -104.9494384
-189.588507 -2.461342729e-05 -222.4168404
-380.40056 -2.461342729e-05 -16.23258039
-506.899662 -2.461342729e-05 -117.8176774
-92.984434 -55.65831761 -9.738785275e-05
-314.371557 -2.461342729e-05 -19.79125039
-415.031189 -2.461342729e-05 -142.5874234
-307.623567 -2.461342729e-05 -187.9691884
-893.073021 -10.77913961 -9.738785275e-05
-607.427332 -2.461342729e-05 -209.4150364
825.917479 -11.38310561 -9.738785275e-05
-132.382172 -2.461342729e-05 -145.5782394
85.398397 -2.461342729e-05 -196.7364964
-809.760171 -2.461342729e-05 -68.53505239
-173.466039 -2.461342729e-05 -189.3992084
-528.941217 -2.461342729e-05 -232.1823264
-125.667219 -2.461342729e-05 -11.05224139
-706.739487 -51.82636061 -9.738785275e-05
-756.602872 -2.461342729e-05 -142.1960254
-134.500029 -49.93468861 -47.16586039
126.718151 -2.461342729e-05 -178.2141514
786.109896 -2.461342729e-05 -210.0274504
