# .PCD v0.7 - Point Cloud Data file format
VERSION 0.7
FIELDS x y z
SIZE 4 4 4
TYPE F F F
COUNT 1 1 1
WIDTH 1165
HEIGHT 1
VIEWPOINT 0 0 0 1 0 0 0
POINTS 1165
DATA ascii
-135.052656 -41.76792261 -9.738822837e-05
69.730053 -47.80577161 -9.738822837e-05
-480.171186 -2.460861288e-05 -101.0390834
-585.424115 -2.460861288e-05 -241.8199474
389.273253 -2.460861288e-05 -54.82852839
24.82553 -2.460861288e-05 -159.7857224
437.741478 -2.460861288e-05 -218.1316604
-318.116199 -2.460861288e-05 -221.7021584
371.85763 -2.460861288e-05 -212.5166364
321.570173 -68.00002461 1.290935612
486.933813 -2.460861288e-05 -222.9181304
59.081605 -2.460861288e-05 -37.76137339
622.60182 -43.92167461 -9.738822837e-05
682.915723 -2.460861288e-05 -93.38080439
287.085321 -2.460861288e-05 -63.55675139
76.209652 -2.460861288e-05 -145.8369564
124.521523 -2.460861288e-05 -203.2033224
-128.111613 -2.460861288e-05 -221.1619844
572.753506 -2.460861288e-05 -47.80156039
165.184607 -66.20555161 -9.738822837e-05
-654.849987 -2.460861288e-05 -153.3566174
-555.195748 -2.460861288e-05 -181.8153444
175.143908 -2.460861288e-05 -144.5104134
-493.155011 -30.07784161 -9.738822837e-05
146.562843 -2.460861288e-05 -49.27340239
-707.161737 -2.460861288e-05 -156.1704304
-216.245213 -43.42278961 -9.738822837e-05
-584.182554 -17.55252561 -9.738822837e-05
-559.562372 -2.460861288e-05 -53.56668539
-389.092191 -2.460861288e-05 -242.8421024
-197.524615 -2.460861288e-05 -77.12261539
439.373792 -2.460861288e-05 -171.8563204
338.205791 -2.460861288e-05 -48.18308439
548.736191 -2.460861288e-05 -13.00897039
-503.898375 -2.460861288e-05 -16.64164839
-267.898796 -2.460861288e-05 -0.9325043882
576.746143 2.445147391 -9.738822837e-05
424.96945 -2.460861288e-05 -189.9525284
495.896169 -2.460861288e-05 -176.6157374
-149.276582 -2.460861288e-05 -230.0585924
-203.99031 -2.460861288e-05 -192.2962264
224.381237 -2.460861288e-05 -70.23147039
-23.26872 -17.49969661 -9.738822837e-05
-430.391485 -2.460861288e-05 -223.7763144
-732.869817 -2.460861288e-05 -4.081561388
-323.817827 -16.33295261 -9.738822837e-05
-337.530524 -46.28368061 -9.738822837e-05
-605.953332 -16.69927861 -9.738822837e-05
-222.347381 -2.460861288e-05 -247.4148084
-157.999803 -46.01232361 -9.738822837e-05
-502.789841 -2.460861288e-05 -58.38699939
512.639526 -50.03053861 -9.738822837e-05
203.60974 0.6593223914 -9.738822837e-05
-126.485609 -2.460861288e-05 -57.79537039
-155.344591 -2.460861288e-05 -23.21085739
-138.930865 -2.460861288e-05 -250.6930954
-267.553362 -2.460861288e-05 -72.01484139
223.570348 -2.460861288e-05 -11.04454439
503.506236 -2.460861288e-05 -64.57191139
150.000215 -0.7843006086 -115.3489974
134.5012 -2.460861288e-05 -162.0381854
709.000215 0.3888663914 -58.26212439
428.58771 -2.460861288e-05 -53.95735239
150.682619 -2.460861288e-05 -184.3746204
-366.844859 -17.53446761 -9.738822837e-05
-418.003891 -2.460861288e-05 -59.41063439
250.321626 -2.460861288e-05 -126.5049434
-731.299021 -2.460861288e-05 -172.6232434
252.831476 -2.460861288e-05 -208.5669224
-66.555656 -2.460861288e-05 -48.18692439
-97.8375 -2.460861288e-05 -250.7029314
10.383988 -2.460861288e-05 -13.55366839
-475.52312 -2.460861288e-05 -23.90880539
328.754281 -2.460861288e-05 -130.1392894
591.257159 -17.87611861 -9.738822837e-05
-39.092312 -2.460861288e-05 -211.8633824
133.516055 -2.460861288e-05 -243.6221854
-127.551011 -2.460861288e-05 -147.0301404
238.525059 -2.460861288e-05 -166.5958154
710.000215 0.2228683914 -159.7850774
-694.963691 -48.56504961 -9.738822837e-05
-379.255 -2.460861288e-05 -21.61131539
403.533117 -2.460861288e-05 -20.55913039
-368.148 -2.460861288e-05 -196.8364534
-672.223904 -2.460861288e-05 -138.5586014
154.434556 -2.460861288e-05 -68.92019339
454.313712 -2.460861288e-05 -2.409191388
384.805496 -6.606077609 -9.738822837e-05
469.971152 -2.460861288e-05 -203.3366954
-80.968188 -49.16350461 -9.738822837e-05
76.340622 -2.460861288e-05 -20.92494539
-470.000762 2.076479391 -73.82436839
-715.478411 -42.23557761 -9.738822837e-05
326.415749 -2.460861288e-05 -83.64579039
730.379052 -2.460861288e-05 -82.90412839
191.772373 -2.460861288e-05 -40.52861539
587.189598 -2.460861288e-05 -153.7856644
-264.893903 -2.460861288e-05 -248.6288024
489.767808 -2.460861288e-05 -20.72772539
605.215784 -2.460861288e-05 -76.74985339
512.884705 -2.460861288e-05 -13.68578039
-644.485061 -2.460861288e-05 -18.80809139
589.169352 -2.460861288e-05 -230.2216764
-215.800642 -2.460861288e-05 -168.9421514
-442.994635 -45.36743061 -9.738822837e-05
318.949531 -31.86753961 -9.738822837e-05
86.978446 -25.75486061 -9.738822837e-05
-408.257716 -42.76171861 -9.738822837e-05
408.801733 -30.20269661 -9.738822837e-05
390.776315 -2.460861288e-05 -170.1191504
299.804618 -2.460861288e-05 -193.0616094
-302.459723 -2.460861288e-05 -18.44393739
692.346708 -2.460861288e-05 -208.5844634
539.067307 -2.460861288e-05 -143.3522694
669.448063 -2.460861288e-05 -163.8126974
-100.552667 -15.83426461 -9.738822837e-05
704.544149 -2.460861288e-05 -112.2425554
310.187726 -2.460861288e-05 -26.07684239
-355.680371 1.659117391 -9.738822837e-05
279.637219 -2.460861288e-05 -225.2191784
279.788135 -2.460861288e-05 -183.9320844
691.279661 -2.460861288e-05 -22.57687139
665.988094 -2.460861288e-05 -105.7495184
-257.940513 -2.460861288e-05 -193.9415504
630.248495 -2.460861288e-05 -52.39408239
-526.83887 -2.460861288e-05 -245.7520684
-2.325151998 -2.460861288e-05 -236.9691744
-272.757673 -32.18412061 -9.738822837e-05
150.000215 -33.52704161 -160.0648754
-55.479188 -2.460861288e-05 -17.20444239
70.765536 -2.460861288e-05 -57.33301839
567.319367 -2.460861288e-05 -244.3773954
727.517069 -2.460861288e-05 -24.76979339
-31.472082 -2.460861288e-05 -90.36718439
-150.754428 -2.460861288e-05 -184.5978494
321.235846 -2.460861288e-05 -157.3582634
708.566638 -13.16531261 -9.738822837e-05
-425.727032 -2.460861288e-05 -24.26860039
-4.283231998 -2.460861288e-05 -65.10798039
550.114051 -2.460861288e-05 -49.68197639
477.046482 2.435152391 -9.738822837e-05
-106.869446 -50.89974861 -9.738822837e-05
-545.80349 -36.35575061 -9.738822837e-05
385.778467 -2.460861288e-05 -116.0826924
241.296821 -2.460861288e-05 -20.97262139
-441.60448 -2.460861288e-05 -181.1292574
-300.934365 -2.460861288e-05 -81.88159039
-660.765175 -2.460861288e-05 -54.88045739
330.51481 -2.460861288e-05 -203.8452584
-397.585433 -2.460861288e-05 -201.1495774
-608.513995 -2.460861288e-05 -197.8275644
282.147453 -48.99377261 -9.738822837e-05
4.834574002 -2.460861288e-05 -130.9960784
156.17687 -2.460861288e-05 -205.1279424
103.722809 -68.00002461 1.309477612
622.845437 -2.460861288e-05 -199.7956674
309.818901 -50.13914461 -9.738822837e-05
608.469198 -2.460861288e-05 -251.1347614
-479.147245 -2.460861288e-05 -174.8643464
480.606453 -2.460861288e-05 -95.97019139
723.050998 -2.460861288e-05 -225.6284854
-466.291402 0.1514983914 -9.738822837e-05
422.480225 -2.460861288e-05 -94.69487539
179.399127 -2.460861288e-05 -19.67072939
-231.225185 -21.31486661 -9.738822837e-05
-283.604714 -2.460861288e-05 -196.7955864
209.901365 -2.460861288e-05 -140.5825774
185.839889 -20.94262661 -9.738822837e-05
-287.014254 -2.460861288e-05 -43.18062939
-565.614207 -2.460861288e-05 -241.5516634
-53.799715 -2.460861288e-05 -73.33587639
-539.700585 -2.460861288e-05 -226.7162204
-26.174693 -2.460861288e-05 -51.94509639
-134.27448 -2.460861288e-05 -20.78941739
-104.762781 -2.460861288e-05 -113.4315544
464.739035 -2.460861288e-05 -248.1981954
-328.87464 -2.460861288e-05 -131.3129564
-465.734678 -55.65632361 -9.738822837e-05
150.000215 -37.10182961 -186.5578244
-395.804186 -2.460861288e-05 -129.6858424
427.423961 -2.460861288e-05 -31.39030339
548.426008 -18.77347861 -9.738822837e-05
-85.793272 -2.460861288e-05 -52.00271339
-711.72744 -2.460861288e-05 -73.94421939
123.143347 -2.460861288e-05 -144.3526164
502.080319 -2.460861288e-05 -106.3253514
-515.649892 -2.460861288e-05 -32.22481139
-179.122749 -68.00002461 0.7256146118
79.255756 -2.460861288e-05 -196.2832214
-516.409979 -2.460861288e-05 -149.7139164
-322.142264 -2.460861288e-05 -159.6787714
-120.944072 -2.460861288e-05 -35.27564439
458.531168 -65.30309861 -9.738822837e-05
685.762602 -43.12399061 -9.738822837e-05
86.065757 -2.460861288e-05 -98.31143639
150.000215 -7.670806609 -234.3297654
292.524731 -2.460861288e-05 -108.9682044
-573.980999 -2.460861288e-05 -177.5589734
-304.578262 -17.06420061 -9.738822837e-05
657.702797 -2.460861288e-05 -69.56161839
649.888986 -2.460861288e-05 -17.86402139
-204.878287 -2.460861288e-05 -22.36706939
-651.651958 -37.99251861 -9.738822837e-05
599.482691 -2.460861288e-05 -117.0608264
150.000215 -30.27172461 -45.81665339
-243.392991 -2.460861288e-05 -212.9325964
37.038045 -20.33564561 -9.738822837e-05
673.02744 1.345994391 -9.738822837e-05
-405.774303 -2.460861288e-05 -92.76388339
447.947461 -21.75603961 -9.738822837e-05
-636.591775 -2.460861288e-05 -118.9550544
31.205502 -2.460861288e-05 -53.55525939
-684.971594 -2.460861288e-05 -176.2592624
-322.056994 -2.460861288e-05 -203.0092634
147.699745 -50.00002461 -220.9834734
218.150121 -2.460861288e-05 -104.1437304
-218.345834 -2.460861288e-05 -206.1840464
-386.826869 -2.460861288e-05 -86.04447339
48.780012 -0.7500246086 2.452272612
-504.951745 -11.49388661 -9.738822837e-05
-249.615939 -2.460861288e-05 -146.3505874
-400.363574 -2.460861288e-05 -50.92482639
298.596742 -2.460861288e-05 -228.9855374
-523.838016 -2.460861288e-05 -105.8484254
-343.0748 -2.460861288e-05 -172.5735064
610.594757 -2.460861288e-05 -18.14270439
309.43456 -15.43211261 -9.738822837e-05
51.897209 -2.460861288e-05 -221.2109314
719.753312 -43.93168361 -9.738822837e-05
-685.110095 -2.460861288e-05 -250.4628474
-333.492609 -2.460861288e-05 -1.501614388
-45.596429 -2.460861288e-05 -111.3061364
-99.644388 -2.460861288e-05 -231.9135084
-613.355455 -52.02378461 -9.738822837e-05
-382.892643 -2.460861288e-05 -164.8551824
389.82453 -2.460861288e-05 -97.71560639
513.647813 -2.460861288e-05 -142.9404994
521.582861 -17.49253661 -9.738822837e-05
109.425113 -2.460861288e-05 -38.76056839
-440.755163 -2.460861288e-05 -207.6434064
205.998921 -2.460861288e-05 -173.2589484
-420.140612 1.423816391 -177.7206714
459.447205 -2.460861288e-05 -71.22503539
637.11731 -2.460861288e-05 -95.08016039
150.000215 -5.755753609 -28.88910939
-14.612563 -2.460861288e-05 -125.3002994
355.667185 -2.460861288e-05 -165.5901114
92.165903 -2.460861288e-05 -61.71564939
-440.753825 -2.460861288e-05 -109.3341294
602.606228 -56.09811861 -9.738822837e-05
-361.191958 -2.460861288e-05 -156.8303594
-717.528386 -2.460861288e-05 -95.87352539
442.160054 -2.460861288e-05 -133.4528104
-242.486081 -2.460861288e-05 -74.55027639
661.573216 -40.92997761 -9.738822837e-05
-41.988993 -23.36411661 -9.738822837e-05
184.886539 -2.460861288e-05 -239.5091964
73.869306 -2.460861288e-05 -235.2496064
-181.250067 -2.460861288e-05 -237.4293804
-280.648918 -2.460861288e-05 -161.1947254
262.286309 -2.460861288e-05 -145.5719324
392.134634 -2.460861288e-05 -35.15092839
-706.572285 -2.460861288e-05 -231.5121894
725.018138 -2.460861288e-05 -44.20671539
290.948004 -17.56816061 -9.738822837e-05
-303.157632 -2.460861288e-05 -235.4749614
399.197068 -65.02323261 -9.738822837e-05
252.604434 -2.460861288e-05 -103.7390874
150.000215 -9.695555609 -153.3739064
-73.792073 -2.460861288e-05 -89.98922739
-633.626993 -2.460861288e-05 -252.0574504
-151.655101 -2.460861288e-05 -82.63827839
218.477757 -2.460861288e-05 -202.1086854
-63.221493 -2.460861288e-05 -225.5381314
672.28222 -2.460861288e-05 -235.1399344
254.029114 -13.95884661 -9.738822837e-05
-677.384209 -2.460861288e-05 -37.88183739
-288.513909 -2.460861288e-05 -219.7312324
-663.389599 -2.460861288e-05 -115.8784164
523.207589 -2.460861288e-05 -47.36691739
-519.942475 -2.460861288e-05 -202.5195584
-287.193883 -2.460861288e-05 -132.7699114
6.584269002 -2.460861288e-05 -200.1753584
233.559461 -47.41070861 -9.738822837e-05
-302.887465 -2.460861288e-05 -103.3643864
405.164323 -2.460861288e-05 -183.0152094
576.329075 -40.98871961 -9.738822837e-05
461.859499 -2.460861288e-05 -108.3406334
638.18282 -68.00002461 0.03673161177
-340.100633 -2.460861288e-05 -247.1414924
346.282327 -2.460861288e-05 -94.13842839
10.335748 -2.460861288e-05 -40.80798839
532.755136 -2.460861288e-05 -242.2567944
-190.127006 -2.460861288e-05 -205.8393974
-302.321158 -2.460861288e-05 -53.73304339
-486.317293 -2.460861288e-05 -118.0854544
-234.224721 -41.30197061 -9.738822837e-05
-636.269272 -2.460861288e-05 -82.50623539
-337.054164 -2.460861288e-05 -94.69045139
-110.984529 -2.460861288e-05 -82.78461339
485.310263 -24.33203361 -9.738822837e-05
23.317444 -2.460861288e-05 -212.2330614
-524.481147 -48.84749761 -9.738822837e-05
144.000215 -6.500981609 -85.87379539
-28.781263 -2.460861288e-05 -17.39670639
-732.290645 -2.460861288e-05 -249.4179214
215.113143 -2.460861288e-05 -38.93253139
250.823855 -2.460861288e-05 -36.35183139
626.429967 -2.460861288e-05 -232.3125064
656.82074 -66.31208661 -9.738822837e-05
37.986333 -2.460861288e-05 -246.5653254
176.517788 -2.460861288e-05 -99.72205439
-119.345171 -2.460861288e-05 -102.9666814
340.260494 -2.460861288e-05 -8.183885388
106.129613 -2.460861288e-05 -138.6505524
-419.353853 -2.460861288e-05 -79.10276839
202.30552 -2.460861288e-05 -75.94619439
-145.592023 -2.460861288e-05 -151.7943264
435.120999 -48.71980261 -9.738822837e-05
-304.923263 -50.18733961 -9.738822837e-05
-505.27523 -68.00002461 0.9978996118
-368.965691 1.761840391 -228.0000974
-556.367711 -2.460861288e-05 -201.6676314
-626.952834 -2.460861288e-05 -22.02734739
240.6595 -2.460861288e-05 -231.3518534
-262.407576 -2.460861288e-05 -104.9061054
-76.66931 -66.44998861 -9.738822837e-05
-712.184226 -2.460861288e-05 -31.67169139
62.466442 -2.460861288e-05 -80.59699639
-677.876248 -2.460861288e-05 -100.7746894
-95.023664 -2.460861288e-05 -19.89104339
188.826095 -2.460861288e-05 -207.5837514
41.156379 -2.460861288e-05 -118.6838384
150.000215 -36.48233461 -128.8965244
-410.9492 -2.460861288e-05 -111.3782034
645.462041 -2.460861288e-05 -241.6442154
-136.973968 -2.460861288e-05 -130.7404914
38.452302 -49.49866761 -9.738822837e-05
14.787799 -13.58045061 -9.738822837e-05
569.274379 -68.00002461 1.423810612
-118.371223 -14.77254561 -9.738822837e-05
-158.612466 -2.460861288e-05 -118.1575664
397.078122 -2.460861288e-05 -249.2545994
-376.824051 -2.460861288e-05 -128.7925514
303.06446 -2.460861288e-05 -71.10654139
144.000215 -32.47955561 -244.2966564
-10.991262 -40.21531761 -9.738822837e-05
343.305654 -2.460861288e-05 -228.9137204
684.328016 -2.460861288e-05 -134.5909564
-533.272166 -15.06996061 -9.738822837e-05
191.671238 -2.460861288e-05 -138.3772894
581.358172 -2.460861288e-05 -133.9335574
476.149017 -65.75186561 -9.738822837e-05
-67.940559 -2.460861288e-05 -109.0526244
-603.934623 -2.460861288e-05 -86.63309839
-586.478375 -2.460861288e-05 -38.47272039
-689.204792 -2.460861288e-05 -212.5120104
-333.572502 -2.460861288e-05 -40.48836939
66.176391 -1.799805609 -9.738822837e-05
-667.571193 -2.460861288e-05 -232.7599124
216.420312 -2.460861288e-05 -222.5616264
-644.290906 1.042202391 -9.738822837e-05
-690.146828 -2.460861288e-05 -139.9660724
-63.195131 -2.460861288e-05 -168.9181974
-585.030981 -2.460861288e-05 -112.5741704
619.797933 -2.460861288e-05 -120.3120194
77.89211 -2.460861288e-05 -163.2291864
518.991686 -68.00002461 2.411543612
-412.268778 -2.460861288e-05 -146.3039714
-634.727452 -2.460861288e-05 -136.2777054
-194.807488 -35.83211061 -9.738822837e-05
-556.465266 -2.460861288e-05 -91.30329239
-353.760979 -59.54861861 -9.738822837e-05
-291.367797 1.539851391 -9.738822837e-05
133.897571 -7.545761609 -9.738822837e-05
-682.731556 -19.28397961 -9.738822837e-05
-360.83436 -2.460861288e-05 -62.03040239
500.068549 -2.460861288e-05 -241.3270214
161.3956 -2.460861288e-05 -134.0072524
39.648264 -2.460861288e-05 -22.51621839
150.000215 -16.95967261 -217.5119244
728.300433 -2.460861288e-05 -122.7661034
642.978839 -2.460861288e-05 -132.7447364
494.360443 -52.00752161 -9.738822837e-05
-6.351800998 -1.597637609 -9.738822837e-05
394.789678 -45.01368461 -9.738822837e-05
476.657055 -2.460861288e-05 -153.0600754
-703.866873 -2.460861288e-05 -12.94392339
111.411664 -2.460861288e-05 -111.0362054
-407.344881 2.435253391 -9.738822837e-05
-223.93515 -2.460861288e-05 -48.56872939
216.085327 -36.13776161 -9.738822837e-05
134.070397 -2.460861288e-05 -18.57106739
294.741016 -2.460861288e-05 -126.6804284
-617.42373 -2.460861288e-05 -165.2251324
405.07853 -2.460861288e-05 -61.53392039
314.702208 0.9314283914 -9.738822837e-05
-112.732149 -2.460861288e-05 -155.6637514
-97.042895 -2.460861288e-05 -192.0256434
264.764774 -2.460861288e-05 -250.8276224
654.428945 -2.460861288e-05 -172.0508094
-626.358546 -16.72859461 -9.738822837e-05
711.858258 -2.460861288e-05 -249.4836764
406.90023 -2.460861288e-05 -154.9561504
-725.935411 -2.460861288e-05 -188.8711084
560.249609 -1.976152609 -9.738822837e-05
553.341962 -2.460861288e-05 -109.5444894
-653.469397 -2.460861288e-05 -200.3602094
415.209392 -14.42770461 -9.738822837e-05
144.000215 -14.65863761 -14.47212339
185.462232 -2.460861288e-05 -179.0213524
-549.275089 -2.460861288e-05 -40.03610739
5.618222002 -2.460861288e-05 -168.9074684
-490.120579 -2.460861288e-05 -246.5800244
150.000215 -36.13688361 -97.99265039
10.837037 -2.460861288e-05 -90.92832139
341.404139 -28.08481761 -9.738822837e-05
-729.165302 -2.460861288e-05 -52.18433539
13.021059 -47.66972261 -9.738822837e-05
-476.959901 -17.50435961 -9.738822837e-05
-451.218325 -29.27610561 -9.738822837e-05
446.245476 -2.460861288e-05 -96.89402439
-634.530668 -50.65819861 -9.738822837e-05
262.882875 1.459071391 -9.738822837e-05
-46.625082 -2.460861288e-05 -58.02561739
-666.153362 -2.460861288e-05 -165.9079274
-56.665811 -2.460861288e-05 -252.3099404
345.516755 -2.460861288e-05 -124.1610114
628.906486 -2.460861288e-05 -182.4398454
150.000215 -17.47821661 -127.7027434
246.580266 -2.460861288e-05 -250.9633804
-520.410085 -2.460861288e-05 -64.29977539
483.124606 -2.460861288e-05 -135.0811954
-669.84552 -2.460861288e-05 -75.76081439
-69.744459 -2.460861288e-05 -135.9288364
-669.722529 -2.460861288e-05 -185.8903974
-371.797687 -2.460861288e-05 -112.2364214
164.345079 -2.460861288e-05 -55.36796939
-283.300103 -65.94790261 -9.738822837e-05
354.673975 -51.48400061 -9.738822837e-05
403.618078 -2.460861288e-05 -224.0567124
-265.585841 -49.63177561 -9.738822837e-05
538.91395 -2.460861288e-05 -77.02987839
-196.285696 -2.460861288e-05 -110.6379064
165.390285 -5.537851609 -9.738822837e-05
-178.987064 -2.460861288e-05 -179.2986824
234.77419 -2.460861288e-05 -57.17608739
422.258015 -2.460861288e-05 -226.5109354
-88.479021 -2.460861288e-05 -74.95003939
-427.15962 -50.59974861 -9.738822837e-05
-35.152413 -2.460861288e-05 -125.2222744
-46.033644 -54.12034161 -9.738822837e-05
255.071498 -53.94200661 -9.738822837e-05
370.657668 -15.89464961 -9.738822837e-05
-118.930667 -2.460861288e-05 -207.3093574
338.556045 -2.460861288e-05 -167.0365484
-33.19344 -2.460861288e-05 -175.0785494
-234.872531 -2.460861288e-05 -91.02420039
613.244232 -2.460861288e-05 -58.17567639
551.223363 -67.32146761 -9.738822837e-05
-579.167691 -2.460861288e-05 -54.21151239
279.709422 -2.460861288e-05 -8.817725388
-696.175324 -2.460861288e-05 -55.98381039
-36.748062 -2.460861288e-05 -248.3955694
-485.647056 -2.460861288e-05 -54.38825039
505.018212 -2.460861288e-05 -222.7312604
551.622926 -34.95754461 -9.738822837e-05
357.295514 -2.460861288e-05 -77.06050639
254.690056 -2.460861288e-05 -169.7735354
-479.622285 -45.22710261 -9.738822837e-05
-87.201493 -2.460861288e-05 -166.0319924
-390.255309 -2.460861288e-05 -33.82332339
369.865623 -44.95337661 -9.738822837e-05
-332.864343 -2.460861288e-05 -228.8961154
150.000215 -34.63247461 -204.7437244
-609.166845 -2.460861288e-05 -15.43355039
213.651644 -2.460861288e-05 -88.38625439
653.257232 -2.460861288e-05 -34.22090639
481.356712 -2.460861288e-05 -77.87970339
-263.880188 -15.83330861 -9.738822837e-05
150.000215 -49.79391661 -25.74031839
-252.612436 -2.460861288e-05 -227.0020774
-710.999785 -16.61903161 1.154573612
-113.986292 -65.62543161 -9.738822837e-05
418.587354 -2.460861288e-05 -12.66603539
425.368965 -2.460861288e-05 -154.2955814
-509.261227 -33.94789261 -9.738822837e-05
361.97268 -2.460861288e-05 -225.4733094
322.048319 -2.460861288e-05 -40.30379239
321.508172 -2.460861288e-05 -103.1196344
-590.489523 -2.460861288e-05 -201.0873504
120.382422 -2.460861288e-05 -84.97425639
709.000215 0.7115113914 -16.86422339
-166.398533 -16.18598561 -9.738822837e-05
-492.129468 -2.460861288e-05 -206.6141724
-473.844406 -2.460861288e-05 -214.3771914
498.641103 -2.460861288e-05 -128.3496244
-732.976508 -2.460861288e-05 -100.8207054
537.362548 -2.460861288e-05 -181.3357354
612.906138 -2.460861288e-05 -37.38175839
-213.066186 -2.460861288e-05 -234.1373184
-209.142361 -2.460861288e-05 -129.9865404
-569.53701 -67.07964561 -9.738822837e-05
686.021827 -2.460861288e-05 -175.4929604
-143.814292 -55.30588861 -9.738822837e-05
628.3542 -2.460861288e-05 -214.9501744
290.794058 -2.460861288e-05 -21.65309039
424.913819 -2.460861288e-05 -116.8332684
-638.556699 -2.460861288e-05 -173.1110784
-307.209272 -2.460861288e-05 -191.3416694
-264.552056 -2.460861288e-05 -17.82003439
105.509042 -2.460861288e-05 -184.6627814
598.770176 -2.460861288e-05 -173.0149194
-475.330315 -2.460861288e-05 -236.2767984
-645.821547 -2.460861288e-05 -103.3486774
-100.438775 -2.460861288e-05 -4.724173388
-541.458347 -53.03599661 -9.738822837e-05
354.903215 -2.460861288e-05 -14.77476439
-530.696276 -2.460861288e-05 -12.96701039
-504.270305 -2.460861288e-05 -89.44748639
655.359779 -24.47795661 -9.738822837e-05
96.157924 -2.460861288e-05 -78.18761639
-63.027369 -2.460861288e-05 -191.6711964
-544.130765 -2.460861288e-05 -139.2835514
375.458335 -2.460861288e-05 -139.8587944
532.559068 -2.460861288e-05 -15.81997439
-188.841585 -2.460861288e-05 -41.45573339
144.000215 -31.58123861 -71.75673339
102.454029 -2.460861288e-05 -1.750808388
-566.01181 -2.460861288e-05 -68.17817239
118.169882 -2.460861288e-05 -20.03534639
53.659754 -2.460861288e-05 -197.2369444
-425.342467 -13.68092761 -9.738822837e-05
360.752126 -2.460861288e-05 -195.4680484
-604.761429 -2.460861288e-05 -121.5541274
353.245922 -2.460861288e-05 -108.4634784
-388.681179 -17.12929261 -9.738822837e-05
144.000215 -12.83339661 -104.8562394
-643.233787 -2.460861288e-05 -45.93470139
-364.961758 -2.460861288e-05 -42.59340039
454.018132 -2.460861288e-05 -211.5842974
123.899607 -2.460861288e-05 -50.04440839
-376.32166 -2.460861288e-05 -183.0543474
-98.627473 -36.82201761 -9.738822837e-05
-589.736702 -2.460861288e-05 -166.7392214
-57.790856 -26.62666461 -9.738822837e-05
17.40658 -2.460861288e-05 -145.3045444
281.29463 -30.14215761 -9.738822837e-05
295.663276 -2.460861288e-05 -156.8235244
-491.328513 -2.460861288e-05 -146.8090774
150.000215 -1.999081609 -250.9276494
-513.081047 -2.460861288e-05 -118.9136684
-320.921343 -2.460861288e-05 -116.5758374
-9.374327998 -2.460861288e-05 -211.9144234
-580.484485 -2.460861288e-05 -22.41644239
-227.325816 -2.460861288e-05 -155.5662294
-701.590126 -2.460861288e-05 -115.1083864
423.564166 -64.54763261 -9.738822837e-05
-154.453467 -2.460861288e-05 -51.00354739
-457.650524 -2.460861288e-05 -133.9363374
618.744975 -2.460861288e-05 -85.50971539
-83.772982 -2.460861288e-05 -202.5429774
659.31829 -2.460861288e-05 -202.0909954
-397.554516 -2.460861288e-05 -19.93154639
-246.321876 -17.03584761 -9.738822837e-05
-534.02586 -2.460861288e-05 -209.4153764
-688.651405 -2.460861288e-05 -75.81511739
-82.956839 -2.460861288e-05 -104.5472114
389.331392 -2.460861288e-05 -71.84759539
-603.097991 -2.460861288e-05 -137.1234774
548.424418 -2.460861288e-05 -34.11765239
458.872513 -2.460861288e-05 -40.22109039
587.687892 -2.460861288e-05 -212.9935124
-611.697588 0.05033139139 -9.738822837e-05
192.261401 -2.460861288e-05 -107.3089434
22.189141 -2.460861288e-05 -125.7543684
-349.900175 -2.460861288e-05 -33.75938939
463.603776 -2.460861288e-05 -19.10823439
-703.087383 -2.460861288e-05 -192.0436754
227.316769 -11.92573561 -9.738822837e-05
673.814458 -2.460861288e-05 -146.0458744
-335.25013 -2.460861288e-05 -211.9840644
269.014061 -2.460861288e-05 -213.1897264
554.106928 -2.460861288e-05 -132.2198134
606.75863 -2.460861288e-05 -232.1795414
512.022651 -2.460861288e-05 -173.5224314
-494.498655 -2.460861288e-05 -178.4929774
-400.329814 -2.460861288e-05 -229.8992884
-186.472001 -2.460861288e-05 -62.92632139
-375.421982 -2.460861288e-05 -96.52394039
-428.263533 -2.460861288e-05 -249.9444484
464.706712 -31.89880661 -9.738822837e-05
25.833983 -2.460861288e-05 -14.77815539
53.451454 -45.81084361 -9.738822837e-05
-556.93216 -2.460861288e-05 -15.72151039
-614.923668 -2.460861288e-05 -49.72339639
-121.325737 -2.460861288e-05 -168.4829544
144.000215 -30.71061461 -14.34569139
-44.533211 -2.460861288e-05 -144.6595834
85.739074 -2.460861288e-05 -210.2783694
544.560244 -48.66280661 -9.738822837e-05
-29.756453 -2.460861288e-05 -190.1077684
391.766692 -2.460861288e-05 -152.0695024
498.172046 -12.94191861 -9.738822837e-05
149.680313 -2.460861288e-05 -168.2273204
-314.118178 -2.460861288e-05 -140.6686464
-436.381363 -2.460861288e-05 -84.31232539
144.000215 -49.89286561 -236.6756924
-443.573559 -2.460861288e-05 -162.7576504
689.437389 -59.56178461 -9.738822837e-05
-562.958094 -2.460861288e-05 -166.8148174
651.979003 -2.460861288e-05 -146.3312704
255.095792 -2.460861288e-05 -88.59529539
376.857912 -2.460861288e-05 -36.42947639
-356.778811 -2.460861288e-05 -215.5164464
560.44355 -2.460861288e-05 -208.2507294
-346.513147 -2.460861288e-05 -187.4872194
-595.947668 -2.460861288e-05 -68.77372539
278.455198 -2.460861288e-05 -240.4487404
484.127255 -2.460861288e-05 -189.7112844
-620.079695 -2.460861288e-05 -88.46316539
-458.763829 -2.460861288e-05 -34.87438239
16.180905 -2.460861288e-05 -56.10804039
-590.184326 -2.460861288e-05 -147.8414054
-651.947561 -2.460861288e-05 -227.3569694
586.227915 -52.79525661 -9.738822837e-05
-513.438085 -2.460861288e-05 -180.6037614
-531.030184 -2.460861288e-05 -92.48409039
-323.471414 -51.99945861 -9.738822837e-05
693.722251 -16.31870061 -9.738822837e-05
-266.693119 -2.460861288e-05 -90.35796239
516.127215 -2.460861288e-05 -86.09715439
487.989901 -2.460861288e-05 -43.50251839
-228.591905 -2.460861288e-05 -104.7861594
135.69426 -2.460861288e-05 -186.3964714
-117.184077 1.672818391 -9.738822837e-05
270.849709 -2.460861288e-05 -96.64591839
148.025249 -12.97310161 -9.738822837e-05
150.000215 -14.54032161 -47.03440739
-70.538621 -2.460861288e-05 -5.417059388
315.62582 -2.460861288e-05 -188.8413724
-387.442232 -2.460861288e-05 -63.50145039
-514.802216 -2.460861288e-05 -47.27300839
-663.246504 -2.460861288e-05 -10.04430439
136.734282 -2.460861288e-05 -123.4578824
-4.027464998 -2.460861288e-05 -182.7995434
-86.548782 -2.460861288e-05 -35.54573739
509.999153 -2.460861288e-05 -157.5375074
111.4181 -40.40663961 -9.738822837e-05
392.628036 -2.460861288e-05 -212.8954904
710.000215 2.495252391 -217.9974674
436.84567 -2.460861288e-05 -203.0544014
517.000699 -33.53412261 -9.738822837e-05
-193.519965 -2.460861288e-05 -150.0775984
181.377118 -68.00002461 0.5265666118
71.647494 -32.93220561 -9.738822837e-05
-604.562109 -68.00002461 0.5011426118
-248.659203 -56.31687661 -9.738822837e-05
56.314164 -13.66874161 -9.738822837e-05
616.442953 -2.906693609 -9.738822837e-05
451.097525 -2.460861288e-05 -234.7499664
571.021999 -2.460861288e-05 -162.4750764
-698.368002 -8.689091609 -9.738822837e-05
-291.212087 -2.460861288e-05 -115.7421954
669.65498 -2.460861288e-05 -60.55122839
-654.640653 -2.460861288e-05 -76.74937739
-442.126046 -2.460861288e-05 -8.758599388
-722.937507 -67.80860661 -9.738822837e-05
-25.297154 -2.460861288e-05 -35.15493039
-444.790892 -2.460861288e-05 -227.6985734
295.642906 -2.460861288e-05 -214.3600674
-421.07974 -2.460861288e-05 -39.40008439
-168.82722 -2.460861288e-05 -136.3226414
-551.914335 -2.460861288e-05 -235.6776634
680.42178 -2.460861288e-05 -248.8538314
-19.246653 -2.460861288e-05 -67.20402839
-312.25743 -2.460861288e-05 -170.8118054
254.818949 -2.460861288e-05 -12.42541839
-113.244066 -2.460861288e-05 -221.8431114
642.482121 -2.460861288e-05 -60.86335539
-606.56271 -2.460861288e-05 -178.8591744
514.952482 -2.460861288e-05 -249.7261704
418.408465 -2.460861288e-05 -79.94015939
721.881017 -2.460861288e-05 -174.2348104
482.757608 -2.460861288e-05 -237.1380954
630.919828 -2.460861288e-05 -17.44884139
149.582925 -2.460861288e-05 -98.85471839
449.369394 -2.460861288e-05 -250.0113604
-588.681481 -51.43260261 -9.738822837e-05
-500.631882 -2.460861288e-05 -236.1823154
400.784818 -10.87963561 -9.738822837e-05
-134.36229 -2.460861288e-05 -234.5473314
-0.1921359983 -2.460861288e-05 -30.50934539
708.411892 -2.460861288e-05 -98.03947339
-135.763389 -14.55848961 -9.738822837e-05
723.417752 -2.460861288e-05 -143.0343734
529.388538 -2.460861288e-05 -203.0430814
-59.784338 -2.460861288e-05 -33.46874339
-343.377998 -2.460861288e-05 -18.36477239
-172.624464 -2.460861288e-05 -14.13774439
137.750061 -48.11520061 -9.738822837e-05
194.201276 -53.55418161 -9.738822837e-05
640.376478 -2.460861288e-05 -80.47519639
-565.229896 -2.460861288e-05 -117.4281174
-466.341791 -2.460861288e-05 -105.7916874
-257.718759 -2.460861288e-05 -134.1808464
-594.550489 -2.460861288e-05 -15.23411139
77.994193 -2.460861288e-05 -118.0045794
627.591996 -2.460861288e-05 -154.6317564
-504.207583 -2.460861288e-05 -217.3754344
-614.837497 -2.460861288e-05 -110.3698524
-675.449132 -2.460861288e-05 -220.4810414
-325.44708 -2.460861288e-05 -75.84285739
-9.557990998 -2.460861288e-05 -144.5211994
550.352124 -2.460861288e-05 -152.5607634
278.343763 -66.06717361 -9.738822837e-05
159.782618 -50.47247161 -9.738822837e-05
144.000215 -5.680352609 -198.7891164
667.732644 -2.460861288e-05 -35.64452639
-267.40112 -2.460861288e-05 -234.3019574
-678.933964 -2.460861288e-05 -13.85533239
694.398563 -2.460861288e-05 -79.69958939
-347.808776 -34.58103561 -9.738822837e-05
-235.07091 -2.460861288e-05 -35.70756939
-457.277805 -2.460861288e-05 -148.4650924
64.107464 -2.460861288e-05 -167.8294944
606.407599 -2.460861288e-05 -202.3169344
-381.272103 -52.69284261 -9.738822837e-05
-721.550171 -2.460861288e-05 -15.06255239
237.648338 -2.460861288e-05 -104.6272654
-34.92241 -2.460861288e-05 -225.8545184
-573.203681 -2.460861288e-05 -129.7238594
-471.263828 -2.460861288e-05 -158.1121794
-533.406978 -2.460861288e-05 -35.80963139
366.614313 -2.460861288e-05 -4.441225388
-457.660576 -2.460861288e-05 -192.8172374
-431.449551 -2.460861288e-05 -64.60837439
-184.607569 -2.460861288e-05 -223.4110854
-154.045389 -2.460861288e-05 -212.6522774
-333.639799 -2.460861288e-05 -63.52855739
-206.276776 -7.879383609 -9.738822837e-05
458.226108 -2.460861288e-05 -167.0964764
3.931704002 -2.460861288e-05 -249.9085824
286.635953 -2.460861288e-05 -86.57826739
307.680596 -2.460861288e-05 -40.26359539
-422.064719 -2.460861288e-05 -210.5044174
-355.188516 -2.460861288e-05 -75.21226039
208.182963 -2.460861288e-05 -234.2922534
-220.207262 -62.15552161 -9.738822837e-05
-343.176964 -2.460861288e-05 -132.0761184
125.898989 -32.98363661 -9.738822837e-05
608.589575 -36.95987061 -9.738822837e-05
278.124513 -2.460861288e-05 -46.97597039
-449.427902 -2.460861288e-05 -46.17042639
36.222063 -2.460861288e-05 -151.2093364
-620.594233 -2.460861288e-05 -205.3894454
551.795264 -2.460861288e-05 -183.9042194
104.493027 -2.460861288e-05 -216.3116624
175.591817 -2.460861288e-05 -81.21523139
-479.772887 -2.460861288e-05 -37.50085639
-405.29092 -2.460861288e-05 -173.6707174
-693.331567 -68.00002461 0.3457506118
-715.399635 -2.460861288e-05 -199.1826724
-660.588121 -49.06787561 -9.738822837e-05
-176.141604 -2.460861288e-05 -106.0394684
18.991585 -2.460861288e-05 -232.9793974
219.820401 -2.460861288e-05 -24.71621639
568.002445 -2.460861288e-05 -179.6397174
-17.688401 -2.460861288e-05 -98.92684439
317.199155 -2.460861288e-05 -71.88490439
220.131562 -2.460861288e-05 -173.9709254
-136.638645 -2.460861288e-05 -185.5117704
324.706347 -2.460861288e-05 -224.4592864
-584.056077 -34.58059261 -9.738822837e-05
-258.881085 -2.460861288e-05 -157.0297584
-700.405206 -2.460861288e-05 -42.49765539
-152.823226 -10.01655961 -9.738822837e-05
-490.008694 -2.460861288e-05 -18.99936139
144.089269 -50.00002461 -184.8943614
584.487245 -2.460861288e-05 -35.51173939
-631.088334 -2.460861288e-05 -220.5623344
-536.59164 -2.460861288e-05 -77.66014939
-304.876394 -2.460861288e-05 -68.37413539
-670.737971 -2.460861288e-05 -246.4671124
3.966794002 -68.00002461 1.919145612
657.273065 -2.460861288e-05 -234.0365924
-176.922219 -6.798736609 -9.738822837e-05
-32.558234 -2.460861288e-05 -161.0565124
655.748127 -2.460861288e-05 -186.0212234
-231.469858 -2.460861288e-05 -11.33009439
-603.591572 -2.460861288e-05 -210.9434684
514.362949 -2.566186609 -9.738822837e-05
439.578339 -2.460861288e-05 -65.49885839
-287.197852 -2.460861288e-05 -79.21072039
-729.535696 -37.28267761 -9.738822837e-05
507.029916 -2.460861288e-05 -186.6204374
-599.740523 -2.460861288e-05 -229.0263294
337.387004 -2.460861288e-05 -188.9650814
157.947668 -36.51935961 -9.738822837e-05
-239.172345 -2.460861288e-05 -233.4063984
-509.138662 -2.460861288e-05 -162.0286944
-541.490712 -2.460861288e-05 -179.1956944
-478.126434 -2.460861288e-05 -129.3770114
-635.168821 -2.460861288e-05 -188.4267274
700.804262 -2.460861288e-05 -238.4549254
30.680719 -2.460861288e-05 -187.1142344
712.524799 -2.460861288e-05 -191.0499214
-124.290899 -50.60015061 -9.738822837e-05
674.244746 -2.460861288e-05 -204.0323444
-176.753006 -2.460861288e-05 -209.6722214
-427.175759 -2.460861288e-05 -121.0472224
-367.394479 -2.460861288e-05 -142.3812744
-334.061254 -32.49798561 -9.738822837e-05
653.586238 -2.460861288e-05 -118.0083184
150.000215 -31.02190961 -173.7378044
526.227437 -2.460861288e-05 -137.0381964
95.579181 -14.85424461 -9.738822837e-05
74.024468 -2.460861288e-05 -91.39779239
-15.89477 -54.35654761 -9.738822837e-05
715.914585 -24.94363161 -9.738822837e-05
35.067981 -64.99733761 -9.738822837e-05
328.529194 1.885235391 -9.738822837e-05
529.642 -2.460861288e-05 -89.91764339
-57.991011 2.245351391 -9.738822837e-05
-62.987627 -2.460861288e-05 -152.6216004
-40.714158 -66.90452561 -9.738822837e-05
411.122213 -2.460861288e-05 -128.2747494
-646.012392 -25.35671061 -9.738822837e-05
341.08851 -2.460861288e-05 -34.65127439
-197.240463 -52.90853461 -9.738822837e-05
-131.888547 -28.31318561 -9.738822837e-05
314.562661 -2.460861288e-05 -91.17621139
549.344344 -2.460861288e-05 -237.8630024
-633.346611 -2.460861288e-05 -57.46741139
578.622152 -2.460861288e-05 -99.24410039
-220.940659 -2.460861288e-05 -184.2213574
-184.695629 -2.460861288e-05 -191.8500014
581.046062 -28.03639761 -9.738822837e-05
196.867909 -12.67377161 -9.738822837e-05
485.428476 -2.460861288e-05 -209.2199034
171.767732 -2.460861288e-05 -177.5785204
535.80921 -2.460861288e-05 -52.90148639
147.689185 -50.00002461 -156.6440394
-673.049133 -5.728649609 -9.738822837e-05
-518.847797 -12.64984861 -9.738822837e-05
-423.691937 -2.460861288e-05 -235.7557044
541.307012 -7.039810609 -9.738822837e-05
601.831039 -2.460861288e-05 -103.5424414
-438.994574 -19.27812061 -9.738822837e-05
-51.156566 -2.460861288e-05 -44.12721039
-616.352487 -2.460861288e-05 -30.70809739
151.797121 -61.61767461 -9.738822837e-05
-153.3088 -2.460861288e-05 -9.324588388
-561.276386 -51.78313661 -9.738822837e-05
580.157376 -2.460861288e-05 -18.02765039
-580.444392 -2.460861288e-05 -226.9031444
-700.022244 -2.460861288e-05 -169.7114574
372.280876 -2.460861288e-05 -169.7308514
174.302226 -30.49970961 -9.738822837e-05
671.311162 -2.460861288e-05 -122.9015824
-181.132676 -2.460861288e-05 -84.27592639
534.650143 -2.460861288e-05 -103.7960734
-89.716863 -2.460861288e-05 -179.4553714
383.438472 -2.460861288e-05 -249.1052334
-489.947934 -2.460861288e-05 -192.0125384
-413.547307 -56.20034361 -9.738822837e-05
92.977015 -2.460861288e-05 -241.9820784
250.30007 -2.460861288e-05 -152.0210134
115.812862 -2.460861288e-05 -165.4894584
144.000215 -32.77595061 -57.76722939
450.835935 -2.460861288e-05 -182.5725464
-414.524507 -2.460861288e-05 -163.6715384
-418.127342 -2.460861288e-05 -7.911865388
378.842939 -2.460861288e-05 -197.6486224
-582.344944 -2.460861288e-05 -88.87025339
250.766056 -28.06194261 -9.738822837e-05
72.627431 -2.460861288e-05 -37.04040639
-42.062102 -2.460861288e-05 -14.63493839
9.368366002 -28.47468161 -9.738822837e-05
647.388229 -35.43492161 -9.738822837e-05
222.575401 -2.460861288e-05 -51.28391239
76.628675 -17.01467461 -9.738822837e-05
-169.294009 -29.41092261 -9.738822837e-05
68.343052 -68.00002461 1.426068612
-373.196368 -29.47053661 -9.738822837e-05
309.417024 -2.460861288e-05 -244.8960464
182.997011 -2.460861288e-05 -127.9911004
268.937769 -2.460861288e-05 -199.6762274
28.365177 -2.460861288e-05 -96.44263739
-156.064911 -2.460861288e-05 -36.69665239
-59.042499 -2.460861288e-05 -119.6433264
168.563421 -2.460861288e-05 -210.9942794
-708.456622 -54.67182661 -9.738822837e-05
-643.655952 -2.460861288e-05 -213.8802724
-427.854582 -2.460861288e-05 -137.9045374
706.371231 -45.37505061 -9.738822837e-05
-546.868486 -20.35686061 -9.738822837e-05
681.982145 -2.460861288e-05 -32.30186039
-456.007886 -2.460861288e-05 -78.57938739
162.058098 -2.460861288e-05 -237.0596484
-395.321739 -46.38842661 -9.738822837e-05
678.623878 -13.80170261 -9.738822837e-05
-326.840282 -2.460861288e-05 -104.4823184
32.955527 -2.460861288e-05 -80.84223139
-405.33984 -66.84369561 -9.738822837e-05
-355.849867 -2.460861288e-05 -88.78229039
-414.124847 -2.460861288e-05 -190.5652854
-140.886113 -2.460861288e-05 -217.1296654
-546.718905 -2.460861288e-05 -213.6947034
-481.905053 -2.460861288e-05 -68.05371339
-573.010819 -26.05451061 -9.738822837e-05
-194.679798 -2.460861288e-05 -232.2188814
-508.939717 -2.460861288e-05 -75.12826239
-271.576602 -2.460861288e-05 -34.28657039
-116.732418 -2.460861288e-05 -70.71531839
150.000215 -13.34693261 -185.6302954
710.000215 0.04821939139 -3.569603388
-240.662469 -2.460861288e-05 -182.2985804
-580.592876 1.368006391 -9.738822837e-05
652.702123 -2.460861288e-05 -213.6700854
510.183195 -2.460861288e-05 -53.03286839
626.210274 -31.09057061 -9.738822837e-05
297.289192 -2.460861288e-05 -52.99045539
310.547021 -2.460861288e-05 -165.5497184
-214.008723 -2.460861288e-05 -39.68930339
340.819297 -59.11344161 -9.738822837e-05
150.000215 -39.41414961 -81.64956739
45.840431 -2.460861288e-05 -36.40867439
-168.120935 -2.460861288e-05 -26.90885339
329.400758 -2.460861288e-05 -66.60177139
391.203818 -2.460861288e-05 -185.2660124
92.896854 -2.460861288e-05 -139.8791014
39.786342 -35.09110161 -9.738822837e-05
-255.556808 -2.460861288e-05 -175.1212944
39.291492 -2.460861288e-05 -215.4008484
-246.371511 -2.460861288e-05 -103.8929074
-457.419175 -40.99588461 -9.738822837e-05
-48.176749 -2.460861288e-05 -224.0640254
-713.211061 -2.460861288e-05 -144.3842114
-719.077754 -2.460861288e-05 -222.2722414
669.977304 -2.460861288e-05 -177.0439014
-26.249076 -2.460861288e-05 -208.6420584
-130.226314 -2.460861288e-05 -199.3076664
-275.764354 -2.460861288e-05 -103.4748294
713.893093 -2.460861288e-05 -70.53005239
150.000215 -11.82980861 -139.6417574
119.241072 -2.460861288e-05 -68.76993539
391.769891 -2.460861288e-05 -14.56805539
397.533718 -2.460861288e-05 -122.0745364
-131.610175 -2.460861288e-05 -74.67597039
-548.180912 -2.460861288e-05 -60.22601539
-76.440735 -2.460861288e-05 -173.6349994
-149.194718 -2.460861288e-05 -105.2816914
-299.091777 -2.460861288e-05 -247.9839484
431.65691 -2.460861288e-05 -14.08844839
-185.931726 -2.460861288e-05 -8.639355388
-464.181186 -12.81767661 -9.738822837e-05
-271.66297 -2.460861288e-05 -202.2649334
588.664048 -5.016141609 -9.738822837e-05
-493.612258 -59.29257961 -9.738822837e-05
28.06301 -2.460861288e-05 -68.19930739
-71.73033 -39.86488361 -9.738822837e-05
125.33054 -2.460861288e-05 -109.0072534
128.534069 -2.460861288e-05 -216.6878754
150.000215 -38.03226561 -112.0847874
-88.774203 -2.460861288e-05 -131.6932424
641.604916 -2.460861288e-05 -40.15998939
-536.862129 -2.460861288e-05 -150.1459764
-570.805424 -2.460861288e-05 -216.0827064
-491.837271 -17.08226461 -9.738822837e-05
639.50858 -2.460861288e-05 -174.8113914
116.481695 -65.56243161 -9.738822837e-05
24.184987 -2.460861288e-05 -198.4387004
150.000215 -21.43568061 -230.3823904
-180.351738 -2.460861288e-05 -250.4408194
442.143725 -2.460861288e-05 -156.0144624
-211.275125 -2.460861288e-05 -107.7231964
-346.350618 -2.460861288e-05 -158.9174664
699.568057 -2.460861288e-05 -67.73076239
144.857739 -35.29207361 -9.738822837e-05
232.498816 -2.460861288e-05 -200.1651114
-171.523593 -2.460861288e-05 -56.46356039
693.00582 -2.460861288e-05 -194.8797234
-295.793935 -2.460861288e-05 -33.58783139
225.432543 -2.460861288e-05 -145.3434824
-295.843091 -2.460861288e-05 -142.4548204
563.255513 -2.460861288e-05 -232.0471354
-400.372829 -26.84231761 -9.738822837e-05
-453.017797 -2.460861288e-05 -249.7981484
52.748483 -2.460861288e-05 -108.7774534
-682.831179 -2.460861288e-05 -49.85081639
694.309154 -2.460861288e-05 -142.8432904
114.034737 -2.460861288e-05 -194.3926774
695.756662 -2.460861288e-05 -95.36895539
530.276622 -2.460861288e-05 -117.0619594
586.863171 -2.460861288e-05 -56.21016139
665.745582 -12.67311461 -9.738822837e-05
590.115432 -2.460861288e-05 -182.7633504
-88.494559 -2.460861288e-05 -238.4207824
-275.980091 -2.460861288e-05 -60.31563439
464.579311 -2.460861288e-05 -187.7661834
315.105397 -2.460861288e-05 -12.84867939
237.444603 -2.460861288e-05 -78.05209339
-147.58494 -38.42365861 -9.738822837e-05
561.579343 -2.460861288e-05 -14.04550439
89.904595 -2.460861288e-05 -10.72672739
-246.492335 -2.460861288e-05 -19.46793839
367.699963 -66.09928161 -9.738822837e-05
-669.83741 -2.460861288e-05 -205.7021194
404.665079 -2.460861288e-05 -98.81322039
-47.202039 -10.40446161 -9.738822837e-05
492.710565 -36.26751461 -9.738822837e-05
6.444829002 -0.6011696086 0.6267716118
-669.914519 -18.37135961 -9.738822837e-05
189.753606 -2.460861288e-05 -192.1889544
-29.166854 -2.460861288e-05 -238.0258034
382.956048 -2.460861288e-05 -85.79185339
217.078688 -0.8484956086 -9.738822837e-05
492.777732 -2.460861288e-05 -55.39563339
-200.932254 -2.460861288e-05 -34.56258939
685.076755 -2.460861288e-05 -11.37978739
682.964595 -30.51066661 -9.738822837e-05
37.938649 -2.460861288e-05 -164.7027734
150.000215 -11.57075261 -72.09164139
-377.581004 -2.460861288e-05 -35.53783139
-499.298949 -2.460861288e-05 -4.709886388
-570.147478 0.04693139139 -80.26792139
-441.892384 -2.460861288e-05 -30.67768439
350.330114 -2.460861288e-05 -52.13586239
694.541833 -2.460861288e-05 -126.9662874
379.811794 -2.460861288e-05 -63.36557039
-356.983845 -2.460861288e-05 -241.2420044
500.661892 -2.460861288e-05 -210.7459014
-369.269228 0.9999753914 -213.2877914
-603.918212 -2.460861288e-05 -43.36031239
565.376052 -2.460861288e-05 -59.33151039
363.110694 -2.460861288e-05 -142.8394194
-725.956162 -11.16164961 -9.738822837e-05
-455.667975 -2.460861288e-05 -6.945130388
-223.99556 -2.460861288e-05 -129.6335724
87.561073 -2.460861288e-05 -155.0229704
580.024774 -2.460861288e-05 -84.32242439
305.395945 -64.17024561 -9.738822837e-05
-466.565405 -2.460861288e-05 -86.00822539
606.132414 -2.460861288e-05 -147.0882634
515.483736 -2.460861288e-05 -197.5889364
168.013586 -2.460861288e-05 -14.11932439
-468.5146 -68.00002461 0.2261926118
-74.851875 -12.41047561 -9.738822837e-05
-0.9830979983 -2.460861288e-05 -95.44442139
453.992671 -2.460861288e-05 -140.5004874
509.860875 -2.460861288e-05 -25.96775339
-317.317475 -2.460861288e-05 -14.42365839
295.977385 -2.460861288e-05 -144.1917904
-441.12319 -2.460861288e-05 -148.2531834
712.905125 -2.460861288e-05 -124.9352604
-710.999785 -29.24719961 1.283813612
60.160944 -2.460861288e-05 -142.9349834
184.633214 -2.460861288e-05 -55.95823239
-473.512162 -2.460861288e-05 -116.1533424
-232.977586 -2.460861288e-05 -172.3131694
-294.557179 -57.34761161 -9.738822837e-05
144.000215 -36.69219361 -144.0536204
-516.456308 -2.460861288e-05 -92.92621739
-624.276459 -2.460861288e-05 -243.6261674
-18.680429 -2.460861288e-05 -6.786342388
-626.012964 -2.460861288e-05 -71.27305239
-166.094187 -57.25642361 -9.738822837e-05
-525.592775 -2.460861288e-05 -120.1924124
370.440882 -2.460861288e-05 -234.7647804
278.382154 -2.460861288e-05 -122.6685234
-288.277866 -2.460861288e-05 -14.49394939
637.720297 -2.460861288e-05 -206.5842944
-51.028159 -2.460861288e-05 -198.9534354
144.000215 -47.27206961 -100.8895974
245.657928 -2.460861288e-05 -198.2612774
-516.475137 -2.460861288e-05 -132.3906514
-206.032678 -2.460861288e-05 -67.90033539
-693.43211 -2.460861288e-05 -241.0733654
144.000215 -25.99846061 -184.3270694
-469.29525 -2.460861288e-05 -183.3598484
-399.74484 -2.460861288e-05 -145.9681754
268.245862 -2.460861288e-05 -179.0714594
725.052691 -2.460861288e-05 -195.7464464
-648.623284 -2.460861288e-05 -240.8660974
46.189067 -2.460861288e-05 -130.4116914
-555.484393 -2.460861288e-05 -144.5464914
141.861114 2.105823391 -9.738822837e-05
714.42438 -55.25187161 -9.738822837e-05
338.880051 -2.460861288e-05 -82.62540339
-461.916609 -2.460861288e-05 -206.7583624
-236.734407 -5.894352609 -9.738822837e-05
144.000215 -35.74834161 -25.77614739
-685.291029 -40.68125561 -9.738822837e-05
-367.637521 -2.460861288e-05 -12.46660339
-387.190093 -2.460861288e-05 -194.2587714
-492.274115 -2.460861288e-05 -98.04071639
434.663382 -2.460861288e-05 -104.7386584
721.842798 -2.460861288e-05 -91.96363139
642.730051 -7.233982609 -9.738822837e-05
405.214316 -2.460861288e-05 -142.6312934
326.827409 -2.460861288e-05 -142.4282234
-191.54642 -68.00002461 0.2766846118
-108.658656 -2.460861288e-05 -187.6074514
-574.990637 -2.460861288e-05 -142.0215034
63.1482 -2.460861288e-05 -117.2706724
-160.026999 -2.460861288e-05 -73.46562039
715.403295 -2.460861288e-05 -235.4127974
439.776353 -36.99855561 -9.738822837e-05
596.846602 -2.460861288e-05 -66.54354239
674.135654 -2.460861288e-05 -81.19217739
-200.806041 -2.460861288e-05 -89.09119739
-199.132989 -23.40325861 -9.738822837e-05
211.366703 -2.460861288e-05 -13.29301039
217.878638 -2.460861288e-05 -187.6770754
-572.543177 -13.27330261 -9.738822837e-05
475.055878 -2.460861288e-05 -11.99188139
-351.054404 -2.460861288e-05 -111.7541964
305.280836 -2.460861288e-05 -206.4970714
569.010688 -30.86199861 -9.738822837e-05
531.644232 -2.460861288e-05 -218.0486734
446.105868 -2.460861288e-05 -33.07021139
-532.489174 -2.523932609 -9.738822837e-05
-53.034822 -2.460861288e-05 -176.0465144
-692.980296 -2.460861288e-05 -127.2069424
-35.904912 -2.460861288e-05 -101.8916644
-543.368669 -2.460861288e-05 -92.85812839
-78.080539 -2.460861288e-05 -16.04371139
449.643655 -56.74548461 -9.738822837e-05
-333.102597 -2.460861288e-05 -197.5294194
107.935601 -2.460861288e-05 -230.5844724
39.681445 -2.460861288e-05 -102.2834334
-191.361408 -13.78118961 -9.738822837e-05
-562.890292 -2.827159609 -9.738822837e-05
246.693896 -2.460861288e-05 -60.26193739
3.589672002 -39.34466561 -9.738822837e-05
230.138012 -2.460861288e-05 -156.7173534
-547.006977 -2.460861288e-05 -126.8992444
215.552965 -2.460861288e-05 -123.6238604
624.081621 -12.54184361 -9.738822837e-05
-208.117632 -2.460861288e-05 -10.51029139
-163.007408 -2.460861288e-05 -87.30696339
-389.682785 -2.460861288e-05 -154.6298694
564.645938 -2.460861288e-05 -120.6843424
-92.52334 -2.460861288e-05 -112.5269234
56.848168 -2.460861288e-05 -95.97889439
-578.844805 -59.09123561 -9.738822837e-05
660.034242 -2.460861288e-05 -155.9699504
-223.776653 -2.460861288e-05 -85.82919239
424.616332 -2.460861288e-05 -239.1194914
-643.856525 -2.460861288e-05 -33.70418639
190.883649 -2.460861288e-05 -26.54034739
413.389843 -2.460861288e-05 -27.82426439
-381.506521 -2.460861288e-05 -228.6489564
-647.64709 -2.460861288e-05 -142.6100424
93.126922 -2.460861288e-05 -193.7141594
-648.328589 -2.460861288e-05 -165.7743364
690.095062 -2.460861288e-05 -41.41482139
39.60419 -8.407894609 -9.738822837e-05
-93.44405 -2.460861288e-05 -155.5514194
422.318679 -2.460861288e-05 -42.51435539
492.798478 -2.460861288e-05 -95.68367139
467.750468 -2.460861288e-05 -215.3132094
144.000215 -3.470161609 -60.66370639
382.018313 -44.17303361 -9.738822837e-05
