# .PCD v0.7 - Point Cloud Data file format
VERSION 0.7
FIELDS x y z
SIZE 4 4 4
TYPE F F F
COUNT 1 1 1
WIDTH 1190
HEIGHT 1
VIEWPOINT 0 0 0 1 0 0 0
POINTS 1190
DATA ascii
-238.709631 -2.49879439e-05 7.364533614
-3.984396999 -172.0038622 32.00545461
0.0002150007622 -119.50147 10.48095461
-1.779813999 -2.49879439e-05 26.86261161
-3.999784999 -37.41552777 -58.15077039
-72.839223 -2.49879439e-05 30.88356961
-75.314732 -2.49879439e-05 -59.12364939
-248.649774 -2.49879439e-05 -56.93717939
-3.999784999 -98.54531611 -9.456037386
0.0002150007622 -139.8998034 41.14582261
-3.999784999 -55.65618085 22.49960261
0.0002150007622 -231.2841089 8.802497614
-10.216989 -2.49879439e-05 -8.689862386
-41.273353 -2.49879439e-05 37.90942761
-213.453439 -2.49879439e-05 13.17546461
-121.083395 -2.49879439e-05 -51.91949839
0.0002150007622 -132.6493201 -68.71720539
0.0002150007622 -166.8699431 2.183029614
-136.709836 -2.49879439e-05 46.60751161
0.0002150007622 -160.611735 56.60626761
-252.334286 -2.49879439e-05 58.79582961
0.0002150007622 -246.5410196 -2.268741386
-168.306494 -2.49879439e-05 -70.76949839
0.0002150007622 -157.9256832 -57.88279039
-3.999784999 -90.84255802 28.74931961
0.0002150007622 -190.6698926 -7.170025386
-241.920193 -2.49879439e-05 -29.04682539
0.0002150007622 -104.8186612 -63.38121639
0.0002150007622 -118.1564463 61.03604161
-122.349445 -2.49879439e-05 41.34083461
0.0002150007622 -192.1980818 -54.16788539
-3.999784999 -91.08929812 -44.47305039
0.1636000008 -241.7660674 -73.60224539
0.0002150007622 -13.25844192 6.163043614
0.0002150007622 -188.1421039 -25.83276839
-148.675363 -2.49879439e-05 -41.51318939
-3.999784999 -27.14975058 57.53494161
0.0002150007622 -74.1575197 -62.30470439
-3.999784999 -96.99384009 4.612074614
-14.781142 -2.49879439e-05 44.81299461
-63.118972 -2.49879439e-05 18.37259361
0.0002150007622 -243.0701348 26.86886261
-3.999784999 -35.96773626 42.23762861
-138.014777 -2.49879439e-05 -59.08397339
-90.870835 -2.49879439e-05 -60.24699739
0.6393890008 2.499975012 -43.30918039
-192.232232 -2.49879439e-05 -56.51393339
-79.012022 -2.49879439e-05 59.07876561
-129.478165 -2.49879439e-05 -32.63786339
-101.259353 -2.49879439e-05 61.98213661
0.0002150007622 -14.0113393 -7.571430386
-3.999784999 -143.0734383 -51.48891239
-139.348057 -2.49879439e-05 19.42623261
-171.499767 -2.49879439e-05 26.17531861
0.0002150007622 -58.80962901 60.89629361
0.0002150007622 -238.2925637 -24.88305139
-55.670488 -2.49879439e-05 -40.02458539
-235.073389 -2.49879439e-05 47.91309561
-163.328619 -2.49879439e-05 57.67575261
-3.999784999 -124.8997611 36.03491761
0.5441260008 -0.5000249879 13.61809361
-208.345565 -2.49879439e-05 43.73486561
0.0002150007622 -184.2561419 21.79261761
0.0002150007622 -124.4649847 -38.66314139
0.0002150007622 -80.63036805 -15.43346739
-191.458967 -2.49879439e-05 60.10857261
0.0002150007622 -49.76653649 -10.84317939
0.0002150007622 -38.61819125 -3.472505386
-3.999784999 -64.15033879 -52.73597939
-3.999784999 -107.9137204 -21.14027939
-171.411644 -2.49879439e-05 -18.49793239
0.0002150007622 -27.44394499 28.01133661
-220.181185 -2.49879439e-05 -13.95456939
-197.564635 -2.49879439e-05 -2.870927386
0.0002150007622 -202.4448831 -30.24130139
-225.108725 -2.49879439e-05 7.518886614
-66.357986 -2.49879439e-05 -27.86045239
-164.307494 -2.49879439e-05 10.36042061
0.0002150007622 -153.8892015 12.95868061
-124.927798 -2.49879439e-05 21.17420461
0.0002150007622 -133.649784 3.705478614
-8.906604999 -2.49879439e-05 60.51512161
-49.364616 -2.49879439e-05 -72.48089839
-113.301504 -2.49879439e-05 -66.06788639
-3.999784999 -49.19824547 -32.73774239
-25.740673 -2.49879439e-05 -55.73214839
0.0002150007622 -85.51596615 55.16297061
0.0002150007622 -74.82311221 73.04433461
-123.984434 -2.49879439e-05 71.34175661
-114.237211 -2.49879439e-05 -18.59101039
-3.999784999 -156.779846 -28.40099339
-214.982263 -2.49879439e-05 -59.27034039
-146.969702 -2.49879439e-05 33.46935661
-3.999784999 -71.76322472 9.087420614
-3.999784999 -118.6383254 47.16071461
-160.491286 -2.49879439e-05 -24.82619039
0.09919600076 -2.49879439e-05 -16.19622339
0.1295900008 -120.2746039 73.13237361
-3.999784999 -87.9779156 -56.33791039
-97.187671 -2.49879439e-05 37.36537561
0.0002150007622 -78.93342267 -73.52062339
-151.067825 -2.49879439e-05 -13.84110939
0.0002150007622 -45.89732398 16.50413361
0.0002150007622 -230.9342224 20.91934461
-50.465108 -2.49879439e-05 63.01530561
-3.999784999 -71.40842551 39.41204961
-87.254244 -2.49879439e-05 -9.321270386
0.0002150007622 -176.2386822 69.77618961
0.0002150007622 -207.2037116 4.668651614
-3.999784999 -11.9080125 48.01385361
0.0002150007622 -47.14552052 40.31460061
-5.341526999 -2.49879439e-05 -61.80368739
-39.95117 0.3059955221 -60.08266139
-117.83417 -2.49879439e-05 11.08801661
-129.703144 -2.49879439e-05 -2.667137386
-58.360281 -2.49879439e-05 -55.60579139
-3.999784999 -12.6104029 70.38554661
0.0002150007622 -79.82033732 27.56688561
-44.455291 -2.49879439e-05 -34.82222839
-3.999784999 -133.2782095 -31.97473539
0.0002150007622 -117.1369226 -60.36771739
0.0002150007622 -212.9084903 -10.42086539
0.0002150007622 -230.5299462 -33.67554739
0.0002150007622 -31.44180165 -26.12060839
-180.714815 -2.49879439e-05 70.69090361
-3.999784999 -102.4548477 30.21292561
0.0002150007622 -11.45117873 -28.13158739
0.0002150007622 -156.931949 30.08215661
0.0002150007622 -97.36376518 43.29107161
-230.506605 -2.49879439e-05 -38.90378439
-149.368935 -2.49879439e-05 11.47911161
0.0002150007622 -141.5940035 14.95925861
-164.549983 -2.49879439e-05 35.41682661
0.0002150007622 -100.601278 -74.03992139
-227.174018 -2.49879439e-05 56.19382361
0.0002150007622 -37.14596551 61.35329061
-184.770587 -2.49879439e-05 50.85011861
0.0002150007622 -200.789862 -46.67157439
-3.999784999 -28.07421206 -74.36691139
0.0002150007622 -129.2044195 66.27213861
0.0002150007622 -34.35227993 -48.10527039
-197.172622 -2.49879439e-05 -21.79573939
-190.019739 -2.49879439e-05 -45.51608539
0.0002150007622 -176.4411423 -38.83958539
0.0002150007622 -88.62775862 -34.31466339
-3.999784999 -30.17300356 -13.91427539
0.0002150007622 -99.98798516 -39.02774139
0.0002150007622 -216.3088309 57.88474161
0.0002150007622 -183.8423536 -61.62862639
0.0002150007622 -172.4003507 -64.42042239
-102.694771 -2.49879439e-05 -1.731819386
-228.402315 -2.49879439e-05 -63.09214139
-142.564889 -2.49879439e-05 65.41021061
-39.624351 -2.49879439e-05 11.87663061
-3.999784999 -12.4534194 -64.13746839
-23.067294 -2.49879439e-05 35.18884361
0.0002150007622 -142.4592779 -63.92277339
-180.590717 -2.49879439e-05 -38.95510539
-45.49554 -2.49879439e-05 26.16154661
-127.360976 -2.49879439e-05 -61.21761839
0.0002150007622 -22.71195653 -32.58770039
0.0002150007622 -113.2087604 -44.12602139
-3.999784999 -166.3801815 -20.66897339
0.3418940008 -97.67214048 74.21125961
-23.966766 -2.49879439e-05 -72.94271139
-87.706041 -2.49879439e-05 18.40667361
0.0002150007622 -11.01415759 32.94114861
-3.999784999 -178.8653332 -19.54900939
-89.510702 -2.49879439e-05 61.02751261
-29.928867 -2.49879439e-05 74.49741261
0.0002150007622 -219.6373072 -40.17893339
0.0002150007622 -60.90917552 48.85498361
0.0002150007622 -62.30199054 11.79768161
-252.40458 -2.49879439e-05 34.35433161
0.0002150007622 -2.490067418 54.29597661
0.0002150007622 -206.5148476 63.01479761
-57.968987 -2.49879439e-05 55.57660961
-38.275739 -2.49879439e-05 61.72785261
-3.999784999 -40.2213214 6.707354614
0.0002150007622 -109.5842176 50.65703561
-81.316453 -2.49879439e-05 -0.6794343859
-3.999784999 -147.9249214 34.20116661
-241.242539 -2.49879439e-05 -39.44519639
-101.503279 -2.49879439e-05 -31.16191839
-3.999784999 -145.102925 49.17394861
-97.646445 2.169805632 -49.50009739
-27.856082 -2.49879439e-05 12.81571161
-195.199058 -2.49879439e-05 24.75005561
-32.903952 -2.49879439e-05 -40.51064539
-7.487982999 -2.49879439e-05 -37.60183139
-8.133286999 -2.49879439e-05 34.82639261
-3.999784999 -135.27773 31.86092061
-63.317817 -2.49879439e-05 5.854637614
-69.224087 -2.49879439e-05 61.65264261
0.0002150007622 -68.78655469 -28.95282439
0.0002150007622 -207.7973127 19.01638861
-185.987465 -2.49879439e-05 1.306016614
-215.596331 -2.49879439e-05 -27.23991639
-95.87051 -2.49879439e-05 11.06995861
-30.44461 -2.49879439e-05 -64.63681139
0.0002150007622 -221.3356555 -20.24310039
-176.080668 -2.49879439e-05 57.07983861
-26.656955 -2.49879439e-05 0.08393861413
-18.156194 -2.49879439e-05 54.25503361
-44.083541 -2.49879439e-05 -6.091689386
-200.9623 -2.49879439e-05 63.29030961
-241.512998 -2.49879439e-05 -64.50739139
0.0002150007622 -87.49802193 -8.140122386
-3.999784999 -120.700913 -49.43831939
0.0002150007622 -225.4033108 62.49304861
0.0002150007622 -55.56842206 -25.37564939
-79.193817 -2.49879439e-05 41.79650361
-235.288589 -2.49879439e-05 -2.025289386
-24.768308 -2.49879439e-05 -21.55462039
0.0002150007622 -166.5239939 67.54282561
-247.32572 -2.49879439e-05 -20.67849739
-3.999784999 -50.78766962 -71.96883239
0.0002150007622 -115.002317 -15.41421339
0.0002150007622 -250.7069857 53.10195761
-3.999784999 -126.2327705 -60.61837639
0.0002150007622 -131.6342428 -19.50917939
0.0002150007622 -105.3129854 9.854087614
-55.848689 -2.49879439e-05 40.15441561
0.0002150007622 -62.56713065 -63.46362239
0.0002150007622 -94.55418324 64.83492261
-221.622017 -2.49879439e-05 35.66539461
-103.442751 -2.49879439e-05 -66.02891739
0.0002150007622 -233.6741422 -4.519905386
-65.587971 -2.49879439e-05 -3.727563386
0.0002150007622 -250.2528669 -44.23811439
-7.171683999 -2.49879439e-05 3.721546614
-133.743332 -2.49879439e-05 70.29278461
-3.999784999 -65.22688209 28.26926361
-156.333469 -2.49879439e-05 2.482198614
-123.071369 -2.49879439e-05 -9.872382386
-109.597934 -2.49879439e-05 5.798929614
-85.162625 -2.49879439e-05 -52.30500339
0.0002150007622 -214.0822788 -65.48090739
0.0002150007622 -194.9801037 57.77444961
-65.376419 -2.49879439e-05 -40.19665939
-139.250778 -2.49879439e-05 8.231748614
-147.694601 -2.49879439e-05 -61.43335639
-125.164852 -2.49879439e-05 51.73509561
0.0002150007622 -24.2863139 -53.11543539
-154.179494 -2.49879439e-05 60.78749961
0.0002150007622 -203.269046 -56.00345039
0.0002150007622 -237.3384007 68.50964961
0.0002150007622 -192.627522 -66.90847039
0.0002150007622 -150.427251 -12.10744339
0.0002150007622 -116.4029895 37.53934861
0.0002150007622 -55.02130112 69.61145861
-111.95169 -2.49879439e-05 43.08923261
-3.999784999 -35.49835385 70.62656761
-204.178335 -2.49879439e-05 3.911624614
0.0002150007622 -234.6592245 48.47954261
-53.04926 -2.49879439e-05 -63.43303239
0.0002150007622 -51.52555814 30.00528161
0.0002150007622 -252.4332228 25.62719761
-3.999784999 -27.65632303 37.60232661
0.0002150007622 -239.6802363 14.78826361
-117.474954 -2.49879439e-05 26.91014561
0.0002150007622 -20.97981262 64.41544361
-67.836516 -2.49879439e-05 -53.47557739
-71.012554 -2.49879439e-05 -70.03607539
-2.130669999 -157.8006185 2.406165614
-162.545733 -2.49879439e-05 -15.64574039
0.0002150007622 -157.350723 -67.17739339
0.0002150007622 -225.7955004 -51.83121139
0.0002150007622 -174.6145177 21.12626161
-3.999784999 -87.01792933 -23.50188639
0.0002150007622 -74.75691407 -36.91808139
-205.923177 -2.49879439e-05 18.59742761
0.0002150007622 -221.8867326 -8.138921386
0.0002150007622 -187.0975455 -15.69559339
0.0002150007622 -167.2786636 -48.51771539
-19.089114 -2.49879439e-05 17.15406961
-213.952793 -2.49879439e-05 29.12078461
-105.563302 -2.49879439e-05 -11.83211239
-232.077596 -2.49879439e-05 36.52097361
-140.279768 -2.49879439e-05 -10.45798239
-177.322134 -2.49879439e-05 36.07270761
-181.716603 -2.49879439e-05 -61.66607039
0.0002150007622 -40.68192534 48.98772561
-157.089655 -2.49879439e-05 -45.10661239
0.0002150007622 -246.3508113 -56.09323539
-187.626909 -2.49879439e-05 39.56120861
0.0002150007622 -56.90250213 -46.08417939
0.0002150007622 -241.6594738 -16.40971339
0.0002150007622 -149.1310594 -45.74004439
-3.999784999 -71.62812704 -18.17555639
-140.480288 -2.49879439e-05 -73.20574239
-3.999784999 -25.69899734 10.13604061
-166.97913 -2.49879439e-05 -44.78030439
-3.999784999 -29.60980776 -37.30950339
-207.54623 -2.49879439e-05 -73.06280339
0.0002150007622 -67.57067833 63.26273161
-0.7270259992 -135.8432307 -57.56455139
0.0002150007622 -15.31845829 -48.37703739
-3.999784999 -78.98498057 16.91867261
-80.998025 -2.49879439e-05 -72.89343639
-3.999784999 -77.89442845 60.60005061
-33.944483 -2.49879439e-05 32.73778261
-242.017225 -2.49879439e-05 53.57990661
-3.999784999 -40.6820495 -28.70850239
-206.69642 -2.49879439e-05 -36.95916439
-181.283206 -2.49879439e-05 -17.44543539
0.0002150007622 -85.89002422 21.10174561
-126.30733 -2.49879439e-05 -42.22360839
-139.401184 -2.49879439e-05 -27.97310639
0.0002150007622 -31.54550211 4.876497614
-3.999784999 -94.11969145 12.89434661
-3.999784999 -159.0515351 20.82154761
-240.978249 -2.49879439e-05 73.38249161
-208.797598 -2.49879439e-05 71.71341561
-170.494985 -2.49879439e-05 -62.30105939
0.0002150007622 -222.8065484 -65.23488339
0.0002150007622 -56.41217998 -4.343817386
-33.503064 1.080765162 -51.96347639
-3.999784999 -151.5064644 -37.78831839
-4.338278999 -2.49879439e-05 -50.80588239
0.0002150007622 -202.2318333 -7.066815386
0.0002150007622 -222.8181892 10.70951161
0.0002150007622 -152.2161296 58.79941761
-3.308128999 -182.9946035 0.08790761413
-156.96455 -2.49879439e-05 51.78630261
-3.999784999 -53.55576925 46.59403061
0.0002150007622 -95.65424493 -55.85841439
0.0002150007622 -87.62637628 3.872067614
-3.999784999 -108.8614452 21.77466461
-3.999784999 -55.68394967 -54.38336239
-120.669246 -2.49879439e-05 63.38361461
0.0002150007622 -142.5800987 56.81872161
0.0002150007622 -80.38241508 -54.46811739
0.0002150007622 -53.5767316 12.64704461
-224.587655 -2.49879439e-05 -50.18665339
-72.030883 -2.49879439e-05 -34.28653039
-3.999784999 -91.77675958 48.38310061
0.0002150007622 -44.49285914 -65.49771039
-103.540701 -2.49879439e-05 51.86230661
0.0002150007622 -76.42120037 -7.996678386
-3.999784999 -49.87903588 62.26968561
0.0002150007622 -197.9839748 46.34992461
0.08159900076 -184.222719 72.73166961
-85.226198 -2.49879439e-05 53.28552761
-89.736075 -2.49879439e-05 -33.09966039
-228.438518 -2.49879439e-05 -7.022084386
-84.062993 -2.49879439e-05 70.93706361
-3.999784999 -128.7955912 44.95350961
0.0002150007622 -18.97554431 52.18636561
0.0002150007622 -123.7644043 -70.84450739
-11.546286 -2.49879439e-05 -71.31209439
0.0002150007622 -219.0175713 47.91297661
0.0002150007622 -195.6145231 1.636204614
-198.383071 -2.49879439e-05 -46.66437239
-49.819511 -2.49879439e-05 -17.70105739
-3.999784999 -64.53870867 4.734682614
-3.999784999 -160.9900696 9.970092614
0.0002150007622 -165.759931 -8.810895386
0.0002150007622 -226.7461031 44.15972261
-3.472186999 -25.50002499 20.65376161
0.0002150007622 -166.150043 -29.15853539
0.0002150007622 -211.3004652 -39.68493039
0.0002150007622 -182.9762382 -49.57498239
0.0002150007622 -118.6679866 -32.68228539
0.0002150007622 -43.6267344 -43.00910239
-150.716134 -2.49879439e-05 -3.768899386
-180.353892 -2.49879439e-05 -8.860570386
-179.295447 -2.49879439e-05 -73.01549639
0.0002150007622 -153.7311525 49.61497161
-139.728134 -2.49879439e-05 57.61684461
0.0002150007622 -235.9141938 -67.74512339
-78.597312 -2.49879439e-05 -9.827763386
-5.752714999 -2.49879439e-05 -26.53498639
0.0002150007622 -103.5386317 -14.69693039
0.0002150007622 -235.7974709 -52.14008839
-159.238609 -2.49879439e-05 67.31437961
0.0002150007622 -250.5585278 66.53122361
-48.5246 -2.49879439e-05 71.35322761
-237.789526 -2.49879439e-05 23.71628461
-101.89505 -2.49879439e-05 71.19210861
0.0002150007622 -3.451319548 36.12371961
0.0002150007622 -101.0256389 -30.88977339
-198.008003 -2.49879439e-05 -11.05882639
-233.675981 -2.49879439e-05 -26.90229739
-3.999784999 -107.6656545 -72.92606039
0.0002150007622 -85.50536289 33.50944261
-3.999784999 -59.9274464 -70.10584139
0.0002150007622 -38.46752912 -11.64734139
0.0002150007622 -156.5042367 -21.29135539
0.0002150007622 -71.66210147 31.28291461
-242.105976 -2.49879439e-05 15.73488961
-111.648659 -2.49879439e-05 -49.62880239
-3.999784999 -38.35882813 22.63173461
0.0002150007622 -125.5842967 2.601141614
0.0002150007622 -111.3805483 -54.61215139
-3.999784999 -15.14369192 -56.45775239
-3.999784999 -81.84215369 -36.86444039
0.0002150007622 -45.70664284 -23.71920239
-218.306953 -2.49879439e-05 59.95566861
0.0002150007622 -77.58659477 53.30769861
-3.999784999 -135.4257134 -39.80781139
-25.306939 -2.49879439e-05 -43.36287939
-3.999784999 -175.4055844 -2.699016386
-18.499992 -2.49879439e-05 -13.27436239
-168.14588 -2.49879439e-05 -9.348616386
-145.538587 -2.49879439e-05 -53.62192139
0.0002150007622 -25.73281746 -8.447365386
-172.893173 -2.49879439e-05 -36.44539139
0.0002150007622 -55.97903244 -16.42887539
-120.20666 -2.49879439e-05 3.356729614
-250.106749 -2.49879439e-05 -46.76244039
-3.999784999 -137.0410155 48.66535461
-205.307821 -2.49879439e-05 -5.165184386
-189.112065 -2.49879439e-05 8.737590614
0.0002150007622 -186.7920419 8.686924614
-189.323817 -2.49879439e-05 19.24252161
0.0002150007622 -120.9567649 22.34232561
-18.213838 -2.49879439e-05 -52.92213139
0.0002150007622 -180.685326 -32.03639139
0.0002150007622 -6.568325488 -21.80111039
0.0002150007622 -9.218147198 41.65055161
-32.509367 -2.49879439e-05 -6.106345386
0.0002150007622 -34.23668079 -66.10081839
-3.999784999 -140.550002 -27.02964539
0.0002150007622 -69.69603455 -46.98875939
0.0002150007622 -93.21017528 35.34451561
-48.52969 -2.49879439e-05 14.50058561
-164.752191 -2.49879439e-05 2.468277614
0.0002150007622 -135.3570219 60.33411261
-123.188569 -2.49879439e-05 32.35420961
0.0002150007622 -52.0661032 -39.84842139
-1.993175999 -2.49879439e-05 -6.887877386
-144.448638 -2.49879439e-05 45.18650561
-82.8487 -2.49879439e-05 -61.37793839
0.0002150007622 -239.4270125 -60.72806039
0.0002150007622 -94.99084173 -15.17641439
-239.046631 -2.49879439e-05 -19.43212239
0.0002150007622 -175.1699737 12.99780661
-78.747569 -2.49879439e-05 25.74767061
-234.866033 -2.49879439e-05 -45.38718739
-187.549142 -2.49879439e-05 -35.40640639
0.0002150007622 -166.2227282 35.41820361
-78.957166 -2.49879439e-05 12.88344261
-3.999784999 -6.794842758 61.42294761
-3.999784999 -165.8655353 27.22490361
-43.775441 -2.49879439e-05 -24.11404639
0.0002150007622 -165.8854613 -60.25845839
-3.999784999 -80.6439877 -63.58848939
0.0002150007622 -100.1478469 -3.051007386
-146.543371 -2.49879439e-05 22.20507261
-43.97204 -2.49879439e-05 -66.97165339
0.0002150007622 -134.2231651 12.73375961
0.0002150007622 -183.6089529 50.26044561
0.0002150007622 -198.4359988 17.56282261
-3.999784999 -123.7941012 28.43091761
0.0002150007622 -148.2005696 40.75344961
-3.999784999 -61.88353967 -27.13037639
-32.169246 -2.49879439e-05 57.08516361
0.0002150007622 -191.5628289 66.92784461
-1.679020999 -115.2684449 -22.87380939
0.0002150007622 -68.88169597 48.91566261
0.0002150007622 -1.172788228 -35.44502939
0.0002150007622 -85.17547722 -47.17122539
-75.469379 -2.49879439e-05 -51.05540639
-252.39689 -2.49879439e-05 -63.57704339
-3.999784999 -31.10855063 -53.72113639
-196.47724 -2.49879439e-05 -62.99047139
-14.098771 -2.49879439e-05 0.6275216141
0.0002150007622 -5.984094078 -45.99387639
-172.722234 -2.49879439e-05 8.143077614
0.0002150007622 -242.4433919 43.06769161
0.0002150007622 -10.09464843 -1.100997386
0.0002150007622 -72.19478781 -1.085505386
-212.264561 -2.49879439e-05 37.28619861
0.0002150007622 -29.41913224 48.12994961
-207.526116 -2.49879439e-05 -58.14791339
-3.999784999 -68.09964405 -37.95421639
0.0002150007622 -5.922802978 7.852726614
-72.389572 -2.49879439e-05 -23.36143839
0.0002150007622 -18.37371396 73.41600261
-116.617732 -2.49879439e-05 18.48885261
-118.67655 -2.49879439e-05 -44.85054339
-3.999784999 -82.11575649 7.007234614
0.0002150007622 -61.48837259 -10.19566839
-161.990361 -2.49879439e-05 25.62794061
-3.999784999 -79.68091547 -22.32428339
-3.999784999 -90.09180071 59.41598261
-249.969716 -2.49879439e-05 25.06017561
-68.520743 -2.49879439e-05 13.32341761
-165.499608 -2.49879439e-05 45.21832961
-3.999784999 -94.36580442 -73.13310739
-252.037676 -2.49879439e-05 66.16965961
-231.758874 -2.49879439e-05 10.71439561
0.0002150007622 -181.1252775 28.46734761
-74.010174 -2.49879439e-05 52.59411561
-66.322472 -2.49879439e-05 40.04713661
-48.576515 -2.49879439e-05 32.82668961
0.0002150007622 -47.05517826 -53.88080739
0.0002150007622 -78.4813544 35.61470661
0.0002150007622 -57.46163964 2.906540614
-3.999784999 -129.6458951 -44.71967639
0.0002150007622 -209.8945043 -17.09261839
0.0002150007622 -17.1983911 39.84189761
-56.700166 -2.49879439e-05 -47.26579739
-132.957651 -2.49879439e-05 15.88581861
-241.459526 -2.49879439e-05 -8.535907386
-68.690838 -2.49879439e-05 70.87063861
0.0002150007622 -178.1501471 62.76388061
-190.140086 -2.49879439e-05 -18.79620439
-154.570048 -2.49879439e-05 -59.19297039
-3.999784999 -13.52238868 -71.24249539
1.829347001 -2.49879439e-05 -61.36720239
0.0002150007622 -171.6975409 -17.97623239
-218.211125 -2.49879439e-05 5.540348614
0.0002150007622 -103.7989635 36.66301661
0.0002150007622 -225.6391262 2.403832614
-103.812322 -2.49879439e-05 -46.57944039
0.0002150007622 -247.1502165 20.80290761
-134.218059 -2.49879439e-05 -53.02944639
-56.989415 -2.49879439e-05 -20.41269439
0.0002150007622 -45.42706745 2.118551614
0.0002150007622 -137.2449213 26.31433461
-218.858049 -2.49879439e-05 -65.23155739
0.0002150007622 -104.8835925 2.249679614
0.0002150007622 -95.54734501 -48.26119039
-219.648077 -2.49879439e-05 -21.43809339
-141.378521 -2.49879439e-05 29.14041461
0.0002150007622 -212.9554989 -55.84016839
-239.731182 -2.49879439e-05 -52.31517739
0.0002150007622 -138.4222017 -21.44330039
-3.999784999 -67.74874483 69.55870361
-167.508342 -2.49879439e-05 -31.89901439
-66.787543 -2.49879439e-05 24.38769961
0.0002150007622 -36.5367115 34.01234261
-3.999784999 -157.6672119 35.82816261
-3.999784999 -43.27473959 36.00660261
0.0002150007622 -176.3202943 55.60388861
0.0002150007622 -69.3030228 -55.31478239
-8.096276999 -2.49879439e-05 53.55569861
-46.795681 -2.49879439e-05 -58.68401939
0.0002150007622 -226.5117281 -24.94008539
-222.327248 -2.49879439e-05 66.86939961
0.0002150007622 -153.6753864 23.02046861
0.0002150007622 -140.5271951 34.10835261
-153.577268 -2.49879439e-05 -36.55692839
0.0002150007622 -90.26664177 42.88191961
0.0002150007622 -225.227236 29.57723361
0.0002150007622 -241.1492959 -6.675865386
-48.54275 -2.49879439e-05 39.78359761
-3.999784999 -74.01698926 -70.69071439
-228.537191 -2.49879439e-05 -71.56540839
0.0002150007622 -233.5822903 62.69007461
-3.999784999 -126.8416895 -29.43047839
0.0002150007622 -201.670724 9.073717614
-221.30892 -2.49879439e-05 -33.77086039
-196.518633 -2.49879439e-05 -28.66325339
-182.39531 -2.49879439e-05 22.79506061
-3.999784999 -33.34586868 27.35193061
-3.999784999 -164.0339068 -3.490542386
-25.345765 -2.49879439e-05 56.33166961
-108.382857 -2.49879439e-05 57.61309861
-248.608105 -2.49879439e-05 51.66827261
0.0002150007622 -93.6013229 -1.009153386
-3.999784999 -163.720557 40.38814161
0.0002150007622 -79.45260531 67.00101761
0.0002150007622 -212.7375007 -2.561364386
0.0002150007622 -29.71585026 70.20856761
-120.649765 -2.49879439e-05 -20.93446339
0.0002150007622 -197.1342049 -34.52888239
-3.999784999 -62.08483188 43.38255561
0.0002150007622 -247.85035 60.27000661
-10.047059 -2.49879439e-05 -21.23879739
-51.267943 -2.49879439e-05 -34.59635139
-115.623024 -2.49879439e-05 -55.99782739
-3.999784999 -144.9036372 -32.26866539
0.0002150007622 -192.9177847 26.73947461
-3.999784999 -113.423357 -38.64387439
-199.032125 -2.49879439e-05 69.79674261
-3.999784999 -48.9516101 21.56831661
-59.5993 -2.49879439e-05 -0.5740553859
-219.657419 -2.49879439e-05 22.27806661
-0.7105229992 -2.49879439e-05 60.54003661
0.0002150007622 -35.00710749 52.65609361
-152.452441 -2.49879439e-05 26.04399361
-140.973552 -2.49879439e-05 71.97476461
-3.999784999 -109.2067039 30.17124361
0.0002150007622 -142.3925387 -46.03845039
-3.999784999 -39.65909172 -46.97874739
-117.395659 -2.49879439e-05 36.77571461
-3.999784999 -83.91857215 -69.47272639
0.0002150007622 -94.24224469 21.22933961
0.0002150007622 -109.8697945 -11.06641239
0.0002150007622 -200.6962673 71.39081061
0.0002150007622 -123.9754812 49.74574961
0.0002150007622 -45.17030909 -4.959087386
-3.999784999 -38.22326287 14.67657861
-80.879501 -2.49879439e-05 -22.89681439
0.0002150007622 -212.3540371 33.42442561
-3.999784999 -59.68818144 32.03238961
0.0002150007622 -88.84494466 -18.46482039
-41.28058 -2.49879439e-05 18.33506761
-2.392777999 -157.6325072 -4.434979386
-215.598666 -2.49879439e-05 48.15692161
-24.921792 -2.49879439e-05 42.02220261
0.0002150007622 -163.175025 -38.21635439
-211.445389 -2.49879439e-05 64.91026961
0.0002150007622 -209.317475 44.25142961
-3.999784999 -136.4766383 -51.03456939
0.0002150007622 -219.4595264 -54.64993039
-92.83353 -2.49879439e-05 55.31150761
0.0002150007622 -113.3472025 65.57288761
-3.999784999 -103.937022 -26.41061639
0.0002150007622 -176.49653 -45.43802939
-167.876921 -2.49879439e-05 52.45797961
0.0002150007622 -52.93374708 53.51060161
-3.999784999 -111.365083 -49.01848439
-6.514726999 -2.49879439e-05 -44.60159639
-29.922727 -2.49879439e-05 67.92553861
0.0002150007622 -30.0215074 -19.71002539
0.0002150007622 -170.8304508 7.400249614
0.0002150007622 -224.8251175 37.90608361
-141.010791 -2.49879439e-05 -45.46774939
0.0002150007622 -43.85801126 57.45171961
-170.465757 -2.49879439e-05 38.19432761
-3.999784999 -6.389291788 -61.62592039
0.0002150007622 -237.2564612 23.90401961
-203.1126 -2.49879439e-05 39.85481261
0.0002150007622 -61.30544071 24.95026261
0.0002150007622 -77.65883438 2.446325614
0.0002150007622 -103.7345398 -56.96733539
-3.999784999 -158.9621021 -34.52801739
-3.999784999 -17.77185935 57.16428361
0.0002150007622 -247.4010182 -70.40080739
-86.099755 -2.49879439e-05 -15.69671939
-226.998055 -2.49879439e-05 -56.19049539
-3.999784999 -149.566906 -27.14058639
0.0002150007622 -133.7550548 -25.89916039
-3.999784999 -167.3737475 -34.07102239
0.0002150007622 -95.9140798 -62.30367739
-3.999784999 -88.4131878 16.71785161
-7.393125999 -2.49879439e-05 -14.48537339
0.0002150007622 -32.22698591 -4.229625386
0.0002150007622 -96.61495754 50.74660161
0.0002150007622 -165.7903666 -15.23506439
-3.999784999 -112.1387598 -29.06896739
0.0002150007622 -245.5002247 4.062242614
-31.045974 -2.49879439e-05 -22.83187139
0.0002150007622 -100.9662816 -22.15511339
0.0002150007622 -174.7475735 27.81238961
0.0002150007622 -45.17340756 -15.30262539
0.0002150007622 -8.722833128 26.96487461
-3.999784999 -26.59075731 -66.62801639
-3.999784999 -21.80806454 -57.44767539
-3.999784999 -121.2389011 41.27138961
-61.862187 -2.49879439e-05 50.51143861
-8.950075999 -2.49879439e-05 42.22911861
-112.178135 -2.49879439e-05 -12.55774239
-3.999784999 -141.2657335 29.19428761
0.0002150007622 -21.68270498 -3.544538386
0.0002150007622 -77.45152238 21.61348661
0.0002150007622 -101.3110981 24.72581261
0.0002150007622 -193.0070907 -13.38211839
-89.094793 -2.49879439e-05 -47.11740939
-184.678196 -2.49879439e-05 -51.00273639
-178.273843 -2.49879439e-05 45.21838461
0.0002150007622 -56.76340073 -32.87879239
-3.999784999 -50.37159563 -57.80748139
-3.999784999 -31.01138826 62.53172961
0.0002150007622 -127.746489 40.18312161
-3.999784999 -59.66255387 -42.05456139
0.0002150007622 -77.68754051 44.98107361
0.0002150007622 -70.99797205 -23.05489939
-3.999784999 -55.85858454 -11.56858139
-10.723947 -2.49879439e-05 8.915753614
-3.999784999 -35.99305929 -24.45333439
-17.35395 -2.49879439e-05 69.33136761
0.0002150007622 -142.0459399 -56.95763939
0.0002150007622 -124.9400547 13.60375861
0.0002150007622 -28.21464666 -60.76730539
-22.752331 -2.49879439e-05 -27.48875239
0.0002150007622 -223.5438912 -35.28066739
0.0002150007622 -85.81579472 61.64119561
-3.999784999 -34.98260062 -8.322049386
-3.999784999 -94.92805974 -19.97417739
0.0002150007622 -67.30255813 35.75121861
-64.879906 -2.49879439e-05 -21.79738539
0.0002150007622 -208.3452588 -60.03467639
0.0002150007622 -229.9433771 57.41315061
-20.735292 -2.49879439e-05 2.005006614
0.0002150007622 -19.14527179 -68.75429139
0.0002150007622 -117.6113992 -66.80841539
0.0002150007622 -96.85913472 30.31371861
0.0002150007622 -63.9035355 -44.74105739
0.0002150007622 -33.78831533 -41.92535139
-3.999784999 -170.4512453 13.48037861
-98.366332 -2.49879439e-05 -36.51266539
-244.741379 -2.49879439e-05 40.24070061
-3.999784999 -85.78041928 49.94911261
0.5804770008 -15.25492228 66.70738561
0.0002150007622 -66.60824478 42.01108361
0.0002150007622 -181.5457036 -6.743057386
0.0002150007622 -225.3964187 18.15563661
0.0002150007622 -30.25666799 33.66330561
-3.999784999 -59.67092944 68.82205861
-229.315388 -2.49879439e-05 45.68147461
-3.508373999 -24.28583221 32.45508761
-5.420447999 -2.49879439e-05 -72.00373739
-127.437284 -2.49879439e-05 -20.12543439
-126.426267 -2.49879439e-05 -48.37986639
-3.999784999 -20.75651704 -50.04195139
0.0002150007622 -209.5384758 57.65214161
0.0002150007622 -21.4777318 26.50019761
-211.53197 -2.49879439e-05 21.12799561
-99.412733 -2.49879439e-05 -12.00766239
-41.637836 -2.49879439e-05 44.05069361
-51.419046 -2.49879439e-05 24.57520061
-157.195443 -2.49879439e-05 14.53701961
-61.149719 -2.49879439e-05 12.57004561
0.0002150007622 -17.44217394 -40.86204739
-3.336088999 -105.1160018 56.26419561
0.0002150007622 -63.55452742 54.37171561
0.0002150007622 -85.09038364 -59.95331639
-142.52978 -2.49879439e-05 -64.70474339
0.0002150007622 -193.7113041 -48.24469139
-234.071591 -2.49879439e-05 -66.49904439
0.0002150007622 -147.4778682 16.61364061
0.0002150007622 -139.6955043 2.813632614
0.0002150007622 -123.1877945 -44.63877739
-0.1090289992 -180.6544379 -15.19391839
-3.761486999 -25.50002499 -21.35423639
-175.833946 -2.49879439e-05 19.76516161
-3.999784999 -86.8619549 -12.70465039
-3.999784999 -77.78862616 -41.97367339
0.0002150007622 -106.0822863 -39.12053439
0.0002150007622 -211.8801756 -22.85117039
-95.978819 -2.49879439e-05 -73.91556539
-247.617721 -2.49879439e-05 12.07262961
0.0002150007622 -8.295193008 52.45988861
0.0002150007622 -52.56026291 36.00302961
0.0002150007622 -73.17528254 60.89224961
-0.07187899924 -104.3723345 -8.464576386
-132.77043 -2.49879439e-05 -37.74272339
0.0002150007622 -204.7276589 -35.85790239
-61.314685 -2.49879439e-05 -35.70294039
-189.578517 -2.49879439e-05 67.88068561
0.0002150007622 -121.9977859 56.35435061
-3.999784999 -46.14188129 -39.23416639
-56.374716 -2.49879439e-05 64.29341361
0.0002150007622 -151.3163408 -66.87738839
-28.076156 -2.49879439e-05 -36.88046839
-107.592208 -2.49879439e-05 -31.42108939
0.0002150007622 -4.631651778 -67.06964639
0.0002150007622 -4.073787488 46.66749461
-174.891069 -2.49879439e-05 -42.13762439
0.0002150007622 -170.4170447 -37.39903739
-60.447243 -2.49879439e-05 -26.71671539
0.0002150007622 -131.4754556 -61.62960239
-3.999784999 -112.7441317 46.02838161
-69.352673 -2.49879439e-05 -8.400687386
-157.573585 -2.49879439e-05 -12.28965339
0.0002150007622 -174.8086214 35.47058061
0.0002150007622 -45.54026196 10.53687461
-153.15835 -2.49879439e-05 37.15587661
0.0002150007622 -130.179194 -13.72469239
-3.999784999 -46.72241799 67.32510961
-97.847058 -2.49879439e-05 -26.45829439
0.0002150007622 -110.4753243 37.00189861
0.0002150007622 -5.562200738 69.01091661
-66.143305 -2.49879439e-05 -73.45643839
-3.999784999 -19.59797234 47.82687261
-108.379226 -2.49879439e-05 -19.59050439
-3.999784999 -65.94366988 -70.39853239
-75.938147 -2.49879439e-05 66.67941461
-3.999784999 -103.7306467 15.63494161
0.0002150007622 -36.28045422 8.624631614
0.0002150007622 -93.4260604 -7.909200386
-0.3315389992 -25.50002499 -14.36332239
-211.384671 -2.49879439e-05 -63.98383939
-3.999784999 -30.34977256 -46.35036939
0.0002150007622 -230.7818691 26.83607261
-148.022181 -2.49879439e-05 1.493746614
-84.232154 -2.49879439e-05 63.68224761
-3.999784999 -22.91281923 -71.24641039
-188.929105 -2.49879439e-05 25.13055061
-3.999784999 -152.3960763 -19.90843339
-19.61784 -2.49879439e-05 60.47889361
0.01159200076 -235.6136688 -39.50009739
0.0002150007622 -45.48518333 -34.93609739
-146.750329 -2.49879439e-05 -17.83484639
-3.999784999 -119.3004346 -38.50311139
-3.999784999 -72.04956514 -31.74845639
-28.140985 -2.49879439e-05 22.61110861
0.0002150007622 -101.775385 47.14476161
0.0002150007622 -179.4081012 3.878669614
-3.999784999 -32.15789401 0.6714106141
0.0002150007622 -105.2044922 -69.20018239
0.0002150007622 -44.66744299 22.19807561
-144.161326 -2.49879439e-05 -31.33076739
-3.490694999 -25.18201786 -28.63485139
-0.5719239992 -179.6897758 18.23013461
-3.999784999 -31.99323813 9.078824614
-3.999784999 -64.44607321 -59.68053739
0.0002150007622 -25.8518116 3.694376614
0.0002150007622 -84.60106923 -27.49971239
0.0002150007622 -42.97361104 63.19390461
-3.999784999 -113.1566842 -59.02072739
0.0002150007622 -56.77925537 -67.35381239
0.0002150007622 -169.1508077 -55.48154439
-3.999784999 -50.36203876 -6.711647386
0.0002150007622 -107.5599283 -45.35634839
-3.999784999 -96.151729 38.29535761
-3.999784999 -141.1631789 -42.05990039
-3.999784999 -96.98206956 -41.90499239
-180.211414 -2.49879439e-05 10.36468661
0.0002150007622 -171.4543844 -70.10954639
0.0002150007622 -207.8537426 -5.783862386
0.0002150007622 -27.38836435 15.83755461
0.0002150007622 -29.7440966 -70.57913939
-38.137092 -2.49879439e-05 -4.922703386
-3.999784999 -62.24664256 -15.39577639
-229.169675 -2.49879439e-05 -44.63725139
-3.999784999 -70.45424048 -64.11559039
-3.999784999 -68.18010458 -0.1661133859
-3.999784999 -32.04003948 -62.61952639
0.0002150007622 -28.44786022 -32.45867739
0.2643770008 -59.68129948 -73.92664839
-3.999784999 -39.02677135 53.44954861
-3.999784999 -41.69084171 42.05549661
-80.519768 -2.49879439e-05 -35.11141239
0.0002150007622 -190.070823 -1.482062386
-109.027532 -2.49879439e-05 50.29408361
0.0002150007622 -15.6060089 0.9621646141
-3.999784999 -100.7499301 -63.33372139
-3.999784999 -96.47410645 -67.83139739
0.0002150007622 -145.2244857 30.08350961
0.0002150007622 -125.2970815 -54.28658839
-3.999784999 -166.8726492 6.544613614
0.0002150007622 -190.5661534 -59.62027739
-35.744267 -2.49879439e-05 -16.62398539
0.0002150007622 -19.10949203 18.88441361
-3.999784999 -7.416351428 72.70747461
0.0002150007622 -36.99177353 18.82863261
-3.999784999 -54.05287052 16.65688461
0.0002150007622 -85.15537072 -73.30934239
0.0002150007622 -235.8561168 -12.35952139
-3.999784999 -58.29308843 12.06873361
-3.999784999 -107.3804243 -54.93785739
0.0002150007622 -46.44644875 50.24073661
0.0002150007622 -145.0917963 -28.27787539
-3.999784999 -35.42539141 -30.78002239
-3.999784999 -70.73501425 27.06778861
0.0002150007622 -24.33135651 54.73756661
0.0002150007622 -88.5385313 -52.41427539
0.0002150007622 -191.5972961 32.70238261
-201.525729 -2.49879439e-05 22.10781961
0.0002150007622 -40.16668902 -60.98912539
0.0002150007622 -5.838393238 -28.08281839
0.0002150007622 -105.8429746 28.03657561
0.1521640008 -0.5000249879 5.281221614
-174.53248 -2.49879439e-05 -70.06685039
-3.999784999 -97.90013159 -35.71372239
-102.660255 -2.49879439e-05 38.51162261
-84.078124 -2.49879439e-05 33.21864661
0.0002150007622 -68.35057551 7.188888614
-3.999784999 -113.8585709 -65.73898739
0.0002150007622 -112.7884165 21.69746061
-3.999784999 -86.15607881 -2.500081386
0.0002150007622 -55.77642102 26.38441061
-194.099566 -2.49879439e-05 -41.72937339
-195.571247 -2.49879439e-05 64.64808161
-3.999784999 -46.59375241 -61.88585239
0.0002150007622 -93.49351895 -36.99232939
-3.999784999 -67.70776684 17.50564661
-186.035153 -2.49879439e-05 14.49090561
-3.999784999 -154.0500375 -14.31222439
-3.999784999 -93.45859689 -28.45408539
0.0002150007622 -153.1836453 -25.73537939
0.0002150007622 -39.47796895 38.71588661
-130.883948 -2.49879439e-05 -8.082681386
-185.672645 -2.49879439e-05 73.15048161
-3.999784999 -169.5484793 -3.875819386
0.0002150007622 -87.26490502 -42.05449639
0.0002150007622 -114.4381578 -7.959935386
-3.999784999 -47.96979648 44.03312261
-3.999784999 -80.11664501 31.36259961
0.0002150007622 -74.95963684 -55.50903339
-3.999784999 -171.5851373 3.673751614
-3.999784999 -56.73973912 -21.76344239
0.0002150007622 -70.38841502 -69.58594239
0.0002150007622 -171.1178079 -25.85253339
-3.999784999 -94.97720026 25.10834761
-62.182291 -2.49879439e-05 -46.72689439
-212.954714 -2.49879439e-05 -71.29334139
0.0002150007622 -39.30846096 -54.89512939
0.0002150007622 -154.8025757 -39.60860339
0.0002150007622 -228.2058158 -5.020314386
-58.035656 -2.49879439e-05 8.048939614
0.0002150007622 -221.3348428 -14.75406239
0.0002150007622 -38.00874337 67.82939861
0.0002150007622 -91.71163082 69.52027661
-3.999784999 -61.8084576 21.23980561
-147.856963 -2.49879439e-05 66.82107861
-3.999784999 -130.9761915 -54.40933439
-3.999784999 -72.96847017 -12.87558139
-3.999784999 -154.5838112 27.19327061
-3.999784999 -105.9315414 49.94602461
-3.999784999 -29.15012176 -6.981574386
0.0002150007622 -91.8764907 9.931751614
0.0002150007622 -94.53758448 55.88524661
-3.999784999 -73.3350614 19.17752961
0.0002150007622 -209.2249295 37.87752361
0.0002150007622 -169.1868267 29.60682361
-3.999784999 -168.6475284 -12.91847439
-1.663618999 -113.6466017 53.85948561
0.0002150007622 -31.16498057 42.98494161
-15.470393 -2.49879439e-05 -7.310948386
-3.389409999 -2.49879439e-05 -56.14816639
-244.290783 -2.49879439e-05 46.64478161
-3.999784999 -160.0353458 -22.23100939
0.0002150007622 -161.6638139 -18.74380839
-3.999784999 -72.63983702 -43.65146239
-3.999784999 -113.5642168 35.06804161
0.0002150007622 -64.20118322 68.74829061
-68.816723 -2.49879439e-05 -48.15953239
-3.999784999 -66.22779384 -32.88682239
0.02623100076 -213.8247259 -72.26448339
0.0002150007622 -36.90443957 -20.72740639
-0.6804459992 -21.88641085 -37.87742639
0.0002150007622 -32.46669973 -57.07444439
-187.13156 -2.49879439e-05 -3.962215386
0.0002150007622 -213.6274789 47.91061261
-240.84055 -2.49879439e-05 -69.85280739
0.0002150007622 -71.13352572 -7.001966386
-3.999784999 -81.28008671 -7.088920386
0.0002150007622 -129.0916228 -35.92681039
0.0002150007622 -232.7177285 3.627852614
-115.127084 -2.49879439e-05 1.622080614
0.0002150007622 -2.414803908 18.59976561
0.0002150007622 -26.86903444 -47.18056439
-237.312572 -2.49879439e-05 -35.81132039
-122.466052 -2.49879439e-05 -63.37700539
0.0002150007622 -74.6512263 26.16849161
-3.999784999 -47.34117931 -0.8659243859
-3.999784999 -42.0423616 -73.27997339
0.0002150007622 -125.706678 -2.741690386
-3.999784999 -95.04389573 -4.761921386
-3.999784999 -8.236587178 -72.00197539
0.0002150007622 -152.700904 43.62517861
-3.999784999 -64.42639068 48.53466561
0.0002150007622 -167.2289734 12.03828061
-3.999784999 -104.0091259 44.41266861
-3.999784999 -174.2457326 -15.53828339
-3.999784999 -55.13920406 0.2545506141
-79.919893 -2.49879439e-05 -53.98837439
-3.999784999 -147.9736593 44.26265761
-3.999784999 -9.048863368 -57.01158839
-3.999784999 -59.73807528 -7.147166386
0.0002150007622 -11.94823664 -67.60976139
-245.370354 -2.49879439e-05 -42.79985439
-205.386116 -2.49879439e-05 66.24323761
0.0002150007622 -141.4708298 -32.97235439
0.0002150007622 -90.36451228 -59.27930439
-155.432731 -2.49879439e-05 -23.19109939
-3.999784999 -33.33936569 -69.48531339
0.0002150007622 -200.4967481 30.39751561
-3.999784999 -114.8456084 -53.98621039
0.0002150007622 -16.97428768 -59.43206239
0.0002150007622 -21.16338968 -11.32284839
0.0002150007622 -154.4946418 -7.973275386
-245.081054 -2.49879439e-05 -33.29872739
-106.694193 -2.49879439e-05 -40.85740739
0.0002150007622 -124.5354951 44.47940661
-3.999784999 -66.90751511 -6.624063386
-96.452646 -2.49879439e-05 69.12746661
-176.899252 -2.49879439e-05 -24.09430239
-3.999784999 -86.03343265 39.92290261
-3.999784999 -98.92390944 -54.73846439
-22.246333 -2.49879439e-05 -39.05778439
-124.311235 -2.49879439e-05 9.288357614
-40.863759 -2.49879439e-05 66.81732861
-3.999784999 -25.31722271 62.48213561
0.0002150007622 -202.2839738 -61.18607639
-3.999784999 -135.733897 37.11436361
0.0002150007622 -89.57323956 51.01834761
0.0002150007622 -236.0050486 34.66659561
0.0002150007622 -191.5909188 -21.84955939
0.0002150007622 -13.81558986 53.24622761
-50.237467 -2.49879439e-05 55.94772061
-3.999784999 -92.8105334 -12.54763639
-37.696131 -2.49879439e-05 -48.97988439
-3.999784999 -90.04102617 21.71502161
-178.001917 -2.49879439e-05 -56.82599539
0.0002150007622 -193.2299945 -27.14212239
-3.999784999 -121.0140206 51.84507161
0.0002150007622 -109.9382846 -23.86181239
0.0002150007622 -69.06944741 -41.20416739
-166.58024 -2.49879439e-05 -51.34832139
-19.533247 -2.49879439e-05 -21.48491639
0.0002150007622 -134.8594647 42.55093261
0.0002150007622 -58.76524432 -55.74845539
-8.556044999 -2.49879439e-05 -3.732242386
-33.072947 -2.49879439e-05 13.14549061
0.0002150007622 -72.89654861 36.39623161
0.0002150007622 -5.170241348 -58.38062639
-101.681308 -2.49879439e-05 -21.25250039
-3.999784999 -13.97598272 64.55614761
-3.999784999 -52.65327338 41.45685861
-99.964607 -2.49879439e-05 14.54772661
-224.691181 -2.49879439e-05 49.82770361
-3.999784999 -82.65120259 -44.99148839
0.0002150007622 -119.4822674 28.27795561
-3.999784999 -98.61281771 -46.85031339
-3.999784999 -99.10934147 11.40856861
0.0002150007622 -39.32319414 3.499365614
-164.608941 -2.49879439e-05 -58.76270839
-3.999784999 -65.56188607 57.02228561
0.0002150007622 -159.0677222 25.33963661
0.0002150007622 -73.91720884 11.61847361
0.0002150007622 -24.34813615 37.36222361
-3.999784999 -119.9251846 34.53759161
0.0002150007622 -225.3954673 -69.73590539
0.0002150007622 -217.8102865 9.348258614
-3.999784999 -160.9279853 15.15739061
-3.999784999 -118.1914675 -29.41873339
0.0002150007622 -51.03949055 1.682594614
0.0002150007622 -171.9290728 -31.72260039
0.0002150007622 -71.32777374 69.22158661
-3.999784999 -142.8229526 36.46392461
-76.913038 -2.49879439e-05 -31.15459239
0.0002150007622 -23.63115251 69.33153061
-3.999784999 -173.7988393 17.94759561
-123.39503 -2.49879439e-05 -37.94764239
-3.999784999 -80.77380925 51.25091961
0.0002150007622 -42.54424404 -48.53354739
0.0002150007622 -52.97666902 61.20926561
-3.999784999 -72.54545803 -59.38882639
-3.999784999 -36.99111945 64.71996161
-3.999784999 -34.32404514 49.45670861
-46.41937 -2.49879439e-05 45.98277961
-79.894053 -2.49879439e-05 -65.60258039
-3.999784999 -129.4964822 33.70200261
-3.999784999 -53.75996818 -37.08350239
-84.069381 -2.49879439e-05 -5.277352386
-3.999784999 -88.83449032 11.04344061
-3.956829999 -103.5438623 -5.193164386
-3.999784999 -82.701192 -57.77105739
0.0002150007622 -48.97996126 71.27688661
0.0002150007622 -143.7825654 -18.06815739
0.0002150007622 -159.9397892 61.69717761
0.0002150007622 -182.6599847 11.73145961
0.0002150007622 -83.13270052 -66.35682339
-219.720723 -2.49879439e-05 -41.09968639
-3.999784999 -47.73251602 -21.23959139
-101.331277 -2.49879439e-05 -57.48041139
-3.999784999 -121.9703155 -57.77959739
-3.999784999 -98.87365017 -24.57329939
0.0002150007622 -67.34788085 12.66921261
-3.999784999 -142.2142857 44.94868361
-3.999784999 -54.68503811 30.46845561
-3.999784999 -103.2064949 4.965131614
0.06286600076 -167.4740498 72.56733661
-3.999784999 -59.5044885 -62.58714339
0.0002150007622 -106.3011934 -28.54129139
0.0002150007622 -184.7921815 -10.68932039
-160.62827 -2.49879439e-05 43.67674361
-3.999784999 -35.76212734 -50.95335439
-3.999784999 -35.39512782 5.038467614
-243.482386 -2.49879439e-05 58.46664861
0.0002150007622 -195.669556 50.89571061
-0.5966799992 -107.4309578 14.79746161
-232.702776 -2.49879439e-05 23.40947261
0.0002150007622 -178.9425311 -22.70380939
1.014303001 -8.254748298 60.39763261
0.0002150007622 -31.71266909 18.99262361
0.0002150007622 -116.1548236 49.77624561
0.0002150007622 -10.53533407 72.76557061
0.0002150007622 -83.25628796 -10.91232839
0.0002150007622 -121.9498348 37.01390761
-3.999784999 -52.57466482 -15.42362239
-3.999784999 -30.44453509 23.20451761
0.0002150007622 -50.37518058 25.07712261
0.0002150007622 -91.6772601 25.77215161
-69.303982 -2.49879439e-05 -0.2995253859
-3.999784999 -160.5113732 31.64942561
-3.999784999 -59.60672114 -50.53018539
-3.999784999 -45.04129914 -51.24644639
0.0002150007622 -15.87296255 10.47811461
-182.437792 -2.49879439e-05 -66.69288839
0.0002150007622 -71.92656209 44.90118861
-3.999784999 -151.9343737 -46.96486339
0.0002150007622 -160.585111 6.020252614
0.0002150007622 -34.40588321 24.49349061
0.0002150007622 -106.1130933 -52.16842039
-3.999784999 -74.96338374 0.1722836141
0.0002150007622 -79.63218162 -44.63772539
0.0002150007622 -57.19064673 -60.51833739
0.0002150007622 -82.56576213 0.5908806141
-3.999784999 -102.7450175 -34.39159039
0.0002150007622 -226.7026807 23.62286961
0.0002150007622 -56.09383172 18.88079661
-3.999784999 -42.71124102 -24.00195039
-3.999784999 -57.59977903 -29.99013839
0.0002150007622 -126.7237998 29.10059561
0.0002150007622 -11.40254276 -11.84029539
-3.999784999 -134.9822494 -46.26305139
0.0002150007622 -161.8575741 0.4067366141
-3.999784999 -176.1515767 -24.58940439
0.0002150007622 -56.41801244 45.71463661
-105.039784 -2.49879439e-05 33.83980061
0.0002150007622 -139.3607905 -50.24604639
0.0002150007622 -238.3362394 61.17683561
-3.999784999 -85.04997544 30.56381461
-3.999784999 -103.3734519 -44.58486739
-18.166939 -2.49879439e-05 -30.61323039
-73.446836 -2.49879439e-05 12.57688761
0.0002150007622 -147.4159304 47.17972661
0.0002150007622 -19.53918568 -54.62553439
-76.625192 -2.49879439e-05 -25.98065739
-3.999784999 -40.20163722 -37.59455839
-3.999784999 -97.56552892 54.51621961
-3.999784999 -40.61558372 61.31769661
-107.475051 -2.49879439e-05 40.92795561
0.0002150007622 -117.7106596 -42.01788839
-3.999784999 -74.4261635 70.11971161
-2.966231999 -142.71309 24.55250861
-18.204516 -2.49879439e-05 36.21926661
-3.999784999 -110.2652316 -44.01741039
-3.999784999 -42.34696875 -59.01912939
0.0002150007622 -79.76161295 14.08541561
-160.810462 -2.49879439e-05 -1.377753386
-29.854903 -2.49879439e-05 42.47446161
-113.26426 -2.49879439e-05 29.51892461
0.0002150007622 -49.27882428 -45.12597439
-2.644582999 -151.5446166 17.60415261
-3.390806999 -15.83981644 44.66211061
-3.999784999 -26.46229546 -51.18201039
0.0002150007622 -148.5184346 -36.84497339
0.0002150007622 -9.411570418 22.06825061
0.0002150007622 -97.9748964 7.345038614
0.0002150007622 -109.0483246 6.622020614
-3.999784999 -46.85961845 -10.19278739
0.0002150007622 -150.4004984 26.71540861
-3.999784999 -20.36388737 69.99936061
0.0002150007622 -89.06200801 -2.940505386
0.0002150007622 -225.2787242 -29.71302539
0.0002150007622 -126.9525725 -63.58730639
0.0002150007622 -109.5251769 -61.93043539
-3.999784999 -27.28468777 -58.04904939
-3.999784999 -83.04032198 13.63604461
-3.999784999 -61.61739151 60.31618261
0.0002150007622 -76.77233757 -69.09965839
0.0002150007622 -142.5467776 50.46795561
-3.999784999 -153.0633313 34.10186061
-3.999784999 -106.9879075 -66.96547839
-3.999784999 -54.77335229 8.640030614
-3.999784999 -67.76318531 44.92811261
-3.999784999 -63.40603827 15.13435561
-3.999784999 -85.32792976 58.00629461
-3.999784999 -111.9611197 25.58404461
0.0002150007622 -162.2153618 -66.53501239
0.0002150007622 -43.59627232 -9.605715386
-3.999784999 -68.74068883 31.68905061
0.0002150007622 -138.9465058 -40.29635439
0.0002150007622 -51.76747294 -18.93465339
0.0002150007622 -90.30715246 14.62100661
0.0002150007622 -101.1246404 13.38636661
-3.999784999 -163.1572054 -16.23079839
0.0002150007622 -85.7500758 47.13470361
-3.999784999 -97.71327773 -14.46953939
0.0002150007622 -98.23661316 36.40934261
-3.999784999 -8.436491178 -67.11861539
0.0002150007622 -9.013465758 -62.62075639
-0.4209549992 -137.8796326 51.88376861
-3.999784999 -25.37348405 43.61972261
0.0002150007622 -220.1482377 52.66511861
-158.332703 -2.49879439e-05 72.11237161
-3.999784999 -86.27871406 -32.79811239
-3.999784999 -39.78517977 72.94450461
0.0002150007622 -82.05688436 71.11822161
0.0002150007622 -145.5574662 35.66016461
-13.020913 -2.49879439e-05 -41.25679639
0.0002150007622 -192.6889588 -36.82589339
-3.999784999 -30.67653644 54.18137661
-153.92803 -2.49879439e-05 -64.10164739
-3.999784999 -53.11540027 -67.69794839
0.0002150007622 -50.42569295 -24.86980739
0.0002150007622 -78.20616389 -59.62424439
-3.999784999 -164.0394848 -11.39110939
-159.921621 -2.49879439e-05 8.280180614
-10.508752 -2.49879439e-05 47.10797761
