# .PCD v0.7 - Point Cloud Data file format
VERSION 0.7
FIELDS x y z
SIZE 4 4 4
TYPE F F F
COUNT 1 1 1
WIDTH 1176
HEIGHT 1
VIEWPOINT 0 0 0 1 0 0 0
POINTS 1176
DATA ascii
31.59026372 -201.2716374 -9.738627159e-05
-9.902489275 -169.4795316 -9.738627159e-05
-41.55382628 -0.5000249879 -38.65273839
11.17470772 -2.498792763e-05 -19.94559239
-43.26370828 -45.98063063 -94.00009739
40.84910672 -2.498792763e-05 -1.395115386
-3.711869275 -133.2752594 -9.738627159e-05
14.10948572 -68.00002403 -89.27099639
-9.219404275 -2.498792763e-05 -85.62651539
30.22124972 -27.2604285 -88.00009739
-21.69220228 -222.9112602 -9.738627159e-05
40.78478372 -2.498792763e-05 -63.56847639
1.950504725 -24.92471147 -9.738627159e-05
-34.06469428 -110.4317023 0.2092666137
-1.812574275 -202.0356034 -9.738627159e-05
6.957846725 -76.73909431 -9.738627159e-05
-41.08436128 -0.5000249879 -65.53005739
-6.556554275 -250.8127218 -9.738627159e-05
25.02463572 -56.84507677 -9.738627159e-05
19.85816972 -100.9551695 -9.738627159e-05
-40.25016128 -61.56067892 -18.65394139
-19.13654728 -2.498792763e-05 -24.87381539
-40.25016128 -8.979533158 -8.730081386
-36.94718428 -168.0802305 1.531402614
17.68509972 -2.498792763e-05 -54.01821339
-26.33524428 -37.40979564 -9.738627159e-05
-40.25016128 -64.63158735 -67.72820239
35.99101672 -227.0950326 -9.738627159e-05
-34.51954228 -24.296008 -88.00009739
-40.25016128 -88.75501845 -22.90961539
-40.25016128 -44.46227792 -43.69952739
7.524624725 -152.9730087 -9.738627159e-05
11.90290072 -45.59749643 -88.00009739
11.90953972 -180.9884589 -9.738627159e-05
-20.16901228 -40.29959598 -94.00009739
-42.64852428 -68.00002403 -90.78185839
21.30072472 -9.970776128 -9.738627159e-05
15.91008672 -250.8054301 -9.738627159e-05
-19.48648028 -73.84808066 -9.738627159e-05
-40.25016128 -23.16162018 -40.22872539
15.76932772 -124.150867 -9.738627159e-05
2.719917725 -2.498792763e-05 1.863553614
-37.70873328 -54.79551044 2.170124614
27.63279272 -143.8761108 -9.738627159e-05
18.82872872 -2.498792763e-05 -74.43607739
-21.58141728 -2.498792763e-05 -68.42104439
11.96295672 -14.3208186 -88.00009739
37.74983872 -180.0934563 0.5148086137
-19.73120128 -123.4793333 -9.738627159e-05
-17.85935128 -148.4942167 -9.738627159e-05
-17.60942428 -18.89458549 -9.738627159e-05
-36.93890728 -233.2251722 1.526001614
-17.10096228 -16.14890199 -88.00009739
-13.44827328 -188.2186453 -9.738627159e-05
-40.25016128 -25.59145102 -1.710193386
-25.11884628 -2.498792763e-05 -45.09477839
-21.50373928 -93.57124147 -9.738627159e-05
-40.25016128 -13.57311227 -25.63113039
14.83381672 -207.0825268 -9.738627159e-05
37.38848872 -12.72000829 -94.00009739
26.13343172 -2.498792763e-05 -29.12678439
-40.25016128 -14.05221584 -54.59922239
29.05007572 -46.86033941 -88.00009739
29.79064972 -64.20537982 -94.00009739
-0.07904427532 -59.19972055 -88.00009739
-40.25016128 -17.5180539 -71.02327339
-0.8751192753 -2.498792763e-05 -36.71561939
42.76297672 -2.498792763e-05 -17.78111239
-21.56009628 -243.7363383 -9.738627159e-05
3.727508725 -2.498792763e-05 -67.89031839
-7.563214275 -2.498792763e-05 -10.92902939
37.74983872 -98.02580954 0.1392206137
9.585292725 1.639569682 -88.00009739
20.61829272 -235.7360331 -9.738627159e-05
43.35163772 -35.65796944 -88.00009739
-40.54695328 -98.4958698 -10.76491739
-1.685526275 -40.03261414 -9.738627159e-05
-40.25016128 -49.6018204 -71.29574239
14.78546672 -45.28073712 -9.738627159e-05
-40.25016128 -46.66264645 -28.57327139
21.98734172 -79.43720689 -9.738627159e-05
40.74572072 1.110949912 -88.00009739
-30.97478628 -58.88426294 -94.00009739
-7.004519275 -219.3846189 -9.738627159e-05
-21.78233728 -0.03207259793 -94.00009739
-22.96783828 -204.6231217 -9.738627159e-05
13.92901572 -2.498792763e-05 -38.01298039
-6.450002275 -83.04003618 -9.738627159e-05
17.05192672 -24.34806084 -9.738627159e-05
-35.95263728 -218.5566431 0.9314056137
-40.25016128 -34.86614378 -78.05623439
-40.25016128 -40.52388104 -3.244255386
-7.739378275 -48.43022094 -94.00009739
23.62293872 -2.498792763e-05 -10.27923639
27.78874672 -113.287401 -9.738627159e-05
36.09583172 -67.78631566 -9.738627159e-05
7.142016725 -112.660028 -9.738627159e-05
25.59942872 -187.7128356 -9.738627159e-05
10.50876372 -58.83611146 -9.738627159e-05
13.63709172 -31.52313195 -88.00009739
-31.89401628 -2.498792763e-05 -78.14098039
-24.84212728 -161.0238297 -9.738627159e-05
-20.21179228 -108.0465616 -9.738627159e-05
-27.69965328 -2.498792763e-05 -9.555314386
-41.35598328 -2.498792763e-05 -22.54675539
-31.85724628 -67.39300179 -9.738627159e-05
-40.25016128 -57.71774031 -55.66275539
-43.02065128 -55.3646988 -83.60495939
-28.42562628 -178.8817047 -9.738627159e-05
-5.893353275 -10.42013087 -94.00009739
-40.25016128 -80.47696679 -35.74690839
30.54470572 -2.498792763e-05 -49.29347139
-6.193813275 -119.8856686 -9.738627159e-05
4.217717725 -242.6630964 -9.738627159e-05
-35.58019128 -129.7749868 0.7318986137
-40.40661328 -12.2392045 -88.00009739
-36.33479028 -95.23610203 1.157534614
-30.44834628 -16.92707882 0.7745226137
23.72869972 -222.9843199 -9.738627159e-05
-42.32787328 -32.66990329 -94.00009739
-9.148078275 -35.31161109 -88.00009739
34.46236672 -214.3257651 -9.738627159e-05
2.824480725 -171.9998702 -9.738627159e-05
-21.92386428 -51.43743953 -88.00009739
-38.51267928 -2.498792763e-05 -53.06950339
32.28810072 -46.44008191 -9.738627159e-05
24.50991372 -9.829559838 -88.00009739
-40.25016128 -2.048868358 1.839722614
-19.06384228 -26.99764415 -94.00009739
-4.922476275 -154.1751408 -9.738627159e-05
0.5675467247 -189.7838775 -9.738627159e-05
11.78774572 -56.70348532 -94.00009739
-40.25016128 -77.09562939 -12.55389539
-40.25016128 -50.6103898 -12.73845939
-40.25016128 -44.55261285 -59.94157839
-27.05413428 -11.87586547 -94.00009739
6.690750725 -11.56294905 -9.738627159e-05
-24.14064228 -135.0097222 -9.738627159e-05
-40.25016128 -34.68546869 -35.92308839
43.10067072 -2.498792763e-05 -76.03451839
-40.25016128 -61.49030193 -34.01100639
8.019496725 -98.35973461 -9.738627159e-05
-32.82082828 -45.29570611 -88.00009739
21.67780072 -21.28209312 -94.00009739
17.85377872 -136.9487775 -9.738627159e-05
-12.83750428 -2.498792763e-05 -36.90762239
42.64370972 -25.40664945 -94.00009739
-28.04076628 -83.680032 -9.738627159e-05
12.37522272 -2.498792763e-05 -6.717787386
-40.25016128 -35.63205077 -51.49250939
-14.71792828 -35.48710338 -9.738627159e-05
32.64063072 -19.44330241 -9.738627159e-05
30.71549072 -241.9118448 -9.738627159e-05
-40.25016128 -22.67655199 -13.01517339
29.84488372 -2.498792763e-05 2.433367614
28.33775972 -2.498792763e-05 -82.50644339
-7.806758275 -2.498792763e-05 -23.10846239
2.069280725 -37.67059849 -88.00009739
37.74983872 -56.40262036 0.3473316137
37.36445772 -191.4368538 -9.738627159e-05
21.77302872 -40.54507768 -94.00009739
41.13810972 -63.41349476 -88.00009739
-19.45736528 -55.41995616 -9.738627159e-05
-43.27588428 -69.43510633 -58.05391439
1.011136725 -143.9630538 -9.738627159e-05
16.18031872 -162.4110244 -9.738627159e-05
18.46147472 -151.45899 -9.738627159e-05
-40.25016128 -62.5079998 -7.749561386
-7.515141275 -3.343990018 -9.738627159e-05
-24.15148628 -65.03617029 -88.00009739
-24.19346328 -192.908669 -9.738627159e-05
-31.47156528 -36.31168103 -94.00009739
-40.25016128 -10.96996851 -41.30501139
-5.790659275 -2.498792763e-05 -75.30632439
-17.94982528 -2.498792763e-05 -58.19657839
2.275370725 -2.498792763e-05 -53.09606839
13.97689372 -196.284059 -9.738627159e-05
22.18319272 -90.09759034 -9.738627159e-05
36.39985172 -42.00923909 -94.00009739
-40.25016128 -24.62696611 -55.45984339
-32.99070428 -2.498792763e-05 -32.45309539
-37.20784228 -185.1493816 1.749449614
-42.78715528 -21.56435509 -94.00009739
-0.5071302753 -92.1977572 -9.738627159e-05
2.780134725 -67.10540214 -9.738627159e-05
-29.85150628 -48.23997445 -9.738627159e-05
-14.49148728 -64.4654585 -9.738627159e-05
-14.60914128 -210.6320686 -9.738627159e-05
4.808724725 -127.6806287 -9.738627159e-05
-5.295099275 0.4643414921 -61.26052339
-6.454513275 -68.00002403 -92.04111639
1.966949725 -2.498792763e-05 -15.66603339
-40.25016128 -69.03166972 -27.26633639
34.04161972 -2.498792763e-05 -22.96909639
14.37464972 -220.1781147 2.251480614
-8.174190275 -27.91408436 -9.738627159e-05
-40.25016128 -22.75275574 -29.58696439
16.27246672 -7.604255738 -94.00009739
37.51162072 -37.82889288 -9.738627159e-05
24.90204272 -2.498792763e-05 -39.01261139
-42.38506828 -105.0269309 -3.513964386
19.15433672 -53.92819183 -88.00009739
-28.05937928 -100.9181488 -9.738627159e-05
11.11146772 -2.498792763e-05 -61.44749939
-17.29409828 -2.498792763e-05 -9.845679386
-36.12667728 -158.3401765 1.034456614
-40.25016128 -23.07829363 -79.05257139
3.597024725 -9.301283748 -88.00009739
-40.25016128 -53.53065558 -39.50066639
-18.09230128 -234.7139416 -9.738627159e-05
-13.69009728 -45.0936778 -9.738627159e-05
-22.37631928 -2.498792763e-05 -79.69940839
-7.955771275 -228.9763641 -9.738627159e-05
-30.82236728 -119.4948965 -9.738627159e-05
-26.06191028 -31.15033226 -88.00009739
0.2708937247 -50.12720598 -9.738627159e-05
-30.94447628 -26.41409868 -9.738627159e-05
0.09942972468 -162.9159026 -9.738627159e-05
-2.473005275 -13.87820427 -9.738627159e-05
-40.25016128 -45.87048765 -79.97345739
21.65328572 -213.5923642 -9.738627159e-05
-40.25016128 -61.35574763 -76.56667039
-27.83892728 -2.498792763e-05 1.308435614
3.661035725 -209.6753111 -9.738627159e-05
-0.2571632753 -2.498792763e-05 -82.96448739
34.95901172 -138.1338278 -9.738627159e-05
-40.25016128 -10.36992088 -78.94972439
-14.27345928 -9.625144758 -9.738627159e-05
28.51278472 -97.75751806 -9.738627159e-05
20.32073372 -2.498792763e-05 -21.15978639
-29.29146528 -57.76015778 -9.738627159e-05
-40.25016128 -86.17193694 -13.73021439
-29.57964528 -2.498792763e-05 -55.05221039
-40.25016128 -7.484655838 -32.46199839
26.62253572 -173.6631287 -9.738627159e-05
-3.083963275 -236.67599 -9.738627159e-05
8.834828725 -2.498792763e-05 -79.06931439
-40.25016128 -71.38556723 -0.09883438627
34.25893072 -2.498792763e-05 -40.98405239
34.99590572 -33.02222686 -94.00009739
5.372024725 -50.26280677 -94.00009739
35.41817572 -2.498792763e-05 -71.19357539
22.84026872 -70.39828469 -9.738627159e-05
12.40706672 -2.498792763e-05 -29.12000139
24.66026672 -122.6790517 -9.738627159e-05
-22.80443528 -2.498792763e-05 -33.09611839
14.18958172 -32.84505343 -9.738627159e-05
-38.50878328 -38.36686376 -88.00009739
-20.86155928 -29.08326833 -9.738627159e-05
-32.17205228 -243.6593171 -9.738627159e-05
-31.19809528 -68.00002403 -92.42426439
-34.66237328 -34.75211398 0.4137386137
-28.55927328 -153.110924 -9.738627159e-05
28.31590772 -58.06587869 -88.00009739
-2.780608275 -73.7989776 -9.738627159e-05
30.24866472 -86.86435907 -9.738627159e-05
-1.831390275 -50.57287101 -88.00009739
15.81090772 1.186759332 -94.00009739
-14.36427628 -2.498792763e-05 -74.16257139
-27.99558328 -5.718372578 -88.00009739
-30.93429028 -207.8068172 -9.738627159e-05
-14.08621828 -54.90237418 -88.00009739
12.70712172 -2.498792763e-05 1.844896614
20.51734972 -59.86474728 -94.00009739
-40.39735228 -0.5000249879 -78.61023639
11.58915272 -2.498792763e-05 -46.20756139
-13.61109928 -87.65373116 -9.738627159e-05
-34.43648628 -2.498792763e-05 -86.27072739
-22.51989228 -11.22193371 1.024602614
-40.25016128 -80.89936006 -26.02850139
11.95671672 -22.76623287 -88.00009739
22.97733372 -31.56823779 -88.00009739
31.51987172 -2.498792763e-05 -57.66334239
34.29152172 -2.824637078 -94.00009739
-29.33537828 -17.66680293 -88.00009739
-9.017172275 -19.56296607 -9.738627159e-05
-40.25016128 -0.6090946079 -14.25424539
-40.25016128 -43.66728839 -20.75933939
-40.25016128 -52.92791284 -47.83402539
-4.579381275 -111.7010156 -9.738627159e-05
-23.59326428 -2.498792763e-05 -17.82631939
-40.25016128 -54.00893018 -24.67852839
30.08331372 -77.5612401 -9.738627159e-05
-4.548039275 -63.20095212 -9.738627159e-05
-15.59054228 -130.663842 -9.738627159e-05
5.449437725 -219.6153565 0.7522156137
10.98374972 -18.61229702 -9.738627159e-05
-15.45343128 -43.21330312 -88.00009739
24.85696572 -66.59204417 -88.00009739
-29.44916028 -170.7546916 -9.738627159e-05
-36.26585928 -60.14669823 -88.00009739
38.31381972 -2.498792763e-05 -11.02737639
36.00246272 -146.1467013 -9.738627159e-05
-27.19984228 -2.498792763e-05 -25.36607239
-13.53956228 -244.6474771 -9.738627159e-05
-29.72245128 -229.9865762 -9.738627159e-05
7.117017725 -62.81604235 -88.00009739
-34.13829328 -2.498792763e-05 -3.694032386
8.668323725 -235.9707728 -9.738627159e-05
-40.25016128 -30.47733475 -45.32637239
32.21232772 -18.86239832 -94.00009739
22.73533572 -2.498792763e-05 -47.56212239
-9.802303275 -161.5263497 -9.738627159e-05
-4.749135275 -56.88523199 -94.00009739
-40.25016128 -51.96469732 -4.805007386
33.11678372 -37.98572781 -88.00009739
-3.426963275 -176.8871207 -9.738627159e-05
-40.25016128 -15.62134298 -16.47713439
8.829267725 -5.111377958 -94.00009739
7.122626725 -37.73211547 -94.00009739
-15.95211228 -3.237318518 -88.00009739
-27.65674328 -145.3368626 -9.738627159e-05
35.17299772 -105.3955607 -9.738627159e-05
-25.33682528 -113.9501099 -9.738627159e-05
21.19970172 -2.173510448 -9.738627159e-05
-43.21833728 -72.57404573 -50.94137039
-35.23427628 -49.60759989 -94.00009739
8.589920725 -160.8315376 -9.738627159e-05
-22.86553628 -21.85059122 -88.00009739
-23.23671828 -67.13048584 -9.738627159e-05
11.75319972 -146.5993333 -9.738627159e-05
4.838297725 -84.08285245 -9.738627159e-05
15.36599372 -2.498792763e-05 -83.31380639
-30.70423928 -2.498792763e-05 -70.65152639
28.97765572 -8.215205578 -94.00009739
-19.62103428 -2.498792763e-05 -50.82543939
-15.89415228 -181.0896306 -9.738627159e-05
-10.34620228 -148.1027058 -9.738627159e-05
42.54420672 -49.49487733 -88.00009739
37.74983872 -89.31884713 0.2955816137
10.82583072 -213.9866335 -9.738627159e-05
-40.25016128 -16.40773243 -7.836791386
1.035672725 -20.21192752 -94.00009739
-7.580868275 -30.7378741 -94.00009739
22.21776572 -29.66661788 -9.738627159e-05
-40.25016128 -38.74209922 -67.53167239
27.62927372 -248.6310289 -9.738627159e-05
30.32114272 -61.98320086 -9.738627159e-05
16.90486472 -14.9435024 -94.00009739
6.575472725 -119.9976119 -9.738627159e-05
15.35270572 -36.96775692 -94.00009739
28.82330972 -2.498792763e-05 -74.43200539
9.553555725 -25.80567348 -9.738627159e-05
-30.32666928 -76.71260885 -9.738627159e-05
-37.15021828 -225.7470542 1.701226614
-40.25016128 -44.0970474 -35.43069439
-40.25016128 -6.651282188 -47.21101139
-25.57854928 -44.34264667 -88.00009739
-40.25016128 -23.95853939 -62.71208039
-39.24662128 -50.55448353 -88.00009739
-18.42947128 -116.2412141 -9.738627159e-05
33.64270072 -130.9816624 -9.738627159e-05
-6.293855275 -192.1364522 -9.738627159e-05
31.63761472 -49.99508036 -94.00009739
38.67393972 -26.21841256 -88.00009739
39.12665272 -66.91166568 -94.00009739
0.1493957247 -6.492113918 -9.738627159e-05
-34.97163128 -7.526043398 -88.00009739
42.79548372 -45.55483423 -94.00009739
-40.25016128 -86.74324426 -4.055686386
13.92852272 -104.9475792 -9.738627159e-05
37.74983872 -240.8229179 0.5897376137
-7.285889275 -206.6172307 -9.738627159e-05
-40.25016128 -25.23434268 -22.71367839
-20.96643928 -250.8438356 -9.738627159e-05
8.251552725 -15.35347073 -94.00009739
-5.199730275 -2.498792763e-05 -42.36731739
-40.25016128 -17.38944457 -44.37743939
26.20794672 -196.6352023 -9.738627159e-05
-40.25192528 -0.5000249879 -31.17725139
-40.25016128 -25.56760322 -72.41155539
-16.31042728 -12.48058962 -94.00009739
-31.20201728 -135.3234808 -9.738627159e-05
-31.99451328 -52.31389183 -88.00009739
-13.98425028 -218.3514256 -9.738627159e-05
-12.44298928 -123.0809924 -9.738627159e-05
-33.38998928 -33.23654265 -88.00009739
17.47476372 -58.06987916 -9.738627159e-05
-40.25016128 -76.95586988 -20.24089839
-34.58213428 -42.44210139 0.3855186137
-40.25016128 -5.705418428 -70.09459539
-42.58420828 -33.5785184 -85.00009739
-33.95019328 -2.498792763e-05 -39.33521639
-6.039573275 -47.25964433 -9.738627159e-05
18.31287672 -38.70735079 -88.00009739
-8.757978275 -40.30214607 -9.738627159e-05
-40.64153528 -26.48115232 -85.00009739
5.073804725 -31.51006381 -88.00009739
-37.29238928 -88.35207762 1.819952614
-40.21213228 -2.498792763e-05 -45.97523139
-21.20882428 -41.76519323 -9.738627159e-05
20.15067472 -228.6540138 -9.738627159e-05
-40.45068428 -15.21966197 -94.00009739
19.84054572 -118.0258736 -9.738627159e-05
-19.94905828 -198.6472529 -9.738627159e-05
-15.12452428 -32.40178809 -88.00009739
31.90432472 -121.21064 -9.738627159e-05
-14.61268228 -154.2817301 -9.738627159e-05
-40.25016128 -58.77398338 -64.63133139
-7.599872275 -185.1093765 -9.738627159e-05
28.13113372 -29.06007453 -94.00009739
-18.26445728 -137.984562 -9.738627159e-05
20.73036372 -145.2766767 -9.738627159e-05
24.81778172 -50.27214307 -9.738627159e-05
-12.41023628 -56.9626795 -94.00009739
-7.860485275 -199.5402409 -9.738627159e-05
-8.422064275 -10.0652607 -88.00009739
22.33997072 -66.22072425 -94.00009739
30.04502772 -2.498792763e-05 -9.288011386
31.06083072 2.088723302 -88.00009739
-15.52456028 -204.2257113 -9.738627159e-05
-5.003382275 -2.498792763e-05 -31.73200739
-34.00702128 -43.18823809 -94.00009739
-40.25016128 -65.97492817 -13.20905639
-40.25016128 -58.4168197 -2.534617386
15.88585572 -24.13621872 -94.00009739
23.59221472 -33.84453096 -94.00009739
42.97741172 -61.76198529 -94.00009739
-26.08546928 -63.78071891 -94.00009739
0.5851607247 -25.67470631 -88.00009739
-8.701389275 -213.1547357 -9.738627159e-05
9.032281725 -65.66370245 -9.738627159e-05
-27.72398928 -3.508796738 -94.00009739
18.18191072 -2.498792763e-05 -15.13325439
-3.071751275 -33.33663488 -88.00009739
-22.69506228 1.918016632 -88.00009739
21.88342572 -4.602642008 -94.00009739
31.34946872 -20.74833461 -88.00009739
-26.47157928 -41.04176094 -94.00009739
-40.25016128 -56.90350644 -14.34765139
29.89144972 -228.8316958 -9.738627159e-05
-29.47780828 -128.2178546 -9.738627159e-05
30.81855972 -9.014870838 -88.00009739
13.69737372 -239.8084891 -9.738627159e-05
-42.99959628 -62.56871429 -94.00009739
-29.71538328 -201.6037968 -9.738627159e-05
-35.77255028 -2.498792763e-05 -9.834663386
17.19538072 -177.5368239 -9.738627159e-05
-26.81407528 -2.498792763e-05 -39.02288339
3.884385725 -44.98517781 -9.738627159e-05
32.33935072 -53.2562952 -88.00009739
-6.981406275 -16.58830006 -94.00009739
7.632227725 -2.498792763e-05 -41.35827139
-40.25016128 -45.11430506 -49.90796639
33.86602572 -24.87216159 -94.00009739
-2.094807275 -2.498792763e-05 -20.63052739
42.12399372 0.2341461621 -94.00009739
39.41929772 -57.44596329 -88.00009739
23.51469872 -2.498792763e-05 -78.60626439
6.810345725 -2.498792763e-05 -9.449004386
33.14294472 -2.498792763e-05 -29.09864839
-40.25016128 -5.053783838 -61.43061439
18.35507472 -2.498792763e-05 -5.227790386
24.02478072 -64.36351849 -9.738627159e-05
-18.02900628 -227.8506319 -9.738627159e-05
-34.10109528 -25.55437395 -94.00009739
26.48552372 -16.63667148 -94.00009739
-41.41349928 -0.5000249879 -3.989080386
-14.69504328 -24.29786766 -9.738627159e-05
36.01185072 -32.40611208 -88.00009739
-40.25016128 -38.48594681 -59.39509639
-40.25016128 -50.19605264 -65.24403839
-17.52125228 -2.498792763e-05 -17.67595639
-40.25016128 -40.74159023 -76.52723239
37.88003672 -13.39935195 -88.00009739
-5.130349275 -33.1486399 -9.738627159e-05
-40.25016128 -7.175513038 -1.365276386
-40.25016128 -59.55547979 -39.75867839
-19.45258828 -34.3143058 -94.00009739
-40.25016128 -19.63594484 -2.557924386
-40.25016128 -92.79251099 -8.900350386
19.03613472 -64.8206012 -88.00009739
-40.25016128 -56.66934925 -30.46622239
-40.25016128 -46.02852882 -0.9390953863
-40.25016128 -42.73576781 -14.88454339
-40.25016128 -64.20618571 -46.85351839
-40.25016128 -39.87776894 -39.59304739
24.80989872 -24.84989475 -88.00009739
-1.334098275 -221.0977134 -9.738627159e-05
-0.5353952753 -68.00002403 -92.26918239
15.41701772 -64.6900198 -94.00009739
17.85176572 -22.28753497 -88.00009739
32.18383572 -188.5928007 -9.738627159e-05
-21.10838228 -156.4482981 -9.738627159e-05
-1.195801275 -61.58844648 -94.00009739
-6.395261275 -92.42848515 -9.738627159e-05
-21.73323828 -180.3781406 -9.738627159e-05
10.02845572 -68.00002403 -93.46896539
31.45402972 -2.498792763e-05 -35.85293439
13.88231772 -118.6172314 -9.738627159e-05
3.924335725 -15.12919537 -88.00009739
-16.05930928 -2.498792763e-05 -83.16870539
-31.94910128 -91.60647695 -9.738627159e-05
16.77786672 -3.125611548 -88.00009739
-40.25016128 -21.08258243 -18.59411539
-30.37846628 -219.8640764 -9.738627159e-05
13.73849772 -154.7831274 -9.738627159e-05
4.803723725 -42.7281727 -88.00009739
-40.25016128 -36.70664977 -17.18974039
13.43313272 -13.42943067 -9.738627159e-05
-40.25016128 -41.00839042 -29.48555739
-40.25016128 -69.69689771 -37.84292739
-34.62095628 -2.498792763e-05 -26.97094539
-40.25016128 -28.3633002 -13.50916239
18.61226972 -94.54362784 -9.738627159e-05
-25.05470328 -239.2312693 -9.738627159e-05
12.61243972 -134.7095789 -9.738627159e-05
-40.25016128 -6.120092768 -15.70388039
-10.76980928 -60.15233191 -9.738627159e-05
-17.34406928 -193.5835082 -9.738627159e-05
-40.25016128 -41.12811235 -83.34856539
9.319202725 -2.498792763e-05 -66.94534839
3.357762725 -233.9947055 -9.738627159e-05
-40.25016128 -39.41910074 -46.27321339
-9.031810275 -97.56372881 -9.738627159e-05
-20.60411428 -2.498792763e-05 -5.262417386
-40.25016128 -52.84054571 -18.27758239
-24.56971628 -120.5641748 -9.738627159e-05
-10.21871528 -132.4007955 -9.738627159e-05
-43.07391428 -0.5000249879 -70.80795639
-40.25016128 -56.31888308 -8.357594386
-40.25016128 -29.25093299 -58.64509339
-40.25016128 -52.28308341 -76.22198539
37.88959372 -18.30280434 -94.00009739
-40.25016128 -28.4002248 -38.23508639
-40.25016128 -31.18971112 -1.655873386
-14.60603528 -40.89362919 -94.00009739
30.11201472 -71.9737533 -9.738627159e-05
33.39946572 -246.8117511 -9.738627159e-05
-40.25016128 -5.449426988 -22.94473039
-26.66458228 -29.95404256 -9.738627159e-05
4.694036725 -24.37773088 -94.00009739
-43.21748728 -75.00104769 -45.96446539
20.73699572 -2.498792763e-05 -27.99021439
38.28709172 -6.610369288 -94.00009739
-2.462949275 -0.5000249879 0.1257436137
-40.25016128 -14.60452107 -60.05671039
30.37248472 -55.68716001 -9.738627159e-05
-40.25016128 -48.76151395 -56.45913139
-3.768514275 -21.05280627 -9.738627159e-05
-17.39681128 -8.485466338 -88.00009739
-40.25016128 -12.52416618 -68.86976539
-40.25016128 -39.30532813 -8.542139386
-32.61716328 -13.33849593 -88.00009739
1.101009725 -247.1092042 -9.738627159e-05
-37.70410528 -238.5562175 2.167470614
36.99351972 -2.498792763e-05 -84.24989639
-34.95458928 -19.9228762 0.5161766137
-40.25016128 -19.4475898 -36.29200539
-32.91544828 -53.50458425 0.07662261373
-40.25016128 -62.8140671 -53.94185839
-40.25016128 -15.57451375 -49.44297939
-20.00647428 -68.00002403 -89.66123139
0.4638937247 -55.70344103 -94.00009739
-0.3429982753 -86.86112357 -9.738627159e-05
-22.32060928 -145.2054036 -9.738627159e-05
-11.78994528 -68.00002403 -91.91177139
-9.229419275 -2.498792763e-05 -3.783245386
-40.25016128 -14.05282269 -36.95721539
-40.25016128 -100.5120915 -5.374607386
-13.93960728 -164.8581119 -9.738627159e-05
-40.25016128 -64.73821573 -22.90235839
40.29658872 -32.94487408 -94.00009739
14.58521972 -225.4571684 1.906779614
-40.25016128 -29.12514865 -68.49277039
-17.69592328 -2.498792763e-05 -29.96173639
4.621219725 -2.498792763e-05 -20.23434739
-34.68420528 -62.64614586 -94.00009739
-40.25016128 -69.14369063 -32.54581139
-23.36479228 -2.498792763e-05 -73.39110239
-17.63302128 -2.498792763e-05 -63.45664139
-40.25016128 -67.76206504 -7.497711386
-40.82957028 -108.491881 0.1117866137
-40.25016128 -20.18488547 -52.66309839
-13.22528928 -2.498792763e-05 -53.79846439
0.9210097247 0.8384009721 -88.00009739
16.18763972 -2.498792763e-05 -62.73923239
-40.25016128 -21.26224107 -84.85543539
-40.25016128 -48.1586692 -38.72289939
-40.25016128 -52.87370009 -53.23808839
-40.25016128 -28.8028532 -76.49004439
-22.60744328 -209.8048331 -9.738627159e-05
-11.07173528 -2.498792763e-05 1.750492614
-40.25016128 -35.57233984 -30.81341439
35.88251772 -2.498792763e-05 0.06974361373
-8.615156275 -60.48204581 -94.00009739
-40.25016128 -43.39761027 -69.77910139
-36.11081428 -67.71175479 -94.00009739
-40.25016128 -34.10979129 -56.65555139
-2.864560275 -2.498792763e-05 -53.36306339
-40.25016128 -35.73132378 -71.68324039
-40.47151128 -78.05684584 -40.24543139
27.68082172 -18.22232541 -9.738627159e-05
-6.032585275 -166.1582709 -9.738627159e-05
-40.25016128 -3.583334898 -10.11368539
9.399754725 -58.26639115 -88.00009739
41.58913372 -2.498792763e-05 -29.51940339
25.69679072 -235.8025391 -9.738627159e-05
-10.05317328 -4.409399388 -88.00009739
-18.01552728 -239.7847961 -9.738627159e-05
27.34271472 -59.78068624 -94.00009739
-31.16897128 -96.9327946 -9.738627159e-05
-40.25016128 -69.96470183 -22.30753239
15.26455672 -26.74750403 -88.00009739
-40.25016128 -58.86140045 -80.94797639
5.392251725 -191.240054 -9.738627159e-05
28.79968572 -67.13640076 -9.738627159e-05
-40.25016128 -91.48455243 -2.447314386
11.85384072 -229.1947471 -9.738627159e-05
-40.25016128 -8.445162868 -27.55401239
-40.25016128 -51.60317583 -81.82584339
-14.42920628 -49.91813121 -88.00009739
-40.25016128 -70.96120156 -13.39474639
-40.25016128 -6.640942048 -82.25965339
25.78403372 -2.498792763e-05 -34.09945539
-40.25016128 -35.5841239 -5.225933386
-40.25016128 -81.26801701 -15.25913539
-37.05458228 -246.7633035 1.621510614
-40.25016128 -35.18732488 -41.18141739
-40.38934928 -67.18779217 -63.49118839
-29.90586528 -66.20168321 -88.00009739
-34.93203228 -2.468379858 -94.00009739
-19.72641528 -25.65837236 -88.00009739
35.08833072 -23.61081658 0.9894896137
16.61674772 -44.16003906 -88.00009739
-23.51154428 -104.3879143 -9.738627159e-05
-40.25016128 -81.88191831 -20.30034739
-40.25016128 -80.16838117 -8.714772386
-40.25016128 -10.61293859 -74.03873539
-40.70306128 -46.96525358 -85.00009739
20.28765572 -45.19826702 -94.00009739
-40.25016128 -82.71800336 -31.40731239
-40.25016128 -9.557325898 -52.73043739
8.428366725 -103.2038057 -9.738627159e-05
-40.25016128 -11.56466482 -46.69919739
35.95849672 -63.23461198 -94.00009739
-40.25016128 -13.06951772 -82.98287339
7.342146725 -6.221525298 -88.00009739
16.20829872 -9.453779108 -9.738627159e-05
-6.816410275 -173.2170063 -9.738627159e-05
36.72339272 -184.7982081 -9.738627159e-05
24.64303772 -148.125475 -9.738627159e-05
-31.10328728 -38.23768993 -9.738627159e-05
-40.25016128 -10.97373444 -13.13301239
-1.079624275 -2.498792763e-05 -76.36618239
-40.25016128 -68.961296 -52.06928639
-40.25016128 -18.86372438 -76.75628239
7.545453725 -71.98381456 -9.738627159e-05
-40.25016128 -22.41984856 -8.238485386
-40.25016128 -3.574079338 -56.88818039
-31.75279228 -2.498792763e-05 -43.57374339
-31.94878928 -215.3561367 -9.738627159e-05
-4.606403275 -124.3792194 -9.738627159e-05
-35.05376128 -181.0862389 0.5467326137
22.17572372 -14.64212736 -94.00009739
-40.25016128 -103.1383088 0.2646816137
-40.25016128 -45.45791701 -5.632057386
-40.25016128 -39.51334974 -33.96699539
-40.25016128 -75.75718566 -35.91144039
40.03348172 -57.6051828 -94.00009739
34.55582872 -197.6169249 -9.738627159e-05
-14.04614528 -19.72863469 -88.00009739
-40.25016128 -36.44543654 -22.06799639
-40.18331728 -57.54967576 -88.00009739
-2.588833275 -14.9232209 -94.00009739
-40.25016128 -93.44743841 -13.54738439
-40.25016128 -73.82624151 -4.105035386
18.65018772 -2.498792763e-05 -79.96437539
-40.25016128 -45.1443787 -64.58843639
5.100580725 -45.60077628 -94.00009739
-28.98581928 -63.71132422 -9.738627159e-05
-40.25016128 -44.14660222 -55.29771939
-40.68467128 -30.04077561 -88.00009739
-29.52761428 -2.498792763e-05 -4.334178386
-30.51546228 -41.26125771 -88.00009739
-40.25016128 -65.09527474 -37.29556139
13.48910572 -64.40024734 -9.738627159e-05
-40.25016128 -61.14472318 -58.77763039
-40.25016128 -63.72144096 -41.77801939
-33.40464328 -2.498792763e-05 -57.64780639
-40.25016128 -76.93118465 -28.39209239
-40.25016128 -56.45107165 -60.64485039
-6.943111275 -65.83521998 -88.00009739
-40.25016128 -70.98373504 -47.79892739
-34.73199528 -68.00002403 -89.49279139
-40.25016128 -89.6550102 -16.72006239
-40.25016128 -64.77877846 -28.98831839
-40.25016128 -39.07207654 -54.52630439
5.461012725 -2.498792763e-05 -72.13133039
9.861569725 -49.42704796 -94.00009739
33.91967472 -75.0869082 -9.738627159e-05
2.319763725 -203.9754169 -9.738627159e-05
-40.25016128 -27.47320016 -48.76128439
37.25707772 -128.2030245 -9.738627159e-05
-40.25016128 -54.39459827 -66.99512739
-0.6553662753 -2.498792763e-05 -42.43202239
10.39297372 -208.0480222 -9.738627159e-05
-28.02379928 -2.498792763e-05 -16.83884839
9.629836725 -2.498792763e-05 -24.20946839
-20.38191428 -15.07403513 -9.738627159e-05
-40.25016128 -57.00742006 -75.35759039
-40.25016128 -19.93025585 -64.73686739
15.94179872 -17.17448016 -9.738627159e-05
36.96609372 -2.498792763e-05 -61.17734639
-34.09882628 -200.5878385 0.2205076137
-40.25016128 -58.30454306 -23.32522639
-10.97227628 -50.84694999 -9.738627159e-05
21.73168272 -53.78548135 -9.738627159e-05
28.22297272 -223.0168924 -9.738627159e-05
-40.25016128 -29.73503766 -33.94637639
-3.244888275 -52.9156678 -9.738627159e-05
-23.18602028 -2.498792763e-05 -22.99650339
-40.25016128 -49.02593216 -24.78717839
-40.25016128 -23.6941785 -34.93263139
11.01666172 -61.09348712 -94.00009739
-40.25016128 -1.988599508 -18.71651039
-40.25016128 -76.1500979 0.4569536137
-40.25016128 -15.15653499 -29.77178639
26.39590472 -2.498792763e-05 -24.71151639
-40.25016128 -21.43104666 -24.97035739
-2.398759275 -186.5048071 -9.738627159e-05
-12.17472928 1.430442752 -70.60253039
-40.25016128 -68.09383304 -3.095404386
-5.814423275 -2.498792763e-05 -6.882322386
-39.64633428 -42.61975516 -88.00009739
-40.25016128 -50.76739734 -35.18121239
-24.70400428 -35.32928135 -88.00009739
-40.25016128 -12.01470119 -18.98530439
-23.73006228 -74.98329783 -9.738627159e-05
-40.25016128 -30.99776011 -24.75692739
33.17190372 -45.36981905 -88.00009739
-36.90244428 -83.99909652 1.492753614
28.87376072 -191.4385819 -9.738627159e-05
13.10969772 -176.0135281 -9.738627159e-05
-25.03395728 -58.68036691 -9.738627159e-05
-23.75236928 -4.735071468 -88.00009739
-27.34697228 -205.2592123 -9.738627159e-05
-9.170620275 -39.65838322 -88.00009739
43.08376672 -55.10789346 -88.00009739
-9.241444275 -2.498792763e-05 -55.86599639
-17.70284728 -59.39214942 -9.738627159e-05
25.76663072 -54.55875043 -88.00009739
-28.68578628 -52.40974958 -9.738627159e-05
-33.23151928 -185.4843705 0.1105396137
-9.548191275 -2.498792763e-05 -19.16745239
24.79163072 -227.1547922 -9.738627159e-05
-25.92116428 -15.06769652 -88.00009739
36.06806372 -120.1871875 -9.738627159e-05
-16.26071828 1.010632362 -88.00009739
27.74957372 -12.58102116 -94.00009739
18.70671172 -216.6513136 -9.738627159e-05
37.74983872 -217.0137601 0.05718661373
12.76535372 -1.736601528 -88.00009739
37.74983872 -247.0711579 0.5354886137
-33.29765328 -63.67611334 -88.00009739
30.95798672 -251.230836 -9.738627159e-05
-31.97162228 -192.2601757 -9.738627159e-05
24.92001472 -2.498792763e-05 -43.95879339
6.780520725 -18.78467414 -9.738627159e-05
19.95211072 -209.7516869 -9.738627159e-05
-13.84100328 -227.7447038 -9.738627159e-05
25.32208572 -25.95844113 -94.00009739
-18.50800128 -90.6508669 -9.738627159e-05
35.91925772 -37.862592 -94.00009739
0.8526727247 -31.9339639 -88.00009739
-2.906858275 -9.739528858 -9.738627159e-05
-35.54252528 -35.46056731 -94.00009739
-12.54510828 -192.2693027 -9.738627159e-05
32.16893372 -147.7189052 -9.738627159e-05
-31.79052428 -2.498792763e-05 0.08624461373
7.812658725 -46.05411474 -88.00009739
-29.16876528 -33.17197343 -9.738627159e-05
-27.82539828 -141.2664889 -9.738627159e-05
18.69595672 -46.39800731 -9.738627159e-05
1.965320725 -223.4598567 -9.738627159e-05
16.74917272 -58.37128614 -94.00009739
-10.32724928 -2.498792763e-05 -47.99938039
6.584064725 -173.4365464 -9.738627159e-05
-3.912251275 -29.33771058 -9.738627159e-05
33.26193072 -84.25138761 -9.738627159e-05
25.85108172 -4.946620388 -94.00009739
-24.24029728 -248.5843723 -9.738627159e-05
-10.84026628 -2.498792763e-05 -76.00397139
14.15123072 -60.42532244 -9.738627159e-05
-13.37584528 -14.7700148 -88.00009739
0.2749607247 -13.58663466 -88.00009739
14.69701872 -3.971470998 -94.00009739
-8.310026275 -88.97119543 -9.738627159e-05
19.20366772 -63.58807408 -94.00009739
-35.09992428 -135.3721397 0.5640146137
-12.38341528 -184.4307994 -9.738627159e-05
34.45642372 0.1010946621 -88.00009739
-9.688037275 -51.84467427 -94.00009739
-9.805616275 -33.97728237 -94.00009739
-10.98575728 -22.95151082 -9.738627159e-05
36.77277972 -39.38838052 -88.00009739
-41.08622128 -66.41416528 -94.00009739
-13.96469328 -248.5340623 -9.738627159e-05
-28.68464928 -20.32447534 -9.738627159e-05
-16.41878128 -119.5721001 -9.738627159e-05
-7.957275275 -135.5651418 -9.738627159e-05
-10.64271928 -64.93363114 -94.00009739
-3.486536275 -2.498792763e-05 -57.19077439
37.74983872 -194.4337637 2.429939614
18.04666972 -247.5850911 -9.738627159e-05
7.418041725 -2.498792763e-05 -75.47605839
-12.71296928 -172.105763 -9.738627159e-05
1.479413725 -62.71543028 -88.00009739
-13.81371028 -214.387577 -9.738627159e-05
-33.31596728 -228.6458034 0.1194276137
-20.62109028 -30.66478771 -94.00009739
7.588226725 -2.498792763e-05 -82.69124639
5.679678725 -63.8146886 -9.738627159e-05
18.01870372 -127.2386856 -9.738627159e-05
-21.54099528 -237.7380965 -9.738627159e-05
9.695486725 -53.23553969 -94.00009739
11.96899372 -2.498792763e-05 -41.28076439
-25.06089128 -44.56096158 -94.00009739
40.44098172 -42.59981326 -94.00009739
34.71607772 -91.54441465 -9.738627159e-05
24.93937272 -81.78814306 -9.738627159e-05
3.067490725 -28.52882213 -9.738627159e-05
-32.72774528 -140.6604164 0.05283261373
-34.36530428 -49.40026058 -88.00009739
13.94748472 -200.0366573 -9.738627159e-05
-0.2621072753 -169.8841651 -9.738627159e-05
36.66661272 -2.498792763e-05 -25.60968139
16.04538172 -157.6939368 -9.738627159e-05
30.09852772 -185.5358636 -9.738627159e-05
-19.22521128 -2.498792763e-05 -34.03481339
24.90973972 -10.76614114 -9.738627159e-05
29.33123972 -116.6455524 -9.738627159e-05
35.04326072 -80.11963151 -9.738627159e-05
-2.684007275 -2.498792763e-05 -79.68456939
-12.60767028 0.5500648621 -88.00009739
-40.25016128 -2.161515828 -48.94844439
25.86714472 -30.10040405 -9.738627159e-05
-21.25370728 -2.498792763e-05 -85.23577539
-3.542485275 2.133406802 -73.37234839
-4.329331275 -108.0573398 -9.738627159e-05
-18.72673628 -2.498792763e-05 -21.24636139
12.22691972 -123.276121 -9.738627159e-05
26.93963372 -2.498792763e-05 -49.83378439
-31.27145128 -85.36437373 -9.738627159e-05
8.146143725 -149.399944 -9.738627159e-05
-21.50472428 -139.5902227 -9.738627159e-05
26.20192872 -71.63017218 -9.738627159e-05
-32.97838128 -2.498792763e-05 -83.01402639
-30.80419028 -2.498792763e-05 -7.665830386
19.32862672 -50.36925988 -88.00009739
-2.382207275 -77.33025258 -9.738627159e-05
13.48527272 1.738586452 -88.00009739
36.71025672 -85.94438737 -9.738627159e-05
-36.12111228 -42.62430232 -88.00009739
23.52713872 -61.68715215 -94.00009739
-8.405433275 -153.7974019 -9.738627159e-05
-42.42724028 -2.498792763e-05 -28.49918539
-19.43994328 -21.22199014 -88.00009739
11.68367772 -14.7755295 -94.00009739
22.05096572 -94.2300355 -9.738627159e-05
-9.041260275 -68.00002403 -89.67802139
12.79029272 -204.3060952 -9.738627159e-05
-27.05286028 -47.45403692 -88.00009739
22.16785872 -187.5317942 -9.738627159e-05
-20.93795728 -193.9793334 -9.738627159e-05
8.436513725 -30.92465202 -88.00009739
28.98625272 -94.37957224 -9.738627159e-05
1.398919725 -2.498792763e-05 -21.34792039
10.38103872 -240.5053981 -9.738627159e-05
18.48588472 -41.36857842 -94.00009739
-25.84223428 -151.1051277 -9.738627159e-05
-8.824308275 -45.36263623 -9.738627159e-05
11.35088272 -2.467770668 -9.738627159e-05
33.49884972 -26.51180147 -88.00009739
39.13402672 -2.498792763e-05 -33.61317539
-24.20125028 -13.59894249 -94.00009739
0.1113657247 -69.09838201 -9.738627159e-05
-18.82843128 -52.64806877 -88.00009739
-17.88984828 -41.89455632 -9.738627159e-05
-28.20608728 -125.1507722 -9.738627159e-05
-25.70075428 -2.498792763e-05 -28.30806439
24.38856072 -143.3127694 -9.738627159e-05
-17.32210928 -2.498792763e-05 -66.73210839
10.33326972 -2.498792763e-05 -9.296827386
30.75719172 -2.498792763e-05 -22.87672839
21.77693172 -217.7868644 -9.738627159e-05
-39.30041428 -2.498792763e-05 -34.26014139
-6.836741275 -132.3643858 -9.738627159e-05
26.21480572 -68.00002403 -90.60150639
9.360659725 -95.40177399 -9.738627159e-05
-20.90225628 -2.498792763e-05 -75.49932639
7.759685725 -2.498792763e-05 -69.77890939
23.80747172 -4.064002608 0.1153236137
24.92380672 -1.869987448 -94.00009739
-40.25016128 -0.7287733579 -42.84875839
-34.96282628 -2.498792763e-05 -0.3661043863
-25.25809128 -2.498792763e-05 -36.22518039
19.15251072 -232.9035498 -9.738627159e-05
-15.63801728 -2.498792763e-05 -12.54492039
5.332499725 -155.2481325 -9.738627159e-05
-12.26727528 -2.498792763e-05 -40.01248539
25.90238772 -7.022053568 -88.00009739
-12.39489628 -61.91427953 -94.00009739
25.94361572 -46.99800116 -88.00009739
-11.59700028 -120.0914908 -9.738627159e-05
-27.84368328 -161.7903154 -9.738627159e-05
10.52535672 -153.7108332 -9.738627159e-05
13.09230272 -2.498792763e-05 -85.38571239
-27.01193428 -191.6803816 -9.738627159e-05
10.97962172 -2.498792763e-05 -49.21311539
35.45344072 -141.1591648 -9.738627159e-05
-3.638438275 -156.9550987 -9.738627159e-05
39.22679472 -54.66178522 -94.00009739
0.08266472468 -218.3953339 -9.738627159e-05
9.506537725 -182.8645474 -9.738627159e-05
8.220390725 -55.8949202 -94.00009739
-19.50687628 -245.9773671 -9.738627159e-05
-15.01694228 -240.1905445 -9.738627159e-05
-21.94253028 -190.9075785 -9.738627159e-05
2.698368725 -63.39840721 -9.738627159e-05
11.46224172 -116.8322017 -9.738627159e-05
-32.60557028 -203.1882517 0.03722061373
-1.901121275 -23.39998416 -9.738627159e-05
-12.86376228 -146.4834947 -9.738627159e-05
-2.250164275 -94.62822459 -9.738627159e-05
-3.656689275 -49.97524641 -9.738627159e-05
20.46793372 -2.498792763e-05 -24.12141939
6.497411725 -2.498792763e-05 -17.94120739
-3.732159275 -249.9525292 -9.738627159e-05
18.75025572 -2.498792763e-05 -71.48512939
10.98157872 -2.498792763e-05 -64.38925939
-28.71824928 -131.0490446 -9.738627159e-05
-17.06847328 -53.74528498 -9.738627159e-05
-25.11840328 -2.498792763e-05 -80.61905039
-9.702069275 -173.0504607 -9.738627159e-05
-19.02129028 -3.328183728 1.173541614
-42.33118928 -1.310803738 -94.00009739
-30.64057528 -232.7020272 -9.738627159e-05
-1.998945275 -130.9772477 -9.738627159e-05
-37.26948128 -2.498792763e-05 -86.06421839
28.47323372 -100.5839995 -9.738627159e-05
-13.23417228 -2.498792763e-05 -83.18273339
-2.033853275 -204.8494769 -9.738627159e-05
-22.02243328 -2.498792763e-05 -20.43133239
-33.41660928 -47.49129688 -94.00009739
-23.36912028 -245.9628238 -9.738627159e-05
-16.48178728 -48.07532307 -88.00009739
40.84614672 -64.75973135 -94.00009739
21.05148272 -38.90533476 -88.00009739
-18.42856428 -30.34962728 -9.738627159e-05
39.34951872 -9.121073778 -94.00009739
-28.92942228 -35.88733748 -9.738627159e-05
-11.72719928 -34.43374826 -88.00009739
-24.64074928 -39.54061099 -9.738627159e-05
37.74983872 -126.2024564 2.404160614
-22.12478628 -200.2473407 -9.738627159e-05
5.276070725 -0.5000249879 1.180230614
2.453934725 -206.6642788 -9.738627159e-05
-28.34083228 -60.27474745 -9.738627159e-05
-39.09817128 -9.893931028 -88.00009739
-0.8967182753 -2.498792763e-05 -85.57225339
27.93168272 -110.6116834 -9.738627159e-05
2.785080725 -12.66043422 -88.00009739
21.08213672 -34.76408566 -94.00009739
-16.21715528 -57.19301179 -9.738627159e-05
0.3984157247 -35.60932823 -88.00009739
-6.890376275 -12.22663267 -88.00009739
36.85390272 -244.6387419 -9.738627159e-05
-32.30682428 -78.44987732 0.005494613728
3.608368725 -246.3159893 -9.738627159e-05
-19.82964828 -2.498792763e-05 -62.03597639
-5.898047275 -55.58277683 -9.738627159e-05
-41.08154828 -34.95274596 -94.00009739
-27.85467028 -2.498792763e-05 -6.959737386
15.83647872 -20.65061381 -88.00009739
-18.11921428 -29.97564357 -94.00009739
-23.53713828 -63.29340531 -94.00009739
27.81361972 -2.498792763e-05 -35.71489539
-33.70503928 -97.34989948 0.1676516137
32.41560872 -137.735909 -9.738627159e-05
36.91123372 -2.498792763e-05 -73.28786539
-1.097702275 -54.33095574 -9.738627159e-05
-37.94326928 -2.498792763e-05 -43.70929539
30.23123372 -64.54899944 -9.738627159e-05
33.15661472 -128.4640147 -9.738627159e-05
-42.74665228 -2.498792763e-05 -68.31594539
9.190355725 -63.13020987 -9.738627159e-05
1.230036725 -2.498792763e-05 -38.13323639
-6.662543275 -80.51495162 -9.738627159e-05
30.88395372 -247.0833807 -9.738627159e-05
31.24381872 -21.5519793 -9.738627159e-05
0.9719987247 -2.498792763e-05 0.04643761373
-29.00269228 -103.2538681 -9.738627159e-05
11.06836172 -160.4788928 -9.738627159e-05
-28.42428728 -2.498792763e-05 -71.68007939
26.97042872 -115.8438192 -9.738627159e-05
-0.3155472753 -38.39282124 -88.00009739
4.921879725 -207.5366783 -9.738627159e-05
10.77467572 -2.498792763e-05 -26.40516539
27.07641172 -167.0238001 -9.738627159e-05
-36.43621228 -41.04374528 1.217902614
-16.14194128 -2.498792763e-05 -28.05354339
-16.43081028 -218.4773476 -9.738627159e-05
36.86073172 -224.8147939 -9.738627159e-05
-33.48544628 -9.461512508 -88.00009739
-28.56853228 -2.498792763e-05 -40.71511939
37.74983872 -130.1862966 1.306207614
12.87372272 -215.21561 -9.738627159e-05
28.20610372 -5.344075598 -94.00009739
-39.33387028 -17.32827546 -94.00009739
-30.43136528 -2.498792763e-05 -52.82878839
-31.23184028 -34.32016691 -9.738627159e-05
-29.28986328 -68.00002403 -93.81321339
-15.85378628 -88.37792927 -9.738627159e-05
13.59082372 -17.23565033 -9.738627159e-05
-7.523085275 -28.38742172 -94.00009739
37.44061872 -69.71145015 -9.738627159e-05
12.23254872 -57.24290106 -9.738627159e-05
-4.027745275 -9.009338578 -94.00009739
-37.00693128 -81.66899243 1.579661614
-8.245579275 -2.498792763e-05 -49.27207439
-15.58673728 -243.5370799 -9.738627159e-05
-26.37596028 -153.8552429 -9.738627159e-05
38.35375072 -31.72536624 -94.00009739
31.11187572 -47.85092508 -88.00009739
-12.00995528 -166.0820714 -9.738627159e-05
-16.88083728 -13.88501591 -88.00009739
-35.26916228 -68.00002403 -91.92760239
-18.13184028 -2.498792763e-05 -87.26039039
-41.48954228 -50.56940765 -88.00009739
-17.83046928 -72.35615195 -9.738627159e-05
-3.441859275 -220.4438045 -9.738627159e-05
41.37944372 -23.61271867 -94.00009739
25.04391972 -60.10471607 -94.00009739
30.51847272 -29.41989568 -88.00009739
9.584057725 -17.07685605 -94.00009739
26.96379172 -227.1218569 -9.738627159e-05
1.954135725 -244.9101655 -9.738627159e-05
-11.41921228 -6.091798628 -88.00009739
25.22436172 -165.6657973 -9.738627159e-05
35.33935672 -247.7343217 -9.738627159e-05
13.13542172 -26.88770014 -88.00009739
8.918885725 -2.983719468 -94.00009739
-31.02418728 -58.99342783 -9.738627159e-05
4.507328725 -47.0165037 -9.738627159e-05
11.31676772 -209.9411553 -9.738627159e-05
-41.69161228 -2.498792763e-05 -44.48284439
22.68955272 -144.5434798 -9.738627159e-05
25.62950872 -64.66005512 -88.00009739
-16.31582928 -9.232446798 -9.738627159e-05
-24.68765128 -2.498792763e-05 -78.59253439
7.390925725 -155.050217 -9.738627159e-05
26.12055572 -2.498792763e-05 -40.66511539
-40.67434628 -2.498792763e-05 -18.48744739
-40.90841728 -20.76703246 -94.00009739
32.53801272 -213.7771745 -9.738627159e-05
-8.482350275 -168.0734102 -9.738627159e-05
22.05050372 -2.498792763e-05 -22.91360739
-19.59670328 -94.12061891 -9.738627159e-05
-23.90596928 -190.6216362 -9.738627159e-05
14.35222372 -2.498792763e-05 -6.612601386
-28.00087228 -85.65616067 -9.738627159e-05
27.43381672 -68.53563503 -9.738627159e-05
-19.03778628 -16.38215295 -88.00009739
-10.85448028 -183.2302576 -9.738627159e-05
23.06130472 -11.31791352 -9.738627159e-05
33.34726072 -2.498792763e-05 -42.67841639
20.36020572 -151.7082471 -9.738627159e-05
37.74983872 -96.41800778 1.176297614
-8.435098275 -148.1630567 -9.738627159e-05
-6.072566275 -135.8857615 -9.738627159e-05
-2.793588275 -35.22321056 -88.00009739
17.27157572 -24.0891495 -88.00009739
-34.30572028 -43.12602367 -88.00009739
11.78061372 -31.7721703 -88.00009739
13.96251572 -0.05546895793 -88.00009739
3.950618725 -64.76805465 -9.738627159e-05
-16.45467728 -24.85550706 -9.738627159e-05
-24.02910728 -208.689969 -9.738627159e-05
16.01766772 -2.498792763e-05 -53.33672539
34.29426172 -32.9042583 -88.00009739
-19.81228028 -109.7707947 -9.738627159e-05
2.539455725 -43.84307806 -9.738627159e-05
21.66731272 -210.1460073 -9.738627159e-05
-35.04016028 -40.22069723 0.5455506137
23.84760172 -30.07504419 -88.00009739
5.156587725 -189.5322051 -9.738627159e-05
-35.12483328 -96.30999383 0.5737036137
-23.41350628 -34.20652921 -88.00009739
-24.96152728 -12.07380373 -94.00009739
35.55254872 -43.45988599 -94.00009739
-17.43702928 -88.93787058 -9.738627159e-05
21.22647372 -95.68880288 -9.738627159e-05
14.65402772 -18.52612223 -9.738627159e-05
-18.99487428 -193.33677 -9.738627159e-05
-15.70276128 -219.9752903 -9.738627159e-05
41.79889272 -50.98343865 -88.00009739
-39.60763928 -2.498792763e-05 -54.30613939
-5.293953275 -249.4251521 -9.738627159e-05
19.19491772 -2.498792763e-05 -23.08389339
37.74983872 -216.3295024 1.546812614
-39.49433028 -2.498792763e-05 -44.50435539
-42.64191328 -34.49602083 -94.00009739
-4.452252275 -2.498792763e-05 -53.01483139
25.40801272 -28.54408805 -9.738627159e-05
-34.50330828 -34.41377058 -88.00009739
40.83988372 -58.16926671 -88.00009739
-22.50585828 -2.498792763e-05 -69.71320539
-7.754785275 -68.00002403 -91.14803639
12.43901772 0.3534484821 -88.00009739
1.333052725 -59.8981235 -88.00009739
36.03830772 -40.47788078 -94.00009739
32.78610772 -20.12730768 -88.00009739
30.20580972 -2.498792763e-05 0.9310916137
-15.95913328 -64.01117403 -9.738627159e-05
-9.639603275 -41.54891128 -9.738627159e-05
26.97583372 -2.498792763e-05 -83.17873739
-41.23647628 -22.24602522 -94.00009739
-35.68009328 -50.12533014 -88.00009739
29.05660672 -2.498792763e-05 -8.158139386
19.35525372 -234.3748633 -9.738627159e-05
17.24433172 0.8054703921 -94.00009739
-34.26449028 -193.9911708 0.2707366137
-17.54616828 -118.6410265 -9.738627159e-05
-3.376099275 -204.2908852 -9.738627159e-05
37.74983872 -242.2478182 0.7963416137
17.49805472 -150.3957141 -9.738627159e-05
-14.66418228 -181.8250695 -9.738627159e-05
-25.50720828 -152.4940687 -9.738627159e-05
37.93050972 -9.098240268 -94.00009739
4.458797725 -2.498792763e-05 -71.12863239
13.91675472 -120.0330931 -9.738627159e-05
24.69768172 -5.718546078 -94.00009739
-36.52929528 -224.585682 1.269460614
-6.586687275 -101.227815 -9.738627159e-05
-26.90552828 -2.498792763e-05 0.3411336137
8.435912725 -63.07462579 -88.00009739
-15.16863128 -247.9534588 -9.738627159e-05
-29.26670328 -169.4442651 -9.738627159e-05
-6.348192275 -2.498792763e-05 -11.42470239
-32.77303028 -34.38701816 -88.00009739
-34.19371828 -53.30499504 0.2495816137
19.74991372 -2.498792763e-05 -72.31829139
-2.910703275 -131.8888907 -9.738627159e-05
-6.084622275 -167.4345976 -9.738627159e-05
3.680017725 -243.8198962 -9.738627159e-05
-3.965067275 -109.2693994 -9.738627159e-05
18.13775672 -15.14749361 -94.00009739
-19.07276328 -28.23254583 -94.00009739
3.804558725 -126.9784496 -9.738627159e-05
37.74983872 -39.00221973 0.2178656137
30.38793772 -21.47504914 -88.00009739
37.74983872 -68.68856761 0.5072296137
-27.97694128 -2.498792763e-05 -39.22334439
-26.54915228 -3.466576568 -94.00009739
-2.594088275 -10.8676206 -9.738627159e-05
-40.51113228 -2.498792763e-05 -38.81901939
-9.751673275 -60.34870171 -94.00009739
-2.066707275 -2.498792763e-05 -54.17110839
-13.86200528 -153.4437946 -9.738627159e-05
19.23348072 -2.498792763e-05 -21.42010639
-3.591317275 -2.498792763e-05 -58.30378039
25.67965772 -6.249912078 -94.00009739
24.27415872 -9.850205108 -9.738627159e-05
-17.94853428 -14.15138705 -88.00009739
-40.43784028 -2.498792763e-05 -15.14137239
-25.87688828 -41.95788916 -94.00009739
-2.937824275 -23.06406192 -9.738627159e-05
33.98059472 -2.498792763e-05 -28.40561139
-34.51314628 -33.6774607 0.3616456137
-39.74056728 -2.498792763e-05 -43.45819739
-43.12595028 -63.56841841 -94.00009739
26.89139172 -2.498792763e-05 -35.80942339
12.48271572 -2.498792763e-05 -30.03914039
33.11321872 -2.498792763e-05 -28.12083739
27.74228272 -4.574215308 -94.00009739
