# .PCD v0.7 - Point Cloud Data file format
VERSION 0.7
FIELDS x y z
SIZE 4 4 4
TYPE F F F
COUNT 1 1 1
WIDTH 1185
HEIGHT 1
VIEWPOINT 0 0 0 1 0 0 0
POINTS 1185
DATA ascii
-2.906692316e-06 -44.33517261 9.656216647
214.4262101 -2.461375379e-05 -86.71716635
34.36753009 -8.472159614 -105.8869574
155.1236431 2.269467386 94.11304265
80.82743209 -2.461375379e-05 -38.44562935
237.7459601 -2.461375379e-05 -102.7320444
-2.223358907 -44.71874161 -104.8869574
77.58204409 -2.461375379e-05 85.75477765
111.7083391 1.000306386 -105.8869574
131.1416451 -2.461375379e-05 -28.22138635
-2.906692316e-06 -24.42966161 -75.95592635
-2.906692316e-06 -66.68978561 68.65903165
79.92814909 -2.461375379e-05 -58.20843835
199.6816541 -2.461375379e-05 73.94915665
100.1283721 -2.461375379e-05 -26.17484935
120.9728371 -2.461375379e-05 -23.40557435
199.8545251 -2.461375379e-05 -96.25499135
174.6203191 1.420566386 94.11304265
69.06837609 -2.461375379e-05 48.95816565
40.14527909 -2.461375379e-05 -24.84155235
225.8550271 -2.461375379e-05 -61.28901435
127.2171541 -65.07510461 -111.8869574
182.3523411 -57.18614161 -105.8869574
61.18485309 -26.36750161 -105.8869574
60.07908109 -2.461375379e-05 20.45278965
-0.5086309067 -25.50002461 -47.23179935
248.4811371 -2.461375379e-05 -98.57222735
46.67553909 0.8092633862 -105.8869574
57.93633109 -42.03843161 -105.8869574
67.91859509 -2.461375379e-05 0.5106126468
248.9341351 -2.461375379e-05 -44.69215735
25.84464709 -41.31078761 -105.8869574
45.69889109 -39.91081161 -105.8869574
182.9638431 -2.461375379e-05 74.44311965
156.0727411 -2.461375379e-05 57.20920965
52.86114109 -2.461375379e-05 66.19847365
195.5133311 -2.461375379e-05 8.859267647
229.6593901 -26.72852161 -105.8869574
16.66023609 -2.461375379e-05 50.88210965
233.8066771 -2.461375379e-05 -80.45144435
9.580393093 -10.70976661 -105.8869574
166.7472441 -14.87007861 -111.8869574
-0.8199849067 -2.461375379e-05 -49.51172735
155.1054031 -47.43339261 -105.8869574
31.76598609 -2.461375379e-05 -82.83909835
-2.906692316e-06 -48.60986761 31.43844765
236.3688311 -2.461375379e-05 81.65683465
201.0265361 -26.88429161 -105.8869574
207.0988371 -2.461375379e-05 10.54859365
168.1048191 -2.461375379e-05 51.25283865
131.6150961 -2.461375379e-05 66.47134865
146.3679871 -2.461375379e-05 38.86973365
160.8900671 -2.461375379e-05 -54.09447435
216.8369801 -56.08139761 -105.8869574
220.5559181 1.932333386 -105.8869574
76.16267509 -43.65064961 -105.8869574
41.10530209 -27.92394361 -111.8869574
184.3919061 -2.829604614 -111.8869574
240.2941661 -66.85853461 -111.8869574
107.2531641 -2.461375379e-05 -80.18899835
205.1457481 -2.461375379e-05 -18.43298935
136.4797071 -56.19264861 -111.8869574
138.9801701 -28.02516461 -111.8869574
74.62915309 -2.461375379e-05 -67.02821835
120.9663041 -2.461375379e-05 36.56431665
53.14055609 -2.461375379e-05 -33.33423335
143.7446431 -2.461375379e-05 -45.17643835
161.5189581 -2.461375379e-05 2.173867647
15.38644409 -39.04991961 -105.8869574
226.8891011 -54.49448961 -105.8869574
185.1924281 -2.461375379e-05 -23.17252135
200.1011371 -2.461375379e-05 85.57257165
197.8351511 -2.461375379e-05 -56.94263735
-2.906692316e-06 -5.589146614 25.63269165
61.94652409 -58.45119261 -111.8869574
87.44922409 -2.461375379e-05 -76.39710835
184.3714411 -2.461375379e-05 5.977500647
-2.906692316e-06 -14.55542261 39.81648365
231.6166131 -2.461375379e-05 69.87258165
-2.906692316e-06 -54.10937061 13.49411665
42.77948609 -2.461375379e-05 80.89707265
-2.906692316e-06 -7.074515614 -72.76766735
176.1790761 -28.63435661 -111.8869574
0.03870809331 -2.461375379e-05 6.277033647
165.4602271 -2.461375379e-05 -100.2517364
230.6613981 -2.461375379e-05 13.22210065
211.3799971 -2.461375379e-05 83.43167765
-2.906692316e-06 -38.92063461 35.92340665
47.08908609 -59.89011461 -111.8869574
63.39928609 -2.461375379e-05 -47.71361035
96.76717209 -43.34302861 -105.8869574
138.4839991 -13.64993061 -105.8869574
22.38589009 -21.83824761 -111.8869574
202.1209441 -57.36984961 -105.8869574
69.84792009 -30.22356061 -111.8869574
134.3725211 -2.461375379e-05 -69.06762135
32.54090009 -2.461375379e-05 31.21630165
147.2811931 -2.461375379e-05 -92.43328335
129.8912141 -2.461375379e-05 -87.23739035
237.4171521 -2.461375379e-05 41.35356265
41.55249709 -2.461375379e-05 9.659535647
162.7645111 -2.461375379e-05 -74.85004135
-1.646682907 -2.461375379e-05 82.57419165
30.05889209 -56.87078761 -111.8869574
47.54161509 -2.461375379e-05 -65.54505935
205.6498611 -44.62787761 -105.8869574
147.2850481 -29.03006261 -105.8869574
33.85113709 -2.461375379e-05 91.30137265
147.5377301 -2.461375379e-05 -12.33662635
72.76022409 -2.461375379e-05 40.11357965
128.5313331 -44.44023961 -105.8869574
173.2442941 -44.50770361 -111.8869574
166.9951401 -2.461375379e-05 -8.053393353
240.3656301 -46.66071461 -111.8869574
-2.906692316e-06 -14.29849161 -59.31557135
-2.906692316e-06 -57.98114861 35.53274465
185.7935001 -2.461375379e-05 -74.06038635
89.18485709 -30.01325861 -105.8869574
161.9740161 -2.461375379e-05 64.58668265
251.3353501 -2.461375379e-05 43.52780565
45.02960809 -21.65808161 -105.8869574
134.4442391 -2.461375379e-05 -43.12810135
219.5648151 -2.461375379e-05 88.07768665
248.2002721 -2.461375379e-05 80.45065865
211.2664421 -8.978037614 -105.8869574
45.10326809 -51.82554161 -105.8869574
161.7175391 -52.14329461 -111.8869574
62.80365109 -2.461375379e-05 39.66478365
76.77558209 -65.36805761 -105.8869574
114.3838311 -55.23922661 -105.8869574
160.2072231 -11.98469861 -105.8869574
-1.167884907 -1.000024614 -39.57012135
-2.906692316e-06 -59.70217261 45.08170665
135.5014951 -2.461375379e-05 39.05983665
13.54011509 -51.78623461 -105.8869574
103.9516771 -2.461375379e-05 -8.711649353
194.6548351 -36.75329461 -111.8869574
-2.906692316e-06 -22.61731661 5.217320647
147.3563201 -2.461375379e-05 7.482678647
192.7328491 -20.11871661 -105.8869574
211.0701891 -37.10526561 -105.8869574
168.6986051 -2.461375379e-05 28.58968665
144.4275491 -2.461375379e-05 47.91532865
2.045237093 -27.26291261 -111.8869574
114.1315761 -2.461375379e-05 -7.080812353
151.4225701 -2.461375379e-05 22.43587365
104.5792191 -20.94337861 -105.8869574
141.5472641 -49.61524261 -105.8869574
73.13565209 -23.92889961 -105.8869574
-2.906692316e-06 -44.11774561 75.15379565
0.6134520933 -2.461375379e-05 69.60428865
216.1786671 -68.00002461 -110.7164564
87.39868409 -2.461375379e-05 -15.14211235
-2.906692316e-06 -24.37322561 45.96017465
-2.906692316e-06 -41.59001561 -94.54247435
-2.906692316e-06 -6.542894614 114.2850536
11.22127309 -2.461375379e-05 -84.90994435
78.49257309 -0.4831866138 -105.8869574
-2.906692316e-06 -13.26906261 83.95712865
134.0032211 -2.461375379e-05 56.14937065
100.7286791 -2.461375379e-05 -96.73414835
142.0383111 -61.57557861 -105.8869574
129.4960721 -2.461375379e-05 82.93651665
95.25853309 -2.461375379e-05 -5.348149353
78.43251009 -2.461375379e-05 74.76540865
-1.575708907 -53.55656761 -105.8869574
234.8479211 -13.75544061 -111.8869574
247.0134111 -2.461375379e-05 -10.81612335
191.3438251 -2.461375379e-05 58.44161365
31.18768309 -2.461375379e-05 -1.673795353
-1.483904907 -8.845959614 -111.8869574
84.98351409 -2.461375379e-05 34.32811365
-2.906692316e-06 -11.87487061 0.2063376468
159.9039301 -2.461375379e-05 -39.82483735
7.729474093 -31.94921861 -105.8869574
16.31677709 -2.461375379e-05 -42.88940635
5.267970093 -2.461375379e-05 41.62992365
122.0979661 -60.98263361 -105.8869574
218.9917031 -2.461375379e-05 63.54115265
239.0482051 -2.461375379e-05 56.70438465
59.34353109 -2.461375379e-05 30.29962865
12.56414009 -2.461375379e-05 -34.50281735
243.7451131 -19.34112061 -105.8869574
247.7388721 -5.495581614 -111.8869574
156.3723341 -64.41899861 -111.8869574
213.2098671 -2.461375379e-05 -49.86275135
37.35715709 -2.461375379e-05 -103.3821204
5.984347093 -2.461375379e-05 -10.29840635
59.55197909 -68.00002461 -111.2352324
34.71683509 -28.05108261 -105.8869574
113.3829301 -2.461375379e-05 48.21052865
113.5687321 -2.461375379e-05 59.96075965
120.4277271 1.701585386 -105.8869574
44.72193809 -2.461375379e-05 41.25481865
227.8703291 -2.461375379e-05 -88.67931535
42.67552509 -2.461375379e-05 -80.45058735
-2.906692316e-06 -27.81850861 21.22719665
196.0949841 -2.461375379e-05 24.04722265
146.9914741 -2.461375379e-05 91.97660265
121.2303251 -2.461375379e-05 78.66736965
31.73614009 -2.461375379e-05 -74.15346635
33.52683909 -2.461375379e-05 76.62038865
87.71150309 -9.420184614 -105.8869574
222.0308361 -2.461375379e-05 31.30852665
49.65305509 -2.461375379e-05 -13.47445535
244.6192441 -2.461375379e-05 36.42802565
64.87162509 -2.461375379e-05 -32.32550035
171.6328981 0.8936503862 -71.64074335
-2.906692316e-06 -22.21515461 54.27310665
-2.906692316e-06 -20.51316461 29.54711365
13.21811709 2.407541386 -111.8869574
190.1536231 -2.461375379e-05 -13.30942435
225.3552071 -2.461375379e-05 5.658086647
221.3591321 -51.95489861 -111.8869574
145.5670021 -7.336646614 -111.8869574
208.5034601 -2.461375379e-05 -94.89945535
239.1920951 -2.461375379e-05 10.21665365
186.8787701 -38.61611661 -105.8869574
125.1786451 -2.461375379e-05 53.47736365
122.3351511 -20.21053761 -111.8869574
182.8513371 -20.04582661 -111.8869574
33.86885509 -44.47264561 -111.8869574
68.91323109 -2.461375379e-05 23.09779365
180.8555171 -2.461375379e-05 45.60141065
43.49658809 -2.461375379e-05 -50.09572235
47.53272309 -66.61999761 -105.8869574
227.9224481 -2.461375379e-05 -45.06333835
248.7390971 -59.70243761 -105.8869574
219.9153581 -2.461375379e-05 41.88818365
9.179264093 -2.461375379e-05 -22.66067235
65.10393209 -2.461375379e-05 66.84868365
192.2598751 -53.12757461 -111.8869574
0.3014440933 -35.97389561 -105.8869574
84.31435709 -14.54613761 -111.8869574
134.2045941 -20.91777561 -105.8869574
11.26240609 -18.96227461 -105.8869574
-2.906692316e-06 -60.34984561 87.22447365
63.63296609 -2.461375379e-05 -68.78124735
198.4838041 -18.28606561 -111.8869574
243.0729091 -2.461375379e-05 64.16255865
14.59059509 -2.461375379e-05 -75.59923135
90.68021909 -24.34612361 -111.8869574
168.3974821 -2.461375379e-05 12.60400365
220.8556831 -14.98328261 -105.8869574
16.29488509 -14.51613461 -111.8869574
97.47632709 -2.461375379e-05 -58.57147735
63.22998909 0.1255273862 -105.8869574
81.82836909 -2.461375379e-05 24.55892065
-2.906692316e-06 -8.161001614 -13.21245635
182.7186011 -2.461375379e-05 -89.72542235
55.88490609 -2.461375379e-05 -65.73925135
200.1564471 0.6458273862 -105.8869574
-2.906692316e-06 -22.18453161 106.5177606
36.56632109 -2.461375379e-05 -43.48801235
54.89912909 -2.461375379e-05 45.93330265
243.6976121 -2.461375379e-05 3.248654647
169.9316131 -35.33740261 -111.8869574
46.64816409 -2.461375379e-05 33.19892865
3.945221093 -59.72873261 -105.8869574
-2.906692316e-06 -37.88652661 16.46007965
180.3685891 -39.76780261 -111.8869574
231.4927561 -59.96872061 -111.8869574
-2.906692316e-06 -8.062967614 16.23577265
152.1851401 -22.32710661 -111.8869574
175.9411571 -14.50607961 -111.8869574
178.4596571 1.835115386 -77.28808035
182.8082641 2.020712386 94.11304265
97.60518109 -2.461375379e-05 89.96343665
192.5044391 -2.461375379e-05 37.20235465
51.57268109 -2.461375379e-05 -97.93353135
-2.906692316e-06 -22.74469361 14.87902965
222.4028941 -5.060021614 -111.8869574
211.1361731 -31.63962161 -111.8869574
249.3627671 -46.10129561 -111.8869574
214.2526851 -2.461375379e-05 -24.34281935
-2.906692316e-06 -67.33664961 47.81550665
2.731359093 -2.461375379e-05 -69.90171735
71.85388909 -58.71918061 -111.8869574
115.9064351 -2.461375379e-05 -88.79192835
214.1371501 -15.66673061 -111.8869574
-2.906692316e-06 -50.09265561 53.81593365
177.7777121 -2.461375379e-05 -33.59135135
189.0019461 -8.341554614 -105.8869574
173.9089301 -59.21271361 -105.8869574
175.4053871 -2.461375379e-05 -44.06332235
123.9698291 -49.50697561 -111.8869574
201.2145321 -13.73251161 -105.8869574
182.4654461 0.7003753862 13.72236965
232.5430561 -32.21299861 -111.8869574
39.18659809 -10.61213761 -111.8869574
118.1596411 -41.32282361 -111.8869574
132.1543501 -0.1458106138 -105.8869574
32.66499809 -2.461375379e-05 -60.74072535
232.4615211 -2.461375379e-05 -53.39677735
108.0694791 -2.461375379e-05 88.27051265
67.65328809 -11.42691061 -111.8869574
-2.906692316e-06 -29.57078461 112.0310196
185.8773221 -62.29019161 -111.8869574
210.9197711 -3.698434614 -111.8869574
97.78857109 -60.13875961 -105.8869574
162.8152961 -45.63657761 -105.8869574
155.2522771 -2.461375379e-05 7.828953647
109.5084091 -12.30526561 -105.8869574
54.92959109 -54.81301161 -105.8869574
5.568482093 -2.461375379e-05 25.88332465
240.7228641 -31.39068961 -105.8869574
192.6872711 -2.461375379e-05 -78.58405535
114.1446751 -2.461375379e-05 68.11718865
83.56714509 -2.461375379e-05 -87.93529135
55.97360109 -2.461375379e-05 4.673244647
186.0229821 -2.461375379e-05 27.08945765
91.32046709 -2.461375379e-05 72.75587665
165.4159511 -60.48698161 -111.8869574
-2.906692316e-06 -4.622394614 -85.09740335
234.3853051 -2.461375379e-05 -27.18286835
218.5013521 -2.461375379e-05 78.28088065
67.25833009 -2.461375379e-05 -99.18106535
146.2199871 -12.31365461 -105.8869574
55.31084109 -26.42987861 -111.8869574
80.54446109 -2.461375379e-05 -3.066379353
83.38633109 -47.42526961 -105.8869574
37.40079309 -39.90019861 -105.8869574
0.3395930933 -2.461375379e-05 56.32326165
6.025750093 -64.63596961 -111.8869574
-2.906692316e-06 -50.37284661 65.22616165
144.4131761 -33.59172061 -111.8869574
111.1270101 -50.26709161 -111.8869574
163.8332601 -18.86254861 -105.8869574
116.1373161 -2.461375379e-05 -29.48937735
200.2179261 -66.78447461 -105.8869574
212.8478081 -58.95349861 -111.8869574
28.86007409 -2.461375379e-05 -9.071037353
72.77775009 -11.49391761 -105.8869574
154.6376041 -14.98896761 -111.8869574
26.92622509 -10.58265761 -105.8869574
223.5744411 -36.56513461 -111.8869574
65.78433609 -2.461375379e-05 56.04785065
40.74743809 -47.98797961 -111.8869574
219.3936001 -2.461375379e-05 -92.63181935
158.5833131 -31.89937661 -105.8869574
121.7806311 -2.461375379e-05 -8.113890353
208.4198541 -2.461375379e-05 22.22953265
75.76324009 -31.81732261 -105.8869574
80.94098709 -22.55119261 -111.8869574
77.46101909 -2.461375379e-05 58.90814165
104.3567841 -37.25758761 -111.8869574
190.5554221 -67.77265561 -105.8869574
235.5846651 -48.03206861 -105.8869574
-2.906692316e-06 -28.28320961 101.8968786
199.1606241 -2.461375379e-05 0.08711664684
194.8920541 -41.59335461 -105.8869574
31.35251609 -2.461375379e-05 61.14476265
222.9093661 -2.461375379e-05 -13.15668835
201.4343161 -62.22634161 -111.8869574
42.50595309 -17.48419661 -111.8869574
50.58698109 -43.01241361 -111.8869574
146.3759611 -64.87104661 -111.8869574
246.6610521 -2.461375379e-05 -52.40192735
226.3669321 -23.44428061 -111.8869574
173.3009071 -2.461375379e-05 44.90522765
-2.906692316e-06 -6.460590614 -57.59659235
146.2803991 -2.461375379e-05 -67.93165835
152.4737241 -2.461375379e-05 -55.63196635
70.46509709 -2.461375379e-05 -42.42532735
227.3688521 -2.461375379e-05 39.53276465
113.3851751 -2.461375379e-05 -62.60595035
142.0671791 -2.461375379e-05 16.18752065
5.002133093 -49.83854761 -105.8869574
-2.906692316e-06 -40.49084661 94.90170265
-2.906692316e-06 -31.84890061 46.99989765
14.05350209 -63.91907661 -105.8869574
58.99132609 -11.44988761 -111.8869574
241.9827891 -59.51229961 -111.8869574
226.9424901 -7.871549614 -105.8869574
-1.915762907 -2.507024614 -105.8869574
83.21378709 -2.461375379e-05 90.67632165
140.1420111 -2.461375379e-05 -14.17407335
50.80630309 -2.461375379e-05 53.69574765
207.4935651 -2.461375379e-05 66.96328665
28.59308109 -2.461375379e-05 41.97889365
44.79038109 -2.461375379e-05 65.39108165
131.0944231 -62.94284361 -105.8869574
66.52939709 -45.32963661 -105.8869574
134.6437331 -7.240249614 -105.8869574
166.1260191 -2.461375379e-05 21.60403265
221.8417261 -2.461375379e-05 -31.41137035
5.813277093 -23.99158961 -105.8869574
27.18877009 -3.710528614 -111.8869574
161.7646701 -2.461375379e-05 41.23784765
-2.906692316e-06 -6.029325614 88.95940165
126.9581741 -22.36614461 -105.8869574
-2.906692316e-06 -15.11359661 -27.30651835
178.5942321 -25.08549061 -105.8869574
11.93701509 -44.08678661 -111.8869574
4.720027093 1.109710386 -105.8869574
102.3174711 -6.965016614 -111.8869574
53.94940909 1.860258386 -105.8869574
72.21038709 -2.461375379e-05 -86.34075035
-0.3533729067 -17.15924661 -104.8869574
162.3382241 -2.461375379e-05 -32.90467335
174.8400021 -63.29797861 -111.8869574
25.30922809 -66.93094761 -105.8869574
59.13289809 -2.461375379e-05 78.15252265
115.1155361 -21.40004961 -111.8869574
176.6751221 -5.279366614 -105.8869574
31.52179309 -25.36268761 -111.8869574
87.70875009 -33.91716161 -111.8869574
68.58794109 -2.461375379e-05 -78.96706735
59.95354009 -19.16980961 -105.8869574
115.7170581 -2.461375379e-05 87.12323965
72.71808009 -2.461375379e-05 -59.16932335
239.1072941 -2.461375379e-05 -2.375741353
-2.906692316e-06 -15.31809061 104.2047586
200.1726391 -2.461375379e-05 45.39737865
247.3837381 0.9948533862 -105.8869574
113.1047411 -2.461375379e-05 -72.36729835
165.7217791 -52.61973961 -105.8869574
251.5543631 -2.461375379e-05 -71.87816635
146.3305081 -55.49472961 -105.8869574
5.246454093 -2.461375379e-05 90.70503965
228.1991941 -63.07605361 -105.8869574
106.4930011 -2.461375379e-05 -101.0715904
234.2532211 -2.461375379e-05 -36.74589235
-2.906692316e-06 -30.22322061 89.10760265
-2.906692316e-06 -20.20438861 -53.35024435
193.8826391 -2.461375379e-05 -28.23851535
192.7396491 -2.461375379e-05 -96.55353635
144.2444061 -2.461375379e-05 79.96115765
100.3050531 -15.26208961 -105.8869574
23.12553009 -2.461375379e-05 7.580185647
96.70317709 -26.54234661 -105.8869574
44.29759609 -2.461375379e-05 73.98124265
-2.906692316e-06 -53.45729461 77.36376865
111.5057161 -22.37491061 -105.8869574
145.8002831 -2.461375379e-05 -4.841658353
129.8806941 -2.461375379e-05 -57.81998135
216.7122621 -2.461375379e-05 56.00347365
-2.906692316e-06 -61.47166161 18.02205765
185.6058131 -2.461375379e-05 35.73050765
196.0218721 -2.461375379e-05 16.99824765
199.2085001 -2.461375379e-05 -73.15440535
44.12530709 -30.03729361 -105.8869574
118.0318321 -1.092532614 -111.8869574
61.32795609 -40.62557661 -111.8869574
104.9290461 -2.461375379e-05 -61.24948335
183.7369001 -50.12666761 -111.8869574
144.9976741 -2.461375379e-05 -61.04176235
31.30501709 -2.461375379e-05 -29.38015335
73.98572809 -4.351939614 -111.8869574
213.4501141 -28.89000661 -105.8869574
-2.906692316e-06 -19.25470161 -0.9143023532
42.42875409 0.6275613862 -111.8869574
244.7860661 -37.76267961 -111.8869574
47.99306609 -2.461375379e-05 -56.80291435
240.8905061 -6.849724614 -111.8869574
142.8540941 -38.58913761 -105.8869574
243.8507881 -67.03110161 -105.8869574
150.1302481 -2.461375379e-05 -22.27267135
38.36498709 -2.461375379e-05 19.66989265
11.50877909 -60.37980561 -111.8869574
41.52070009 -2.461375379e-05 0.08305664684
-2.906692316e-06 -57.99142761 111.9239596
223.4922601 -21.62100961 -105.8869574
-2.906692316e-06 -9.854041614 54.93174865
203.7584051 -24.92923961 -111.8869574
152.1896101 -5.403792614 -105.8869574
23.45312009 -13.87366861 -111.8869574
-2.906692316e-06 -37.66408561 -0.4345313532
153.6376391 -44.45809161 -111.8869574
157.2574201 -2.461375379e-05 -80.33968035
166.4081661 -27.38155661 -105.8869574
29.67503909 -2.461375379e-05 -98.50682135
72.78687109 -44.94294361 -111.8869574
91.31183709 -2.461375379e-05 -39.98021835
137.2094691 -19.62313961 -111.8869574
99.83069709 -2.461375379e-05 20.78818165
68.38680609 -5.025818614 -105.8869574
220.5121861 -2.461375379e-05 -65.54183935
143.9858961 -53.25089661 -111.8869574
179.3988171 -2.461375379e-05 83.62934365
-2.906692316e-06 -58.47942861 51.79124165
230.4088411 -2.461375379e-05 25.98514565
-2.906692316e-06 -23.57868961 -96.37621435
93.09925909 -40.73836161 -111.8869574
231.3183311 -2.461375379e-05 -105.5533084
154.1182881 -2.461375379e-05 15.12827965
141.8132521 -2.461375379e-05 -78.75313435
83.05474109 -2.461375379e-05 -23.11255235
94.00138309 -2.461375379e-05 -30.86661335
199.0151601 -2.461375379e-05 30.16717665
123.1985331 -34.01048061 -105.8869574
92.61937709 -2.288385614 -105.8869574
113.1252371 -58.35595361 -111.8869574
21.98346209 -2.461375379e-05 -69.51136335
158.4915911 -2.461375379e-05 87.24463965
121.9904701 -2.461375379e-05 43.24648965
143.4920371 -2.461375379e-05 1.937083647
-0.9801969067 -25.77668461 -104.8869574
182.0928401 -2.461375379e-05 -82.68249935
188.7156931 -61.11405561 -105.8869574
70.71638709 -38.43274861 -111.8869574
81.06165909 -2.461375379e-05 -65.05747135
16.55529809 -28.74519661 -111.8869574
62.68536809 -2.461375379e-05 -5.409019353
148.3467411 -2.461375379e-05 -84.55757635
163.3753131 -9.066174614 -111.8869574
173.7977141 -68.00002461 -107.2161604
-2.906692316e-06 -55.22978361 29.42407765
83.27750209 -66.98315261 -105.8869574
30.47911009 -2.461375379e-05 -38.70390135
-2.906692316e-06 -28.71909261 -3.316008353
222.1723441 -2.461375379e-05 -41.62803035
25.35100809 -21.62933061 -105.8869574
-2.906692316e-06 -10.10119761 44.89403365
231.4786461 -7.974453614 -111.8869574
232.0416551 -12.18774961 -105.8869574
85.67606409 -2.461375379e-05 45.60490565
83.83292509 -22.39102561 -105.8869574
23.96872709 -54.18825361 -111.8869574
108.5993441 -2.461375379e-05 8.745197647
133.6868161 -49.42359461 -111.8869574
69.70688809 -51.64806561 -105.8869574
-0.7794309067 -26.20411461 -69.60277935
-2.906692316e-06 -0.9445566138 99.31880865
109.5769261 -2.461375379e-05 54.65316365
185.8144571 -2.461375379e-05 -95.59984435
188.5742881 -25.63839161 -105.8869574
23.30177709 -2.461375379e-05 79.06977965
26.28015909 -2.461375379e-05 90.15066765
139.3113721 -1.758829614 -105.8869574
242.8902641 -13.33792261 -111.8869574
122.3409461 -17.42248961 -105.8869574
206.7704171 -13.90666261 -111.8869574
131.8282741 -2.461375379e-05 -94.65222135
123.3876831 -2.461375379e-05 -73.80239035
141.1023151 -2.461375379e-05 -53.50003335
136.4845651 -2.461375379e-05 -87.31966835
0.3387730933 -51.60446761 -111.8869574
63.87618309 -26.83145961 -111.8869574
99.66368209 -49.25425561 -105.8869574
251.4116691 -2.461375379e-05 5.909803647
247.6383231 -2.461375379e-05 23.12694065
-2.093415907 -48.18703861 -89.32847835
100.2550581 -2.461375379e-05 65.58581065
168.2888091 -5.050977614 -105.8869574
233.1472571 -41.10609661 -111.8869574
45.94483809 -2.461375379e-05 -36.01187935
85.32581009 -2.461375379e-05 -31.44866135
73.17464909 -16.87429561 -111.8869574
159.9349611 -5.459434614 -105.8869574
89.65426509 -2.461375379e-05 -56.67919135
-2.906692316e-06 -15.18002661 77.71678765
248.4922441 -67.90266161 -111.8869574
34.55613909 -18.57740961 -111.8869574
103.2889421 -0.2364666138 -111.8869574
50.91617409 -2.461375379e-05 23.86544665
236.4621811 -2.461375379e-05 74.20476465
111.9254321 -39.35359861 -105.8869574
43.96439809 -54.20352261 -111.8869574
49.04673009 1.488748386 -111.8869574
51.94882009 -64.18731961 -111.8869574
90.86067409 -50.36612261 -111.8869574
46.25044309 -2.461375379e-05 47.55480665
132.4801151 -2.461375379e-05 -21.88327435
29.60687009 -3.995619614 -105.8869574
43.58200409 -38.75013761 -111.8869574
82.48427209 -5.570044614 -105.8869574
65.76818709 -2.461375379e-05 17.39486665
157.3957821 -2.461375379e-05 -4.382639353
108.9681151 -2.461375379e-05 -55.55770335
79.47439909 -59.93023261 -111.8869574
190.7413511 -54.96226661 -105.8869574
113.0634671 -2.461375379e-05 -46.60093335
48.14056309 -28.56878961 -111.8869574
-2.906692316e-06 -36.81179861 54.88652165
-2.906692316e-06 -19.78977561 72.16455165
153.2127921 1.015326386 -105.8869574
11.94769009 -2.461375379e-05 13.90541265
39.09245309 -2.461375379e-05 87.24158165
242.2738771 -2.461375379e-05 84.16825965
-2.906692316e-06 -46.94652861 80.91262265
-2.906692316e-06 -56.57603961 100.2881336
49.47004509 -33.57578061 -105.8869574
150.8289041 -2.461375379e-05 52.07461565
83.73296409 -60.55969261 -105.8869574
-2.906692316e-06 -22.22478361 99.87786265
174.1216771 -8.385330614 -111.8869574
30.39456309 -2.461375379e-05 -89.07390635
181.8816131 -2.461375379e-05 0.1013266468
199.5500231 -29.72079661 -111.8869574
-2.906692316e-06 -43.72330061 53.57399865
64.08723509 -58.26637761 -105.8869574
-2.906692316e-06 -14.75724861 64.50279465
53.88686909 -2.461375379e-05 82.86680565
106.1082161 -2.461375379e-05 19.27536765
-2.906692316e-06 -48.86109561 105.3413186
-2.906692316e-06 -27.92495861 66.63014265
6.174921093 -2.461375379e-05 -34.26554835
187.3694251 -2.461375379e-05 -5.777408353
81.37610709 -46.90089161 -111.8869574
-2.906692316e-06 -35.99626261 69.33271165
211.3566771 -39.13284561 -111.8869574
155.5345121 -2.461375379e-05 36.90992265
167.1611281 -2.461375379e-05 80.40008865
130.4784021 -26.87400861 -111.8869574
38.57382809 -13.18238561 -105.8869574
-1.216358907 -1.000024614 -76.01964835
-2.906692316e-06 -5.908049614 8.494643647
20.21789909 -2.461375379e-05 -37.93129335
125.7799141 -2.461375379e-05 -40.67648135
96.41914609 -2.461375379e-05 -21.10056235
-2.906692316e-06 -4.300115614 -25.45462835
83.10319609 -53.69727261 -105.8869574
156.8149621 -37.91782561 -105.8869574
142.1350411 -59.75667661 -111.8869574
64.16581509 -2.461375379e-05 -11.50071735
240.4713411 -2.461375379e-05 -78.15600235
-2.906692316e-06 -11.64640761 -6.055028353
-2.906692316e-06 -7.126921614 -40.15605635
102.7356661 -38.03326861 -105.8869574
234.1469921 -2.461375379e-05 -44.39940435
209.9453991 -20.31034161 -111.8869574
87.64164209 -2.461375379e-05 56.15584665
227.6462501 -2.461375379e-05 54.04716165
81.32844909 -28.11070361 -105.8869574
16.38826609 -12.80462561 -105.8869574
180.6267711 -2.461375379e-05 -104.6341454
183.0784281 -26.27885261 -111.8869574
191.0541781 -6.205242614 -111.8869574
233.4009921 -2.461375379e-05 62.39445965
194.9773201 -2.461375379e-05 82.02392165
-2.906692316e-06 -64.65926461 76.57806965
55.95508809 -2.461375379e-05 60.80505765
164.4714241 -46.14243561 -111.8869574
96.32331509 -2.461375379e-05 -101.0945434
191.3417651 -20.74588261 -111.8869574
132.3460981 2.373089386 94.11304265
168.5095761 -35.83772161 -105.8869574
-2.906692316e-06 -62.35917961 60.27632065
120.7048971 -2.461375379e-05 -45.93184535
207.2237121 -68.00002461 -111.4560424
229.3914911 -47.23354361 -105.8869574
130.9241401 -2.461375379e-05 -0.6506293532
15.49714609 -57.64730661 -105.8869574
208.2214441 -2.461375379e-05 -69.36683135
52.12218509 -20.57321761 -105.8869574
164.3287731 -0.2037036138 -111.8869574
82.10576409 -1.025740614 -111.8869574
251.6357831 -2.461375379e-05 12.06253165
47.80217709 -2.461375379e-05 -43.92175035
51.44500909 -2.461375379e-05 -73.98046835
99.24707809 2.392939386 -77.24502835
-2.906692316e-06 -66.39712461 33.14948165
106.9882781 -2.461375379e-05 71.35185665
70.07599409 1.728658386 -105.8869574
173.4440371 -45.72612561 -105.8869574
217.2540021 -2.461375379e-05 -78.62044035
130.3568341 -56.14279061 -111.8869574
195.1827591 -2.461375379e-05 89.21615865
-2.906692316e-06 -67.12511561 21.34481665
46.23478509 -59.19790461 -105.8869574
129.6720961 -14.08311061 -105.8869574
114.7763661 -6.834651614 -105.8869574
57.16302109 -2.461375379e-05 -90.96980235
29.47401209 -62.93270761 -111.8869574
-2.906692316e-06 -11.92010561 90.44879365
198.9879281 -2.461375379e-05 67.91476065
30.32910309 -2.461375379e-05 12.95685365
87.01028409 -8.835057614 -111.8869574
129.3050741 -2.461375379e-05 -72.45670835
104.4225211 -30.43373461 -111.8869574
68.15327609 -19.50181161 -105.8869574
110.4671091 -2.461375379e-05 42.77665165
-2.906692316e-06 -49.94502461 89.95998365
57.45954709 -2.461375379e-05 70.13093365
34.91111209 -68.00002461 -109.5991914
8.574973093 -2.461375379e-05 75.73223565
129.9103931 -2.461375379e-05 21.29374565
148.4674761 -2.461375379e-05 33.21439065
131.6828121 -4.374967614 -111.8869574
92.86905609 -38.77000661 -105.8869574
7.292487093 -15.35334261 -111.8869574
161.3550571 -2.461375379e-05 -60.08425535
188.1034891 -2.461375379e-05 -41.50491935
23.56563309 -46.85963461 -105.8869574
189.3651421 -33.93370061 -111.8869574
-2.906692316e-06 -23.61648561 34.73492165
-2.906692316e-06 -39.12252861 104.1413336
27.31896009 -2.461375379e-05 2.900196647
135.6427431 -2.461375379e-05 83.48207565
-2.906692316e-06 -3.683849614 -65.84574235
14.14299809 -2.461375379e-05 78.88664265
216.8424201 -2.461375379e-05 18.00018465
182.9343091 -2.461375379e-05 51.28164465
173.7622231 1.470983386 -66.08659935
-0.8893529067 -2.461375379e-05 23.71904265
221.3358451 -5.817405614 -105.8869574
19.28938509 -2.461375379e-05 -16.64079135
219.4102771 -2.461375379e-05 6.128423647
131.3884241 -20.87017961 -111.8869574
-2.906692316e-06 -24.20329861 -63.59854935
132.9633651 -40.49822461 -105.8869574
199.9577891 -7.938959614 -105.8869574
-2.906692316e-06 -28.54091261 5.396345647
7.245306093 -2.461375379e-05 -16.08051435
102.0852091 -2.461375379e-05 55.71440865
105.4697001 -2.461375379e-05 -23.63876735
181.3096511 -2.461375379e-05 -43.80144635
116.8203401 -2.461375379e-05 -36.28628635
7.497241093 -47.97653961 -111.8869574
91.66128809 -2.461375379e-05 -10.02534235
174.8498141 -10.88214361 -105.8869574
25.68540009 -2.461375379e-05 62.75080565
-2.906692316e-06 -9.617518614 -91.07469735
108.7137991 -27.54557161 -105.8869574
30.51571609 -51.02223261 -111.8869574
179.7893991 -9.878235614 -111.8869574
53.65504509 -2.461375379e-05 31.71097765
179.4972211 -2.461375379e-05 89.48796965
135.4814821 -61.93926861 -111.8869574
11.01765709 -2.461375379e-05 -104.5897434
145.9964351 -2.461375379e-05 -39.80208735
172.5305611 0.05465938625 -105.8869574
104.2585431 -2.461375379e-05 -85.18338235
211.5045531 -2.461375379e-05 6.742000647
240.6693591 -2.461375379e-05 46.18214165
204.3356451 -2.461375379e-05 -78.35231935
198.5247731 -9.270202614 -111.8869574
102.5665281 -44.21314761 -105.8869574
3.349551093 -43.42652161 -105.8869574
186.4658851 -68.00002461 -110.3691204
122.2007621 -2.461375379e-05 13.29022265
135.7293851 -2.461375379e-05 50.18943065
28.79341709 -34.90408761 -111.8869574
222.1802331 -2.461375379e-05 -87.54877335
229.4528701 -2.461375379e-05 -19.18794035
206.9098411 -2.461375379e-05 -37.51581835
-2.906692316e-06 -32.41522361 -79.18559535
124.5530951 -59.95322061 -111.8869574
185.1052131 -14.73266561 -111.8869574
212.5530671 -2.461375379e-05 -99.00830935
213.9713901 -2.461375379e-05 -72.19122635
-2.906692316e-06 -17.69464261 -20.15566235
118.9591451 1.856236386 94.11304265
81.49498009 -2.461375379e-05 15.34005965
-2.906692316e-06 -21.73666661 -28.61694135
165.2730741 -64.82066661 -105.8869574
128.7679631 -35.31495261 -105.8869574
-2.906692316e-06 -25.59317761 -81.54836835
-2.906692316e-06 -13.01136261 34.32993565
161.6846821 -2.461375379e-05 -45.23506035
67.26907809 -2.461375379e-05 80.78991565
244.0630031 -25.92857361 -111.8869574
245.0396991 -2.461375379e-05 -40.54379235
-2.906692316e-06 -19.98632061 -59.17531135
136.5411461 -2.461375379e-05 -33.26590735
141.7985571 -11.59670761 -111.8869574
165.4877251 -2.461375379e-05 -37.63943135
206.0730041 -4.718371614 -105.8869574
70.25211309 -2.461375379e-05 70.51451665
-0.3953699067 -68.00002461 93.53645565
179.3033931 -19.44883461 -105.8869574
-2.906692316e-06 -32.52834461 -88.43342435
218.4815491 -58.30125361 -111.8869574
5.953022093 -2.461375379e-05 -48.40279235
19.37654209 -2.461375379e-05 20.23911665
79.87759309 -2.461375379e-05 -52.54686635
204.3917631 -19.03461461 -111.8869574
-2.906692316e-06 -57.51424261 92.10762665
-2.235642907 -1.000024614 39.82369965
213.0717681 0.9250503862 -105.8869574
-2.906692316e-06 -9.467999614 109.4633176
136.1436421 -2.461375379e-05 26.38546265
-2.906692316e-06 -15.37546061 -89.75279635
-2.906692316e-06 -6.177626614 -78.32576335
149.0779781 -2.461375379e-05 44.67257765
146.9047101 -43.10763861 -105.8869574
110.5761601 -33.08840761 -111.8869574
157.0170241 -2.461375379e-05 22.93474965
37.09498309 -2.461375379e-05 -79.84491935
151.5250321 -2.461375379e-05 -69.92747235
230.3241411 -2.461375379e-05 -31.05122835
-2.906692316e-06 -11.71685461 -75.91082135
-2.906692316e-06 -33.60601261 40.61779465
236.9653141 -2.461375379e-05 35.77261065
6.759440093 -2.461375379e-05 -93.28462035
160.8998921 -2.461375379e-05 70.07246265
226.5519671 -2.461375379e-05 -75.45474135
54.88673809 -2.461375379e-05 18.39879865
62.15159909 -68.00002461 -106.2979394
120.7499051 -2.461375379e-05 -86.02630535
130.4765831 -2.461375379e-05 -52.02079935
220.1377521 -2.461375379e-05 -26.12322035
-2.906692316e-06 -32.95786561 18.99591365
175.9023271 -31.49677761 -105.8869574
226.3327421 -2.461375379e-05 -23.76518235
-2.906692316e-06 -42.61440661 110.9098776
146.2585401 -38.80206661 -111.8869574
-1.547461907 -68.00002461 61.60986365
149.1448781 -14.39826261 -111.8869574
215.4444161 -46.25426161 -105.8869574
154.9874451 -13.79224061 -105.8869574
220.5270391 -51.97267561 -105.8869574
226.3327831 -14.39784861 -105.8869574
114.1236461 -2.461375379e-05 -24.36872235
179.0977451 -41.08901061 -105.8869574
235.4394061 -3.861164614 -105.8869574
210.9645711 -2.461375379e-05 90.59101765
28.13630209 -2.461375379e-05 70.45927165
-2.906692316e-06 -37.58522661 -90.78596535
64.41024009 -32.29167661 -111.8869574
-2.906692316e-06 -30.35026561 78.58984765
225.7226881 -33.57526061 -105.8869574
90.86873809 -62.66685461 -111.8869574
-2.906692316e-06 -43.52153161 90.18019065
-1.981460907 -63.58828761 -105.8869574
-2.906692316e-06 -23.83367161 40.44298465
3.858542093 -2.461375379e-05 50.05978265
-2.906692316e-06 -9.977842614 97.93118165
136.6562641 -60.58746161 -105.8869574
-2.906692316e-06 -44.68972461 43.05295165
-2.906692316e-06 -2.527563614 110.5695176
-2.906692316e-06 -13.01503161 24.08535565
-2.906692316e-06 -57.60290461 65.53989065
178.3787651 -2.461375379e-05 -4.085599353
196.5550391 -2.461375379e-05 41.31245065
166.1726211 -2.461375379e-05 -79.10982035
12.62538309 -38.06795061 -111.8869574
35.12043309 -2.461375379e-05 -13.99219835
27.98511209 -2.461375379e-05 34.18575665
74.49445809 -2.461375379e-05 0.2870136468
164.8860401 -2.461375379e-05 -28.11460635
58.62718309 -2.461375379e-05 -26.13139935
167.5783181 -2.461375379e-05 -95.26087935
92.10890809 -2.461375379e-05 -45.54876235
3.366837093 -2.461375379e-05 80.55428065
91.26424909 -2.461375379e-05 88.75897865
20.39154909 -3.832981614 -105.8869574
248.0674961 -2.461375379e-05 74.09674565
68.45346609 -6.084652614 -111.8869574
187.0842471 -2.461375379e-05 10.64372565
-2.906692316e-06 -14.86453961 -44.02325935
-2.906692316e-06 -23.40269561 89.66507465
45.90635009 -2.461375379e-05 -70.67787835
56.24281009 -68.00002461 -106.9929054
-2.906692316e-06 -6.252538614 0.9779186468
-1.593984907 -2.461375379e-05 -93.46796235
-2.906692316e-06 -50.14862761 22.98436965
207.9140901 -2.461375379e-05 36.95349365
171.5956881 1.531076386 8.570307647
76.28972809 -2.461375379e-05 -35.57365535
197.4589571 -54.44294061 -111.8869574
113.0577941 -60.43523161 -105.8869574
237.3946201 -42.23327561 -105.8869574
-2.906692316e-06 -5.349445614 57.83956265
248.0960701 -2.461375379e-05 29.22795365
235.6870671 -63.30016561 -111.8869574
212.4563521 -62.64995061 -105.8869574
227.0564981 -2.461375379e-05 46.39640565
240.8792011 -2.461375379e-05 -83.48732935
120.4152461 -2.461375379e-05 64.82660965
89.98927509 -63.08351461 -105.8869574
0.9932890933 -2.461375379e-05 -8.419271353
-2.906692316e-06 -17.74494561 -48.62171635
-2.906692316e-06 -23.93073661 -42.16402035
214.4644341 -2.461375379e-05 -5.975743353
-2.906692316e-06 -47.77318061 37.56541765
-2.906692316e-06 -44.40270861 98.51134565
182.9022781 -2.461375379e-05 -35.01501135
-2.192830907 -21.27274761 -111.8869574
46.87270309 -2.461375379e-05 -77.20821935
247.7431291 -2.461375379e-05 -82.34597435
6.964255093 -2.461375379e-05 62.29248065
66.34500309 -42.27580961 -111.8869574
114.1909111 -2.461375379e-05 28.89726565
99.54727609 -2.461375379e-05 46.42495065
58.79411609 -2.461375379e-05 -101.7760284
236.4099771 -2.461375379e-05 -64.42690035
101.5910301 -29.69382061 -105.8869574
-2.906692316e-06 -7.494313614 49.46097765
-2.906692316e-06 -4.834058614 20.42988965
-2.906692316e-06 -28.33834161 -94.14368335
35.94082909 -2.461375379e-05 0.5718646468
166.8119811 -14.53249961 -105.8869574
-2.906692316e-06 -20.22956961 -84.33329235
-2.906692316e-06 -7.190554614 -46.97475835
196.9214811 -16.96891861 -105.8869574
125.3586341 -2.461375379e-05 33.71332265
251.0676061 -2.461375379e-05 -7.503199353
59.11376909 -54.05590361 -111.8869574
44.25774309 -2.461375379e-05 86.43580765
134.9198701 -2.461375379e-05 -14.23019435
-2.906692316e-06 -19.91187861 58.95992265
173.7912361 -2.461375379e-05 -29.25812535
185.8601731 -2.461375379e-05 -28.34165635
237.8555351 -64.26257661 -105.8869574
48.69246909 -25.35995461 -105.8869574
-2.906692316e-06 -46.20411361 26.64142165
50.56606809 -2.461375379e-05 43.05409465
-2.906692316e-06 -35.30695361 8.697822647
-2.906692316e-06 -14.72091061 -14.37015735
49.10509409 -55.09757361 -111.8869574
-2.906692316e-06 -53.24080561 49.67882065
212.6520861 -20.01210561 -105.8869574
6.773611093 -16.35322661 -105.8869574
219.9705561 -27.80754861 -105.8869574
-2.906692316e-06 -63.49279561 53.74072465
58.80529009 -2.461375379e-05 -61.46205735
229.1290001 -28.32155461 -111.8869574
87.53337809 -2.461375379e-05 -71.22648535
229.8232451 -2.461375379e-05 -70.88471835
204.4703821 -39.59448661 -105.8869574
-2.906692316e-06 -62.52774161 102.1537126
-2.906692316e-06 -36.77967661 -96.39766135
-2.906692316e-06 -11.48900961 -85.60854635
68.20366209 -2.461375379e-05 -89.57175335
60.53530409 -54.54162561 -105.8869574
88.52669109 -3.904454614 -111.8869574
-2.906692316e-06 -30.57164361 106.9859306
203.7523631 -2.461375379e-05 70.80830565
70.79712109 -42.46269261 -105.8869574
-2.906692316e-06 -7.132981614 66.55860665
-2.906692316e-06 -57.85935161 9.846369647
183.5131541 -52.18487761 -105.8869574
216.7448231 -2.461375379e-05 -30.79950135
-2.906692316e-06 -24.72488861 10.15028565
223.4327461 -2.461375379e-05 36.24986865
35.02667509 -2.461375379e-05 -86.88980135
17.77088509 -2.461375379e-05 -10.97264935
-2.906692316e-06 -22.11190561 24.68431165
26.83337709 -19.30675961 -111.8869574
-2.906692316e-06 -46.11760161 68.06813765
116.3226941 -42.78805961 -105.8869574
45.99220309 -66.77077961 -111.8869574
95.49317009 -21.57586261 -105.8869574
212.0364971 -68.00002461 -107.2401334
125.1809831 -65.05730261 -105.8869574
-2.906692316e-06 -35.30066361 89.67910365
235.1342131 -32.14609761 -105.8869574
-2.906692316e-06 -21.30000161 83.89215565
-2.906692316e-06 -27.48607661 50.00163065
-2.906692316e-06 -62.51532461 81.20453665
-2.906692316e-06 -37.17176761 62.19766265
106.7104181 -2.461375379e-05 77.34515465
85.04713309 -2.461375379e-05 -53.25499735
145.0326101 -2.461375379e-05 20.31099465
242.4267491 -2.461375379e-05 -105.4086054
-2.906692316e-06 -19.51725461 37.73161365
74.78597609 -29.04898161 -111.8869574
-2.906692316e-06 -23.10726761 -17.50010735
94.81330809 -2.461375379e-05 20.08591465
163.4328161 -2.461375379e-05 6.861271647
72.38337609 -2.461375379e-05 15.20634665
35.26846409 -2.461375379e-05 -56.40484035
102.8848291 1.702546386 -66.62951435
53.85907509 -2.461375379e-05 -38.33670535
177.8763121 1.637331386 2.711919647
20.88784509 -10.50783961 -105.8869574
-2.906692316e-06 -32.09625861 61.38636165
12.14081009 -2.461375379e-05 39.12458065
204.6350421 -2.461375379e-05 -98.14092835
-2.906692316e-06 -28.37355261 26.23935765
-2.906692316e-06 -11.12292461 73.24087365
238.9654321 -2.461375379e-05 23.00674065
-2.906692316e-06 -24.08674561 -5.259561353
158.2659261 -42.53591761 -111.8869574
41.09318309 -58.31098961 -111.8869574
-2.906692316e-06 -24.71138161 70.47138365
-2.906692316e-06 -14.99878761 95.75550865
38.41825909 -2.461375379e-05 75.56674265
-2.906692316e-06 -29.90723461 73.60695565
66.74090509 -59.87256861 -111.8869574
118.6802871 -2.461375379e-05 -50.50043735
74.09512509 -2.461375379e-05 7.350136647
114.5728921 -30.08951461 -111.8869574
31.30218909 -2.461375379e-05 46.17474165
-2.906692316e-06 -55.83964661 40.03950465
-2.906692316e-06 -8.405609614 -62.18641935
-2.906692316e-06 -17.44272861 -37.94720535
-2.906692316e-06 -21.84400961 -10.31599135
-2.906692316e-06 -20.79657761 -79.36610235
14.01309109 -2.461375379e-05 89.71629465
106.5415391 -68.00002461 -106.8161134
69.68242009 -2.461375379e-05 -67.52294535
220.0197931 -2.461375379e-05 -46.10209835
132.7624531 -67.61509461 -105.8869574
32.80960709 -2.461375379e-05 -48.58927635
-2.906692316e-06 -9.043554614 -52.54588435
-2.906692316e-06 -4.619826614 93.80621865
3.362171093 -41.60247561 -111.8869574
111.1522111 -2.461375379e-05 -97.08406835
-2.906692316e-06 -23.89929361 94.62945065
125.7806661 -2.461375379e-05 28.79296165
203.7269071 -2.461375379e-05 -52.64505435
231.5873821 -17.46050061 -111.8869574
194.7558511 -2.461375379e-05 73.79983165
-2.906692316e-06 -31.04287661 33.58621165
-2.906692316e-06 -53.92721161 18.41497165
-2.906692316e-06 -9.468960614 -32.17422235
-2.906692316e-06 -37.11585561 98.45043365
92.88103109 -45.63061461 -111.8869574
59.52070609 -2.461375379e-05 -50.69343435
-2.906692316e-06 -62.62653461 13.27084165
195.3501321 -2.461375379e-05 64.65123065
170.4435971 -2.461375379e-05 -24.00053935
87.23994809 -4.460108614 -105.8869574
-2.906692316e-06 -10.09617561 5.958581647
221.4955581 -23.71692761 -111.8869574
-2.906692316e-06 -6.175001614 30.47551765
-2.906692316e-06 -50.09310261 60.35761665
217.1744761 -2.461375379e-05 31.00962965
113.5019301 -2.461375379e-05 -77.21166435
-2.906692316e-06 -18.26648261 -97.19309535
-2.906692316e-06 -42.73022461 16.12482565
13.51955009 -2.461375379e-05 47.18518365
-2.906692316e-06 -8.696899614 -68.19674735
133.4822711 -2.461375379e-05 -83.51423535
139.9256821 -2.461375379e-05 -95.74751635
127.4597741 -2.461375379e-05 -92.55900735
-2.906692316e-06 -10.68488661 -25.35117235
206.3555501 -2.461375379e-05 -32.61648335
-2.906692316e-06 -60.10197261 74.94922265
-2.906692316e-06 -16.52782461 16.73445665
-1.133487907 -32.75435061 -7.473102353
-2.906692316e-06 -42.81287961 33.06377065
141.1735621 -2.461375379e-05 -40.00808435
216.5401861 -52.21697961 -111.8869574
191.0166191 -2.461375379e-05 -92.04720035
34.62439009 -12.18092361 -111.8869574
36.88269709 -2.461375379e-05 33.31915265
144.3312291 -2.461375379e-05 61.71321265
244.6039821 -62.17697161 -105.8869574
159.6731901 -2.461375379e-05 79.65110465
158.1707001 -10.61065261 -111.8869574
-2.906692316e-06 -36.28960061 84.01863865
122.3660871 -2.461375379e-05 -101.8387964
23.58893309 -2.461375379e-05 51.43432165
170.0499811 -63.10528261 -111.8869574
128.9063051 -49.10495061 -111.8869574
-0.4506339067 -40.53478961 -82.91476835
-2.906692316e-06 -62.19461261 22.75351965
52.29409909 -2.461375379e-05 -6.888554353
2.406612093 -2.461375379e-05 -100.0284934
20.73062409 -2.461375379e-05 -85.95754335
10.32278909 -2.461375379e-05 26.38559865
151.3308811 -2.461375379e-05 4.826553647
-2.906692316e-06 -51.59429061 72.96285865
-2.906692316e-06 -1.342873614 -54.02318335
-2.906692316e-06 -47.82364061 6.397960647
190.9221431 -2.461375379e-05 53.69013665
62.19394209 -14.97813861 -111.8869574
28.04103509 -2.461375379e-05 78.57735665
130.6104241 -2.461375379e-05 -9.995830353
2.335984093 -2.461375379e-05 -15.10614635
161.1961921 -39.78220261 -105.8869574
-2.906692316e-06 -15.15993961 -52.61851635
-2.906692316e-06 -3.667721614 79.48733165
76.81102209 -20.90570761 -105.8869574
-2.906692316e-06 -49.89326261 15.69576065
-2.906692316e-06 -12.82586161 -39.72703835
7.687809093 -2.461375379e-05 3.614554647
55.88938109 -2.461375379e-05 -13.25828335
226.6959411 -2.461375379e-05 28.95082765
-2.906692316e-06 -51.29145961 9.668227647
80.93019809 -2.461375379e-05 -33.25262535
124.7079571 -2.461375379e-05 -88.65359935
129.1727811 -2.461375379e-05 -44.24566635
91.71081609 -25.99735561 -105.8869574
-2.906692316e-06 -28.47686261 84.69710065
79.21707409 -2.461375379e-05 -25.89916335
1.156874093 -2.461375379e-05 74.31533765
-2.906692316e-06 -17.74624661 -32.21610235
35.87705909 -2.461375379e-05 -26.89220435
225.2440541 -3.148438614 -105.8869574
73.19521409 -48.45194661 -105.8869574
156.9662491 -2.461375379e-05 41.41904065
-2.906692316e-06 -4.550035614 84.46904765
69.65874509 -2.461375379e-05 -28.28306635
70.78447409 -63.30968461 -111.8869574
231.7695121 -22.51665361 -105.8869574
-2.906692316e-06 -61.87861061 40.90517365
-2.906692316e-06 -1.202647614 88.67019165
-2.906692316e-06 -40.31086861 71.20903665
51.29577009 -2.461375379e-05 5.174700647
-2.906692316e-06 -6.789298614 39.44944465
246.6929341 -56.47083161 -111.8869574
171.0960511 -27.73260061 -105.8869574
-2.906692316e-06 -62.19917861 70.04186365
-2.906692316e-06 -46.45496461 86.51642065
62.29442909 -47.33637861 -105.8869574
153.2410641 -2.461375379e-05 -82.74118535
-2.906692316e-06 -19.46158461 11.54658265
-2.906692316e-06 -29.50852561 42.86438065
220.6844791 -67.60417661 -111.8869574
22.62502109 -66.43746461 -111.8869574
139.9297821 -2.461375379e-05 29.27821265
-2.906692316e-06 -7.305870614 -20.96668135
-2.906692316e-06 -38.07981761 24.56126265
238.9749271 -2.461375379e-05 2.273685647
205.2169111 -28.89495161 -105.8869574
32.49207109 -2.498681614 -111.8869574
198.8298391 -2.461375379e-05 -28.13636935
-2.906692316e-06 -54.34466061 107.9638356
77.84177109 -2.461375379e-05 79.36309165
123.8512971 -2.461375379e-05 -51.97399935
-2.906692316e-06 -61.32829361 107.6359566
190.4861481 -2.461375379e-05 7.508491647
140.3606841 -50.37862461 -111.8869574
184.6212881 -2.461375379e-05 -47.02270535
-2.906692316e-06 -59.83863061 29.73545965
151.7726541 -64.00525561 -111.8869574
171.5641531 -28.64479861 -111.8869574
49.71646809 -2.461375379e-05 15.21782265
-2.906692316e-06 -19.69466861 -74.88597935
185.2741251 -2.461375379e-05 47.31237865
3.273883093 2.391726386 94.11304265
-2.906692316e-06 -22.66965261 19.48539165
-0.7950629067 -68.00002461 73.50707265
240.8135961 -40.08897361 -111.8869574
77.73872309 -2.461375379e-05 69.62821465
-2.906692316e-06 -19.38335861 79.71060965
88.08259309 -2.461375379e-05 30.93031365
-2.906692316e-06 -22.22270661 111.1119256
98.70631709 -2.461375379e-05 -86.89123935
-2.906692316e-06 -32.86841161 101.8662166
147.6311781 -7.951348614 -105.8869574
-2.906692316e-06 -46.22457961 -95.80894335
-2.906692316e-06 -24.99119161 62.90341065
155.9493871 -2.461375379e-05 -91.25794835
-2.906692316e-06 -18.91548861 42.26625365
119.7603661 -2.461375379e-05 -4.012551353
-2.906692316e-06 -42.74058461 -101.4170394
58.92625109 -4.517735614 -111.8869574
-2.906692316e-06 -11.66576561 113.4563696
177.5319281 -46.05038061 -111.8869574
-2.906692316e-06 -63.93569661 64.55088665
117.6771641 -2.461375379e-05 71.97692365
210.5786731 -11.41526461 -111.8869574
206.0091901 -9.267806614 -105.8869574
248.9811211 -12.68233261 -111.8869574
-2.906692316e-06 -16.65882861 53.91637965
-2.906692316e-06 -44.01031761 3.072849647
173.2205771 -2.461375379e-05 24.10513865
-0.4542359067 -40.65533361 -105.8869574
-2.906692316e-06 -19.27043061 -24.41634835
-2.906692316e-06 -4.317971614 62.25942365
226.9238271 -60.43167061 -111.8869574
17.85601109 -2.461375379e-05 81.48706565
139.3864671 -65.25147761 -105.8869574
-2.906692316e-06 -20.74464261 49.98645565
170.5640721 -2.461375379e-05 -82.71595135
-2.906692316e-06 -44.25267761 -90.12936735
138.2330551 -2.461375379e-05 0.1442466468
23.48709409 -2.461375379e-05 74.55382365
-2.906692316e-06 -39.41170261 10.56672065
198.5688181 -2.461375379e-05 -4.377755353
56.87951209 -39.95896261 -111.8869574
-2.906692316e-06 -16.93632861 26.81962865
223.2548591 -57.14475661 -105.8869574
181.8393181 -2.461375379e-05 70.09080865
155.2816911 -2.461375379e-05 -24.45827135
-2.906692316e-06 -15.12383461 109.8465836
104.3596461 -2.461375379e-05 12.07357065
24.86335809 -2.461375379e-05 -89.37084935
113.3573351 -2.461375379e-05 -11.49488535
226.8580621 -7.921950614 -111.8869574
178.1359681 -2.461375379e-05 20.00588665
204.2920961 -53.46662861 -105.8869574
127.2517301 -4.922398614 -111.8869574
34.40023109 -2.461375379e-05 -18.91788435
-2.906692316e-06 -38.94704361 77.55970465
197.5585981 -68.00002461 -109.2327804
145.0798731 -2.461375379e-05 -72.20919235
176.3961311 -51.81904761 -111.8869574
130.4815001 -2.461375379e-05 -80.24335935
129.0793491 -2.461375379e-05 55.59497565
63.65495409 -22.30276961 -111.8869574
-2.906692316e-06 -10.39596961 12.46739365
83.93153609 -2.461375379e-05 63.14707765
-1.606724907 -1.000024614 13.35750665
-2.906692316e-06 -32.26314761 115.5376506
242.1991191 -29.93618961 -111.8869574
-2.906692316e-06 -64.62541461 86.10860865
-0.4899749067 -1.000024614 -82.61516335
143.9333441 -2.461375379e-05 35.18581365
