# .PCD v0.7 - Point Cloud Data file format
VERSION 0.7
FIELDS x y z
SIZE 4 4 4
TYPE F F F
COUNT 1 1 1
WIDTH 1274
HEIGHT 1
VIEWPOINT 0 0 0 1 0 0 0
POINTS 1274
DATA ascii
-88.685439 203.6061384 -87.75009739
-153.999785 49.59364839 83.89703961
-206.936632 -2.460857036e-05 -98.78472039
-102.523967 -2.460857036e-05 -0.8319353874
-121.042183 124.0079894 64.24990261
-36.699202 -2.460857036e-05 -22.45546439
-157.999785 59.50518639 -43.35159339
-153.999785 54.79021839 -100.6240224
-153.999785 189.8975864 -41.55569139
-166.505979 -2.460857036e-05 -113.6364154
-142.283132 -2.460857036e-05 -70.41623339
-39.774502 65.51823839 114.2499026
-151.280337 51.35000339 114.2499026
-149.999785 193.4522404 41.71219461
-15.498299 31.66433439 114.2499026
-31.052882 -2.460857036e-05 71.90878161
-92.830653 203.9959964 64.24990261
-153.878674 108.0882644 61.48087961
-147.480744 125.4769784 -91.60295939
-149.999785 236.4388558 -13.01363639
-144.888547 208.2065744 68.24990261
2.37587 -2.460857036e-05 -3.477714387
-165.788297 33.20854739 114.2499026
-160.735724 -2.460857036e-05 -36.35887539
-121.305882 14.93229139 68.24990261
-94.137507 61.59347439 64.24990261
-153.999785 9.507048391 -93.58875739
-121.809441 15.29180539 108.2499026
-182.582905 67.28381839 114.2499026
-154.340084 -1.853899609 114.2499026
-214.93224 14.39943539 108.2499026
-119.776435 174.6823884 -87.75009739
-153.999785 33.09247739 95.50824861
-129.666914 210.9377374 64.24990261
-104.855281 36.20037539 68.24990261
-157.999785 149.6272644 -43.15425539
-182.068237 -2.460857036e-05 99.12889561
-149.999785 219.9251833 -1.589735387
-99.176762 11.69002339 64.24990261
-90.237772 161.5647234 -87.75009739
0.0002150001783 32.73307539 64.04736861
-153.999785 8.912596391 -4.638446387
-131.449432 -2.460857036e-05 40.20015561
-90.820298 135.6506934 -87.75009739
-25.73045 -2.460857036e-05 -56.71267339
-157.999785 111.7341874 -49.73295639
-239.717495 -2.460857036e-05 68.89953161
-157.999785 174.1767914 -14.47893539
-147.835598 168.8396514 68.03405661
-153.999785 172.7046234 -51.27824939
-157.999785 40.67507939 -57.46156739
-136.120353 43.16666439 108.2499026
-138.278294 32.61870539 -91.75009739
-118.083513 242.6160628 -91.75009739
-91.134445 -2.460857036e-05 -58.55499339
-10.399117 -2.460857036e-05 -82.70929939
-238.98121 60.32336139 114.2499026
-191.736116 -2.460857036e-05 42.76761561
-79.060174 -2.460857036e-05 -16.76225539
1.865147 21.56008539 114.2499026
-47.711637 -2.460857036e-05 26.09303961
-112.490276 52.52753739 -87.75009739
-149.999785 152.9293834 24.41772661
-152.919434 220.8446999 64.20172061
-153.999785 241.4532476 21.29779461
-149.999785 137.6251544 -66.83882339
-153.999785 184.3229524 52.39395361
-107.111627 70.03266039 -87.75009739
-56.279884 -2.460857036e-05 76.27200361
-244.091514 42.33986739 108.2499026
-137.331933 81.26320239 64.24990261
-106.477548 204.7469474 -91.75009739
-244.046761 10.39710139 114.2499026
-133.171491 217.1994226 -91.75009739
-93.108167 175.6302134 64.24990261
-76.112351 183.2513844 68.24990261
-153.999785 57.37413939 96.89043261
-149.999785 73.92054839 -64.01457539
-211.942574 67.99997539 109.4105066
-52.659813 -2.460857036e-05 -75.66418339
-149.999785 70.12970039 -36.82897539
-237.367409 -2.460857036e-05 97.19667561
-86.304494 -2.460857036e-05 29.98075061
-223.794386 -2.460857036e-05 -43.53872839
-118.08206 192.1580104 -87.75009739
-149.999785 215.34644 -28.81111139
-180.470537 -2.460857036e-05 -36.43168539
-10.515632 -2.460857036e-05 96.41506561
-153.999785 28.46415339 40.17198261
-153.999785 156.4896044 60.08231961
-148.326292 28.05567539 63.43259061
-149.999785 120.3750044 51.48477161
0.0002150001783 28.22800439 -93.82346839
0.0002150001783 40.58165139 -55.27274239
-127.711933 147.2404674 68.24990261
-153.999785 199.9741234 11.17423861
-108.656718 39.36192639 108.2499026
2.388185 -2.199976609 -37.12684239
-230.948437 -2.460857036e-05 23.60466961
-157.999785 118.2462274 29.57010961
-100.001072 29.18814739 114.2499026
-157.999785 2.253134391 80.30159761
-149.999785 166.2339394 32.06005861
-132.53036 0.8234183914 67.62539661
-157.999785 85.88893439 5.807353613
-39.281307 -1.122138609 108.2499026
-112.669617 158.2874244 64.24990261
-221.273245 -2.460857036e-05 100.4803486
0.0002150001783 19.14309339 35.63365561
-157.999785 13.55807939 53.28108961
-113.574948 98.14464139 -87.75009739
-147.936848 -2.460857036e-05 -41.24648339
-164.743979 49.35695339 114.2499026
-153.999785 12.49837839 27.08476961
-88.109328 75.60690339 -91.75009739
-165.202006 -2.460857036e-05 54.40304961
0.3234670002 -2.460857036e-05 67.93395761
-157.465724 129.6178554 15.65590861
-157.999785 107.6480304 10.66554061
-246.626472 -2.460857036e-05 43.94538161
-54.5998 -2.460857036e-05 -28.61550139
-153.999785 238.2989517 36.91726361
-153.999785 40.82508539 51.50129361
-222.256623 -2.460857036e-05 -109.7696004
-96.366011 111.4569614 68.24990261
-153.999785 215.6827792 -61.34079639
-112.121403 224.7223735 -91.75009739
-157.999785 54.11616139 55.43879461
-150.937064 173.2414744 -90.00014739
-58.337883 -2.460857036e-05 16.66003961
-117.878174 201.9053844 64.24990261
-124.487849 48.38357739 68.24990261
-49.175709 -2.460857036e-05 53.93634861
-149.999785 166.1804814 -26.13963539
-149.999785 194.4064664 -29.45048839
-225.711768 -2.460857036e-05 -74.37042339
-133.903496 -2.460857036e-05 97.25309361
-116.350573 14.30730339 -91.75009739
-217.535956 41.84092139 114.2499026
-115.149329 123.2436684 -91.75009739
-153.999785 135.7179334 -45.05723139
-75.999785 197.5645234 65.76567961
-157.999785 91.34474939 -33.56730539
-157.999785 51.65273639 -77.83323139
-252.351155 -2.460857036e-05 95.12016661
-153.999785 221.5187312 -39.69910439
-149.999785 147.4142274 -22.26953639
-148.828003 -2.460857036e-05 -101.0015054
-89.65048 35.89702539 -91.75009739
-52.255609 39.24762639 108.2499026
-149.999785 47.99547339 -18.15417839
-88.71089 53.28489639 -87.75009739
-153.058369 195.2049554 63.94100061
-24.86348 53.52484739 108.2499026
-149.999785 159.9562334 9.448476613
-153.999785 176.4426324 23.65442361
-80.89956 148.1630064 68.24990261
-58.670665 -2.460857036e-05 62.99113661
-72.691493 -2.460857036e-05 39.27110161
-131.513653 -2.460857036e-05 11.53576761
-57.065523 14.47667539 108.2499026
-41.533341 -2.460857036e-05 37.45166761
-11.552569 -2.460857036e-05 -58.29722239
-216.012022 -2.460857036e-05 68.26412561
-115.704205 65.78446039 64.24990261
-149.999785 120.6860514 -78.59837639
-92.235482 75.10590239 68.24990261
-92.308977 14.46795739 -91.75009739
-109.674255 -2.460857036e-05 105.2303406
-124.221788 -2.460857036e-05 -32.05745339
-101.372008 -2.460857036e-05 -27.51986339
-115.520444 56.17542339 108.2499026
-157.999785 46.45238839 -32.29685039
-157.999785 65.77897339 -69.88767939
-159.796502 9.763557391 114.2499026
-80.714276 -2.460857036e-05 78.50089861
-108.855345 156.3020954 -87.75009739
0.0002150001783 36.03598839 6.359235613
-24.823325 11.03430439 108.2499026
-133.022629 63.27744439 -91.75009739
-149.999785 122.3471014 -12.51205639
-67.038814 67.99997539 108.7201466
-157.999785 43.38695139 34.38932861
-104.569587 0.4999753914 68.09583861
-149.999785 221.375013 -81.28135139
-211.360544 -2.460857036e-05 -67.30332339
-52.672903 50.43214239 114.2499026
-157.999785 56.18714939 -55.60784439
-149.999785 249.3448177 -27.79953839
-142.508915 -2.460857036e-05 0.3664646126
0.0002150001783 13.84367039 -60.94596439
-87.083467 237.936297 64.24990261
-81.682724 54.11099439 108.2499026
-145.305483 142.8917104 -87.75009739
-149.999785 141.8494634 53.25321261
-149.999785 81.98142839 56.92726461
-12.863653 -2.460857036e-05 71.59041261
-153.999785 229.9862671 11.81782461
-206.801871 33.23849139 114.2499026
-104.362259 88.02403439 64.24990261
-118.671388 186.8941104 64.24990261
-157.976069 20.37002139 -51.79302439
-150.867081 233.9921372 -62.25009739
-157.999785 59.52329339 40.56753161
-126.829924 77.46277239 -87.75009739
-149.999785 100.1002374 -6.462705387
-239.460049 -2.460857036e-05 82.92015961
-149.999785 99.92431139 -55.89090039
-81.596581 -2.460857036e-05 -1.037959387
-87.688659 96.14812639 -91.75009739
-138.63504 89.39144039 -91.75009739
0.0002150001783 13.20624239 6.308624613
-33.049081 -2.460857036e-05 -79.31404839
-157.999785 30.40103439 -114.2288414
-37.646316 -2.460857036e-05 -112.7371204
-141.329316 194.8797294 68.24990261
-157.999785 78.77894039 44.17997061
-153.999785 242.6383967 55.08422961
-204.66982 -2.460857036e-05 -28.30508039
-185.996203 7.301639391 108.2499026
-98.390195 -2.460857036e-05 41.44317861
-149.999785 21.18791839 -29.61740739
0.03863600018 49.99997539 -79.48182239
-6.400884 -2.460857036e-05 23.00814061
0.0002150001783 12.60615639 -106.4582504
-157.999785 65.39161939 -95.98395639
-105.737966 247.7042593 -87.75009739
-110.237487 -2.460857036e-05 -10.31905939
-57.866143 -2.460857036e-05 36.12976061
-153.999785 83.54226739 -54.30750139
-170.379924 -2.460857036e-05 6.998234613
-149.999785 176.4230104 -62.19386639
-139.966964 104.7670514 64.24990261
-126.104168 222.5613144 64.24990261
-149.999785 233.5541364 -40.44936339
-181.021151 -2.460857036e-05 -91.79718539
-87.824302 220.1784972 64.24990261
-135.202012 166.6913264 64.24990261
0.0002150001783 8.481784391 76.79048461
-75.999785 116.3036124 64.88871461
-157.999785 25.56838839 -16.27221239
-57.116022 -2.460857036e-05 107.9767976
-149.999785 162.5444614 -8.412022387
-93.611194 -2.460857036e-05 -108.1243974
-118.982678 78.52055539 68.24990261
-120.881262 -2.460857036e-05 -100.5533544
-157.999785 70.40473539 24.07680661
-157.999785 54.45028139 -112.3077734
0.0002150001783 34.20035939 -68.84528639
-141.247192 185.0803554 -91.75009739
-104.555348 128.8987074 -87.75009739
-157.999785 159.2704374 -50.29395739
-153.999785 9.515021391 -62.00922139
-137.361108 238.0978452 -91.75009739
0.0002150001783 40.91803339 99.54482761
-157.704033 149.9672544 -31.06766339
-149.999785 206.4190484 43.68944861
-149.999785 215.2530034 -49.04271439
-69.41924 -2.460857036e-05 -112.3272274
-76.022492 33.31251439 -89.18865439
-132.294022 120.2073694 64.24990261
-142.109235 57.73146839 64.24990261
-94.702755 13.65398539 108.2499026
-72.072935 -2.460857036e-05 -92.41381239
-153.999785 252.0728436 -1.581088387
-14.174609 -0.1195766086 108.2499026
-149.999785 100.7114494 41.58924061
-17.493542 -2.460857036e-05 47.12394861
-61.243476 -2.460857036e-05 -0.7830453874
-250.764277 -2.460857036e-05 10.04764861
-197.062106 -2.460857036e-05 -109.4267184
0.0002150001783 44.29840739 -102.8837854
-149.999785 23.82970739 -73.83890339
0.0002150001783 43.34996639 52.30972261
-157.999785 101.9845994 -79.36446639
-94.218018 -2.460857036e-05 -92.34096239
-102.651067 142.9510854 64.24990261
-149.999785 93.70379939 -16.76301339
-149.667844 34.32324539 -85.31418939
-113.845435 132.5229414 68.24990261
0.5943160002 48.93474339 108.2499026
-157.999785 123.6613344 -49.44741739
1.382647 -2.460857036e-05 97.03044561
-143.529807 140.4980434 64.24990261
-136.813875 31.63217539 64.24990261
-76.069169 -2.460857036e-05 -37.43027739
-89.193368 250.0323671 64.24990261
-67.777928 -2.460857036e-05 -13.99906339
-137.971872 114.1233494 -91.75009739
-94.922755 67.99997539 109.4655506
-201.730101 56.92978239 114.2499026
0.0002150001783 45.85842139 79.18656061
-10.839158 -2.460857036e-05 7.795121613
-182.601863 -2.460857036e-05 20.00743361
-153.999785 176.8477554 11.24077361
-39.575724 11.72387439 108.2499026
-77.700182 125.7387474 -87.75009739
-87.688347 147.8638334 -87.75009739
0.0002150001783 10.18756139 21.55745561
-147.433977 -2.460857036e-05 -89.65052639
-156.200965 0.4999753914 62.64339961
-153.676771 151.6623314 -85.91171639
-140.530835 -2.460857036e-05 47.13011561
-149.999785 99.16874339 55.51531161
0.0002150001783 5.370469391 -74.34338039
-99.218931 218.4033506 68.24990261
-149.999785 151.9564094 -64.83246339
-211.97789 -2.460857036e-05 -39.84368239
-95.403715 98.97870739 68.24990261
-187.105628 43.11853539 114.2499026
-161.835773 -2.460857036e-05 -54.10239139
-7.524524 -2.460857036e-05 -103.9612704
-157.999785 75.55656839 -24.72641039
0.0002150001783 38.72980839 -9.332715387
-153.999785 112.9885574 -69.90949539
-139.115681 226.8067177 -91.75009739
0.0002150001783 17.97237139 103.7126146
0.0002150001783 49.90331439 31.24977261
-149.999785 90.26678539 18.92001161
-227.365502 -2.460857036e-05 61.17156361
-157.939295 76.71056839 63.79995761
-104.410917 -2.460857036e-05 -111.2993674
-199.760362 -2.460857036e-05 87.41902461
-237.557473 -2.460857036e-05 -7.303387387
-153.999785 219.6243045 53.07070261
-150.480562 14.08447739 108.2499026
-157.999785 131.8985434 -61.13758639
-236.690269 -2.460857036e-05 -72.04214839
-104.382332 59.37652639 68.24990261
-178.840224 -2.460857036e-05 85.76829361
-157.999785 157.2831294 30.94886261
-149.154788 124.1670304 62.59287761
-149.999785 80.47691939 -83.68669139
-148.753288 42.27471139 108.2499026
-149.999785 10.07247039 46.32900161
-5.622485 -2.460857036e-05 46.45503661
-92.653911 -2.460857036e-05 54.91407361
-127.860697 37.51244739 -91.75009739
-157.999785 77.73778839 -38.38496939
-210.712835 -2.460857036e-05 26.86240261
0.0002150001783 22.66591139 -14.10646439
-153.783871 241.1772203 -52.27208839
2.443894 8.779006391 114.2499026
-79.235269 -2.460857036e-05 99.89961561
-152.644362 204.3876894 -88.17776639
-143.488091 165.2504904 -87.75009739
-23.967806 -2.460857036e-05 3.267112613
-86.217203 -2.460857036e-05 88.44061361
-127.554401 56.49130639 114.2499026
-153.999785 225.2913824 -25.98816039
-39.009762 23.30953039 108.2499026
-113.485954 -2.460857036e-05 -74.55594339
-153.999785 41.55917139 -100.7745294
-149.999785 190.8066494 -16.28503839
-45.626034 -2.460857036e-05 -99.07223439
-158.437605 57.22991739 108.2499026
-110.783882 9.602314391 68.24990261
-157.999785 24.72533039 89.55265961
-98.307092 -2.460857036e-05 108.4370376
-115.430564 37.88252839 64.24990261
-153.499466 145.8867044 62.96150161
-149.999785 64.64695839 -6.134488387
-149.999785 8.316324391 -48.13173339
-157.999785 43.09374139 75.84977861
-34.020096 34.95236339 108.2499026
-105.295961 17.23665939 108.2499026
-149.999785 29.97245939 7.850415613
-157.999785 101.7890854 -91.36159239
-149.999785 157.5676624 47.61883661
-190.482927 59.67168739 114.2499026
0.0002150001783 42.78990939 -30.03128439
-44.21581 -2.460857036e-05 -0.9431623874
-149.999785 63.35637139 57.70286661
-116.814947 -2.460857036e-05 33.36617861
-153.999785 47.92106239 9.601237613
-26.880579 -2.460857036e-05 36.64745861
0.0002150001783 18.64318039 82.53234661
-142.212623 238.0200132 64.24990261
-101.427732 49.34235039 114.2499026
-81.669903 13.14985039 108.2499026
-88.098224 165.9512444 64.24990261
-64.762901 42.19585039 108.2499026
-149.999785 102.6492564 18.30733161
-149.999785 123.2274644 40.97274861
-149.999785 61.37113639 16.79277561
-149.999785 144.4337704 -6.011371387
-194.251424 -2.460857036e-05 55.22447361
-109.315982 177.5631564 -87.75009739
-149.999785 195.7475874 -62.48285339
-153.999785 168.1251114 43.54036861
-138.845145 -2.460857036e-05 19.49141061
-153.999785 189.8504304 5.254522613
-157.999785 26.20029439 72.46634761
-213.051629 -2.460857036e-05 -2.373030387
-157.999785 107.3496544 -59.57667039
-131.51054 -2.460857036e-05 -102.6189174
-153.999785 1.848079391 -72.13727839
-157.999785 22.33744539 -92.65997139
-117.900965 235.8643881 68.24990261
-153.999785 10.23064139 -26.06962939
-149.999785 81.86680039 27.36827561
-149.999785 196.1773614 53.22604461
0.0002150001783 28.97595839 52.68667261
-157.999785 32.25435539 20.22066261
-20.853708 -2.460857036e-05 99.30095161
-172.921954 -2.460857036e-05 -14.71699139
-75.999785 240.4385743 64.94077261
-197.810464 4.966300391 108.2499026
-127.981617 86.14570139 68.24990261
-94.108572 -2.170835609 -70.94019039
-225.630344 -2.460857036e-05 -99.60643639
-149.999785 78.97069339 4.159011613
-149.999785 31.65114839 -50.15312939
-143.733578 16.78604439 64.24990261
-149.999785 49.16323739 -54.80398439
-224.926139 54.36793439 108.2499026
-157.999785 97.48467739 35.32484761
-157.999785 54.31279739 -88.15536439
-122.656344 49.35267939 -87.75009739
-149.999785 91.42377439 -71.02406539
-57.652527 59.19723039 108.2499026
-119.359213 100.0562274 68.24990261
-157.999785 143.8954134 28.65133061
-251.698654 -2.460857036e-05 34.39337461
-74.349173 -2.460857036e-05 16.28078261
-174.285281 -2.460857036e-05 -100.8325184
-159.79559 -2.460857036e-05 6.137811613
-10.368343 -2.460857036e-05 -21.60317039
-244.037217 -2.460857036e-05 -52.74660839
-126.207389 -2.460857036e-05 -16.46172539
-153.999785 37.05146139 -35.52777439
-68.344517 -2.460857036e-05 -56.84040739
-149.999785 137.8489564 19.71546761
-27.526667 -2.460857036e-05 84.90436161
-36.556835 -2.460857036e-05 61.66052561
-157.999785 62.66872039 -80.00177839
-79.561479 -2.460857036e-05 59.00735361
-250.202099 19.08731239 114.2499026
-157.999785 13.08484539 -84.49340039
-181.868683 -2.460857036e-05 -21.20958139
-157.999785 91.63743239 -10.19473739
-129.871575 156.7568934 64.24990261
0.0002150001783 18.68527039 -50.77244739
-213.316474 -2.460857036e-05 -79.36258239
-225.487293 15.02417739 108.2499026
-157.999785 166.2548134 -33.70201339
-153.999785 212.5050553 26.12075461
-181.359662 22.83882739 108.2499026
-157.547925 127.8252264 -39.08870939
-157.999785 8.890049391 -103.2849104
-71.213639 34.62273039 114.2499026
-149.999785 104.9108224 -23.26734939
-130.466112 10.91705639 114.2499026
-149.999785 61.90452839 -49.70393339
-125.86021 3.985839391 -91.75009739
-128.891409 59.62173339 68.24990261
-157.999785 79.65863539 -10.79922439
0.0002150001783 13.20395639 -95.98663739
-153.999785 242.9994824 -70.03065539
-140.750987 203.3754804 -91.75009739
-139.145092 -2.460857036e-05 -60.42640339
-109.961339 107.9657374 -87.75009739
-149.478834 182.9967254 -85.65277339
0.0002150001783 26.48871539 27.74763961
-149.999785 227.6039042 37.13769461
-81.140434 157.8041784 64.24990261
-148.352138 45.24545039 -91.35635039
-189.970404 -2.460857036e-05 66.29405061
-149.999785 52.96296539 -42.09815439
-79.007836 112.9594154 -87.75009739
-149.999785 11.56662739 17.04872261
-75.999785 222.5605728 -88.70150039
-83.472365 175.6957894 68.24990261
-153.999785 210.2451064 -13.04122539
-58.987917 -2.460857036e-05 -92.65314339
-95.176152 127.0021204 -91.75009739
-157.898266 10.94033839 96.61049861
-96.341737 229.6574527 -87.75009739
-153.022043 -2.460857036e-05 -9.833730387
-24.575657 30.54532339 108.2499026
-167.154395 24.74385439 108.2499026
-198.207488 -2.460857036e-05 -93.21896339
-149.999785 52.78952539 28.20635861
-157.999785 62.75856839 74.58510161
0.0002150001783 24.35253139 -84.24912339
-157.999785 46.11321739 -9.984847387
-115.822695 -2.460857036e-05 61.69367561
-157.999785 26.12691539 -79.91038839
-149.999785 65.97950839 41.16682461
-77.464016 60.04185939 -87.75009739
-75.999785 240.8623366 -87.88280839
-142.767547 -2.460857036e-05 66.97759961
-171.68386 -2.460857036e-05 102.0041306
-149.999785 115.2960484 -31.95018239
-208.239027 -2.460857036e-05 16.89113161
-149.999785 109.3500484 -78.63342439
-153.999785 196.5094924 -6.916878387
-76.021426 183.1222064 -87.75009739
-88.394249 33.51535239 114.2499026
-251.901781 -2.460857036e-05 66.79895061
-149.999785 38.99008339 39.01540461
0.0002150001783 8.930720391 45.64614661
-143.237175 53.37833739 108.2499026
-94.680197 196.3856314 -91.75009739
-0.4334459998 -2.460857036e-05 -84.86758639
-153.999785 210.0486574 4.583536613
-120.784404 177.7694074 68.24990261
-9.563388 25.65003439 108.2499026
-157.999785 53.63989439 -3.149932387
-149.999785 222.0462581 -71.14550539
-41.153331 -2.460857036e-05 -12.58285939
-149.999785 196.9542914 -47.66526439
-122.100038 139.7831314 64.24990261
-157.999785 122.8740954 -72.74929239
-94.191457 25.81296939 -87.75009739
-157.999785 34.57477339 104.7078126
-131.763405 10.90946439 68.24990261
-153.999785 113.8044594 -18.42665239
-153.731735 245.3554158 -85.75372239
-157.999785 85.49397739 -76.03896339
-157.999785 139.2232934 39.72875461
-157.999785 46.69363639 -65.71275839
-90.355164 109.9873544 -91.75009739
-85.914171 137.5562684 68.24990261
-243.390403 -2.460857036e-05 -15.51269839
-157.999785 87.54130339 -21.41491239
-190.016507 -2.460857036e-05 89.94856861
-140.839204 129.5917414 64.24990261
-78.500262 126.0308574 64.24990261
-149.999785 144.1390324 -74.50875639
-157.999785 42.12940139 -19.83375239
-153.999785 63.90258439 -60.85711539
-157.999785 40.78417339 90.42505061
-171.071096 -2.460857036e-05 -90.41655839
-149.999785 207.2431594 -66.37119239
-157.999785 26.39347539 31.19734261
-153.999785 46.34065239 60.37400361
-66.976299 5.188323391 114.2499026
-86.900298 215.9944161 -91.75009739
-134.820157 157.8082344 -91.75009739
-110.996984 -2.460857036e-05 83.86764061
-137.694761 -2.460857036e-05 -81.21690939
-34.32479 5.683532391 114.2499026
-9.906807 52.89210639 114.2499026
-127.826602 36.46240239 114.2499026
-239.086718 29.26548539 114.2499026
-231.61675 -2.460857036e-05 108.2020516
-80.292593 80.08624439 68.24990261
-42.8101 54.72424839 114.2499026
-238.310117 50.44730739 108.2499026
-96.598629 121.8009084 68.24990261
-122.772499 -2.460857036e-05 -80.73761339
-52.564391 -2.460857036e-05 -54.69591539
-82.671526 44.15900939 68.24990261
-223.749262 -2.460857036e-05 -14.90941439
-153.999785 36.10350539 1.109847613
-153.999785 189.5366414 33.51420561
-34.258888 59.85235539 108.2499026
-20.831278 -2.460857036e-05 -83.10691539
-101.494154 137.6883604 -91.75009739
-97.07825 187.5215554 64.24990261
-122.068635 135.0891204 -87.75009739
-149.999785 62.60559739 29.30653161
-116.548788 233.2653675 -87.75009739
0.0002150001783 9.097054391 64.14535761
-157.999785 21.45707039 -64.98426739
-119.971233 210.6594844 68.24990261
-159.907742 21.87021839 114.2499026
-86.182538 -2.460857036e-05 -41.07257339
-78.720965 29.01131039 108.2499026
-233.490901 -2.460857036e-05 -109.2537364
-87.653907 44.01472339 114.2499026
-204.095219 -2.460857036e-05 -50.42782339
-6.771617 -2.460857036e-05 -34.45045039
-153.999785 42.48697839 -80.60802739
-232.939462 -2.460857036e-05 2.008221613
-142.88716 178.1578154 64.24990261
-152.580108 71.58217439 -88.28429139
-162.133495 -2.460857036e-05 -13.38470039
-149.999785 60.06112339 -18.74405839
-106.40594 92.85769639 -91.75009739
-192.41924 -2.460857036e-05 -46.06449639
-44.899147 -2.460857036e-05 -29.70019439
-96.208957 170.2733164 -91.75009739
-149.999785 32.90768539 -65.80031639
-138.765962 66.88311539 64.24990261
-45.110002 36.51031439 114.2499026
-157.999785 154.1364544 -58.53369039
-157.999785 111.9331474 19.37375261
-149.999785 244.5062725 -19.29442539
-149.999785 110.7042434 50.95121861
-157.999785 153.0369014 7.894618613
-153.291187 0.4999753914 -30.19954139
-149.999785 198.0174554 24.81793261
-161.58862 -2.460857036e-05 15.64204661
-153.999785 170.0166294 -68.24266039
-149.999785 21.22298639 28.26262461
-165.932353 41.87291939 108.2499026
-77.691462 -2.460857036e-05 -60.04978839
-149.999785 131.4609864 -26.65482939
-115.346746 201.4090794 -87.75009739
-195.179442 48.39008639 114.2499026
-122.03291 -2.460857036e-05 -51.60504739
-157.999785 132.4136544 -71.35744439
-148.085951 23.42161839 108.2499026
-193.007652 36.23273039 108.2499026
-29.866622 -2.460857036e-05 16.50215361
-149.999785 229.4832112 -2.695417387
0.0002150001783 32.94155139 -112.3167894
-118.415982 144.5220284 -91.75009739
-157.999785 86.03552439 37.87148461
-182.174047 -2.460857036e-05 3.508231613
-112.943114 27.68355939 -91.75009739
-157.999785 97.28440939 -70.96635239
-107.963878 -2.460857036e-05 -54.22202739
-141.152106 -2.460857036e-05 56.70679361
-157.999785 75.28352839 -114.0509594
-153.999785 186.1560454 24.53625861
-102.939485 -2.460857036e-05 8.749982613
-98.549572 156.7952084 -87.75009739
-116.895781 183.5329004 -91.75009739
-157.999785 27.24937739 0.4735376126
-111.318767 -2.460857036e-05 -101.0736394
-149.999785 20.51464339 57.77217361
-102.170655 57.27190939 -91.75009739
-153.999785 1.901123391 -109.2438054
0.0002150001783 22.74166939 6.861236613
-157.999785 56.14336639 15.26001261
-149.999785 243.9180937 -4.498779387
-124.800209 250.0070484 68.24990261
-149.882609 -2.460857036e-05 20.90848661
-8.980624 8.437016391 114.2499026
-27.300518 -2.460857036e-05 59.41790761
-131.802529 53.84212339 -91.75009739
0.0002150001783 7.268990391 -32.11295839
-149.999785 33.91890739 -13.41655339
-60.170512 -2.460857036e-05 -110.1145334
-13.070116 67.99997539 114.1096826
-84.980008 44.54902439 -87.75009739
-88.113214 -2.460857036e-05 -99.61346839
-46.274084 -2.460857036e-05 -62.33678239
-157.999785 78.77956239 12.85066761
-118.940109 56.07315039 68.24990261
-8.225587 -2.460857036e-05 -94.51930439
-75.197988 -2.460857036e-05 -83.32910139
-157.999785 176.6192644 -3.344664387
0.0002150001783 11.54280239 -3.002129387
-149.999785 144.3608714 33.67384361
-47.679988 -2.460857036e-05 -19.54373739
-251.216326 43.91937539 114.2499026
-86.418717 246.0883204 -87.75009739
-149.999785 100.4506984 -42.36936239
-94.708468 24.17667239 108.2499026
-150.255003 4.169150391 108.2499026
-130.613988 3.646767391 108.2499026
-181.102718 -2.174717609 108.2499026
-149.999785 16.46706639 6.219791613
-126.684568 23.75763639 64.24990261
-157.999785 74.95441439 -59.17367339
-124.769642 4.888949391 64.24990261
-84.677285 28.28341239 68.24990261
0.0002150001783 26.05023139 75.79888161
-149.999785 147.1300504 -56.79031439
-85.87511 -2.460857036e-05 107.4916846
-149.999785 42.29604539 -62.07657739
-157.999785 33.02161139 -94.36670539
-192.767838 17.34483939 114.2499026
-150.107842 222.4713303 -90.58600339
-140.022596 -2.460857036e-05 90.15882761
-118.083483 63.07417739 114.2499026
-131.561784 107.3105634 -91.75009739
-149.999785 185.7203524 -32.90929639
-40.813297 -2.460857036e-05 18.51373661
-238.266019 67.45310739 108.2499026
-149.999785 50.39794439 -83.55946939
-244.937769 -2.460857036e-05 -76.43063639
-153.999785 202.1628264 -76.56487739
-41.238211 -2.460857036e-05 99.18905461
-249.062684 -2.460857036e-05 -104.0011974
-157.999785 65.51754239 33.07559761
-153.999785 11.08652839 77.31324961
-157.999785 63.78408239 62.42400661
-151.190832 -2.460857036e-05 74.38429761
-157.999785 36.37613439 42.97197461
-32.229353 47.85830939 108.2499026
-208.270008 42.54399239 114.2499026
-157.999785 99.30232939 14.97232261
-149.999785 92.77828139 -49.95532839
-151.17841 133.8044224 -89.80063439
-104.62821 124.2011324 64.24990261
-157.999785 30.99123439 -54.81022439
-153.999785 166.3838064 -82.39153039
-136.964368 146.6210224 68.24990261
0.0002150001783 19.60104739 -26.49999239
-174.131818 52.06723239 114.2499026
-148.097499 60.80020039 114.2499026
-157.999785 127.3216734 34.17132461
-49.36815 -2.460857036e-05 44.68291561
0.0002150001783 -0.9919276086 -50.61952639
-130.346676 -2.460857036e-05 -25.12592839
-220.997512 -2.460857036e-05 -60.27689639
-157.999785 78.00998439 -70.61033339
-157.999785 94.87628839 -62.02106439
-153.999785 182.3350234 -73.11536439
-157.999785 178.7461864 -26.32201839
-160.017401 2.286370391 108.2499026
-173.27668 -2.460857036e-05 41.41994861
-110.190766 239.0085625 64.24990261
-153.999785 241.7154429 10.19592561
-149.999785 122.3477144 25.89285861
-149.999785 89.00586539 -62.12241839
-247.075873 35.69089839 114.2499026
-153.999785 167.7364044 -42.49931939
-103.436378 -2.460857036e-05 -17.85324539
-240.876362 16.60005039 108.2499026
-152.853683 210.5841414 64.32402961
-149.999785 41.83386739 -24.99212739
-157.999785 45.06796739 25.36168461
-83.370851 61.40892339 64.24990261
-69.820417 -2.460857036e-05 93.60063961
-8.133792 -2.460857036e-05 60.56273561
-149.999785 137.8025854 -53.04452639
-149.999785 146.3409934 -46.20528039
-113.737965 108.3743814 68.24990261
-148.858649 114.4947414 -86.53756439
-75.999785 162.2037374 -88.85642339
-190.612951 -2.460857036e-05 -88.10343239
-84.265337 103.6377994 -87.75009739
-157.999785 91.96007939 -104.7093764
-121.749072 -2.460857036e-05 -42.07699739
-77.674434 78.61121839 -87.75009739
0.0002150001783 41.53945739 -89.34045339
-164.993227 -2.460857036e-05 28.33329661
-125.177294 220.7067046 -87.75009739
-216.736811 -2.460857036e-05 -101.6634104
-16.858353 -2.460857036e-05 22.17237561
-57.882956 -2.460857036e-05 89.24024261
-153.999785 18.84639939 47.01695961
-157.999785 163.8629694 -3.421740387
-116.530761 22.95465139 64.24990261
-149.999785 170.5536304 -34.24812739
-118.615432 27.00627939 114.2499026
-130.240216 18.70844939 108.2499026
-47.442736 16.22972239 114.2499026
-157.999785 17.60711339 -105.8664234
-149.999785 157.4874144 36.68547661
-115.721089 217.6276948 64.24990261
-142.701249 -2.460857036e-05 -24.34832539
-157.999785 110.6490314 -40.71185539
-100.128629 48.03246639 64.24990261
-149.999785 94.68759639 -30.91242939
-149.999785 54.78971239 49.55536961
0.0002150001783 41.76221239 35.23680961
-157.999785 85.66681139 54.79011161
-75.150052 55.97405939 114.2499026
0.0002150001783 0.3467263914 -14.78643339
-144.165949 96.05926039 68.24990261
-77.046691 101.3317274 68.24990261
-183.714632 59.30336339 108.2499026
-149.999785 176.1056104 -41.76609239
-113.636255 193.2506654 68.24990261
-142.876095 38.66334539 68.24990261
-224.083458 43.51592239 108.2499026
-149.999785 21.29810039 -45.57555239
-157.999785 165.6551154 -20.55096939
-132.231618 61.72480139 108.2499026
-157.999785 21.32068639 81.19542761
-195.437463 -2.460857036e-05 -10.44304639
-157.999785 69.21168739 -43.26495039
-149.999785 148.7660484 5.858692613
-153.999785 234.9884205 27.57982961
-154.188302 -2.460857036e-05 -47.73760639
-157.999785 153.0379944 16.90502861
-149.999785 82.75370639 -17.00596639
-75.999785 219.7207361 65.82687461
-157.999785 81.93580339 22.13575361
-149.999785 37.03166439 19.48347861
-138.963258 136.3187384 -87.75009739
-157.848185 25.49997539 -28.94254139
-203.887149 2.198846391 114.2499026
-107.684349 0.4999753914 -88.99525739
-119.070042 -2.460857036e-05 -0.9173603874
-153.722115 -2.234188609 41.74990261
-172.246345 34.87969839 108.2499026
-18.626012 50.78785539 114.2499026
-23.213379 -2.460857036e-05 -17.13013339
-235.107564 -2.460857036e-05 -52.14534539
-153.999785 92.39995039 59.77663761
-125.697188 240.1669544 -87.75009739
-149.999785 203.5502054 -28.64711739
-75.615406 2.930027391 114.2499026
-149.999785 106.9260544 2.679584613
-226.062991 35.67372339 114.2499026
-149.999785 156.2325184 -47.76695939
-65.313238 20.37283939 114.2499026
-157.999785 8.091032391 66.95804161
-57.359594 32.09893739 114.2499026
-6.855142 -2.460857036e-05 80.48903261
-153.999785 136.7710124 -1.040734387
-149.999785 126.9132974 -51.56360439
-153.999785 140.3403984 -18.66706239
-110.868353 166.9883944 64.24990261
-155.560181 37.95119639 114.2499026
-157.999785 82.43828539 -87.00436639
-149.999785 109.7793344 -56.61305939
-97.181172 241.746548 -87.75009739
-32.099046 -2.460857036e-05 -63.02509439
-119.508514 89.48508639 -91.75009739
-153.999785 69.75226139 8.142377613
-149.999785 80.80099139 48.15266261
-215.013412 -2.460857036e-05 86.54804861
-153.999785 149.7419944 53.33160861
-157.999785 163.5145444 10.66909961
-228.385654 -2.460857036e-05 45.38503961
-119.353897 160.6615234 -87.75009739
-157.999785 77.42039939 32.92874661
-149.999785 69.38816539 -71.58565439
-149.999785 73.16038539 57.14014661
-141.547136 55.86234739 -91.75009739
-106.132261 216.4653711 -91.75009739
-149.999785 75.50685639 -29.73624039
-153.999785 128.1890404 -17.75374939
-149.999785 163.5682044 17.46844761
-157.999785 74.73142839 -105.2771814
-201.788925 -2.460857036e-05 75.51096161
-98.20001 33.91859239 -91.75009739
-149.999785 125.3145914 -70.09406239
-216.984211 49.99218739 108.2499026
-245.536633 -2.460857036e-05 100.6422416
-84.74939 88.76190939 64.24990261
-99.980044 209.6730204 68.24990261
0.0002150001783 22.90018639 92.30708261
-149.999785 225.6783643 5.194617613
-129.237583 185.9509704 64.24990261
-149.999785 240.1163675 -78.94775939
-149.999785 40.69414039 30.42653361
-192.373587 -2.460857036e-05 -18.64453739
-101.005398 -2.460857036e-05 100.1099126
-149.999785 14.11330839 34.69599061
-232.172677 -2.460857036e-05 -93.80493839
-107.822472 246.9925307 68.24990261
-150.744039 57.58068139 66.68101361
-149.999785 132.1021714 -38.07123839
-77.486661 145.0953404 -91.75009739
-99.580376 20.40959639 64.24990261
-157.999785 92.86476039 0.5624496126
-153.999785 -2.046871609 -63.53151839
-128.162642 48.40077939 108.2499026
-56.659461 24.64019139 108.2499026
-157.999785 65.55665339 -11.29275739
-123.281048 -2.460857036e-05 98.86613661
-153.999785 222.204344 15.69491161
-87.837291 97.48606039 64.24990261
-130.974564 -2.460857036e-05 -75.71341239
-237.967799 40.95843039 114.2499026
-132.959236 39.20069939 68.24990261
-157.999785 15.25343039 61.78783861
-63.231914 -2.460857036e-05 70.36754861
-157.999785 36.22105839 -47.00519239
-104.676299 186.0328544 68.24990261
-157.999785 141.2302134 19.84897461
-157.999785 47.62535839 -105.4778894
-149.999785 132.5805434 38.15753661
-153.999785 181.4080464 3.381889613
-92.67832 196.3460244 68.24990261
-56.80093 -2.460857036e-05 -19.58237639
-182.290788 -2.460857036e-05 -70.23240239
-153.999785 34.59030039 57.45102061
-157.999785 159.0812884 -40.95362539
-129.170194 242.3716057 64.24990261
-149.999785 204.6713484 19.35295261
0.0002150001783 41.13082539 14.27122561
-250.185539 10.99544639 108.2499026
-175.12211 59.64852139 108.2499026
-157.999785 55.18690739 -35.91745239
-152.900991 -2.460857036e-05 -1.237520387
-125.841679 96.08447139 64.24990261
-218.958219 35.87005639 108.2499026
-175.163902 -2.460857036e-05 57.74857461
-150.019375 104.8058584 -90.63032839
-157.999785 98.52228439 43.82403761
-181.802029 13.21871739 114.2499026
-149.999785 109.5003114 13.08174961
-157.999785 51.59808439 -46.62615039
-105.315135 131.8611044 68.24990261
-157.999785 4.859000391 51.63388461
-100.838355 178.6487774 -87.75009739
-141.711927 195.8890764 -87.75009739
-22.481678 61.62564339 114.2499026
-157.999785 160.2086454 -27.12668739
-125.58553 11.52413339 -87.75009739
-106.885784 78.92176539 -91.75009739
-10.216005 -2.460857036e-05 -70.54575439
-239.403483 -2.460857036e-05 20.08009761
-153.999785 170.3315964 -7.477381387
-232.247462 61.42090139 108.2499026
-122.247277 115.4291654 64.24990261
-95.231996 -2.460857036e-05 -33.42696539
-157.999785 45.01940939 45.25637661
-205.307122 -2.460857036e-05 96.68639761
-157.999785 83.85517739 -29.52792839
-72.954473 -2.460857036e-05 75.00949161
-111.6782 87.37443439 -87.75009739
-142.754184 73.23678939 68.24990261
-65.79157 -2.460857036e-05 -35.73954739
0.0002150001783 37.37848139 89.48056061
-89.675854 51.22335839 108.2499026
-130.162187 88.92590439 -87.75009739
-153.999785 190.0643804 -67.89270039
-149.999785 235.0316292 17.47881461
-203.459257 -2.460857036e-05 -60.75500639
-122.894518 120.9703804 -87.75009739
-245.657429 0.8110073914 114.2499026
-153.999785 128.6471584 56.98522961
-80.261081 205.8483864 -87.75009739
-105.39068 144.5482444 -87.75009739
-156.855792 25.49997539 -7.900273387
-146.311598 244.2527329 68.21861761
-157.904512 140.5547414 -66.35501139
-157.999785 89.63587939 13.37381661
-133.204872 -2.460857036e-05 75.99811361
-149.999785 83.88244839 36.26259861
-182.917312 -2.460857036e-05 74.13929161
-233.520436 -2.460857036e-05 -33.75427039
-173.568718 -2.460857036e-05 29.48070461
-153.999785 96.97501039 26.02932561
-157.999785 103.0818524 -26.06172239
-149.999785 248.0089275 40.13982061
-77.961092 -2.460857036e-05 -25.45380339
-149.999785 56.55591139 -0.05506038735
-203.728629 28.20753939 108.2499026
-6.448286 -2.460857036e-05 34.87133861
-92.742335 187.8897454 -91.75009739
-93.161644 -2.460857036e-05 16.39982661
-191.234464 67.06496239 108.2499026
-157.999785 143.6870294 -37.22241639
-85.011708 180.2071484 -91.75009739
-49.88602 62.36844339 108.2499026
-114.021733 50.50899939 114.2499026
-89.202842 -2.460857036e-05 80.60245461
-111.665819 64.23709639 -91.75009739
-153.999785 17.45054839 -58.57326239
-79.551253 -2.460857036e-05 -96.20001439
0.0002150001783 17.50046139 61.06580461
-99.703814 201.9064634 -87.75009739
-149.999785 229.4197276 -83.55264539
-28.543851 -2.460857036e-05 -26.16872939
-249.699679 -2.460857036e-05 -31.94284039
-140.55285 202.3020894 64.24990261
-100.23335 59.57748939 114.2499026
2.067666 36.24373939 107.2499026
-149.999785 23.19233039 -13.37059139
-97.266713 -2.460857036e-05 -51.35182239
-63.408196 59.78618539 114.2499026
-157.999785 61.50038039 0.2144526126
-86.747272 35.29125539 64.24990261
-149.999785 178.1373554 -5.100493387
0.0002150001783 13.19639239 -69.24633539
-230.779928 -2.460857036e-05 11.51098061
-149.999785 41.43483639 -71.33876139
-149.999785 29.12994139 51.84748261
-149.999785 186.6489204 -49.42732439
-157.999785 86.58816339 -43.28510939
-153.999785 53.37754539 -23.03774839
-123.996129 203.0130434 -91.75009739
-146.456352 -2.460857036e-05 -113.9630144
-116.388421 30.69424939 68.24990261
-102.03302 -2.460857036e-05 -9.194289387
0.0002150001783 35.72219139 -104.5164074
-216.505983 2.125417391 114.2499026
-197.312531 25.42103839 114.2499026
-176.42457 43.75196839 108.2499026
-139.938283 -2.460857036e-05 -102.1236804
-157.999785 104.8888614 -67.73185839
-153.999785 104.5055424 -49.89243839
-114.201941 38.23312939 114.2499026
-157.999785 77.45542139 55.46188861
-86.083264 237.8457724 -91.75009739
-153.999785 93.31552339 -40.48361139
-149.824428 172.9266234 61.17923161
-157.999785 36.51059839 -67.49152239
-214.146727 -2.460857036e-05 7.416486613
-231.665504 8.209582391 108.2499026
-84.342998 231.3149777 68.24990261
-134.994429 24.26310939 -91.75009739
-149.999785 55.68296939 -77.28490839
-47.363725 -2.460857036e-05 107.4215906
-3.040113 61.98830239 108.2499026
-157.999785 57.65768539 -70.97640439
-87.411575 181.6598204 64.24990261
-118.680512 -2.460857036e-05 54.02805061
-213.105104 -2.460857036e-05 100.5643496
-62.399931 -2.460857036e-05 -70.81806339
-7.733278 -2.460857036e-05 88.59592661
-149.411011 162.8823554 62.21220861
-149.999785 123.3989654 -32.84181639
-157.999785 56.41627139 79.70052561
-11.226905 35.14883339 108.2499026
-106.789071 230.4116296 -87.75009739
-151.424545 163.5978754 -89.59867839
-3.059594 8.844368391 108.2499026
-102.759176 108.0455124 -91.75009739
-147.486045 241.8290898 -91.59977739
-124.38666 57.18804939 -91.75009739
-51.285715 30.74337439 108.2499026
-149.999785 72.81712939 -78.95177139
-219.58181 -2.460857036e-05 -34.85267039
-157.999785 6.515866391 88.30297761
-174.344888 -2.460857036e-05 -55.21922639
-149.999785 169.7959184 11.39050461
-164.467349 12.57604539 108.2499026
0.0002150001783 42.14086239 -66.00539439
0.1592650002 49.99997539 22.63937561
-86.720048 -2.460857036e-05 -13.90629439
-157.999785 63.93720039 -53.29187139
-89.421374 157.6753734 68.24990261
-83.137181 134.8112454 -91.75009739
-240.931015 -2.460857036e-05 31.55064061
0.0002150001783 35.60206839 -1.880569387
-20.325164 -2.460857036e-05 74.68050961
-153.999785 11.45465139 -13.33564439
-102.890343 94.87757739 68.24990261
-53.221804 -2.460857036e-05 -1.669798387
-66.233963 14.19020639 108.2499026
-153.999785 249.4779044 20.46781361
-184.605537 -2.460857036e-05 -43.34492039
0.0002150001783 29.75168239 11.87058561
-141.225563 163.1468814 68.24990261
-149.999785 127.6062224 19.80300161
-26.638214 18.87144739 108.2499026
-97.797392 81.91348939 68.24990261
-24.571048 -2.460857036e-05 50.94440561
-157.999785 99.39546539 -4.127640387
-149.999785 37.94845039 11.49640661
-222.695914 -1.483882609 108.2499026
-157.999785 127.9020584 23.48405261
-121.430797 194.7030144 64.24990261
-111.16457 96.58477939 68.24990261
-121.076498 41.62199039 108.2499026
-144.86909 45.90750839 114.2499026
-205.748563 -2.460857036e-05 -5.681268387
-157.999785 67.79073739 -26.67699439
-157.999785 69.17957939 41.95009061
-210.419151 59.64475039 108.2499026
-149.322008 27.61417439 -91.00165739
-146.211713 -2.460857036e-05 40.20013761
0.0002150001783 27.24577739 -44.12317739
-153.999785 23.71388939 -112.5475644
-5.12705 -2.460857036e-05 -0.7888703874
-149.999785 120.9176354 1.744332613
-111.68784 -2.460857036e-05 27.26784561
-220.04691 13.33891839 114.2499026
-171.628513 -2.460857036e-05 -82.48339239
-157.999785 24.35421439 60.80099561
-232.262411 55.19281339 114.2499026
-80.505943 34.46760539 114.2499026
-149.999785 8.405483391 -32.68731239
-143.418935 -2.460857036e-05 8.346650613
-112.663535 114.2685304 -91.75009739
-153.999785 213.2323187 -82.34097239
-61.61795 49.48241939 108.2499026
-157.999785 54.12904739 90.85898361
-134.627511 228.722835 68.24990261
-149.999785 249.1653651 57.15452361
-104.027311 109.4186904 68.24990261
-210.220143 -2.460857036e-05 -86.66054839
-153.999785 94.25409839 -24.08206439
-137.169345 122.5449204 -91.75009739
-149.999785 96.77082639 -63.94221239
-64.599868 -2.460857036e-05 103.4355896
-149.999785 212.1297184 -36.05209639
-157.999785 100.6349384 -39.23536139
-64.541077 -2.460857036e-05 40.38957361
-104.424918 204.4833604 64.24990261
-192.518469 -2.460857036e-05 34.88924661
-24.168111 -2.460857036e-05 -48.95222439
-126.846633 168.9385744 -87.75009739
-19.89406 -2.460857036e-05 -39.78784339
-83.029961 208.9866394 64.24990261
-153.999785 123.4476724 12.13895661
0.0002150001783 49.16618139 100.3747376
-220.029597 -2.460857036e-05 24.39886861
-150.614608 112.9501444 66.78169361
-157.999785 56.65502739 47.95956861
-83.479063 198.0158904 68.24990261
-250.691183 61.81641039 108.2499026
-79.877195 95.05491739 -91.75009739
-157.999785 91.39384839 -91.16621339
-71.340037 47.85164139 108.2499026
-172.729987 -2.460857036e-05 -39.68169339
-127.296915 208.9403524 -87.75009739
-111.712173 130.3238474 -91.75009739
-97.47218 69.13409039 64.24990261
-101.647654 20.78033839 114.2499026
-112.948402 15.44088739 108.2499026
-198.153641 -2.460857036e-05 -32.80677139
-153.999785 210.0430084 -44.73074039
-168.314252 -2.460857036e-05 -32.25193639
-20.000773 -2.460857036e-05 91.49631561
-53.105812 -2.460857036e-05 69.09161761
-149.999785 215.3969453 32.22098661
-157.999785 47.48319039 2.864921613
0.0002150001783 10.74476339 56.47715861
-49.208974 -2.460857036e-05 -36.24640839
-149.999785 166.0107964 -75.66263839
-157.999785 79.60628939 1.133286613
-157.999785 1.917802391 -94.07400639
-117.035441 73.14891739 -91.75009739
-157.999785 65.99255539 17.62609561
0.0002150001783 24.08363639 -34.72268139
-149.999785 149.2976274 -38.97430139
-3.917123 -2.460857036e-05 -41.72118739
-124.434843 194.2955704 -91.75009739
-157.857636 114.0939434 -33.70966439
-124.581152 -2.460857036e-05 7.954638613
-192.500389 11.60773239 108.2499026
-123.300816 20.77010439 114.2499026
-90.104553 142.7789014 64.24990261
-113.955933 173.0282564 68.24990261
-71.906415 6.228806391 108.2499026
-153.999785 17.67966839 96.68820161
-153.999785 5.652802391 -86.82453939
-133.009287 72.72922339 -87.75009739
1.20464 -2.460857036e-05 24.66469161
-132.75958 50.25643139 114.2499026
-231.912433 41.14347039 108.2499026
-66.574812 -2.460857036e-05 16.63776061
-35.144016 -2.460857036e-05 83.32420361
-153.999785 218.0608215 -21.34731139
-149.999785 28.89730539 -5.257103387
-149.999785 180.2177274 18.16497061
-146.15301 -2.460857036e-05 85.12991061
-153.999785 10.89147639 -54.36971539
-169.362019 53.29425339 108.2499026
-153.999785 211.7629434 -5.439738387
-149.999785 218.6600276 9.519018613
-153.999785 198.2257984 -83.23413139
-149.999785 71.31327339 1.697647613
-99.419364 158.0789644 64.24990261
-149.999785 109.0513344 -64.32026239
-149.999785 88.22890139 -79.14097539
-121.88927 132.0485964 64.24990261
-21.666206 -2.460857036e-05 -100.5734804
-149.999785 233.0333814 -24.06610939
-59.281242 4.402741391 114.2499026
-145.15715 96.96194539 -87.75009739
-96.534824 55.97064539 108.2499026
-153.999785 235.2908447 -6.513845387
-139.630914 41.04024139 -91.75009739
-157.999785 7.466474391 42.58074861
-149.999785 149.6411254 -14.88819939
-157.999785 98.37458639 7.321131613
-30.965433 -2.460857036e-05 102.9834546
-157.999785 77.76776239 -48.12615239
-136.493368 -2.460857036e-05 29.19592161
-153.999785 50.45754139 35.64753961
-28.574552 56.60876539 114.2499026
-103.496553 -2.460857036e-05 92.80949861
-157.999785 31.58492439 -103.3104694
-149.999785 185.9430314 59.35877061
-210.601069 12.33274739 114.2499026
1.600311 -2.460857036e-05 -103.7668594
-242.810831 -2.460857036e-05 3.417392613
-152.702529 121.0892294 -88.07612739
-113.411171 124.8310114 64.24990261
-99.448553 -2.460857036e-05 22.90058161
-74.056356 -2.460857036e-05 -67.81337039
-105.846033 33.34426639 -91.75009739
-149.999785 227.4471307 -10.59781939
-136.603278 111.6557904 64.24990261
-86.156191 86.95356139 -91.75009739
-154.189336 50.18964139 106.8674256
-115.844063 -2.460857036e-05 -58.12055339
-142.22412 17.13147739 -87.75009739
2.02929 -2.460857036e-05 46.66571961
-217.267603 7.115913391 108.2499026
-106.345024 -2.460857036e-05 -71.82363339
-18.489076 25.91913339 108.2499026
-149.999785 54.89401439 20.86067761
0.0002150001783 12.05096939 -41.51832839
-36.189531 -2.460857036e-05 -1.841004387
-185.727103 20.27849339 114.2499026
0.0002150001783 7.587117391 -112.1978404
-153.999785 220.1028361 25.51654861
-11.122435 -2.460857036e-05 17.03019861
-144.643901 -2.460857036e-05 -32.53042339
-149.999785 43.09930539 5.269991613
-28.266955 33.43863439 114.2499026
-149.999785 72.46996039 -44.07474439
-85.115368 12.42430139 -90.34242839
-149.890247 202.9614244 60.85712761
-208.097693 17.72999939 108.2499026
-157.136461 157.6676934 -7.739359387
-149.999785 43.51357539 -35.48098739
-157.999785 120.6571984 37.82288161
-157.999785 114.1134124 -63.03826039
-192.349749 -2.460857036e-05 -60.87008439
-157.999785 83.72214239 -102.9316164
-149.999785 178.9744414 -55.04171039
-157.999785 89.95519739 -55.00906139
-93.144567 209.7477154 -87.75009739
-40.843602 -2.460857036e-05 73.73572061
-148.666467 250.9103959 -86.69052239
-118.060786 48.12756639 64.24990261
-91.793401 126.1973294 64.24990261
-149.999785 151.6998534 -72.39705639
-79.565254 -2.460857036e-05 71.02302061
-143.219064 61.79364639 108.2499026
-149.999785 62.86328739 -79.64719139
-153.999785 174.3153894 52.08665161
-153.999785 32.59674439 72.12167161
0.0002150001783 35.26264239 -29.49630439
-95.269849 40.83218339 68.24990261
-149.999785 106.2201344 -10.86599239
-149.999785 103.0208704 34.41408561
0.0002150001783 26.44382939 59.78590061
-121.386274 157.5721424 68.24990261
-83.081889 70.91543339 -87.75009739
-129.414351 -2.460857036e-05 -42.93137539
-105.397982 47.12849639 108.2499026
-88.868985 110.8307664 68.24990261
-231.591127 28.62265039 114.2499026
-109.376831 240.5504693 -91.75009739
-93.242315 47.13939139 -87.75009739
-149.999785 141.7165744 -82.00308539
-92.478533 -2.460857036e-05 -80.80206739
-84.149874 246.159974 68.24990261
-13.960217 -2.460857036e-05 -107.8311224
-153.999785 63.80388039 -37.42739339
-154.084332 115.9644714 11.54574261
-219.43946 67.99997539 109.7701316
-138.195039 142.6110224 -91.75009739
-205.693861 -2.460857036e-05 -107.0892534
-183.822949 -2.460857036e-05 -104.5252894
-211.974844 -2.460857036e-05 47.81060961
-113.10769 171.1151444 -87.75009739
-153.999785 172.4380454 -25.26092439
-143.194507 9.178051391 114.2499026
-107.160751 66.31245539 68.24990261
-108.927598 195.9681254 -91.75009739
-79.66739 -2.460857036e-05 26.56220961
-250.843309 -2.460857036e-05 -15.84919039
-153.999785 229.9760914 -35.27266939
0.0002150001783 8.059768391 88.18896461
-153.999785 116.0592874 -56.30346339
-113.81597 33.83052939 108.2499026
-129.233866 150.7211614 -91.75009739
-129.762708 66.76849739 114.2499026
-218.811992 -2.460857036e-05 75.16231961
-149.999785 77.09287939 -54.30660539
-105.27749 50.21041439 -91.75009739
-78.461121 -2.460857036e-05 7.041783613
-153.999785 197.8168854 -22.60717539
-15.339868 15.17986639 114.2499026
-133.454944 25.49958639 114.2499026
-232.129857 -2.460857036e-05 -12.38229539
-201.991011 -1.754648609 108.2499026
-149.999785 155.5680444 -56.94685839
-98.688104 77.00157439 -87.75009739
-184.329021 31.15071139 108.2499026
-220.62346 53.61099539 114.2499026
-92.130312 235.7648586 -87.75009739
-157.999785 105.7797224 38.23945861
-149.999785 194.4930914 18.29579361
-207.731333 -2.460857036e-05 58.73255461
-149.999785 5.866525391 25.97201761
-99.486224 16.27025239 -91.75009739
-90.051043 174.7334304 -91.75009739
-199.735223 38.15090639 114.2499026
-127.05072 179.2302564 -87.75009739
-84.974769 127.0627914 -87.75009739
-184.770016 -2.460857036e-05 50.63272861
-85.415633 130.1839774 68.24990261
-116.015656 47.12705439 -91.75009739
