# .PCD v0.7 - Point Cloud Data file format
VERSION 0.7
FIELDS x y z
SIZE 4 4 4
TYPE F F F
COUNT 1 1 1
WIDTH 1217
HEIGHT 1
VIEWPOINT 0 0 0 1 0 0 0
POINTS 1217
DATA ascii
-176.8374524 57.77282939 148.7499026
-248.7102794 28.33393439 148.7499026
-99.99973636 80.41100439 113.5365916
-184.6889574 5.369720392 148.7499026
-99.99973636 52.65747039 54.95472261
0.0002636411828 46.55102439 129.5439606
-123.1129994 54.91176739 148.7499026
-45.74397036 -2.46078655e-05 -11.36308039
-160.3799484 -2.46078655e-05 92.57708361
-154.1608584 -2.46078655e-05 -80.35238739
-89.16680836 18.77183539 -139.2500974
-95.99973636 93.83446239 86.43755461
-95.99973636 11.63011739 -71.88934939
-95.99973636 27.49283139 -54.65988239
-175.2246234 -2.46078655e-05 -102.9590434
-95.99973636 29.04280639 135.3953916
-175.9511924 -2.46078655e-05 0.191082614
0.0002636411828 58.71346139 39.74136661
-161.9393914 21.40346439 -145.2500974
-85.51290936 31.11115539 148.7499026
-239.9227454 -2.46078655e-05 56.91241161
-185.9804444 -2.46078655e-05 25.46656261
-15.70823536 -2.46078655e-05 -18.70020339
-149.8837634 -2.46078655e-05 13.67307061
-128.5350894 -2.46078655e-05 139.5724746
0.0002636411828 46.18108439 10.45456661
-198.4684294 26.98026539 -145.2500974
1.058244641 40.24889339 -145.2500974
-35.12618236 6.323915392 -139.2500974
-82.11882836 -2.46078655e-05 36.14459061
0.0002636411828 57.73350139 52.02835361
-217.7537964 -2.46078655e-05 41.25981661
-95.24689536 -2.46078655e-05 54.62941061
-141.8348874 22.60086739 -145.2500974
-99.99973636 67.31985439 75.57020861
-124.3307584 -2.46078655e-05 -114.1637434
-75.11093136 -2.46078655e-05 4.448647614
-196.4389894 46.82435339 -145.2500974
-113.2361554 -2.46078655e-05 22.07947861
-95.99973636 105.5815574 138.5617336
-217.4747494 -2.46078655e-05 -130.9344634
-194.4212414 -2.46078655e-05 114.7178086
-58.48686836 -2.46078655e-05 -104.2885194
-238.1074364 58.13530939 -139.2500974
-151.8956544 132.9999754 152.1455976
1.963861641 -2.105645608 -82.74008039
-37.65941036 -2.46078655e-05 -90.27765239
-221.2187094 28.21213039 -145.2500974
0.0002636411828 49.71540239 -19.82623539
-95.99973636 4.185333392 -60.90062539
-50.26886736 -2.46078655e-05 -58.24494339
-199.4092204 41.76078539 148.7499026
-142.2575424 67.52971539 148.7499026
-175.2039064 -2.46078655e-05 137.8786376
-125.9696524 42.32366239 150.5769216
-235.5137964 43.55094339 148.7499026
-95.99973636 8.159816392 15.06014861
-28.01466736 36.70398839 148.7499026
-36.15891536 -2.46078655e-05 -77.79699539
0.0002636411828 14.00843939 104.1541376
-232.9648354 -2.46078655e-05 124.6318336
-95.99973636 43.89218939 -87.29154939
0.0002636411828 1.868065392 94.39099161
-99.99973636 26.02561939 -74.33782139
-37.80676836 56.28261639 -145.2500974
-3.908493359 -2.46078655e-05 30.60553361
-226.1665104 69.41821739 148.7499026
-99.99973636 21.71464639 6.424072614
-95.99973636 19.60096139 53.21453861
-248.7618754 35.79118139 -139.2500974
-156.8255884 -2.46078655e-05 106.4289046
-205.3452584 -2.46078655e-05 -69.45295339
-19.72586636 54.55300039 -139.2500974
-208.2096524 -2.46078655e-05 29.02677961
-162.7026724 31.92314039 148.7499026
-177.9955204 -2.46078655e-05 -127.9694034
0.0002636411828 39.71000439 -89.24174139
-49.71658336 -2.46078655e-05 1.931630614
-68.51272936 -2.46078655e-05 -4.714366386
-73.27914736 -2.46078655e-05 140.9595256
-129.1385704 79.58405839 148.7499026
-135.8717544 -2.46078655e-05 20.45544861
-103.5246864 -2.46078655e-05 -25.31032339
-138.0482934 -2.46078655e-05 38.28618461
-135.8944064 -2.46078655e-05 -110.6275034
0.0002636411828 2.771020392 -35.41904639
-184.9975984 -2.46078655e-05 -10.81455539
-198.0298284 56.19613839 -139.2500974
0.0002636411828 35.66686039 41.63925361
-66.85671336 -2.46078655e-05 88.95052961
-55.11147936 -2.46078655e-05 24.30136161
-70.16664336 -2.46078655e-05 116.2963396
-95.99973636 49.71085439 99.56520261
-224.1420874 -2.46078655e-05 -119.5518434
-118.1376794 -2.46078655e-05 -128.1315164
0.0002636411828 4.727102392 47.69458761
-139.8309354 41.85476039 -145.2500974
-52.13127536 5.953689392 -139.2500974
-78.49830336 57.23921839 -139.2500974
-95.99973636 44.94227239 -33.72359939
-199.5630634 -2.46078655e-05 -13.79351639
-110.4949524 26.18926539 148.7499026
-238.2348044 -2.46078655e-05 96.55759961
-167.3707244 -2.46078655e-05 38.83308061
-153.3704574 55.09717739 148.7499026
-164.0016384 98.51488539 148.7499026
-140.5963164 11.63330139 -139.2500974
-95.99973636 85.92704339 78.66382961
-95.99973636 2.692650392 107.0486756
-13.46853136 -2.46078655e-05 -90.35347739
-40.82795136 -2.46078655e-05 38.16435661
-99.99973636 20.45957039 69.36759061
-30.10485136 69.84105839 148.7499026
-205.6715214 -2.46078655e-05 -0.355079386
0.0002636411828 79.38102239 113.5465956
-95.99973636 62.04294439 13.16082461
-145.9430414 -2.46078655e-05 -62.97480639
-95.99973636 49.35555639 75.89590061
-101.3971854 -1.393799608 -139.2500974
-186.5988574 67.99997539 -145.1907714
-232.5058034 -2.46078655e-05 -34.22962039
-122.4158584 -2.46078655e-05 -92.19089139
-150.5650434 45.89553439 -145.2500974
-84.26558236 68.42140639 148.7499026
-15.85764936 -2.46078655e-05 5.313308614
-121.7812434 53.25838139 -139.2500974
-18.81139736 -2.46078655e-05 41.12461461
-192.0818594 -2.46078655e-05 -52.52199439
-231.7187604 39.01625039 -139.2500974
-222.3039424 -2.46078655e-05 78.44323261
-4.089322359 55.60508139 -139.2500974
-211.0598074 32.31780339 -145.2500974
-127.4606634 -2.46078655e-05 41.07439161
-99.99973636 46.58357139 31.23268161
0.0002636411828 5.977788392 -107.1208174
-233.1295464 -2.46078655e-05 -57.32652739
-144.6550574 -2.46078655e-05 59.17638461
-19.50235736 -2.46078655e-05 -121.1865494
-163.9245374 -2.46078655e-05 -89.35998839
-99.99973636 10.08275339 -91.74562839
-36.16961236 -2.46078655e-05 61.33010561
-86.61446536 -2.46078655e-05 -73.97312339
-95.99973636 11.69260439 122.0654346
-129.1502054 39.50569439 -139.2500974
-136.6411184 45.21293039 148.7499026
-37.41192136 28.96680239 -145.2500974
-216.3446254 -2.46078655e-05 -21.64938439
-86.74125436 -2.46078655e-05 13.23522661
-128.5876664 12.16602639 148.7499026
-95.99973636 31.10948539 -96.53030439
-51.88445036 -2.46078655e-05 143.5987186
-149.1506874 -2.46078655e-05 -39.91925839
-99.99973636 37.70230039 5.197555614
-68.02988736 6.771622392 -139.2500974
-237.4793714 7.785929392 -145.2500974
-207.1677074 43.35474739 -145.2500974
-171.3487984 -2.46078655e-05 -68.40326339
0.0002636411828 19.18595839 68.03781861
-223.7848914 -2.46078655e-05 -5.685992386
-88.71782736 -2.46078655e-05 95.09290961
-132.9813894 -2.46078655e-05 81.93550861
-111.7172504 -2.46078655e-05 120.2679036
-243.2059074 60.63110539 148.7499026
-91.54963436 78.47146639 148.7499026
-70.85617636 -2.46078655e-05 -67.61847039
-106.0884814 -2.46078655e-05 66.46980361
-56.78578336 -2.46078655e-05 72.25562761
-8.388855359 108.2317764 148.7499026
-223.6838134 -2.46078655e-05 11.14179061
-230.3664794 50.78603239 -145.2500974
-186.5321914 42.01765939 148.7499026
-99.99973636 25.80790139 -120.8228394
-30.62296536 43.35466839 -145.2500974
-95.99973636 12.16655739 -48.85717339
-176.2767784 21.79760239 -139.2500974
-90.81427836 -2.46078655e-05 67.67442361
0.0002636411828 10.93033939 -48.72547739
-162.8320454 55.21652539 -145.2500974
-12.23744636 20.11232239 148.7499026
-58.49578036 -2.46078655e-05 -23.48065039
-99.99973636 78.91524339 50.88485861
-108.1694624 -2.46078655e-05 104.6163026
-99.99973636 48.23182439 -46.40474839
-95.99973636 81.42799339 61.42378461
-212.6055684 -2.46078655e-05 -43.43019339
-99.99973636 10.19613939 72.83997561
-88.96205436 -2.46078655e-05 -107.1866484
-187.4993834 24.97548839 -139.2500974
-24.31416136 -2.46078655e-05 141.7651626
0.0002636411828 68.22049739 7.080311614
-95.99973636 28.15753239 -0.708777386
-220.5943984 -2.46078655e-05 95.14918061
-201.8884614 -2.46078655e-05 58.78406961
-210.3372314 -2.46078655e-05 106.8080446
0.0002636411828 34.09620839 119.2537796
0.0002636411828 60.31110239 -8.998132386
-218.3513004 -1.896201608 -145.2500974
-99.99973636 37.49777439 52.21711161
-95.99973636 92.38683139 63.67082261
0.0002636411828 3.012454392 -119.6640624
-152.3066324 7.719476392 -139.2500974
-97.96425636 13.80299339 148.7499026
-99.99973636 80.34249339 98.65969161
-1.772511359 7.698909392 148.7499026
-98.41500236 22.96930239 -145.2500974
-41.88324236 56.71109639 148.7499026
-132.9893264 24.63026439 148.7499026
-29.60385736 51.63882839 -139.2500974
-99.76154436 53.02224339 -139.2500974
-243.7165374 -2.46078655e-05 -42.73485039
-73.42603036 38.96467939 -145.2500974
-95.99973636 0.4099223921 6.923062614
-144.8153774 -2.46078655e-05 146.2965056
-95.99973636 7.841545392 -126.5155604
-95.99973636 14.84492639 -117.0555024
-112.0210084 -2.46078655e-05 140.5718546
-99.99973636 10.18522939 -27.77973939
-36.01753336 -2.46078655e-05 -30.56227939
-245.1344184 -2.46078655e-05 16.45935361
-95.99973636 67.17609239 -31.26147939
-52.76035436 30.24056839 148.7499026
-119.0361104 -2.46078655e-05 46.81966161
-23.03680236 -2.46078655e-05 -102.1132664
-236.7224744 -2.46078655e-05 -13.85388939
-103.5623464 -2.46078655e-05 84.88309961
0.0002636411828 71.53195739 82.81443861
-67.32462136 25.28606239 -139.2500974
0.0002636411828 5.235178392 -58.27670439
-181.7747274 106.5460994 148.7499026
-85.92047636 35.91674439 -139.2500974
-151.4364544 66.84330739 -139.2500974
-111.9475474 29.38617439 -139.2500974
-28.47544136 -2.46078655e-05 129.1125266
-238.7495914 -2.46078655e-05 -77.81528539
-207.8411494 -2.46078655e-05 80.31817461
0.0002636411828 33.93960039 -77.06414139
-99.99973636 69.91365539 127.5011346
-23.88826236 11.29076539 -145.2500974
-240.6305394 -2.46078655e-05 45.80504261
-174.8158004 118.1489404 148.7499026
-110.5519484 -2.46078655e-05 -77.54230739
-104.9960274 18.19937339 -139.2500974
-59.47493236 6.989658392 148.7499026
-99.99973636 75.52274939 40.68554961
-138.6438044 -2.46078655e-05 125.9881456
-143.2880144 54.69899539 148.7499026
-99.99973636 60.95729939 140.9374756
-202.4289774 11.57059939 -145.2500974
-56.07028636 67.72777139 148.7499026
-115.7121464 67.99997539 -143.4338784
-3.581699359 56.73494239 148.7499026
-132.2715554 -2.46078655e-05 -4.015455386
-52.04920136 -2.46078655e-05 128.3147516
-99.70763636 64.10772639 -46.76873039
-83.91555336 27.12863239 -145.2500974
-60.15013036 5.768728392 -145.2500974
-91.26160236 53.55361039 -145.2500974
-174.0227764 58.51785839 -145.2500974
-148.1867074 -2.46078655e-05 -7.490907386
-36.95132636 -2.46078655e-05 -41.62330339
0.0002636411828 102.0010174 135.9428606
-121.7568414 -2.46078655e-05 80.15765761
-230.7472754 22.49547139 -145.2500974
-218.7074914 -2.46078655e-05 -73.09508039
0.0002636411828 21.61731139 124.4935886
-70.38337836 -2.46078655e-05 26.04759961
-156.5725834 -2.46078655e-05 138.9618896
-171.9616514 -2.46078655e-05 -43.00514439
-36.98737136 -2.46078655e-05 49.71533361
-91.13812836 -2.46078655e-05 115.1886186
0.0002636411828 81.02730439 103.8322456
-225.2740424 -2.46078655e-05 34.91133161
-105.8597204 80.39046639 148.7499026
-99.99973636 63.06318839 -7.362652386
-104.9195004 44.55354439 -145.2500974
-99.99973636 44.75540839 113.1592686
0.0002636411828 38.07630739 -5.356810386
2.129915641 86.88573939 148.7499026
-138.8207294 -2.46078655e-05 -55.39393839
-99.99973636 88.96687539 130.8435216
-177.8186284 37.67739239 -139.2500974
-11.38601036 60.41410839 -145.2500974
-95.99973636 41.34051939 17.84501461
-95.99973636 79.70180839 135.6985456
-95.63457336 105.8441214 148.7499026
-20.03878936 -1.908285608 -139.2500974
-99.99973636 50.48674139 -94.17075839
-225.3990084 41.22581239 148.7499026
-162.3997354 6.828610392 -139.2500974
-169.2407814 45.70329839 148.7499026
-99.99973636 34.96886139 -59.43353839
0.0002636411828 8.788351392 -68.09443939
-184.9318904 -2.46078655e-05 -88.68049939
-32.07794236 66.47896939 -139.2500974
-95.99973636 55.02610239 -52.07315339
-18.71398636 24.17646239 -139.2500974
-192.0572444 -2.46078655e-05 39.85095361
-68.16348536 -2.46078655e-05 -103.6584724
-183.5379824 -2.46078655e-05 102.6816496
-5.544202359 -2.46078655e-05 54.09230561
-99.99973636 90.84805739 97.75288161
0.0002636411828 61.40068739 17.49026261
-234.8339074 -2.46078655e-05 6.763109614
-215.6970114 62.61620739 148.7499026
-157.7294154 33.04846539 -139.2500974
-233.2143964 58.97156539 148.7499026
0.0002636411828 6.408028392 23.45540661
-99.99973636 44.33404439 -76.26129239
-95.99973636 28.89625339 23.05691161
-95.99973636 10.10564339 -18.60653739
-70.43976636 56.69114639 -145.2500974
0.0002636411828 9.205603392 122.7359326
-95.99973636 28.26408339 85.01964161
-95.99973636 10.76200339 88.07605961
-56.36810736 25.09715539 -139.2500974
-196.9680614 -2.46078655e-05 -130.2452964
0.0002636411828 46.20147839 20.03154961
-169.4287384 36.93426539 -145.2500974
-106.7211544 6.565662392 -139.2500974
-106.6377354 -2.46078655e-05 29.63729761
-189.8803674 38.95456239 -139.2500974
-152.8086674 -2.46078655e-05 73.32027761
-242.7320614 -2.46078655e-05 -33.22601539
-64.02219336 41.46213339 -139.2500974
-180.3660944 -2.46078655e-05 123.3452696
-242.6839334 -2.46078655e-05 -22.40961739
-241.9333484 38.69486339 -145.2500974
-148.9583294 87.71680439 148.7499026
-207.1660474 -2.46078655e-05 -88.94581139
-131.8297644 -2.46078655e-05 -34.15111239
-34.16616736 -2.46078655e-05 -20.58866839
-95.99973636 32.98884939 66.89945161
-178.9513254 97.49582239 148.7499026
-141.5090144 124.1458174 148.7499026
-95.99973636 14.03373239 36.33095961
-132.6384764 -2.46078655e-05 -133.6960104
-118.6438824 -2.46078655e-05 29.93003161
-63.00333936 -2.46078655e-05 -62.34429039
-221.7667064 -2.46078655e-05 -110.4003534
-147.5337854 -2.46078655e-05 109.0840656
-99.99973636 26.52599339 -43.64984539
-89.26430736 -2.46078655e-05 -9.936669386
-212.5757854 30.88371739 148.7499026
-14.58609136 70.33828039 148.7499026
-187.6547954 -2.46078655e-05 75.97995661
-125.3342394 -2.46078655e-05 66.20472261
-44.48915336 35.32409639 -145.2500974
0.0002636411828 21.49325939 -122.3765674
-36.56421836 36.16449739 -139.2500974
1.865761641 -2.46078655e-05 -15.92922339
-99.99973636 25.80656239 -64.85843739
-122.9910164 -2.46078655e-05 -103.2919334
-107.4802334 123.6581504 148.7499026
0.0002636411828 11.96089639 -18.52384939
-244.2713624 -2.46078655e-05 73.01263061
-246.9912284 37.51989039 148.7499026
-147.9611764 57.85017939 -145.2500974
0.0002636411828 3.108142392 72.77922261
-95.99973636 40.10073639 145.9140766
-60.72143736 -2.46078655e-05 -86.04925639
-11.15402336 -2.46078655e-05 -99.38667439
-85.02300536 -2.46078655e-05 74.97325461
-95.99973636 20.84876539 120.3463866
-126.2142244 12.00085739 -145.2500974
-95.99973636 37.84140439 129.9327766
-82.86508336 -2.46078655e-05 -34.95511139
-88.13601836 114.4616594 148.7499026
-164.2302424 -2.46078655e-05 -62.47495539
-82.44641736 9.649283392 148.7499026
0.0002636411828 46.43921639 67.17383461
0.0002636411828 22.02965839 108.8155746
-250.5756334 16.53021639 -139.2500974
-190.6025104 -2.46078655e-05 -136.9629994
-95.99973636 21.47906239 101.7007166
-88.84802536 -2.46078655e-05 139.7509266
0.0002636411828 97.13954939 76.40612161
0.0002636411828 26.29518839 15.38883861
-127.3533424 47.96820739 -145.2500974
-99.99973636 23.10011639 -30.24527039
-8.430152359 13.25487439 -145.2500974
-85.99144136 -2.46078655e-05 -23.21031939
-99.99973636 22.76221739 39.33998361
-189.9720644 -2.46078655e-05 10.49033861
-99.99973636 98.32458339 142.5297566
-195.8481074 68.90924539 148.7499026
-117.0265884 104.0819414 148.7499026
-27.54589736 61.02859239 148.7499026
0.0002636411828 40.16935139 103.5538716
-6.483493359 -2.46078655e-05 -79.67866639
-36.50472136 -2.46078655e-05 -105.1338594
-109.5926024 -2.46078655e-05 95.47103161
-183.9734364 -2.46078655e-05 -100.2883374
-177.4898984 28.84903939 148.7499026
0.0002636411828 14.13060239 -0.163705386
-122.9622274 -2.46078655e-05 -69.01284939
0.0002636411828 53.19707439 -30.71788039
-77.23001636 74.41663239 148.7499026
-104.3094674 93.24306739 148.7499026
-99.99973636 30.43017339 -131.9683614
-234.4408454 -2.46078655e-05 -66.71615339
-50.38710736 -2.46078655e-05 -94.55302039
-62.21164436 -2.46078655e-05 79.93446461
-95.99973636 49.91658039 -5.784366386
-99.99973636 50.08477839 135.2808556
0.0002636411828 27.19477639 -103.9734814
-57.38035136 75.62189539 154.2292966
-198.3781144 -2.46078655e-05 -113.7575954
0.0002636411828 42.86584139 142.1401116
-7.952605359 40.57473939 -139.2500974
-25.59213436 -2.46078655e-05 17.50313561
-91.54367136 -2.46078655e-05 -122.0672574
-138.4158264 16.63721439 148.7499026
-149.3280144 108.2719384 151.9417876
0.0002636411828 65.45590539 130.5174526
-235.1119114 -2.46078655e-05 115.8546616
-133.5119444 -2.46078655e-05 148.2122986
-99.99973636 19.92817639 138.8173506
-86.30160836 103.6064594 148.7499026
0.0002636411828 49.58960339 -47.45914539
-214.2579604 38.22127739 -139.2500974
-76.49916336 6.280934392 -145.2500974
-99.99973636 88.42038339 117.6474126
-16.71279136 -2.46078655e-05 86.57348461
-95.99973636 11.79594739 -136.6904954
-13.93164136 -2.46078655e-05 -108.4849044
-84.14160936 -2.46078655e-05 2.506657614
-99.99973636 10.37006739 -81.68291439
-99.99973636 52.62727839 125.0236546
-48.00452036 -2.46078655e-05 -130.8222234
-193.3671674 60.93038539 -145.2500974
-99.99973636 60.33448039 81.16609761
-99.24358936 31.93911439 148.7499026
-68.63210036 -2.46078655e-05 -132.5890724
-95.49875936 -0.7845616079 -68.31085039
2.250807641 63.48285639 148.7499026
-99.99973636 28.16452239 77.02564661
-159.8247134 -2.46078655e-05 -38.63647739
-14.67699836 95.93095839 148.7499026
-21.74332836 99.06609039 154.0709996
-164.0193434 2.618563392 148.7499026
-12.53812636 -2.46078655e-05 118.0460156
-153.4138804 -2.46078655e-05 -133.1293164
-116.7305284 46.50680539 150.3949496
-99.99973636 64.61845439 27.46389061
0.0002636411828 20.29973639 37.16393961
-73.07780136 -2.46078655e-05 51.56126261
0.0002636411828 5.231416392 38.43087061
-20.80645436 -2.46078655e-05 -6.105301386
-121.2950254 -2.46078655e-05 -19.41289839
-95.99973636 40.89782339 -137.0272464
-95.99973636 43.10797939 -113.9957794
-16.88207236 46.15353139 -139.2500974
-51.84919836 15.70655839 -145.2500974
-237.7681084 66.72336039 -145.2500974
-95.99973636 100.9988424 107.6363056
-114.5148414 56.01463039 -145.2500974
-99.99973636 64.56889439 109.5609006
-74.56587036 20.22375339 -139.2500974
-232.6339504 15.09498739 -139.2500974
-168.6818904 47.60196039 -139.2500974
0.0002636411828 51.00778139 137.9733756
-158.8132194 -2.46078655e-05 -122.4186314
-177.7995604 76.05397739 148.7499026
-17.70423636 -2.46078655e-05 -65.25918439
0.7047276412 -2.46078655e-05 5.686772614
-219.2376514 -2.46078655e-05 -49.31286739
0.0002636411828 69.99717339 -18.16634239
-171.4089574 -2.46078655e-05 -21.45145239
-8.342412359 -2.46078655e-05 134.6853816
-82.42897736 -2.46078655e-05 -82.93360039
-37.05390936 -1.242493608 -145.2500974
-232.1098424 8.038242392 148.7499026
-77.17702336 -0.9003986079 148.7499026
-190.9506224 -2.46078655e-05 -40.06050539
-202.7234904 -2.46078655e-05 -51.02904639
0.0002636411828 98.40606839 108.0921486
-170.1083124 64.00026639 148.7499026
-133.0771074 -2.46078655e-05 12.17446461
-59.31572936 50.20561139 -145.2500974
-160.0894934 -2.46078655e-05 -100.4486284
-5.760735359 -2.46078655e-05 -127.8850644
-99.99973636 14.73418739 59.41173661
-95.99973636 36.04564739 115.9752716
-157.3524024 -2.46078655e-05 -53.57337839
0.0002636411828 9.565176392 -27.53880939
-202.7340324 21.38868739 -139.2500974
-104.2228484 48.06701839 148.7499026
-215.2058324 15.19088339 -145.2500974
-99.99973636 44.05071139 70.29316061
-68.47398536 45.02513539 148.7499026
-7.630082359 -2.46078655e-05 110.7466656
-99.99973636 18.44445939 88.56950561
-100.7794914 31.31457039 -145.2500974
0.0002636411828 41.90817039 -59.32004339
0.0002636411828 25.78498439 -93.80182139
-84.17921436 -2.46078655e-05 120.7403686
0.0002636411828 64.66822639 75.83207661
-150.5838734 124.2342264 148.7499026
-71.95434536 -2.46078655e-05 -51.01833739
-50.13384736 61.81921839 -145.2500974
-227.6619884 22.81625039 148.7499026
-122.1601374 94.10697339 148.7499026
-68.07783336 -2.46078655e-05 125.3822436
-150.8076514 -2.46078655e-05 84.83257961
-120.1643854 -2.46078655e-05 137.4652206
-72.03212436 -2.46078655e-05 -84.42062639
-180.8839364 -2.46078655e-05 53.28148261
-42.03365136 -2.46078655e-05 28.39659161
-99.99973636 49.99218139 -65.10189039
-111.9756724 2.650200392 148.7499026
-88.03575036 -2.46078655e-05 -47.31668839
-98.30020736 130.8648594 153.0698236
-95.99973636 5.632628392 129.2948376
-225.6297834 -2.46078655e-05 -89.18703339
-95.99973636 14.61971539 -108.4780824
0.0002636411828 42.11350239 -32.74010639
-87.10280336 -2.46078655e-05 57.29342461
-128.5602444 -2.46078655e-05 96.97657261
0.0002636411828 69.30740739 54.81624961
0.0002636411828 70.27200939 15.38557961
-42.41647936 22.03275939 -145.2500974
-40.51551636 -2.46078655e-05 10.76600861
-99.99973636 32.56190539 35.83287161
0.0002636411828 88.77600139 119.7964616
-88.10551236 -2.46078655e-05 -59.64924539
-185.8601974 -2.46078655e-05 84.32564861
0.0002636411828 76.82769139 122.5486596
0.0002636411828 41.54559839 -22.28018239
-141.4326844 3.597396392 -145.2500974
-99.99973636 63.43864339 121.1850756
-137.3116794 -2.46078655e-05 -92.83344539
0.0002636411828 7.429818392 57.73885061
-99.99973636 38.82272539 -29.35639339
0.0002636411828 24.92363139 -53.99864439
-205.0328954 -2.46078655e-05 21.13902861
-193.7824864 -2.46078655e-05 -7.562067386
-99.99973636 25.99214539 -90.30322439
0.0002636411828 7.866595392 -95.08818639
-206.3179744 83.28916239 148.7499026
-213.3346664 22.43507039 148.7499026
0.0002636411828 28.48304939 -20.46038539
0.0002636411828 68.02902139 66.92694661
-160.1264614 60.60114239 -139.2500974
-204.5116364 16.83558539 148.7499026
-95.80811536 -2.46078655e-05 30.15211261
0.0002636411828 92.40924639 135.6752416
-113.7805154 -2.46078655e-05 61.67720561
-132.7905744 55.17697039 -145.2500974
0.0002636411828 11.02111939 -122.3941224
-99.99973636 35.14353539 -12.55942839
-119.0835874 3.981810392 -145.2500974
0.0002636411828 8.234844392 -135.3961264
0.0002636411828 96.67431039 116.3662576
-155.9689514 -2.46078655e-05 -112.5783184
-99.99973636 77.01799139 11.69046561
-184.0923844 121.9067044 150.9030436
-131.1675704 15.24265239 -139.2500974
-87.09734336 3.241272392 -139.2500974
-95.99973636 105.0212474 123.2023256
-48.04827336 -2.46078655e-05 44.34083761
-104.7360394 20.05118539 148.7499026
-148.7834254 -2.46078655e-05 40.03061361
0.0002636411828 39.89066739 -108.3827344
-159.6562584 39.75399739 148.7499026
-142.6676624 55.30116939 -139.2500974
-99.99973636 35.81917739 99.35559061
-144.2177384 -2.46078655e-05 91.32405261
-195.8701444 -2.057288608 -71.25009739
-242.6991474 29.18728239 -139.2500974
-238.0023774 23.38822239 148.7499026
-99.99973636 110.6359134 130.8109486
-184.1444004 52.38561939 148.7499026
-252.2344954 -2.46078655e-05 142.2429336
-108.2990474 -2.46078655e-05 129.9899206
-190.7491564 48.02527339 -139.2500974
-142.4312134 28.68883839 148.7499026
-56.27824336 -2.112282608 -145.2500974
-95.99973636 30.02102339 52.84513961
-99.99973636 55.37272839 10.14372961
-63.98638336 21.72413939 148.7499026
-185.9244014 -2.46078655e-05 142.4974696
-187.6441034 -2.46078655e-05 66.25684161
-244.3489084 -2.46078655e-05 38.35123561
-170.8563354 -2.46078655e-05 27.99401861
-7.538909359 64.71329239 -139.2500974
-247.5323564 -2.46078655e-05 132.8954566
-204.9291254 -2.46078655e-05 -61.15125439
-68.75956536 -2.46078655e-05 -13.05780939
-105.2351464 -2.46078655e-05 -119.2215144
-213.0721624 54.73940339 148.7499026
-95.99973636 51.80219039 40.42909461
-179.5925924 12.21065339 148.7499026
-97.23713036 -2.46078655e-05 -106.6003164
-66.84951636 -2.46078655e-05 67.08365161
-99.99973636 2.554379392 -132.0938024
-36.72763636 12.99495839 -145.2500974
0.0002636411828 24.52653939 -6.139541386
-94.69017536 4.709846392 148.7499026
-251.4808964 -2.46078655e-05 60.09635361
-46.33770636 -2.46078655e-05 -120.4080274
-96.37505636 -2.46078655e-05 88.98802461
-29.07678236 -2.46078655e-05 -5.364879386
-95.99973636 67.87391439 -0.927758386
-73.12147636 -2.46078655e-05 -38.46637239
-115.3039014 -2.46078655e-05 -86.10900739
-95.99973636 7.143302392 79.38618061
-121.2809554 -2.46078655e-05 -1.753240386
0.0002636411828 61.19959939 -58.13655639
-160.0637274 117.7852054 148.7499026
-99.99973636 88.09298139 69.46347161
-119.4856764 21.67837539 148.7499026
0.0002636411828 75.19669539 142.8123956
-154.1219504 14.28577639 -145.2500974
-3.593276359 127.7601764 154.4362276
0.0002636411828 36.24909139 -46.99059739
-132.7151684 -2.46078655e-05 59.34136061
-214.8309134 57.49724539 -139.2500974
-111.4896594 -2.46078655e-05 -64.00223239
-38.11983236 65.04053839 -145.2500974
-102.2960934 62.07530839 148.7499026
-99.99973636 43.95235739 -106.8719024
-218.5161634 50.16420739 -145.2500974
-31.34868536 -2.46078655e-05 98.56876661
-5.771675359 100.3338054 148.7499026
0.0002636411828 23.57008639 54.30215961
-102.0615284 58.11928239 -145.2500974
-74.70668136 -2.46078655e-05 42.82530761
-220.9625584 67.47428139 -139.2500974
-35.00014236 25.71811639 148.7499026
0.0002636411828 74.50291039 36.81001461
-197.5757064 -2.46078655e-05 105.6773356
-53.66927836 37.65072739 -145.2500974
-105.9894164 -2.46078655e-05 -110.9568564
0.0002636411828 114.9265114 127.9072986
-16.82366936 -2.46078655e-05 -43.50495439
-99.99973636 73.18557539 82.21310661
-134.2897624 69.22008239 148.7499026
-174.0432284 -2.46078655e-05 62.16889061
-202.8501124 -2.46078655e-05 -79.71282939
-52.53551836 -2.46078655e-05 -17.93322439
-23.73791436 -2.46078655e-05 1.489184614
-120.4653514 10.58132539 148.7499026
-225.2601684 -2.46078655e-05 140.6454756
-87.44931136 64.92039439 -139.2500974
-35.47136536 63.73946339 148.7499026
0.0002636411828 55.38529439 86.56050161
-236.1281474 24.41246239 -139.2500974
-144.1651934 -2.46078655e-05 -88.47677639
-168.4322714 -2.46078655e-05 93.40933761
-174.1301744 -2.46078655e-05 47.10454561
-145.1472534 42.82828639 -139.2500974
-102.3024134 -2.46078655e-05 -55.37974539
0.1341706412 20.68427939 -137.7500974
-128.6321584 24.17747639 -145.2500974
-209.6474414 -2.46078655e-05 37.55037561
-35.15452936 23.89263439 -139.2500974
-173.8722654 17.00384839 -145.2500974
-172.3072044 8.193431392 -145.2500974
-58.04376436 67.50106339 -139.2500974
-229.5383954 9.730491392 -145.2500974
-67.23990036 -0.7775306079 -145.2500974
-131.4760574 -2.46078655e-05 -73.30622939
0.0002636411828 41.40083039 122.5717156
-95.99973636 19.13649739 -14.81965639
-95.99973636 60.15420839 61.05300461
-27.29783636 4.616567392 -139.2500974
-19.27728736 -2.46078655e-05 66.29375261
-161.6705804 67.05333339 148.7499026
0.0002636411828 108.1904444 147.0879136
-223.8571374 -2.46078655e-05 -135.7586874
-7.057085359 31.58293339 -139.2500974
0.0002636411828 44.08766739 96.41052061
-230.0636324 49.39823839 148.7499026
-70.57835336 48.13339739 -145.2500974
0.0002636411828 25.25353439 -78.28921139
-12.60113336 -2.46078655e-05 25.16235861
-143.2165224 -2.46078655e-05 -46.09001139
-78.93340536 -2.46078655e-05 98.73469161
-162.1750224 -2.46078655e-05 50.84283061
-152.7370304 -2.46078655e-05 128.4681696
-7.416341359 -2.46078655e-05 -46.91742939
-125.5596214 -2.46078655e-05 123.9374816
-139.3118764 50.38371039 -145.2500974
-157.2068174 -2.46078655e-05 10.59563561
-222.6462394 44.86559939 -139.2500974
-99.99973636 62.49129039 -20.50121239
-164.3305134 19.98607039 148.7499026
-195.2888584 -2.46078655e-05 129.9781976
-169.8916484 -2.46078655e-05 -117.5540634
0.0002636411828 61.07494439 -27.24715239
-34.26155036 41.57103539 148.7499026
-231.1789394 -2.46078655e-05 53.04831661
-201.2339774 3.744156392 -145.2500974
-125.5361924 -2.46078655e-05 -59.79067839
-140.9928624 -2.46078655e-05 -72.68940039
0.0002636411828 23.38437739 141.6789386
-230.1904894 75.95112939 150.8096596
-142.9136014 -2.46078655e-05 -114.2640304
-99.99973636 75.00074339 92.83665061
-95.99973636 40.17856239 33.55424161
-16.49050836 82.90940639 148.7499026
0.0002636411828 59.00787739 105.6917636
-101.3359064 -2.46078655e-05 -89.38538039
0.0002636411828 46.47707539 88.83286261
-55.43349536 -2.46078655e-05 48.36313461
-129.0530964 -2.46078655e-05 88.80944861
-220.0258344 6.611410392 148.7499026
-183.8888234 -2.46078655e-05 -54.87123139
0.0002636411828 54.17733539 1.513643614
-240.8609834 53.10679339 148.7499026
-99.99973636 52.19654039 -32.92714639
-99.99973636 17.23966639 -4.550669386
-201.7263674 -1.877577608 -139.2500974
-126.2787234 61.12521339 -139.2500974
-11.81094336 12.25124039 148.7499026
-95.99973636 56.73072639 49.53732561
-75.76587536 -2.46078655e-05 121.8254026
-99.99973636 41.56316839 82.00525861
-214.7558084 -2.46078655e-05 130.6283706
0.0002636411828 60.96323639 97.72317761
-135.2665954 34.20865139 -145.2500974
-43.95145536 54.01402939 -139.2500974
-72.23609436 35.49708339 148.7499026
-201.5571694 -2.46078655e-05 -28.52730739
0.0002636411828 14.35472039 15.62926361
-227.9653484 -2.46078655e-05 0.936433614
-51.12889636 -2.46078655e-05 10.86473661
-111.2679964 8.694457392 -145.2500974
-240.9039744 -2.46078655e-05 29.41403361
-107.2308424 -2.46078655e-05 77.18975361
-219.0067014 62.87184639 -145.2500974
-95.99973636 81.90539739 105.1753686
-89.99716636 58.98431739 148.7499026
0.0002636411828 71.00442139 114.2996726
-43.50957636 20.73826639 148.7499026
-149.1970464 -2.46078655e-05 116.6947676
-102.6069474 13.85571239 -145.2500974
-21.04099336 -0.9620596079 148.7499026
-132.8932164 67.99997539 -144.6094764
-91.29362236 86.99084939 148.7499026
-99.99973636 77.94643239 144.2379616
-2.988374359 -2.46078655e-05 -102.0367404
-105.8354354 -2.46078655e-05 113.4916796
-200.5757564 -2.46078655e-05 5.778708614
-67.75492436 67.99997539 -140.4059254
-5.456782359 23.85155739 148.7499026
-97.00887136 -2.46078655e-05 15.25527461
-68.18485236 -2.46078655e-05 97.29350561
-161.3279044 47.63489639 -145.2500974
-177.1481284 -2.46078655e-05 107.0221676
-96.74907236 101.2877184 88.32065661
-252.1318304 -2.46078655e-05 81.09279161
0.0002636411828 8.256291392 113.0712496
0.0002636411828 13.26293039 45.92824261
-95.99973636 42.76357539 -64.82285339
-106.1503084 -2.46078655e-05 40.47284761
-95.99973636 52.80029239 116.5718276
-182.4843484 53.60455039 -145.2500974
-99.99973636 33.44100539 -76.41796139
-213.1865094 -2.46078655e-05 61.14437261
-112.0559274 -2.46078655e-05 -132.9075894
-54.29560636 -2.46078655e-05 110.0300946
-39.63074636 75.18742339 151.8033906
-215.8119714 -2.46078655e-05 -60.33755339
-246.5531814 20.50823939 -145.2500974
-235.8340624 -2.46078655e-05 -49.80747539
-99.99973636 0.01153039213 -32.13848639
-215.4732044 -2.46078655e-05 -89.07048839
-99.99973636 45.55281739 3.249646614
-241.4016424 -2.46078655e-05 -85.02170339
-25.08662436 50.05152139 -145.2500974
-242.4924644 -2.46078655e-05 6.310176614
-233.2243604 -2.46078655e-05 -137.9612654
-192.9413674 104.1975824 148.7499026
0.0002636411828 98.01794239 129.4026846
-95.99973636 42.10238639 25.49238461
0.0002636411828 27.65781539 133.7504896
-72.19099536 20.44034039 148.7499026
-190.8763114 15.72189639 -145.2500974
-163.0052094 28.96372039 -145.2500974
-99.99973636 24.06716039 -20.02945339
-117.5427564 -2.46078655e-05 -57.09014639
-99.99973636 7.257714392 102.4263106
-166.6125114 -2.46078655e-05 110.7663766
-240.2272894 53.92795839 -145.2500974
-149.0592674 3.515069392 -145.2500974
-170.9973104 10.24069939 148.7499026
-207.6074354 -2.46078655e-05 -37.29237839
-92.92493636 -2.46078655e-05 44.86877361
-195.4987594 -2.489277608 73.20491061
0.0002636411828 55.71933039 126.8291236
-20.57632136 -2.46078655e-05 113.4175916
-48.08290636 9.103686392 -145.2500974
-217.0655134 -2.46078655e-05 -122.3231684
0.0002636411828 47.88946039 48.70086861
-251.4000424 -2.297042608 -139.2500974
-171.2540754 130.9472104 150.5482866
-226.3265264 -2.46078655e-05 69.01587961
-95.99973636 88.77857039 124.2341086
-233.7233734 -2.46078655e-05 -116.9166704
-145.3835764 -2.46078655e-05 50.39900161
-95.99973636 44.51279939 -126.0510684
-95.99973636 50.14143139 -13.51117939
-95.99973636 19.92076039 -46.70615039
-95.99973636 20.22225539 -71.58724039
-83.79004736 9.499763392 -145.2500974
-95.99973636 65.17476839 67.35513261
-98.07321236 58.72975439 -75.61065839
-99.99973636 57.91628939 103.3968716
-99.99973636 38.70209839 -91.45998139
-81.80616836 37.69404639 148.7499026
-169.9265324 -2.46078655e-05 -96.09864339
-95.99973636 41.95857639 -50.84252639
-156.0222224 -2.46078655e-05 56.69325661
-99.99973636 10.49867239 -57.84442639
-90.47619736 35.97870639 -145.2500974
-80.80553336 40.46125339 -145.2500974
-217.9123664 -2.46078655e-05 -0.974755386
-74.08108236 27.59383139 -145.2500974
-110.3262734 100.4558444 148.7499026
-109.6158794 -2.46078655e-05 15.49640761
-59.16943436 60.08830039 148.7499026
0.6177796412 75.45950539 2.942172614
-43.79186036 -2.46078655e-05 59.63759961
-242.6364214 -2.46078655e-05 -125.7737414
-99.99973636 41.86076539 -16.68598539
-132.2908154 110.8019354 148.7499026
-1.584573359 37.17430239 148.7499026
-250.5981324 59.13294439 -139.2500974
-0.003080358817 20.70809839 -145.2500974
-243.5871754 -2.46078655e-05 -10.84955339
-95.99973636 46.78266939 52.59228861
-184.3524954 -2.46078655e-05 -29.47601839
0.0002636411828 56.99941839 -46.37777139
0.0002636411828 20.24498439 86.49607761
-21.45595736 61.83860839 -139.2500974
-18.43896136 -2.46078655e-05 -96.20707439
-99.99973636 5.520137392 -69.08067339
-15.67911436 27.45275539 -145.2500974
-99.99973636 74.62895039 24.42487561
0.0002636411828 82.82475339 96.07589461
-36.17944436 -2.46078655e-05 -135.4266434
-141.0732544 -2.46078655e-05 -25.21293439
0.0002636411828 5.318435392 -127.2064994
-5.356667359 -2.46078655e-05 -14.06678939
-190.9127094 -2.46078655e-05 101.5793296
-28.60950236 -2.46078655e-05 86.40404661
-159.8368584 -2.46078655e-05 -24.45934239
-154.3609474 -2.46078655e-05 -11.66771239
-95.99973636 11.39392339 54.08650261
-98.47944836 21.47470439 -137.7500974
-24.59679436 -2.46078655e-05 -82.86321839
-127.7157084 35.32139239 148.7499026
-40.27522936 -2.46078655e-05 95.27548861
-11.16993536 -2.46078655e-05 49.23109361
-167.7077784 -2.46078655e-05 138.5727756
-47.30211036 73.55656939 149.7388416
-77.43652336 -2.46078655e-05 113.4170296
-35.43355136 -2.46078655e-05 -69.15117339
-145.1372264 25.46837839 -139.2500974
-135.6226434 -2.46078655e-05 103.5907896
-99.99973636 60.51836739 54.81255961
-95.99973636 4.825899392 -85.94442339
0.0002636411828 26.60647439 -62.85072239
1.923491641 64.84732139 -43.07248239
-223.3728724 -2.46078655e-05 -29.26100539
-100.8836204 -2.46078655e-05 -44.28786739
-190.0859804 54.18123639 -145.2500974
-95.99973636 15.76842439 11.88734361
-13.58513236 -2.46078655e-05 -4.188063386
-58.32764236 -2.46078655e-05 -79.06169339
-99.99973636 18.47615339 27.58296161
-82.00975836 -2.46078655e-05 142.5390856
-214.5611184 4.440222392 -145.2500974
-36.99160336 -2.46078655e-05 71.22411661
-219.4373264 84.32313039 148.7499026
-11.43166736 -2.46078655e-05 141.3791496
-95.99973636 30.35200639 -106.9820564
-123.3424194 -2.46078655e-05 5.323085614
-178.5896734 -2.46078655e-05 -19.80376039
-195.4060544 39.53388839 -145.2500974
-75.93666836 -2.46078655e-05 -11.42202539
0.06696864118 -2.46078655e-05 -112.9482824
0.0002636411828 91.82946539 143.7435496
-174.6898894 -2.46078655e-05 72.35175861
0.0002636411828 79.01350039 26.09395161
0.0002636411828 41.80710239 -11.74747139
-210.8314534 95.16749839 150.0966206
-243.5497264 -2.46078655e-05 -101.8246934
-26.96643836 21.60958039 148.7499026
-8.888042359 -2.46078655e-05 100.6773546
0.0002636411828 53.10624739 -96.38529939
-189.9907404 -2.46078655e-05 -96.12442539
-31.67024136 58.65408639 -139.2500974
-117.4778104 74.54915739 148.7499026
-99.99973636 7.925023392 36.60546461
-167.5288094 38.60132839 148.7499026
-85.83745736 47.18831339 -145.2500974
-166.3220024 19.32802439 -139.2500974
-28.44729936 26.13955639 -145.2500974
-122.2789774 34.61949239 -139.2500974
-5.401618359 0.9569423921 148.7499026
-216.0267754 -2.46078655e-05 -103.0413284
-59.25159636 -2.46078655e-05 143.9116726
1.923898641 -2.46078655e-05 12.85888361
-39.74940936 -2.46078655e-05 -61.91340439
0.9308076412 102.5175314 91.70740061
-68.15322836 52.28362439 148.7499026
-204.6364014 59.21882839 -139.2500974
-131.1909174 -2.46078655e-05 -80.88004939
-198.5265534 -2.46078655e-05 65.21662761
-242.9379834 -2.46078655e-05 141.6535156
-7.086347359 -2.46078655e-05 124.8369906
-190.6509204 -2.46078655e-05 -114.6510154
-99.99973636 64.89568039 18.48513661
0.0002636411828 63.88451739 24.29327961
0.0002636411828 60.85397939 -1.269415386
-8.841029359 -2.46078655e-05 86.88484561
-16.03977136 16.70834639 -145.2500974
-209.6115834 -2.46078655e-05 125.5599496
0.0002636411828 40.72668339 1.360746614
-187.1644694 27.20281939 148.7499026
-90.97288236 58.61920839 -139.2500974
-85.64562336 -2.46078655e-05 29.84563061
1.277781641 36.24678139 -139.2500974
-20.33672936 -2.46078655e-05 74.42976161
-26.41877236 67.70139539 -145.2500974
-197.0217344 19.48205939 -145.2500974
-108.9578524 36.51713539 -145.2500974
0.0002636411828 66.79901039 37.69437561
-233.5195004 66.47741539 148.7499026
-171.8585214 94.20341339 148.7499026
-95.99973636 35.20608739 -119.7397884
-178.7452984 27.35889639 -145.2500974
-188.9147034 12.29965339 -139.2500974
-29.56817936 -2.46078655e-05 118.0647036
-150.2958704 4.116108392 148.7499026
-50.02553336 -2.46078655e-05 -107.1866094
0.0002636411828 18.85907239 77.52109561
-99.99973636 113.1538784 142.7315846
-33.42018436 7.474591392 148.7499026
-115.6984464 132.9999754 152.7998356
-207.3354024 50.46361639 148.7499026
-99.37155136 -2.46078655e-05 60.47211361
-124.2193134 -2.46078655e-05 -85.27074039
-99.99973636 3.266292392 -9.173602386
-91.05986036 28.69756039 -145.2500974
-129.4001264 48.57456639 150.8682026
-126.2343134 1.629587392 -145.2500974
-99.99973636 22.70439539 128.1155886
-175.2525464 69.35503439 148.7499026
-77.26546636 -2.46078655e-05 74.86641461
-180.0537584 -2.46078655e-05 6.019364614
-92.64268936 47.04149139 148.7499026
-237.2444254 44.05489139 -145.2500974
-99.99973636 43.84323839 99.04167761
-56.42944436 59.18040439 -139.2500974
-95.99973636 31.60580339 103.4624226
-137.7958444 4.758358392 -139.2500974
-186.4786364 -2.46078655e-05 16.67185561
0.0002636411828 7.248918392 -1.903457386
-99.99973636 48.23398739 -26.82667839
-28.30204736 45.41833339 148.7499026
-170.1067694 -2.46078655e-05 126.9034116
-7.990587359 7.750816392 -139.2500974
-96.26801936 -2.46078655e-05 -26.11914439
-95.99973636 91.21779139 136.2337606
-195.5053364 -2.232667608 148.7499026
-99.99973636 75.03361639 65.91082461
-99.99973636 35.52107739 18.15311261
-45.92094536 -2.46078655e-05 124.7930356
-204.8552244 -2.46078655e-05 -119.4902104
-185.1858624 4.351066392 -139.2500974
-162.4799634 38.16824439 -145.2500974
-219.8516254 24.76054339 -139.2500974
-11.07617636 56.58602739 -139.2500974
-22.27655136 -2.46078655e-05 -59.88858339
-69.01336336 82.17850439 148.7499026
-235.6737484 -2.46078655e-05 -40.52856039
-61.69199136 -2.46078655e-05 -130.3343714
-27.43984936 80.54537239 148.7499026
-93.48099236 0.2073963921 -139.2500974
-103.5707894 -2.46078655e-05 50.04009761
-60.44721836 27.81542839 148.7499026
-180.4048644 8.820333392 -145.2500974
-99.99973636 37.13826239 -105.0941364
-114.1465214 -2.46078655e-05 78.51770761
-95.99973636 30.70361239 -47.66491939
-163.0274374 2.464822392 -145.2500974
-9.187399359 -2.46078655e-05 -138.6884124
-168.1663974 120.4280654 148.7499026
0.0002636411828 4.639464392 -82.71875639
0.0002636411828 24.86491639 118.2646006
-122.9176404 -2.46078655e-05 105.7238186
-79.76953036 -2.46078655e-05 -53.29164939
-95.99973636 36.71567939 57.92500561
-99.99973636 24.59649939 -128.0870584
-184.8479694 -2.46078655e-05 -129.4215324
-95.99973636 55.71396139 -65.63167439
-36.36339236 -2.46078655e-05 131.6396136
-124.9732434 124.4805454 148.7499026
-249.7117644 -2.46078655e-05 120.6912196
-95.99973636 6.194856392 -1.324623386
-99.99973636 45.12623339 106.1789876
-147.6663044 -2.46078655e-05 -96.33813239
-99.99973636 5.875109392 -119.0112234
-94.60042836 -2.46078655e-05 22.03752561
-11.25537136 57.33145939 148.7499026
-15.95370736 -2.46078655e-05 124.1318166
-95.99973636 18.04819339 -88.73577839
-126.9368714 -2.46078655e-05 132.7878276
-95.99973636 54.63420839 81.44205661
-53.72230236 10.92165839 148.7499026
0.0002636411828 59.53579739 -35.34126939
-11.33848236 67.99997539 -144.5198244
-214.7850954 -2.46078655e-05 80.80869561
-119.2802864 41.12042639 -139.2500974
-215.6808114 -2.46078655e-05 13.70154161
-171.7257974 61.17453039 -139.2500974
-208.1533814 30.35770639 -139.2500974
-95.99973636 38.09125039 -130.6703674
-198.7702414 28.76970739 148.7499026
-99.99973636 72.87921939 54.31055661
-21.81388636 49.50391939 148.7499026
-67.69883436 13.69713139 -139.2500974
-157.3504934 98.22748639 150.6843686
-168.6454004 -2.46078655e-05 14.24341861
0.0002636411828 0.8966523921 -28.75388439
-194.2469304 26.49733639 -139.2500974
-231.8849724 -2.46078655e-05 -96.90987739
-99.99973636 33.42546839 87.28171661
-16.13933736 36.89192139 148.7499026
-52.06448736 -2.46078655e-05 -29.70086739
-234.9311454 -2.46078655e-05 -26.47381739
-64.97777836 -2.46078655e-05 -71.22603439
-53.65252536 -2.46078655e-05 66.11366361
-240.3637474 8.527908392 148.7499026
0.0002636411828 81.40427239 65.12914861
-145.6558174 64.34356939 -145.2500974
0.0002636411828 117.7196634 142.1812126
-139.5936584 -2.46078655e-05 45.88804161
-99.99973636 6.682700392 -47.75274039
-233.3173014 57.44994739 -145.2500974
0.0002636411828 31.27554039 26.12891161
-246.4231874 -2.46078655e-05 -95.44824039
-95.43281736 65.36160039 -139.2500974
0.0002636411828 33.84814539 -124.8851074
-49.40189136 2.362664392 -145.2500974
-91.52379036 16.41037739 -145.2500974
-161.4025294 52.20562939 -139.2500974
0.0002636411828 38.65654839 136.7190336
-104.9723384 -2.46078655e-05 -97.13553439
-224.3054314 -1.537991608 148.7499026
-220.2893944 34.94904839 -139.2500974
-149.8518264 80.91681639 148.7499026
-175.0710564 -2.46078655e-05 91.69114161
-99.99973636 16.60794739 -67.35207039
-17.80880636 -2.46078655e-05 -36.37721139
-99.99973636 15.68490239 -34.14442839
-163.9968504 131.9035634 148.7499026
0.0002636411828 34.35546839 81.83695661
-138.2559954 132.9999754 152.0966526
-95.99973636 56.22681239 93.65439561
0.0002636411828 51.21571839 -81.80231539
0.0002636411828 51.31845939 62.37049361
-104.8206634 47.84956839 -139.2500974
-18.49931736 -2.46078655e-05 98.23100561
-99.99973636 25.40247339 -36.68651539
-245.3687244 14.94265339 148.7499026
-11.39917236 114.6801614 148.7499026
0.2614056412 71.93998139 -10.95298439
-61.40921136 -2.46078655e-05 114.8330256
-99.99973636 102.0886924 102.2026816
-59.01131836 8.833609392 -139.2500974
-171.4561224 -2.46078655e-05 20.52477361
0.0002636411828 22.38777139 101.9965486
-95.07681636 121.8731554 148.7499026
-202.6262894 8.859365392 148.7499026
-95.99973636 54.91756039 -22.59689939
-24.46985336 -2.46078655e-05 45.30688461
-95.99973636 65.98467639 94.10897061
0.0002636411828 15.04927939 -70.80277239
-99.99973636 64.67419039 102.2463866
-45.38455836 6.923763392 -139.2500974
-99.99973636 61.05937839 87.94323261
0.0002636411828 38.53570739 -38.53024239
-37.83469136 48.18056639 -145.2500974
-197.2535744 95.47130739 148.7499026
-179.5858694 40.54498539 -145.2500974
-96.70731736 83.69538539 33.27904261
-30.35052936 -2.46078655e-05 -37.28823339
-196.0914094 6.944827392 148.7499026
-95.99973636 34.12514139 -6.413063386
-183.9966874 59.17499339 148.7499026
-17.74271536 -2.46078655e-05 -114.6275914
-99.99973636 32.85633139 139.3365286
-154.1853644 114.3952564 148.7499026
-95.99973636 21.98994839 46.86380661
-114.0625014 60.78095139 148.7499026
-97.48686436 99.31335339 148.7499026
0.0002636411828 70.83276339 136.4638786
-30.72496236 -2.46078655e-05 1.209364614
-178.4057354 -2.46078655e-05 -108.9433104
-247.9543744 43.63211739 -139.2500974
-173.4342424 0.5079803921 -139.2500974
-95.99973636 73.55802339 76.72168861
-137.8479444 -2.46078655e-05 -100.2459104
0.0002636411828 31.34846239 -6.100783386
0.0002636411828 8.960821392 82.26584561
0.0002636411828 24.07662939 73.20994361
-99.99973636 108.7371214 119.2060726
0.0002636411828 23.78245439 63.07450461
-162.5286294 -2.46078655e-05 65.01128761
-178.0332344 -0.3375136079 -145.2500974
-95.99973636 52.48985139 -59.48955539
-73.15709736 63.67762939 -145.2500974
0.0002636411828 50.42012039 -69.81759339
-4.781820359 -2.46078655e-05 -53.12517039
-232.4923024 64.32510039 -139.2500974
-99.99973636 12.01951639 -129.9589064
-119.6907564 110.9029174 148.7499026
-25.34435436 15.07701539 148.7499026
-95.99973636 79.49247539 80.63552461
-65.55192436 33.84169339 -139.2500974
-95.99973636 29.89892539 -13.88387639
-13.48851536 63.67721039 148.7499026
-249.9303844 -2.46078655e-05 34.59726861
-122.0285704 -2.46078655e-05 37.12063661
1.927607641 13.54557239 136.3027896
-237.2162274 20.68517739 -145.2500974
-63.74243036 44.46820739 -145.2500974
-44.97822036 -2.46078655e-05 67.77134861
-95.99973636 56.67580339 -44.74761539
-95.99973636 32.08606239 94.26172861
0.0002636411828 62.26604139 82.19313061
-99.99973636 25.10393939 15.43586661
-155.4153514 26.76151639 -139.2500974
-144.3160914 16.37963339 -145.2500974
-95.99973636 21.10991839 59.73923461
0.0002636411828 106.7108104 130.9452216
-95.99973636 15.75127139 71.93154861
0.0002636411828 41.09992539 62.91928861
-143.3156814 -2.46078655e-05 8.457818614
0.0002636411828 38.12126139 -82.26665239
-250.8449114 33.15777339 -145.2500974
-99.99973636 58.56056839 44.52692061
-105.9990144 13.50617739 148.7499026
-64.06401036 -2.46078655e-05 41.69679161
-99.99973636 70.61064139 98.25354061
-56.53276136 -2.46078655e-05 -63.92828839
-199.1324194 -2.46078655e-05 -57.87018139
-223.5003524 14.33212739 -145.2500974
-227.7283934 43.84795239 -145.2500974
-99.99973636 76.00163339 124.8133696
0.0002636411828 90.80588239 78.44638461
-102.8998964 61.60397939 -139.2500974
-136.1016034 -2.46078655e-05 -85.36454139
-204.4286054 -2.46078655e-05 68.28067261
-129.4001264 83.20518139 154.3186646
-89.69215936 -2.46078655e-05 -80.78070339
-52.09038436 -2.46078655e-05 76.95720961
0.0002636411828 69.98661939 146.9317146
-150.8512774 -2.46078655e-05 -58.50247539
-178.7336494 -2.46078655e-05 86.00352761
-203.0113814 31.81500239 -145.2500974
-188.2906024 17.53003239 148.7499026
-49.32685736 -2.46078655e-05 -69.83554939
-95.99973636 6.712942392 21.52923061
-43.07281936 -2.46078655e-05 -75.12546139
-99.99973636 2.431107392 67.44287361
-95.99973636 55.19463439 136.6094286
-42.97520736 -2.46078655e-05 -108.2374404
-95.99973636 38.41851139 -78.15776639
-204.3941644 43.39356239 -139.2500974
-114.7262734 -2.46078655e-05 133.3783166
-217.9631434 13.25552139 148.7499026
0.1150316412 89.45183339 52.40108061
-80.79869436 113.0997804 151.9500196
0.0002636411828 53.53755439 -12.44243739
-216.3097774 -2.46078655e-05 -28.25474239
0.2539516412 -2.46078655e-05 123.7860686
-88.44342736 -2.46078655e-05 19.65124561
-96.29800436 53.51021239 -109.2172674
0.0002636411828 74.01493239 108.4229156
-212.5097284 61.69647039 -145.2500974
-99.99973636 15.86067239 -52.59115039
-51.09405836 -1.307367608 -139.2500974
-87.99362836 67.99997539 -145.1686884
-99.99973636 11.25057439 -42.74612939
-109.1994614 53.12058839 -139.2500974
-99.99973636 50.48743039 16.31666461
-39.23989036 -2.46078655e-05 17.22628461
-75.87680736 -2.46078655e-05 -101.8764624
-84.09410736 -2.46078655e-05 -126.6785334
0.0002636411828 103.2010584 142.8022916
-19.86960736 67.99997539 -144.7780144
-157.6201734 61.87710839 148.7499026
0.0002636411828 20.85434239 -46.19382939
0.0002636411828 29.25286139 -26.98453039
0.0002636411828 31.79652939 74.76383361
-230.8294334 33.25695639 148.7499026
-222.8211154 -2.46078655e-05 124.3954436
-53.83803136 13.95920839 -139.2500974
-95.99973636 44.00852139 -43.37653039
0.0002636411828 78.60036139 78.81162261
-99.99973636 5.377245392 115.2899656
-99.99973636 4.616969392 92.73749761
-110.1494204 27.46201539 -145.2500974
-162.8770114 92.06222139 148.7499026
-105.4934314 -2.46078655e-05 -81.70284839
-35.28318336 -2.46078655e-05 114.0000756
-211.4439594 -2.46078655e-05 19.83287261
0.0002636411828 47.01003539 -55.22585639
-78.00705336 101.1437744 148.7499026
-58.29306136 -2.46078655e-05 -120.3871564
-235.0129314 14.13392239 -145.2500974
-231.1224554 -2.46078655e-05 -109.5372644
