# .PCD v0.7 - Point Cloud Data file format
VERSION 0.7
FIELDS x y z
SIZE 4 4 4
TYPE F F F
COUNT 1 1 1
WIDTH 1208
HEIGHT 1
VIEWPOINT 0 0 0 1 0 0 0
POINTS 1208
DATA ascii
-95.99973636 50.18995139 87.22525461
-173.1377604 -2.461303984e-05 114.8958326
-187.7310424 45.84696039 -145.2500974
-225.5448124 51.88773239 148.7499026
-77.41675936 -1.454113613 -145.2500974
-14.91644036 107.3101444 148.7499026
-20.84875936 18.52632939 -139.2500974
-91.75914836 66.90702339 -139.2500974
-190.2948324 -2.461303984e-05 -128.3048704
-250.8656614 -2.321465613 -145.2500974
0.000263641341 98.91301239 82.98150861
-74.14070636 -2.461303984e-05 106.5622096
-71.52310936 -2.461303984e-05 -20.25941339
-128.0088914 -2.461303984e-05 -15.55266039
-151.7631564 -2.461303984e-05 30.32156361
-196.3417464 -2.461303984e-05 2.707253614
-99.99973636 25.31891439 -125.8762034
-143.1584494 -2.461303984e-05 -60.63722239
-51.90103236 -2.461303984e-05 79.86633861
-99.99973636 76.10062539 122.9035296
-139.1294324 51.12303739 -139.2500974
-191.8809904 55.98224739 148.7499026
0.000263641341 27.72286139 -85.47272839
0.000263641341 26.29022139 130.1519796
-122.1514814 -2.461303984e-05 121.5662106
-15.16109736 -2.461303984e-05 -124.1340594
-25.65654136 -2.461303984e-05 90.26402861
-99.99973636 43.03933039 -90.74124039
-191.7184984 -2.461303984e-05 -103.0020594
-108.3408524 132.9309724 148.9369376
-20.95597036 -2.461303984e-05 -47.66127039
-251.4431444 29.85056739 -139.2500974
-78.75150736 15.97227639 148.7499026
-146.6719824 -2.461303984e-05 -103.3680794
-115.1281724 48.87855539 148.7499026
0.000263641341 59.44184139 45.47128961
-75.54633536 101.8360564 153.4261026
-47.11340236 -2.461303984e-05 30.41487861
-95.99973636 36.93691139 -60.43769839
-12.07204336 65.74699839 148.7499026
0.000263641341 87.08072039 120.8437196
0.000263641341 56.47768339 -66.74456139
-98.71606636 -0.763106613 -82.55788139
-95.99973636 8.373373387 -41.21549539
-95.99973636 25.38231639 121.7153806
-95.99973636 15.98188539 -3.176779386
-78.33554836 -2.461303984e-05 -101.1753794
-95.99973636 30.41510839 98.81250361
-130.8399974 4.274507387 -145.2500974
-27.76105236 -2.461303984e-05 132.2914326
1.643895641 -2.461303984e-05 68.75131961
-99.99973636 39.33976439 48.72220161
-229.9987594 -1.170716613 -129.8468874
-109.8307814 -2.461303984e-05 -104.6777544
-181.0736904 -2.461303984e-05 38.84609761
0.000263641341 48.79234039 -21.31120139
-220.3778814 13.62714839 148.7499026
-173.2407074 12.13984039 -139.2500974
1.089291641 -2.461303984e-05 2.510068614
-95.99973636 118.1335774 133.3556706
-149.7472104 15.27829339 148.7499026
-116.1040104 -2.461303984e-05 -69.35221139
-212.3820384 -2.461303984e-05 -93.60819439
-48.01444736 25.87613439 -145.2500974
-90.26233536 -2.461303984e-05 124.1237646
-113.9820974 -2.461303984e-05 27.19568561
-230.7488664 75.47423139 152.5960316
-99.67625936 90.53246539 55.88182761
-116.9371054 47.74108039 -139.2500974
0.000263641341 0.590439387 122.6619456
-53.88719836 -2.461303984e-05 -60.14895639
-244.3665714 -2.461303984e-05 97.71451061
-55.57915536 -2.461303984e-05 -97.49927839
-23.19983536 -2.461303984e-05 39.16516461
-20.76451236 -2.461303984e-05 -5.398643386
-20.88454536 -2.122238613 -145.2500974
-209.2711834 95.64656339 148.7499026
-16.90846236 55.61749239 -145.2500974
-54.20284236 45.51199539 -139.2500974
0.000263641341 57.67091939 5.564577614
-99.99973636 18.22212639 50.76314661
-207.6651694 34.69237439 -139.2500974
-96.46591136 17.59044039 -145.2500974
-252.2294554 -2.461303984e-05 -96.46503539
-194.0820714 -2.461303984e-05 116.5540076
-203.1692834 -2.461303984e-05 -40.09625539
-57.91093836 21.63493939 148.7499026
-233.3221534 67.99997539 -143.3675724
-154.4350044 117.7367734 148.7499026
-175.1196864 104.4969884 148.7499026
-99.99973636 56.20894639 11.61974161
-220.7830654 -2.461303984e-05 59.20661261
-151.5080374 40.64643139 148.7499026
-139.7489934 85.38095939 148.7499026
-1.700735359 -2.461303984e-05 -40.49551739
-88.06454136 -2.461303984e-05 90.52698361
-59.67569336 56.09663839 148.7499026
-83.98955036 82.63427339 148.7499026
-117.0197144 -2.461303984e-05 59.11927461
-10.56550436 21.81392439 148.7499026
-82.92923436 -2.461303984e-05 -0.4166653863
-225.8519654 -2.461303984e-05 29.07249461
0.3961466413 -2.461303984e-05 -106.9549074
0.000263641341 81.27200039 41.39208961
0.000263641341 37.99579439 -107.2012804
-116.6370314 -2.461303984e-05 100.0975566
-46.61825636 -2.461303984e-05 126.4976536
-27.33632436 -2.461303984e-05 -24.32458839
-108.0752684 -2.461303984e-05 -124.9552064
-201.8531174 -2.461303984e-05 22.08708961
-44.45600636 73.78777939 150.0901976
-112.5712844 -2.461303984e-05 4.362747614
-159.0758244 -2.461303984e-05 128.5674396
-190.3511544 65.20343339 -145.2500974
-99.99973636 55.13549539 -15.67488039
0.000263641341 17.07377239 -11.50084039
-229.2579744 -2.461303984e-05 -12.43953139
-229.5808204 -2.461303984e-05 -33.01858339
0.000263641341 58.09227539 102.2431776
-95.99973636 21.27700639 -26.52535339
-49.85596036 39.15806939 148.7499026
0.000263641341 18.80976539 -135.0563824
-95.99973636 51.34505439 68.07773561
0.000263641341 108.8508414 135.6753046
-182.8673664 -0.532987613 148.7499026
-226.9491464 -2.461303984e-05 127.2136516
-147.1661804 -2.461303984e-05 60.22862761
-33.05815536 -2.461303984e-05 -87.29969339
-138.9831024 -2.461303984e-05 95.51467761
-174.5778694 30.44362739 -145.2500974
-113.8935184 11.69974739 148.7499026
0.000263641341 30.67603439 33.26339761
0.000263641341 39.92892739 88.42137961
-172.6941454 -2.461303984e-05 -93.39339839
-107.5504634 112.9543434 148.7499026
-95.99973636 54.02321939 -52.90458839
-203.9604874 -2.461303984e-05 -59.43122539
-251.2817384 7.113773387 148.7499026
-74.29562036 -2.461303984e-05 34.03862461
0.000263641341 16.70342239 52.38416561
-99.99973636 26.86698539 -77.82473339
-145.5299844 67.99997539 -143.2857674
-176.0574754 -2.461303984e-05 82.81290861
-8.070335359 -2.461303984e-05 27.90850561
0.000263641341 22.11213039 97.26986661
-63.22619736 -0.466747613 148.7499026
-235.5734914 -2.461303984e-05 -104.0936174
-26.27288836 -2.461303984e-05 110.4370836
0.000263641341 80.14860839 78.03686961
-96.42678836 12.88244339 135.4947456
-96.63790436 77.71205739 11.79148861
-145.1072834 19.55162539 -145.2500974
-95.99973636 68.48792939 80.72140561
-20.09330136 -1.101385613 148.7499026
-207.1916754 -2.461303984e-05 101.4400076
-146.3003884 -2.461303984e-05 -127.8748684
-164.5094454 72.81476439 148.7499026
-185.7892304 38.80430639 148.7499026
-232.0592404 -2.461303984e-05 -66.93576339
-61.63562436 7.284985387 -145.2500974
-95.99973636 69.23822139 42.30090961
-99.99973636 33.39312739 -107.1153044
-176.5448624 -2.461303984e-05 -1.877113386
-31.70749836 -2.461303984e-05 -131.2490344
-95.99973636 59.36304739 130.1545206
0.000263641341 12.95259839 -72.21106939
0.000263641341 17.36859739 -48.43530939
-169.1207604 47.25305139 -145.2500974
-99.99973636 17.73237739 87.22346861
-179.8858124 -2.461303984e-05 131.3855176
-213.8099914 18.18915639 -139.2500974
-252.1749194 -2.461303984e-05 -71.66728639
0.000263641341 52.72842439 61.62801761
-186.7488324 -2.491643613 -145.2500974
0.000263641341 45.32723439 -43.29917739
0.000263641341 100.9230364 100.3277136
0.000263641341 35.19399539 -127.3254404
-227.2609604 33.95521139 148.7499026
-150.2942734 -2.461303984e-05 -85.25781939
-110.3557844 -2.461303984e-05 134.1345406
0.000263641341 65.15778139 -26.60529239
0.000263641341 64.34863239 29.04174361
-54.29571536 -2.461303984e-05 -14.58343539
-95.99973636 40.70414439 19.79909761
-80.34699236 54.47078239 -145.2500974
0.9212966413 51.36731839 -139.2500974
0.000263641341 19.50226639 114.5495396
-14.77327836 -2.461303984e-05 73.16733861
-144.0693274 -2.461303984e-05 -20.86437639
-202.0177254 13.15498539 148.7499026
-237.4276574 -2.461303984e-05 2.345749614
-95.49875936 -2.273736613 -62.84451639
-95.99973636 9.174915387 64.44253461
0.000263641341 42.90548939 132.7208456
-61.73689836 -2.461303984e-05 -36.53492939
-248.1223054 48.76785839 148.7499026
-36.91160736 -2.461303984e-05 48.78270261
-129.5376824 -2.461303984e-05 -99.83228239
-241.7635334 42.09123439 -145.2500974
-245.5502294 13.88079839 -139.2500974
-196.1672864 -2.461303984e-05 -14.46757039
-99.99973636 89.04939739 108.7192136
-115.1546574 -2.461303984e-05 -26.08519839
-164.8546764 -2.461303984e-05 -128.1680394
0.000263641341 69.32349739 65.48470661
-95.99973636 46.75135339 140.8976806
-95.99973636 62.70327739 106.7873996
-99.99973636 79.83830939 139.0203836
-83.30104536 -2.461303984e-05 -76.70891639
-99.99973636 36.89799839 -18.67368339
-2.025623359 -2.461303984e-05 84.79475861
0.000263641341 11.74176039 -95.47423939
-251.1045864 -2.461303984e-05 -37.81229239
-92.34980036 -2.461303984e-05 -138.6935214
-66.68564036 -2.461303984e-05 -1.699174386
0.000263641341 46.17012839 -79.34863439
-107.3765954 62.45141339 -139.2500974
-99.99973636 12.06336339 35.56693061
-14.07811736 -2.461303984e-05 57.13732461
-19.52568136 -2.461303984e-05 -77.01312039
-95.99973636 26.77800339 8.634967614
-95.99973636 7.512289387 -107.5353654
-211.3838294 -2.461303984e-05 -4.686789386
-204.8274044 54.04046239 -139.2500974
-217.4731564 -2.046422613 148.7499026
-110.2358014 -2.461303984e-05 -54.55152639
-167.7785184 -2.461303984e-05 -55.74860139
-95.99973636 24.39688439 -50.64762539
-40.22296936 -2.461303984e-05 14.31614561
-0.4987593587 -2.463154613 -77.44953239
-229.9987594 -0.583030613 91.00653661
-96.32431836 50.71760039 -131.7900784
-95.99973636 57.04924839 52.39782761
-243.9244424 -2.461303984e-05 60.63621361
-82.46706636 49.84666439 148.7499026
-164.7454334 -2.461303984e-05 -22.15685439
-183.9503264 122.0487634 153.3588556
0.000263641341 32.62775839 11.59823561
-112.0271704 18.74022439 -139.2500974
-211.8712954 -2.461303984e-05 122.9824726
-24.30498236 44.20685239 148.7499026
-178.0238894 -2.461303984e-05 67.10748161
-228.8097144 3.088585387 -145.2500974
-153.5471794 51.27159939 -145.2500974
-15.94985336 36.31250839 -139.2500974
-88.39060636 -2.461303984e-05 140.4111706
-82.08978236 17.51308639 -139.2500974
0.000263641341 54.77507739 142.7785296
-165.5764694 -2.461303984e-05 37.84867261
-61.81425836 -2.461303984e-05 67.16046461
-115.0477744 94.14507339 148.7499026
-72.27196336 65.67401839 148.7499026
-99.99973636 69.58261239 -21.12985239
-145.4069914 -2.461303984e-05 16.13246661
0.000263641341 40.81259239 73.01766461
-142.6065664 -2.461303984e-05 128.6863356
-99.99973636 83.96561039 73.94247261
-99.99973636 99.53388439 97.14689361
-118.1186064 -2.461303984e-05 -87.22818339
-205.7772024 -2.461303984e-05 -128.9736454
-79.92989836 38.64419239 -145.2500974
-180.0071564 -2.461303984e-05 -65.84088039
-73.81883936 -2.461303984e-05 -64.66920939
1.991767641 11.74281239 134.3573466
-201.2085514 -2.461303984e-05 83.47158361
-69.68541036 -2.461303984e-05 87.48301961
-24.34940336 67.99997539 -140.0901684
-105.2255324 -2.461303984e-05 43.29881261
-237.9062304 15.53216239 148.7499026
-99.99973636 91.57191839 123.6949056
-105.6304384 69.71090139 148.7499026
-95.99973636 53.49160339 -101.9403744
-162.6497254 28.96840839 148.7499026
-194.6444194 75.40619539 148.7499026
-114.2147444 28.50673739 148.7499026
0.000263641341 68.25699439 114.9149186
-134.3461544 37.96321639 -145.2500974
-19.24070936 -2.461303984e-05 -101.9787954
-95.99973636 68.78261339 23.79707261
0.000263641341 71.58442339 140.6347596
-205.5196284 49.96167739 148.7499026
-168.3187194 -2.461303984e-05 100.8031176
-139.6355284 109.3160014 148.7499026
-56.09728936 -2.461303984e-05 97.47540261
-128.5492384 13.92886539 148.7499026
-239.8420814 -2.461303984e-05 24.19995061
-233.7837704 -2.461303984e-05 73.61296861
-224.3714834 31.96018239 -145.2500974
0.000263641341 8.591187387 -124.5305154
-15.80552736 92.11984739 148.7499026
-119.3544484 -2.461303984e-05 -135.5405784
-85.19587736 -2.461303984e-05 60.96009661
-185.8190794 -2.461303984e-05 -87.01792039
-129.3693414 46.78671639 150.9081836
-60.22134736 -2.461303984e-05 37.66829461
-87.46766336 -2.461303984e-05 -30.73294839
-51.96047236 59.83824739 -139.2500974
-189.5855544 -2.461303984e-05 -30.59205439
-159.9422524 17.86663239 -139.2500974
-150.8217964 132.9999754 149.3642066
-137.7782564 -2.461303984e-05 -3.644037386
-127.3801284 120.3459244 148.7499026
-144.6371614 -2.461303984e-05 -45.89131839
-99.99973636 13.26807839 21.20003261
-192.3907284 -2.461303984e-05 50.84967961
-118.5438304 -2.461303984e-05 75.84865861
-148.1856104 -2.461303984e-05 143.0620536
-156.5282244 -2.461303984e-05 75.37779561
0.000263641341 24.87164839 65.51609761
-67.17425236 46.86672139 -145.2500974
-34.01897936 10.58789739 148.7499026
-99.99973636 53.33930639 -30.97578539
-46.64985236 -2.461303984e-05 -118.5801514
0.000263641341 12.54517939 -25.04547539
-108.2058744 32.57233839 -145.2500974
-99.99973636 12.32841639 -131.7450884
1.136266641 -2.461303984e-05 16.73101661
-39.99250936 53.87544739 -145.2500974
-12.34112036 -2.461303984e-05 113.0707456
-82.55618436 29.61345939 148.7499026
-9.362578359 6.373947387 -139.2500974
-99.99973636 36.65485339 82.31448761
-15.59014136 -2.461303984e-05 -60.69654739
-40.57821236 -2.461303984e-05 -43.71859139
-239.9394744 -2.461303984e-05 113.2160466
-163.7424914 -2.461303984e-05 5.305525614
-156.9768644 -2.461303984e-05 -64.78406239
-40.29699436 -2.461303984e-05 -17.85087239
-74.81875636 -2.461303984e-05 -114.7709164
0.000263641341 55.61459539 -9.050330386
-99.99973636 40.81248039 34.77308861
-42.96712336 -2.461303984e-05 92.27530361
-132.1939364 -2.461303984e-05 -69.49886239
-154.5074684 -2.461303984e-05 48.30786361
-87.01975236 -2.461303984e-05 25.65822961
-187.2460804 -2.461303984e-05 15.75363061
-32.10642836 26.68882139 -139.2500974
-220.8019504 -2.461303984e-05 -75.09047939
-159.0609604 -2.461303984e-05 112.5127946
-223.3424534 57.98907239 -145.2500974
-95.99973636 37.83101139 130.2827846
-131.6983054 74.10118939 148.7499026
-99.99973636 44.22916539 -76.94419539
0.000263641341 22.38372039 1.781708614
-224.5266334 -2.461303984e-05 45.88781261
0.000263641341 15.01060439 33.05186561
-99.19889436 -2.461303984e-05 0.9800526137
-99.99973636 106.1815774 124.8760086
-248.0347844 -2.461303984e-05 -7.078285386
-99.99973636 56.28472239 -87.02777739
-93.96421136 -2.461303984e-05 -96.22763539
-239.5447684 -2.461303984e-05 -45.18577139
-99.99973636 10.75953139 119.5453346
-89.75000736 -2.461303984e-05 107.2424616
-183.7432014 -2.461303984e-05 106.3159756
-93.98210336 111.5664164 148.7499026
-26.42007636 63.56671739 148.7499026
-178.2297494 -2.461303984e-05 -134.9734954
-99.99973636 12.67322139 -81.25117139
-172.8176004 8.601824387 148.7499026
0.000263641341 29.55414239 144.6678996
-128.9627994 16.25190539 -139.2500974
-99.24999636 17.99672839 148.7499026
-95.99973636 89.26558039 89.35807461
-120.4575154 -2.461303984e-05 145.9917196
-192.6870404 27.22921239 148.7499026
-65.22257536 -2.461303984e-05 -134.5058004
0.000263641341 34.00983939 -17.33430639
-50.27741236 11.25226339 -139.2500974
-88.65695236 29.23696339 -139.2500974
-198.7467584 5.042219387 -139.2500974
-95.99973636 63.60705239 93.18737861
-91.08824636 -2.461303984e-05 76.10131961
-173.7577474 -2.461303984e-05 -38.22153239
-99.99973636 20.31374539 -109.5615114
-178.5098594 66.03028739 -139.2500974
-128.6436094 56.80066439 -145.2500974
-4.852415359 115.9481424 148.7499026
-99.99973636 44.99402739 103.8667306
-99.99973636 81.69330639 44.18435261
-186.3208504 29.86108239 -139.2500974
0.000263641341 49.21222039 116.1156426
-190.1802654 99.34556239 148.7499026
-15.05489936 -2.461303984e-05 135.8032526
-42.28408336 -2.461303984e-05 -98.27388239
-105.8624444 -2.461303984e-05 -38.84229739
-218.1579884 85.95485839 148.7499026
-33.08688036 -2.461303984e-05 76.48040761
-127.2428364 87.90074939 151.5635376
-95.99973636 28.14482339 40.29114561
-81.41637336 -2.461303984e-05 12.54200461
-151.3771454 -2.461303984e-05 -115.5076104
-246.8743874 -2.461303984e-05 -133.1042074
-54.43116736 9.121263387 148.7499026
-238.6672334 28.83722839 -145.2500974
-177.3679664 71.19854839 148.7499026
-171.4818574 118.8072504 148.7499026
-101.1734344 -2.461303984e-05 96.76702561
-126.4705914 -2.461303984e-05 23.91628061
-215.3153134 -2.461303984e-05 21.65988761
0.000263641341 43.99966639 5.290016614
-151.9030254 58.88268139 148.7499026
-7.073510359 22.21420139 -145.2500974
-143.6553894 -2.461303984e-05 40.28281861
-196.7827034 -2.461303984e-05 37.61669661
-78.17982136 -2.461303984e-05 119.9443846
-53.22354736 -2.461303984e-05 -46.05811539
-99.99973636 55.14975839 -2.904359386
-16.11120136 34.41582739 148.7499026
-152.8748964 78.06677539 148.7499026
-136.2169024 -2.461303984e-05 -111.7710584
-56.24729636 -2.461303984e-05 118.1294146
-210.3968674 -2.461303984e-05 66.59423761
-59.22330836 19.83863039 -145.2500974
-126.8718624 61.32398239 148.7499026
-99.99973636 0.978685387 29.32842261
0.000263641341 72.46866039 50.57216761
-189.4591364 -2.461303984e-05 -115.5132564
0.000263641341 53.54476539 -33.61359439
-213.7190734 47.25336339 -145.2500974
-225.6731124 -2.461303984e-05 -114.9980394
0.000263641341 24.03646039 -101.6012944
0.000263641341 65.02146439 15.85670661
-78.83452636 -2.461303984e-05 -88.54131339
-141.2803804 -2.207147613 -139.2500974
-45.66221136 24.66521739 148.7499026
-133.7525144 -2.461303984e-05 -52.24114039
-236.3084434 64.84452139 148.7499026
-13.68907636 -2.461303984e-05 94.18650361
0.000263641341 50.56534939 -106.4366914
-95.99973636 36.66299839 -122.2113904
-118.1274164 -2.461303984e-05 -114.1260164
0.000263641341 31.51905239 118.2349016
-85.61128336 -2.461303984e-05 -14.18387839
-216.7918574 62.83678039 148.7499026
-188.7943224 -2.461303984e-05 81.69863961
-177.5587924 48.88611839 148.7499026
-13.16342036 79.87711939 148.7499026
-129.9277444 -2.461303984e-05 104.1412956
-221.7053784 -2.461303984e-05 -101.9102664
-120.8105294 132.4819794 148.7499026
-33.93229736 -2.461303984e-05 121.4800996
-13.23222036 50.91679039 148.7499026
-80.46870736 112.3921204 149.1815306
-97.00652936 -2.461303984e-05 56.19172161
-95.99973636 12.20729239 8.612308614
-60.68020536 35.51083939 -145.2500974
-144.8645724 26.63281239 148.7499026
-99.99973636 26.01935539 -9.143229386
-95.44238336 -2.461303984e-05 -50.26146039
-96.63139036 130.1491634 151.5743266
0.000263641341 69.69321039 2.895073614
-16.51000636 -2.461303984e-05 7.946344614
-93.61638536 52.73444839 -145.2500974
-139.3213604 39.30098939 148.7499026
0.000263641341 29.44076439 -73.16504039
-198.7085574 43.06310939 -139.2500974
-35.20515036 6.283194387 -145.2500974
-19.41024836 11.11149239 148.7499026
0.000263641341 19.15352639 -61.68099239
-52.36075636 -2.461303984e-05 15.55669961
-95.99973636 24.12734839 -38.45703239
-180.8002754 19.57837439 -145.2500974
-12.90657236 -2.461303984e-05 -35.74325939
-177.5443834 -2.461303984e-05 27.04351561
-95.99973636 31.23557939 -95.86127239
-99.99973636 47.46554539 -64.92530339
-99.99973636 22.41700039 110.6691276
-46.74053236 37.90353839 -145.2500974
-135.4764494 -2.461303984e-05 55.10393061
-235.1062844 55.40669439 -145.2500974
-95.99973636 10.99015639 76.47316961
-10.45090736 66.98326339 -139.2500974
-95.99973636 38.75135239 62.83792061
-65.00041636 -2.461303984e-05 -107.8518594
-8.601938359 -2.461303984e-05 -8.570920386
0.000263641341 33.70838039 -49.59054939
-31.79281636 -2.461303984e-05 0.8260896137
-103.1349214 99.59516139 148.7499026
-103.8549714 52.93205139 148.7499026
-214.3820364 24.41567539 148.7499026
-156.1403074 61.65902539 -139.2500974
0.000263641341 41.99869539 37.12072361
-40.98770036 -2.461303984e-05 -55.67080139
-99.99973636 76.82545239 110.9742316
-28.04987936 -2.461303984e-05 -36.23268939
-95.99973636 25.83537039 59.02843061
-53.20699036 -2.461303984e-05 136.4317376
-204.1636154 14.58774739 -145.2500974
-99.99973636 48.17279739 -43.35186539
-39.57787036 17.33660039 -145.2500974
0.000263641341 94.14869839 136.9759936
-249.7057494 48.55831139 -139.2500974
-79.15185236 -2.461303984e-05 50.75897261
0.000263641341 49.62219739 -57.08428039
-143.7485564 9.363502387 -139.2500974
-99.99973636 61.44473339 117.8459416
-12.73315736 -2.461303984e-05 -112.5741124
0.000263641341 102.8868464 125.4909246
-145.4838844 29.70540139 -139.2500974
0.000263641341 47.86018439 47.69319361
-164.3314384 -2.461303984e-05 26.12956261
-252.0898044 20.80062839 148.7499026
0.000263641341 63.21396639 89.79869561
-99.99973636 37.20426739 113.1966556
-95.99973636 14.32229639 -17.05816539
-185.5622154 55.68765339 -139.2500974
-117.8974894 -2.461303984e-05 -9.623945386
-200.7777464 -2.461303984e-05 -27.22607639
-28.29729836 -2.461303984e-05 -58.03812739
-241.4104094 -2.461303984e-05 -57.91064139
0.000263641341 92.05490139 92.41904161
-205.8477484 2.163202387 148.7499026
-132.7503454 67.99997539 -142.1263084
-105.6093274 82.79639239 148.7499026
-110.4664234 -2.461303984e-05 15.78097061
0.000263641341 0.946644387 55.83645361
-220.2341034 67.41337339 -139.2500974
-249.9849584 -2.461303984e-05 139.6859596
-162.2230244 -2.461303984e-05 -102.8310104
-249.7209714 -2.461303984e-05 87.25029961
-160.0865614 43.16563339 -139.2500974
-236.3305924 -2.461303984e-05 -23.63298339
-43.03244336 -2.461303984e-05 -81.50260639
-240.2128654 4.779821387 -145.2500974
-156.8669134 -2.461303984e-05 -46.48319439
0.000263641341 11.24717539 -1.596255386
-134.6361144 -2.461303984e-05 31.97162861
-105.1975164 -2.461303984e-05 -8.788643386
0.000263641341 9.043552387 -56.34543439
-73.12311736 -2.461303984e-05 -35.52694639
-24.61097436 49.68987639 -139.2500974
-99.76970936 94.58013439 68.53797261
-95.99973636 9.964950387 -29.90900839
-162.9809944 110.1960254 148.7499026
-209.8744334 -2.461303984e-05 -78.30793139
-99.99973636 58.97386039 75.91174361
-131.5594064 -2.461303984e-05 86.88798261
0.000263641341 88.07651439 105.2404546
-244.0190844 -2.461303984e-05 -111.7533044
-3.117955359 13.21793939 148.7499026
-123.2254284 40.30434739 -145.2500974
-191.2550424 -2.461303984e-05 26.37484461
-47.33391336 51.52308539 148.7499026
0.000263641341 58.06273239 -77.98112439
-25.26212736 -2.461303984e-05 -118.9737064
-120.5185084 8.949481387 -145.2500974
-94.02335936 87.83029239 148.7499026
-70.54187636 10.79384839 -139.2500974
-48.95903336 -2.461303984e-05 -70.31398039
-133.2210274 27.68798239 -139.2500974
-235.4709034 41.68837239 148.7499026
0.000263641341 72.95153839 128.8894316
-166.8710604 -0.455618613 -139.2500974
-99.99973636 66.67864639 7.460402614
-78.65345936 -2.461303984e-05 -126.8214004
-104.9139044 -2.461303984e-05 -70.39169539
-198.9840224 -2.461303984e-05 -88.24254039
-41.74231836 -2.461303984e-05 136.5923916
-133.8734284 96.49119739 148.7499026
-223.2434024 -2.461303984e-05 -23.78105139
-214.7273594 -2.461303984e-05 -62.50138939
-95.99973636 39.73374939 -133.7893994
-99.99973636 34.53154639 -48.20319939
-199.1419114 90.98125939 148.7499026
-142.2817034 51.67987339 148.7499026
-212.6386964 -2.461303984e-05 111.1564406
-99.99973636 18.24811639 99.92334361
-99.99973636 81.95526839 62.97953861
-19.42311636 -2.461303984e-05 -16.50567639
-221.8896344 11.80690839 -145.2500974
2.064827641 8.223501387 -137.7500974
-87.14725036 102.8243224 148.7499026
-55.23580036 -0.722406613 -139.2500974
0.000263641341 5.211533387 -85.42254339
-104.4442184 45.71420539 -139.2500974
-61.73943336 54.71724039 -139.2500974
-75.79840736 65.19904739 -139.2500974
-198.9167134 28.86480039 -145.2500974
0.000263641341 50.91826639 89.35917261
-95.99973636 79.23374839 83.20273861
-95.99973636 28.17613239 -67.63247539
-9.352851359 -2.461303984e-05 -71.35667139
-217.4080604 -2.461303984e-05 137.9190336
0.000263641341 38.73619139 -96.21690939
-108.2468704 -2.461303984e-05 -92.06192539
-66.27346036 -2.461303984e-05 46.79975661
-194.5304994 -2.461303984e-05 147.2540676
-177.8434804 -2.461303984e-05 49.29437761
-206.6300234 -2.461303984e-05 12.24944461
-97.65426036 61.07634039 -62.07010639
-23.70976136 9.843986387 -145.2500974
-171.3907334 35.49621439 148.7499026
-5.843775359 -2.461303984e-05 -131.1380984
-179.4418224 -2.461303984e-05 -101.9489774
-83.48383736 70.09941439 148.7499026
2.410315641 77.33109239 10.29483961
0.000263641341 24.18662439 23.32982761
-152.9121634 -2.461303984e-05 5.888715614
-219.5645614 42.85534839 148.7499026
-56.29908836 67.99997539 -145.0602734
-165.3457684 18.48453439 148.7499026
-164.8841004 -2.461303984e-05 137.6715316
-178.9767564 43.90359339 -139.2500974
-199.3553624 65.70172539 148.7499026
-238.5287594 -2.461303984e-05 13.49885361
0.000263641341 41.21216739 -33.33703639
-99.99973636 6.011606387 -121.1311754
0.3527496413 95.96740839 72.62946161
0.000263641341 14.61356239 -35.60591439
-47.50259236 -2.461303984e-05 -107.8536974
-187.9463314 8.200216387 -145.2500974
-145.1788754 -2.461303984e-05 71.91449961
-145.1260064 44.50895639 -145.2500974
-30.56369336 -2.461303984e-05 99.83451561
0.000263641341 23.16294439 -23.54455939
-110.2573454 -2.461303984e-05 86.86480461
0.07412264134 119.9999754 140.1412706
-227.9926024 -2.461303984e-05 142.5189866
-212.4609884 -2.461303984e-05 52.48934561
-11.11392736 48.93680539 -139.2500974
0.000263641341 11.32537339 103.5262656
-116.7664494 119.2054384 148.7499026
-99.99973636 19.43492439 67.73496061
-99.99973636 67.53377439 139.9585396
0.000263641341 68.68117739 103.4956366
-102.9037294 25.53571539 -139.2500974
-63.24560436 -2.461303984e-05 -90.10443839
-141.3704314 122.8498324 148.7499026
-251.0883754 21.07350139 -145.2500974
-95.99973636 46.00062139 77.26907961
-114.5066494 -2.461303984e-05 38.13515361
-105.6815564 -2.461303984e-05 62.31504061
0.000263641341 76.78561439 30.97105561
0.8855786413 -2.461303984e-05 133.8084316
-108.8741834 40.31290139 148.7499026
0.000263641341 99.83829939 110.8542746
0.000263641341 44.87827039 -68.84718039
0.000263641341 10.17551539 66.38691961
-6.209689359 -2.461303984e-05 -52.81576539
-207.4872624 83.45031739 148.7499026
-95.99973636 42.43395439 -103.3969924
-121.2117914 -2.461303984e-05 110.1003336
0.000263641341 78.67566639 110.0329056
-64.48304836 -2.461303984e-05 -46.71415039
-130.1427534 -2.461303984e-05 134.8629566
-24.18040036 75.78894739 148.7499026
-234.6227054 -2.461303984e-05 52.94780361
-81.03790836 -2.461303984e-05 130.0837076
-99.99973636 8.014572387 -90.69738139
-44.78223736 14.17127739 148.7499026
-95.99973636 74.26792739 51.54991461
-189.9120224 -2.461303984e-05 -6.008596386
-176.5945234 -2.461303984e-05 -119.5345524
0.000263641341 39.38862139 -117.6266804
-25.35307936 38.40177539 -145.2500974
-94.49530136 -2.461303984e-05 -8.605781386
1.028154641 -2.461303984e-05 111.5235576
-58.46861036 -2.461303984e-05 -24.20185539
-91.58816136 41.39365139 148.7499026
-20.24450136 -2.461303984e-05 -135.0119304
-95.99973636 22.04772739 78.57573061
-74.75244936 -2.461303984e-05 60.71633561
-112.4215784 58.96666539 148.7499026
-66.60684236 -2.461303984e-05 -57.12103739
-233.5934914 -2.461303984e-05 38.07716961
-99.99973636 2.646255387 126.6619516
-95.99973636 23.69315839 137.7588896
-83.30987936 -2.461303984e-05 -41.28862739
-243.3062834 67.99997539 -140.5469774
-126.6442264 -2.461303984e-05 62.97554061
0.000263641341 49.50309739 14.07361761
-212.6067114 -2.461303984e-05 -44.34795639
-95.99973636 46.65075339 -11.30161539
-96.59642236 63.94039639 -47.60499439
-229.9987594 -2.431462613 -56.82779839
-95.99973636 48.16603839 130.3577786
-146.5978804 102.2109064 151.5151816
-239.3523614 54.99861539 148.7499026
-103.0030214 9.623445387 -145.2500974
-30.16689136 35.74017439 148.7499026
-147.8572804 68.54859539 148.7499026
-175.2092424 -0.511528613 -145.2500974
-52.38129236 -2.461303984e-05 -87.73744739
-121.9083874 -2.161142613 -145.2500974
-174.1137124 56.75014739 -139.2500974
-119.3719574 -2.461303984e-05 -97.41856839
-166.2785664 -2.461303984e-05 78.57682061
-124.0474784 -2.461303984e-05 33.87892761
-95.99973636 44.78286239 7.023352614
-99.20596836 -2.461303984e-05 -29.66490739
-18.23047436 -2.461303984e-05 83.22383361
-67.36327736 -2.461303984e-05 121.7099406
-95.99973636 22.28602739 17.82031561
-99.99973636 59.23035939 41.58427361
-76.63127236 -2.461303984e-05 94.93779561
-181.3852294 -2.461303984e-05 121.3076816
-223.4106014 23.79409139 -139.2500974
-106.4023584 -2.461303984e-05 -114.2456834
0.000263641341 76.42171039 88.99135361
0.000263641341 28.54660839 -117.1859284
0.000263641341 13.00200039 92.78272761
-19.96132236 26.66476739 -145.2500974
-95.99973636 28.30138539 -116.4597104
-165.9414804 36.15857139 -145.2500974
-91.20089536 10.03924739 -139.2500974
-37.97190236 -2.461303984e-05 26.08577361
0.000263641341 29.34918239 82.65955661
-78.54839036 -2.461303984e-05 142.5792666
-136.0305614 -2.461303984e-05 20.74233661
-81.28016736 92.33463639 148.7499026
-212.5222794 26.16426339 -145.2500974
0.000263641341 5.592232387 25.70794361
-15.74786236 -2.461303984e-05 45.91744761
-158.3175264 -2.461303984e-05 14.35754261
-95.99973636 41.17442939 91.65708961
-95.99973636 7.163057387 92.00359961
-99.99973636 2.007589387 114.6313226
0.000263641341 105.3514244 145.0818726
-165.7363684 23.43564839 -145.2500974
-191.5323014 -2.461303984e-05 -51.88846339
0.000263641341 70.30218839 79.91422261
-99.99973636 31.60794839 18.69911261
-97.62080536 119.9999754 143.0416906
-64.24648636 10.99872339 148.7499026
-170.3056654 95.74084539 148.7499026
-118.6429394 55.54104439 -145.2500974
-149.3146794 88.22552539 148.7499026
-145.2363284 -2.461303984e-05 -31.24291039
-41.37649636 -2.461303984e-05 -128.8530204
0.000263641341 58.56694739 112.6248036
-99.99973636 51.23330339 20.24217461
-53.40994236 -2.120794613 148.7499026
0.000263641341 40.92226139 62.93757761
-95.99973636 47.33980139 57.82656761
-195.7156034 38.28511339 148.7499026
-99.99973636 45.75852939 -24.54711639
-65.50709136 29.78598039 148.7499026
-95.99973636 62.98547639 -10.89516939
-71.95474436 84.54101739 148.7499026
-9.802082359 2.250826387 148.7499026
-9.237122359 -2.461303984e-05 37.76309961
-44.06781836 60.88734139 148.7499026
0.8927746413 95.44497039 147.2499026
0.000263641341 5.304566387 -32.24264339
-217.2512084 -2.461303984e-05 34.39787661
-64.42432136 -2.461303984e-05 104.7191166
-110.9357934 2.265841387 148.7499026
-95.99973636 9.674848387 -52.21513239
-160.1149664 -2.461303984e-05 -86.35939639
-222.3029684 72.13996839 148.7499026
-155.7423304 -2.461303984e-05 103.2347246
-99.99973636 109.6202194 136.2763146
-4.073107359 -2.461303984e-05 -117.2538204
0.000263641341 55.17753439 36.60448561
-172.2287214 82.02971239 148.7499026
-158.6415084 47.35176539 148.7499026
-192.3877254 -2.461303984e-05 126.1954766
-81.41794536 60.54646039 148.7499026
-201.4900204 -2.461303984e-05 -103.1814864
-201.5793024 104.4196964 149.4530846
-197.1534084 53.50211439 -145.2500974
0.000263641341 42.55773339 -12.65093539
-228.4098644 -2.461303984e-05 -1.341405386
-95.99973636 87.06167539 98.83369861
-152.9137294 -2.461303984e-05 -24.90422239
-154.2341324 -2.461303984e-05 -76.37406339
-201.9189504 -2.461303984e-05 71.34433761
-99.99973636 54.05129439 95.19466961
-199.5683834 -2.461303984e-05 57.59380461
-95.99973636 -1.249099613 84.37712461
-61.74774636 -2.461303984e-05 7.109554614
-162.3864804 57.29201539 -145.2500974
-99.99973636 96.85871439 115.5651816
-73.12141936 52.07260139 -139.2500974
-99.91472036 60.96680839 -145.2500974
-220.4850054 -2.461303984e-05 89.35519661
-74.52542836 17.36585539 -145.2500974
-105.3999344 122.3655564 148.7499026
0.000263641341 4.541707387 35.80312461
-182.2891494 -2.461303984e-05 57.85826861
-95.99973636 16.55129439 -117.4949624
-95.99973636 49.10963239 39.20987261
-244.6617474 -2.461303984e-05 149.2170156
0.000263641341 16.70039939 9.533188614
-117.7630784 -2.461303984e-05 49.54075761
-142.9506264 -2.461303984e-05 -70.24049239
-42.53512736 -2.461303984e-05 81.97500561
-82.78899536 47.39365639 -139.2500974
-99.99973636 27.16978939 -58.90639939
-95.99973636 33.71853239 -83.20241439
-44.70140036 48.07140239 -139.2500974
-245.5520514 -2.461303984e-05 31.89625361
0.000263641341 25.58151839 48.79205461
0.000263641341 9.885003387 124.9653186
-95.99973636 5.301371387 -68.67279639
-130.2175794 47.64512839 -139.2500974
-172.3329364 -2.461303984e-05 91.61002961
-158.0517834 10.62651639 -145.2500974
-95.99973636 76.22456339 70.03946961
-57.46390136 -2.461303984e-05 127.5841056
-90.30047836 -2.461303984e-05 7.357254614
-239.9264184 -2.461303984e-05 -95.62227039
0.000263641341 63.38861339 -17.24684139
-146.1570904 -2.461303984e-05 89.26204961
-74.75187436 -2.461303984e-05 4.441472614
-95.99973636 0.02736038696 67.96507261
-240.7112174 -2.461303984e-05 -77.58999139
-99.99973636 59.30075539 64.79807161
-190.6300804 -2.461303984e-05 -70.93004039
-33.06348736 -2.461303984e-05 -77.82311539
-231.0176774 -2.461303984e-05 20.75599461
-99.99973636 69.95304639 130.1008626
-249.4710834 7.711213387 -145.2500974
-229.9987594 -0.106566613 -42.46526039
-82.31801236 -2.461303984e-05 80.55320061
0.000263641341 17.90174839 -80.26452839
-99.99973636 76.16438739 36.07775561
-99.99973636 43.30468639 -51.71252139
-150.9718974 -2.461303984e-05 -94.95988739
-8.834574359 123.3170324 153.1114576
-237.3980124 -1.932963613 -139.2500974
-17.83091536 -2.461303984e-05 102.6568116
0.000263641341 0.824340387 -97.57400939
-57.81546836 -2.461303984e-05 -4.852366386
0.000263641341 47.73867239 102.9029766
0.000263641341 52.33430239 129.4811826
-25.89300436 -2.461303984e-05 8.485799614
-99.99973636 58.19623139 138.9152576
-252.3745154 -2.461303984e-05 -107.4577834
-5.054307359 75.13438839 148.7499026
-204.1671124 -2.461303984e-05 129.4976186
-40.57221236 34.21213439 -139.2500974
-95.99973636 19.16655239 -74.36982739
-179.8805344 -2.461303984e-05 9.031912614
-8.125802359 -2.461303984e-05 15.57440061
-66.64509536 -2.461303984e-05 78.66145161
-99.99973636 25.85629539 -87.09799939
-197.7777944 -2.461303984e-05 107.9941626
-243.0466874 22.84620639 -139.2500974
-173.5993394 -2.461303984e-05 -25.99883639
-102.8623494 -2.461303984e-05 -137.8209374
-168.3382814 -2.461303984e-05 127.8760996
-126.1491464 -2.461303984e-05 -62.45510539
-110.8328194 -2.461303984e-05 -81.48366839
-78.91148636 -2.461303984e-05 -25.86899739
-34.56449836 -1.652686613 148.7499026
-160.0052454 63.38961139 148.7499026
-66.84097236 50.21796539 148.7499026
-95.99973636 96.55233639 105.0352386
-220.2605974 -2.461303984e-05 119.0624046
-139.7249434 -2.461303984e-05 -121.3604704
-113.8828284 39.88174739 -145.2500974
-134.6133384 -2.461303984e-05 124.0278586
-7.295989359 30.98507339 -139.2500974
-45.58754536 -2.461303984e-05 51.96353761
-235.2714824 -2.461303984e-05 99.32214561
-95.08851136 71.23089739 148.7499026
-95.99973636 10.85635639 55.38627661
-99.99973636 19.19584539 127.2419956
-170.5785874 64.98589039 148.7499026
1.445897641 67.49295839 148.7499026
-95.99973636 1.889470387 -130.4693544
-236.3321704 -2.461303984e-05 121.6526876
-38.47276836 -0.322631613 -139.2500974
0.000263641341 18.93994939 142.2908636
-225.1055794 -2.461303984e-05 70.63490061
-140.9732234 -2.461303984e-05 81.57864561
-99.99973636 16.20920639 -36.11817439
0.000263641341 115.6889254 129.5618316
0.000263641341 7.902128387 -11.57812139
0.000263641341 47.38095539 -89.31236139
-6.742486359 -2.461303984e-05 62.63291361
-37.37985436 68.15371639 148.7499026
-21.50391036 19.99550639 148.7499026
-88.68359636 -2.461303984e-05 -112.5500144
-75.77280536 -2.461303984e-05 -136.4072404
-213.5628844 -2.461303984e-05 -30.00422839
-196.4789104 62.14414239 -139.2500974
-99.99973636 8.618117387 43.99165161
-95.99973636 62.74204639 -25.58710439
-48.55152736 -2.461303984e-05 -21.99488139
-29.32921936 62.44350239 -145.2500974
-95.99973636 74.87992239 3.055626614
-179.8345694 50.64502539 -145.2500974
-45.89655936 -2.461303984e-05 117.4704766
-58.90082036 39.60593339 148.7499026
-151.2823144 15.24541139 -139.2500974
-53.32367836 72.60935139 148.7499026
-155.8207594 25.91419239 -139.2500974
0.000263641341 67.13525439 40.72173761
-221.5074284 5.067719387 -139.2500974
0.000263641341 39.36792739 20.67177161
-139.7512114 61.36049839 -145.2500974
-99.99973636 59.82714639 25.02575361
-95.99973636 31.98077839 52.05974561
0.000263641341 59.92768939 -58.41548939
-99.99973636 18.57521239 -56.27518339
-229.9987594 -0.545668613 60.62640861
0.000263641341 7.888649387 -44.42548739
-95.99973636 82.45321039 131.4347566
0.000263641341 58.95878739 55.19739061
-53.84962636 -2.461303984e-05 24.52064561
-95.99973636 40.23875939 -112.2791004
-125.1233934 -2.461303984e-05 -108.5436164
-159.2795864 130.1465504 148.7499026
-202.6248964 -2.461303984e-05 -6.491369386
-243.0815334 69.00571939 152.8428056
-146.6906194 6.875995387 148.7499026
-120.2036634 -2.461303984e-05 -77.29036039
-86.39923136 1.092170387 -145.2500974
-99.43476036 -2.461303984e-05 -104.1820294
-221.4922414 -2.461303984e-05 -83.97825039
0.000263641341 55.98062739 21.96571761
-114.4698554 68.57388639 148.7499026
-100.7643664 -2.461303984e-05 105.6562526
-56.81897636 -2.461303984e-05 -111.3492144
-156.4274644 -2.461303984e-05 -55.36337439
-99.99973636 70.10882239 88.63682261
-90.28521136 -2.410685613 148.7499026
-229.9987594 -0.939000613 11.21398861
-137.4366744 -2.461303984e-05 -95.78169739
-97.19875536 -2.461303984e-05 139.3103376
-53.04649136 36.18672539 -139.2500974
-95.99973636 70.94462439 116.2656216
-112.5843154 -2.461303984e-05 -44.60067939
-6.947517359 -2.461303984e-05 77.29553961
-84.42802036 -2.461303984e-05 -134.6032314
-210.1870844 -2.461303984e-05 4.163286614
-5.434090359 52.60711139 -145.2500974
-141.6962574 -2.461303984e-05 8.128506614
-99.99973636 112.3054144 118.5280956
-102.5163944 55.05246939 -139.2500974
-99.99973636 51.35758639 46.98684361
-99.99973636 30.73377939 1.861156614
-99.99973636 68.91122139 72.90800961
-99.99973636 53.12060639 124.3014076
-238.7426714 -2.461303984e-05 90.46173461
-96.17560036 -2.461303984e-05 37.61296561
-181.3570484 8.815384387 -139.2500974
-133.4872074 -2.461303984e-05 -43.47699239
-209.1306214 7.365454387 -145.2500974
-193.5956444 84.19379839 148.7499026
-29.05413936 -2.461303984e-05 -100.8616324
-226.0565954 64.22370039 148.7499026
-136.1232924 -2.461303984e-05 -24.54430839
2.368933641 -2.461303984e-05 -25.69401339
-133.7177054 21.33506539 -145.2500974
0.000263641341 62.74511039 71.25792861
-76.43038536 75.24547639 148.7499026
-122.9401524 -2.461303984e-05 15.93163761
0.000263641341 18.55508339 41.01884661
-222.8815534 26.41933839 148.7499026
-33.81869736 52.53241039 -139.2500974
-251.4387774 40.71513439 148.7499026
0.000263641341 22.47432139 -92.41929239
-218.3190234 33.72781539 -139.2500974
-210.8323714 -2.461303984e-05 83.52145561
-99.99973636 33.86429039 -26.82972539
-13.63188636 25.02012539 -139.2500974
-103.8609184 -2.461303984e-05 -47.30542039
-95.99973636 18.99821939 -136.6853814
-99.99973636 42.91355239 -126.7699644
-159.2241294 90.28735939 148.7499026
0.000263641341 43.15195139 -130.7743224
-151.2412204 -2.461303984e-05 -16.01377039
-100.2440724 41.54313939 148.7499026
-94.00261236 26.37618239 148.7499026
-245.9514994 36.52272139 -139.2500974
-95.99973636 36.46877139 -75.01246639
-94.56229536 27.30545639 -145.2500974
-181.2252854 10.57429239 148.7499026
-99.99973636 101.7791194 132.6577836
-69.94371236 -2.461303984e-05 141.8641356
-10.01768336 57.50104139 -139.2500974
0.000263641341 35.66079739 -25.80782339
-114.1303184 85.56134639 148.7499026
-197.5014344 46.76542539 148.7499026
-104.6788714 -2.461303984e-05 -61.76928439
-184.1982244 -2.461303984e-05 -57.01507639
-180.8245354 -2.461303984e-05 -30.69635939
-125.3404024 -2.461303984e-05 3.385863614
-172.3247334 38.45249039 -139.2500974
-99.99973636 21.68460539 36.26472961
-234.4791654 23.46255339 -139.2500974
-165.5709114 -2.461303984e-05 64.27287361
-248.7999124 -2.461303984e-05 -29.54042739
-169.8563184 45.09461339 148.7499026
-95.99973636 36.70454039 12.20282261
-53.30273436 -2.461303984e-05 66.04981761
-210.1647924 10.48078939 148.7499026
-17.51144436 9.038094387 -139.2500974
-69.03622836 37.40410739 -145.2500974
1.120187641 61.27408839 -139.2500974
0.000263641341 10.67277939 -114.3543544
-149.8328914 -2.405337613 -139.2500974
-95.99973636 30.52158439 77.44225861
-243.7124974 57.78444239 -145.2500974
-222.9373134 -2.461303984e-05 16.44485161
-91.40877036 -2.461303984e-05 -86.91449139
0.000263641341 40.42576739 -56.68416639
-198.9863704 -2.461303984e-05 -68.60632539
-205.8868994 -2.461303984e-05 90.60170561
-155.2322864 -1.025662613 148.7499026
-99.99973636 53.42599439 105.0785696
-99.99973636 64.58830439 -1.474260386
-33.76870636 78.64053839 149.8871846
0.000263641341 52.71117139 -49.15690039
0.000263641341 36.78647139 140.1923066
-235.7032204 32.96101139 148.7499026
-95.99973636 27.73967239 -132.9736764
-93.18632136 45.80396539 -139.2500974
-252.3920854 -2.461303984e-05 61.33883461
-99.99973636 81.72362539 52.68043261
0.000263641341 48.76254939 69.13444861
-33.15380736 -2.461303984e-05 84.96927861
-95.99973636 16.04990939 -88.90714439
-18.62107536 -2.461303984e-05 -89.27178339
-142.8619604 -2.461303984e-05 -12.47023939
-34.17544036 -2.461303984e-05 140.4105756
-5.718528359 -2.461303984e-05 -28.92870539
-74.87228636 41.82803139 -139.2500974
0.000263641341 86.22887539 133.9842606
-155.6882204 67.60556339 -145.2500974
-69.76529136 -2.461303984e-05 -121.5519064
-82.12364636 -2.461303984e-05 40.93930661
-50.77352636 17.88333939 -145.2500974
-99.99973636 22.30434539 1.225552614
-143.1312504 38.90010939 -139.2500974
-104.6010044 -2.461303984e-05 21.86315961
-99.99973636 39.73513939 138.4152336
-150.0289854 -2.461303984e-05 81.76058761
-127.4149694 -2.461303984e-05 -138.0457054
-178.1267274 -2.461303984e-05 -111.2381424
-63.14266636 42.51943139 -139.2500974
-33.51943536 35.79057539 -145.2500974
-95.99973636 27.25692239 130.1209046
-77.10577536 -2.461303984e-05 -6.509451386
0.000263641341 37.74455939 -79.39614639
-99.99973636 39.46377639 -67.53764939
-172.0583934 62.28392939 -145.2500974
-95.99973636 98.53866739 87.14962261
-16.33979436 67.28851939 -145.2500974
-95.99973636 28.17866239 -21.71604039
-95.99973636 43.83339539 27.58998461
-96.52523636 -2.461303984e-05 -41.01822839
-19.13716436 -2.461303984e-05 -68.63146139
-171.0677794 -2.461303984e-05 -102.4756124
-95.99973636 31.51292139 108.5106996
-95.99973636 33.38305639 -9.111862386
-61.55396736 -2.461303984e-05 137.0767526
0.000263641341 25.62762139 57.16291761
-48.42295636 67.42412739 -139.2500974
0.000263641341 40.63353039 98.48521761
-137.2855794 -2.461303984e-05 110.7932476
-80.66253636 -2.461303984e-05 111.7944296
-174.5175934 57.61336839 148.7499026
-38.95001536 -2.461303984e-05 -26.20666539
-40.78135536 -2.461303984e-05 73.23108361
-147.9571894 110.0165584 148.7499026
-246.8888684 -2.461303984e-05 51.27524261
0.3335546413 87.68837939 46.72094861
-16.29736036 -2.461303984e-05 29.30052061
0.000263641341 15.08898439 -106.0156174
-104.0450664 -2.461303984e-05 10.46246261
-48.78123136 -2.461303984e-05 8.032955614
-68.68787236 -2.461303984e-05 -28.48181439
-101.0686874 62.75423839 148.7499026
0.000263641341 16.83281539 -125.6217514
-124.8871764 33.00373639 -139.2500974
-95.99973636 64.31480039 58.71259761
-106.3055994 18.80731539 -145.2500974
-198.6234854 -2.461303984e-05 14.46441761
0.000263641341 78.74322539 55.97214461
-198.4581244 21.36910339 -139.2500974
-177.6151354 25.62999539 -139.2500974
0.000263641341 29.79969639 -108.2637424
-35.30271836 47.04646339 -145.2500974
0.000263641341 64.10954939 -8.177081386
-183.9908124 38.47777339 -145.2500974
-99.99973636 64.91584639 35.58883661
-95.99973636 13.85732739 113.0140556
-79.24310636 37.17773439 148.7499026
-124.7171594 76.80295039 152.2169316
-139.6590854 -2.461303984e-05 65.78735861
-95.99973636 54.42765739 -38.10462539
-96.12247536 79.26997839 147.2499026
-76.95384436 7.931133387 148.7499026
-112.3316814 9.871444387 -145.2500974
0.7832376413 49.15557039 148.7499026
0.000263641341 21.95337039 123.1499026
-41.47115436 22.64905139 -139.2500974
-114.0776004 -2.461303984e-05 123.1783366
-207.6041084 -2.461303984e-05 -109.1982834
-115.8924864 66.85493839 -139.2500974
-84.38217936 63.27919139 -139.2500974
-52.38092936 54.23771539 -145.2500974
-99.99973636 53.26033839 -94.66448839
-99.99973636 38.78350539 121.2563566
-185.5469704 71.89321339 148.7499026
-156.9202824 108.1274314 153.8832946
-166.3585344 -2.461303984e-05 -119.8741454
0.000263641341 27.02230139 -5.834988386
-133.3775664 7.123215387 148.7499026
0.000263641341 80.81809739 126.5994966
0.000263641341 26.29285439 109.9781746
-247.5596934 -2.461303984e-05 -46.84289939
-143.2391374 -2.461303984e-05 -90.01364539
-95.99973636 31.88243439 -41.03994539
-203.0710204 -0.148818613 -145.2500974
-14.65161236 44.68998339 -145.2500974
-95.99973636 81.27973039 105.4349036
-75.73989736 -2.461303984e-05 -72.59555939
-227.5949634 -2.268425613 -139.2500974
-166.4528644 62.27393239 -139.2500974
-30.60336136 -2.461303984e-05 42.52874361
-164.0993324 81.93799539 148.7499026
-99.99973636 45.86036339 -35.42171839
-126.2140304 64.11561839 -139.2500974
-75.10088936 26.37884239 148.7499026
-207.0327514 -2.461303984e-05 -87.12231239
-237.5481044 9.560414387 -139.2500974
0.000263641341 12.20985939 76.55013661
0.000263641341 26.71530839 40.75656461
-99.99973636 51.86959239 -108.8101154
-107.7978924 67.87327939 -145.2500974
-178.2156614 31.13038739 148.7499026
0.000263641341 27.19655539 -128.5891674
-95.99973636 58.65391239 86.79580861
-32.35425036 67.27017939 -139.2500974
0.000263641341 5.586127387 -76.97931339
0.000263641341 61.08632739 137.7423146
-78.78778336 33.36703839 -139.2500974
-14.15256836 115.3445314 148.8194136
-228.3786144 12.56957339 148.7499026
-68.70135436 18.63898139 -139.2500974
-221.4209964 -2.461303984e-05 101.3158146
0.000263641341 45.51574839 -2.620942386
-99.99973636 64.27946539 15.14881361
-95.99973636 11.02015839 -9.520264386
-151.8105454 -2.461303984e-05 135.8828586
-99.99973636 75.46357039 25.78208861
-187.6522554 -2.461303984e-05 -22.64423839
-4.774528359 39.37493039 -139.2500974
-193.8511964 -2.461303984e-05 -95.26018339
-6.464685359 -2.461303984e-05 -102.2630844
-95.99973636 86.94039339 80.95395561
-146.6428144 61.15172439 -139.2500974
-157.5176304 -2.461303984e-05 120.3862816
-26.32415336 17.42900939 -145.2500974
-204.8283964 22.57848439 -145.2500974
0.02729564134 -2.461303984e-05 -10.25637339
-192.0743054 48.89012039 -139.2500974
-95.99973636 70.67356639 107.4827766
-23.98496436 55.94656839 148.7499026
-212.8418234 34.93805039 148.7499026
-150.4515004 25.49525639 -145.2500974
-22.81353236 31.09215839 -139.2500974
-99.99973636 9.130301387 -2.311970386
-14.00449036 -2.461303984e-05 -27.84795339
-166.6392724 30.95851239 -139.2500974
-95.99973636 56.87821339 112.6829426
-116.4658924 30.77619339 -145.2500974
-33.89160336 -2.461303984e-05 -52.07493839
-86.83644436 -2.461303984e-05 53.17693761
-95.99973636 29.42699639 90.92119761
-179.3176784 34.66937739 -139.2500974
-131.1739924 21.43068239 148.7499026
-9.988907359 -2.461303984e-05 3.407532614
-248.7224954 -2.461303984e-05 -64.51263439
-195.2642054 -2.461303984e-05 -40.87711739
-111.1006624 4.392204387 -139.2500974
-204.4615704 59.62086939 148.7499026
-167.4370304 -2.461303984e-05 -83.29079339
-15.06091836 43.19429739 148.7499026
-21.05152736 58.74996839 -139.2500974
-7.804042359 -2.461303984e-05 119.5815026
-210.0268844 -2.461303984e-05 -51.85066739
-70.12366936 -2.461303984e-05 22.54592161
-19.85920736 103.1066014 153.3119676
-72.58872436 -2.461303984e-05 -93.42127939
-203.1550344 64.08439539 -145.2500974
-144.7154704 132.9999754 154.4079486
-107.1735344 24.88608839 148.7499026
-142.3422384 4.397892387 -145.2500974
-95.99973636 48.62411039 -86.82783539
-231.0559274 -2.461303984e-05 -97.60790339
-191.8757394 -2.059168613 -139.2500974
-93.26254336 55.03460839 148.7499026
-139.3052744 76.22984739 148.7499026
-99.99973636 25.36678839 -99.30708739
-5.796859359 -2.461303984e-05 -82.74760139
-95.99973636 91.29461639 134.1212656
-92.81587436 -2.461303984e-05 99.98013761
-241.7555124 17.91079539 -145.2500974
-227.7215314 -2.461303984e-05 -78.84252539
-8.892415359 -2.461303984e-05 49.77505861
0.000263641341 32.97899839 72.32132061
-117.0135864 -2.461303984e-05 68.13484261
-143.5211964 -2.461303984e-05 105.8186616
-235.7682504 -2.461303984e-05 141.3810306
0.000263641341 79.47692939 70.20792061
0.000263641341 21.36041639 -39.61917939
-191.1219604 -2.461303984e-05 -81.05951639
-183.0137284 60.03877039 -145.2500974
-250.9352904 0.749975387 153.8544516
-217.4225854 40.34627639 -145.2500974
-99.99973636 17.91533239 12.19382261
