# .PCD v0.7 - Point Cloud Data file format
VERSION 0.7
FIELDS x y z
SIZE 4 4 4
TYPE F F F
COUNT 1 1 1
WIDTH 1227
HEIGHT 1
VIEWPOINT 0 0 0 1 0 0 0
POINTS 1227
DATA ascii
-180.0002492 70.61037539 202.4639786
180.0007278 73.78781739 157.3479996
-176.0002492 56.20356539 105.7827996
-176.4279322 83.51975139 171.9068886
-64.90811818 -2.460845189e-05 178.9807386
6.472112821 -2.460845189e-05 195.8255466
195.0692778 248.3516339 87.99990261
159.7152318 -2.460845189e-05 78.91748161
176.0007278 180.1276184 160.1831456
180.0007278 29.62064639 215.7996066
-176.0002492 43.64014339 191.3657526
-64.84796618 -2.460845189e-05 51.05806761
180.0007278 9.531543392 52.73714561
137.2234878 -2.460845189e-05 92.83782261
180.0007278 167.7364044 137.2506806
180.0007278 140.3403984 161.0829376
-155.7914962 -2.460845189e-05 60.46323861
-82.39368218 -2.460845189e-05 104.4323726
180.0007278 139.3127044 225.1882626
122.0256688 -2.460845189e-05 227.5606096
-178.5789492 42.87013039 -9.738690687e-05
180.0007278 192.1497554 239.5776786
-130.4318962 -2.460845189e-05 236.2725256
-32.09779818 -2.460845189e-05 156.1224286
176.0007278 66.11811039 225.2493336
-180.4517922 -2.460845189e-05 141.5875846
184.0007278 142.6319264 203.1325146
-147.0577192 61.85610539 -9.738690687e-05
-180.0002492 34.26228039 227.2279276
107.5592448 22.30998439 -9.738690687e-05
-176.0002492 -0.9459356085 71.96667861
-161.8980112 18.93155539 -9.738690687e-05
-54.23991518 -2.460845189e-05 119.3088866
181.0502088 -0.09613960845 -9.738690687e-05
-176.0002492 93.88537939 240.8473366
180.0007278 54.88481639 187.7607226
176.0007278 111.7341874 130.0170436
184.0007278 237.6751981 148.3816006
192.7974638 15.77469839 87.99990261
180.0007278 -1.879574608 213.3194306
-191.1704482 -2.460845189e-05 188.4810936
-23.12988218 -2.460845189e-05 180.3753696
176.0007278 32.05037039 130.9912186
-107.3635102 -2.460845189e-05 236.7753316
184.0007278 88.01168939 234.9093076
184.0007278 103.0208704 214.1640856
71.31897782 19.32896639 -9.738690687e-05
64.42110182 -2.460845189e-05 33.46228761
199.4659158 149.3710904 247.9999026
-177.8224962 56.30555739 49.08001061
184.0007278 78.99271439 198.3084436
-73.18527218 48.85646239 -9.738690687e-05
120.9488838 -2.460845189e-05 177.3769696
184.0007278 203.5502054 151.1028826
176.0007278 49.72160939 34.17967861
184.0007278 174.2946314 205.3775826
184.0007278 149.2976274 140.7756986
144.0301088 -2.460845189e-05 246.0440506
34.76744382 35.99329039 -9.738690687e-05
180.0007278 21.71381639 14.00350061
-46.19079518 -2.460845189e-05 16.63203861
42.56066282 -2.460845189e-05 164.0189866
180.0007278 235.2908447 173.2361546
184.0007278 124.4569014 187.6959776
176.0007278 53.16188039 248.4751826
-176.0002492 23.15448339 77.03948961
-149.5872202 -2.460845189e-05 193.4378416
-110.8035952 -2.460845189e-05 146.4797946
-140.5619102 14.19677839 -9.738690687e-05
-16.85280118 -2.460845189e-05 244.5480306
200.6913698 -2.460845189e-05 187.5451506
180.0007278 42.48697839 99.14197261
160.7238328 -2.460845189e-05 221.1699486
-146.8602102 -2.460845189e-05 126.3938706
186.0636648 -2.460845189e-05 138.5035166
-27.55541418 16.07622839 -9.738690687e-05
-110.3622772 -2.460845189e-05 114.7982416
-122.1042682 -2.460845189e-05 95.65534161
154.0946388 -2.460845189e-05 167.3346786
170.5331748 -2.460845189e-05 98.15893761
-1.388612179 39.66464339 -9.738690687e-05
-181.7876952 -2.460845189e-05 52.38115161
147.7896618 16.21379939 -9.738690687e-05
176.0007278 91.59973739 101.4643406
180.9300288 122.2677434 92.30331761
-22.69068918 -2.460845189e-05 30.17554661
-110.4602902 59.79896939 -9.738690687e-05
-95.29958818 -2.460845189e-05 74.91022761
180.0007278 219.8212038 96.42440161
-68.85692218 -2.460845189e-05 11.10458161
-68.40003918 16.97934039 -9.738690687e-05
-45.64424218 -2.460845189e-05 52.99635261
-176.0002492 20.68185939 173.1503226
-57.51537218 -2.460845189e-05 251.2484666
176.0007278 71.06361039 67.14876161
160.7565018 -2.460845189e-05 9.090870613
146.6546898 -2.460845189e-05 142.3087596
43.28274182 -2.460845189e-05 197.8193806
6.146606821 -2.460845189e-05 247.0827576
51.98573682 54.82281039 -9.738690687e-05
-147.3339092 -2.460845189e-05 31.87716861
178.0727388 -2.460845189e-05 238.5983216
194.3120328 46.11487339 243.9999026
180.0007278 161.9222894 173.7555156
147.7444418 -2.460845189e-05 124.3299286
-21.05272818 -2.460845189e-05 221.9691946
176.0007278 57.65282939 150.8288466
180.0007278 174.6895314 235.0480116
-180.0002492 22.38777139 241.2465486
-84.60986418 -2.460845189e-05 18.37671661
-171.8928852 -2.460845189e-05 230.5602676
-180.0002492 31.76462339 208.8367986
-18.13040618 -2.460845189e-05 107.5152106
-110.4504552 -2.460845189e-05 203.1350056
-180.0002492 63.88451739 163.5432796
176.0007278 27.85838939 233.4122756
180.0007278 46.69742039 69.95697561
-159.9536762 -2.460845189e-05 163.8179246
67.85537082 -2.460845189e-05 195.4350736
194.4398038 -2.460845189e-05 31.53489661
184.0007278 234.5206492 129.0364626
180.0007278 201.8841384 122.1361136
100.5096118 -2.460845189e-05 70.49626361
-176.0002492 36.19495739 148.5810746
102.5903648 -2.460845189e-05 14.86010261
-180.0002492 56.99775439 133.3230826
-115.4694442 -2.460845189e-05 181.2418656
-132.5765472 -2.460845189e-05 209.4584866
176.0007278 62.66872039 99.74822161
190.2669348 16.78604439 243.9999026
50.44851982 -2.460845189e-05 83.79756161
-80.12322418 -2.460845189e-05 187.6828916
184.0007278 187.4410384 194.7561666
184.0007278 46.37826939 214.6463966
-88.36184918 -2.460845189e-05 142.4843226
197.5754218 48.99181239 -9.738690687e-05
-9.986878179 54.10187239 -9.738690687e-05
-114.0397422 -2.460845189e-05 31.48820261
184.0007278 187.6805624 98.36179161
61.43128282 -2.460845189e-05 227.1528756
-44.63508818 12.15402939 -9.738690687e-05
85.66759682 62.91088539 -9.738690687e-05
-140.5986012 31.08418639 -9.738690687e-05
180.0007278 14.80509139 36.92023461
147.7497358 -2.460845189e-05 37.50842461
-138.4049512 -2.460845189e-05 66.21496861
197.2223738 13.97357139 -9.738690687e-05
192.3629768 76.92053339 91.99990261
178.6700588 -2.460845189e-05 153.3704706
184.0007278 206.7271504 215.5627696
-19.69018918 -2.460845189e-05 129.4068146
19.97875482 67.95901539 -9.738690687e-05
102.4856128 41.59234639 -9.738690687e-05
-43.84314918 -2.460845189e-05 103.9145646
51.10835582 -2.460845189e-05 138.5371846
180.0007278 76.03397239 124.1016086
-180.0002492 5.231416392 177.6808706
184.0007278 163.1990134 104.5203406
-176.0002492 18.39859539 125.2411176
110.9015658 -2.460845189e-05 30.62394761
184.0007278 250.1244014 183.5449266
180.0007278 33.47753639 48.37139461
184.0007278 246.1283737 117.5455466
19.42762182 -2.460845189e-05 0.2721776131
-28.87357618 -2.460845189e-05 207.6911536
184.0007278 41.46629439 178.7378356
180.8243038 235.584087 92.48759861
-162.8365392 52.76731139 -9.738690687e-05
-176.0002492 34.29157039 16.74322561
-91.45193018 -2.460845189e-05 233.3039496
122.3029748 -2.460845189e-05 211.2957036
180.0007278 156.4336874 195.6232996
-9.701465179 -2.460845189e-05 71.91160561
180.0007278 14.37109939 97.81209961
184.0007278 20.77283739 202.6531216
-12.56923618 3.390369392 -9.738690687e-05
184.0007278 228.2573657 229.0769246
-52.23933518 -2.460845189e-05 157.4515666
-154.5939012 -2.460845189e-05 232.9663846
176.0007278 11.99679939 68.31753961
-52.30601118 -2.460845189e-05 83.61756261
176.0007278 51.59808439 133.1238496
-190.5159362 10.84556739 -9.738690687e-05
-182.5131452 -2.460845189e-05 20.01504461
176.0007278 142.3410864 128.9424156
184.0007278 178.1373554 174.6495066
-176.0002492 21.60772739 45.29494261
70.20133382 38.38515739 -9.738690687e-05
74.71418482 -2.460845189e-05 151.9003106
-193.1198662 -2.460845189e-05 119.2639646
-187.5394222 64.71329239 -9.738690687e-05
179.1722608 29.06004739 -9.738690687e-05
166.0511308 -2.460845189e-05 64.40993561
-180.0002492 88.17519739 210.3598096
-100.2282412 -2.460845189e-05 0.1029526131
-152.2485992 -0.9949946085 15.36216261
193.9268098 141.3468684 87.99990261
3.750098821 -2.460845189e-05 217.2687996
89.96329582 -2.460845189e-05 127.0033916
26.61124882 -2.460845189e-05 196.0036236
56.30211482 11.58197039 -9.738690687e-05
-34.77245418 32.15684239 -9.738690687e-05
112.1303938 6.108282392 -9.738690687e-05
24.52484982 -2.460845189e-05 88.44307961
-32.29743018 -2.460845189e-05 234.2790796
21.83135182 -2.460845189e-05 226.1520336
83.41999282 -2.460845189e-05 5.857469613
-77.39148118 -2.460845189e-05 60.01888461
-56.78362618 -2.460845189e-05 34.64019561
39.54419282 21.38850939 -9.738690687e-05
191.6150518 51.09378139 87.99990261
-176.0002492 22.17575539 157.8680136
180.0007278 249.4779044 200.2178136
176.0007278 27.24937739 180.2235376
160.8842038 -2.460845189e-05 29.63451361
200.6804678 210.9313354 87.99990261
162.9712888 37.73835239 -9.738690687e-05
180.0007278 124.1151094 156.4202696
-176.0002492 17.22536439 207.1147996
127.5258928 -2.460845189e-05 26.08442561
-164.1625892 -2.460845189e-05 97.92880661
161.8148588 -2.460845189e-05 154.3326906
176.0007278 35.67925239 157.7555646
6.227861821 -2.460845189e-05 31.95064161
129.2909198 -2.460845189e-05 55.72593761
-179.3500352 59.17715939 66.22100961
184.0007278 9.983604392 124.7224326
-32.64085518 -2.460845189e-05 140.4673306
11.84841982 -2.460845189e-05 124.5417166
184.0007278 61.34469239 237.0402616
185.1151738 209.7408884 247.4252846
180.0007278 58.78990039 6.949052613
37.39921482 -2.460845189e-05 41.41974261
184.0007278 100.4506984 137.3806376
-27.99363518 -2.460845189e-05 72.70612361
-110.7809182 11.72502339 -9.738690687e-05
-87.77185918 45.57757839 -9.738690687e-05
184.0007278 64.64695839 173.6155116
187.5441608 -2.460845189e-05 65.78698561
-154.0773542 -2.460845189e-05 45.69959161
180.0007278 222.204344 195.4449116
176.0007278 61.86572339 122.2658946
-129.5586532 -2.460845189e-05 37.32818461
-100.2201782 -2.460845189e-05 156.8526106
54.93410582 -2.460845189e-05 104.4019836
38.10836982 -2.460845189e-05 240.1029616
-1.768293179 -2.460845189e-05 134.8220596
-52.23761518 -2.460845189e-05 186.7953286
48.69385382 -2.460845189e-05 10.26803461
-180.0002492 1.716659392 217.0100216
83.18792682 -2.460845189e-05 111.8438806
5.912643821 53.71178339 -9.738690687e-05
-176.0002492 56.84041439 248.5194826
176.0007278 47.84026839 200.3357556
-103.8893602 -2.460845189e-05 216.2913546
63.30649482 -2.460845189e-05 91.28832461
-180.0002492 42.11350239 106.5098936
127.0638808 -2.460845189e-05 80.96527961
-176.0002492 32.17398539 182.3134186
111.5841258 -2.460845189e-05 196.2240346
66.35800082 -2.460845189e-05 52.85332361
179.0638738 117.3130674 221.2602226
20.39376082 -2.460845189e-05 37.12715861
176.0007278 15.25343039 241.5378386
79.66688882 -2.460845189e-05 39.82985961
-180.0002492 2.771020392 103.8309536
-63.71514318 -2.460845189e-05 219.4239146
184.0007278 74.34049339 214.7829976
174.7432278 -2.460845189e-05 40.78718961
-31.59819718 -2.460845189e-05 49.64449361
184.9707398 121.1713124 247.3725596
83.64554182 -2.460845189e-05 188.3589006
118.4628938 -2.460845189e-05 126.2465956
184.0007278 160.9131594 230.5667606
-66.21469718 36.12807039 -9.738690687e-05
-176.0002492 30.83310339 58.68718961
176.4639958 109.7165164 185.8878286
-149.3529552 -2.460845189e-05 153.3997826
-176.0002492 51.59937939 170.3321976
151.0871908 -2.460845189e-05 206.4314106
-179.8175502 73.61042139 134.9279106
196.6685798 81.26320239 243.9999026
80.68533382 49.50044239 -9.738690687e-05
35.35513082 -2.460845189e-05 210.3698176
-79.06456018 67.99997539 -0.2467893869
-180.0002492 51.74834439 32.29876061
135.9234918 51.71589239 -9.738690687e-05
184.0007278 32.32627539 108.2964246
-84.79072818 -2.460845189e-05 90.39930961
93.42905782 20.76710239 -9.738690687e-05
-168.1852492 -2.460845189e-05 19.39573461
184.0007278 12.44601539 157.6615326
184.0007278 249.1653651 236.9045236
184.0007278 82.42761639 138.6038766
180.0007278 210.2451064 166.7087746
58.53620282 -2.460845189e-05 169.9017106
182.3714648 38.74345639 245.6844986
109.4044748 -2.460845189e-05 169.0427156
-176.0002492 39.81061439 79.21309961
-104.4408112 -2.460845189e-05 63.14383961
176.0007278 110.0605384 203.7737556
-127.5510502 -2.460845189e-05 82.68526361
176.0603208 134.1802264 195.1708216
188.0363018 102.7282524 247.9999026
136.6670848 -2.460845189e-05 113.1488876
-160.6730632 -2.460845189e-05 208.9863616
-180.0002492 20.85434239 93.05617061
65.30914382 -2.460845189e-05 19.49046761
176.0007278 49.76394939 20.19267861
38.30123082 -2.460845189e-05 182.9887896
184.0007278 13.19989839 171.7410196
184.7669728 223.5995237 242.2299506
-176.0002492 49.33631739 89.46255361
13.50603082 -2.460845189e-05 165.5399656
134.2169198 -2.460845189e-05 13.86518561
90.71549282 -2.460845189e-05 227.2430896
187.9877188 -2.460845189e-05 12.06425661
81.65342682 -2.460845189e-05 97.29495161
180.0007278 60.94432339 42.28619661
55.89856682 67.99997539 -2.001337387
141.0950408 67.99997539 -2.466491387
-0.5325901794 -2.460845189e-05 151.7435476
-60.06614518 -2.460845189e-05 132.1203136
32.15308682 -2.460845189e-05 18.70539961
184.0007278 217.1618232 114.3755436
34.79646482 -2.460845189e-05 62.60516361
-187.4168542 -2.460845189e-05 92.33257061
157.5875168 -2.460845189e-05 93.35657761
176.0007278 100.6551684 158.3749926
-38.44608618 -2.460845189e-05 2.027562613
-100.5886742 -2.460845189e-05 248.7725576
74.54651782 -2.460845189e-05 236.6847646
-166.5693022 -2.460845189e-05 51.45165761
-160.6083772 -2.460845189e-05 126.4449336
200.4147768 131.2121664 247.9999026
-176.0002492 58.27555939 197.9939606
176.0007278 4.159708392 251.4994566
-17.67301218 -2.460845189e-05 167.7985776
-180.0002492 56.47269939 118.9092666
168.1622788 -2.460845189e-05 187.3333566
-55.41227818 54.84728639 -9.738690687e-05
184.0007278 120.2277864 107.4560736
181.3561508 204.3876894 91.57223361
195.5467828 178.4494294 87.99990261
184.0007278 128.0976554 232.9027896
180.0007278 204.3411194 183.9508066
-127.2978112 -2.460845189e-05 152.8617926
64.62741582 -2.460845189e-05 142.2434066
184.0007278 14.11330839 214.4459906
-180.0002492 70.09590939 238.2710766
184.0007278 126.9132974 128.1863956
-116.1433222 -2.460845189e-05 133.4778466
-110.5770502 -2.460845189e-05 84.79945461
-182.9888872 -2.460845189e-05 37.21325961
180.0007278 177.8945644 146.1509076
184.0007278 144.5265944 114.0820986
180.0007278 206.7165774 136.7848486
184.1179038 -2.460845189e-05 200.6584866
125.5383248 6.904821392 -9.738690687e-05
184.7708658 159.9681154 88.69548661
187.0772398 63.00534239 92.18099361
79.48743782 -2.460845189e-05 203.6010926
-176.0002492 60.37703539 223.2893796
180.0007278 97.20089939 226.0308836
168.6866318 54.65219639 -9.738690687e-05
15.09543782 -2.460845189e-05 58.89039461
-145.0599822 -2.460845189e-05 180.8631646
-176.0002492 76.94633339 183.5276966
-200.9848072 -2.460845189e-05 89.91758261
-58.23177418 -2.460845189e-05 67.38233961
187.0945638 -2.460845189e-05 179.0689026
176.0007278 86.52326339 113.7659746
180.0007278 197.5661294 227.4986136
176.0007278 96.86938039 204.7104876
176.0007278 39.84116539 59.24529661
-10.13443818 -2.460845189e-05 34.76629461
198.4634808 -2.460845189e-05 88.76168761
22.72913682 -2.460845189e-05 108.4627296
184.0007278 60.06112339 161.0059416
-100.0702922 -2.460845189e-05 105.7406406
134.8868798 34.85298839 -9.738690687e-05
176.0007278 80.49884639 57.99460461
-176.0002492 34.30755539 134.0274496
-170.9066892 28.49513939 -9.738690687e-05
176.0007278 145.4239204 214.2810386
-178.0770212 64.84732139 96.17751761
180.0007278 132.6458924 177.5862016
64.85775782 -2.460845189e-05 250.3039876
184.0007278 191.7207494 161.3482716
176.0007278 94.39769439 184.5974426
-49.35774118 -2.460845189e-05 237.7562976
79.20279282 -2.460845189e-05 70.78782561
7.961796821 -2.460845189e-05 234.1940166
-176.0002492 87.69180539 228.8569636
184.0007278 174.5435724 125.2831736
185.2985238 170.4325504 247.4883506
39.64765782 50.80770239 -9.738690687e-05
200.2466468 -2.460845189e-05 141.3315276
113.2110258 -2.460845189e-05 103.5738576
176.0007278 78.81146139 230.5586256
184.0007278 109.5489074 120.0801586
134.4261438 -2.460845189e-05 206.7705116
-146.1089012 -2.460845189e-05 139.3042896
156.7490308 67.99997539 -1.281328387
66.71707082 -2.460845189e-05 117.0333146
-75.82317718 -2.460845189e-05 44.24045161
153.1074188 -2.460845189e-05 192.6479836
184.0007278 57.92689839 108.7396866
-32.08403518 -2.460845189e-05 21.32297961
-191.2243992 -2.460845189e-05 61.17757661
150.8588008 -2.460845189e-05 64.60739561
176.0007278 91.39384839 88.58378661
-85.26154618 -2.460845189e-05 200.9297096
-139.9600532 -2.460845189e-05 91.13359861
-174.1306092 -2.460845189e-05 188.4757296
176.0007278 79.65863539 168.9507756
83.15720382 -2.460845189e-05 163.9008096
184.4690718 12.66510139 -9.738690687e-05
185.6104558 88.52058639 247.5952606
-28.88088518 55.84447339 -9.738690687e-05
-158.2401622 67.99997539 -0.4488803869
-200.9331942 -2.460845189e-05 180.2656716
186.6655278 39.37886139 -9.738690687e-05
184.0007278 133.4785124 213.2500306
-186.9034842 -2.460845189e-05 156.4002816
158.5322628 25.79121139 -9.738690687e-05
176.0007278 10.13196039 10.63929561
38.92966982 -2.460845189e-05 131.3050626
-180.0002492 6.870665392 129.4536896
-106.6667482 -2.460845189e-05 172.1115946
-71.37899018 -2.460845189e-05 91.60132661
1.503919821 -2.460845189e-05 87.95770361
-180.0002492 12.79422339 37.05657561
184.0007278 238.4813418 209.9135626
180.0007278 134.6784384 102.3686666
184.7543978 36.11492439 88.70749561
-67.05565418 -2.460845189e-05 112.2453386
24.08768982 -2.460845189e-05 137.9245606
111.7291978 66.21650339 -9.738690687e-05
40.52081282 -2.460845189e-05 114.4592996
176.0007278 33.69760039 118.5153806
176.0007278 26.12691539 99.83961161
147.6532728 -2.460845189e-05 82.49481161
180.0007278 189.5752934 124.7286516
176.0007278 13.61481239 85.88893461
-71.53407718 -2.460845189e-05 168.3083156
-115.2458232 48.21354439 -9.738690687e-05
-176.0002492 10.03664239 236.8380976
154.3565338 -2.460845189e-05 238.6113686
118.9955068 31.78792239 -9.738690687e-05
-57.97937218 -2.460845189e-05 20.81639261
-94.32002118 -2.460845189e-05 120.0616076
-180.0002492 11.43837839 190.5673206
176.0007278 36.80211039 19.37484561
176.0007278 120.8256444 120.7879416
-176.0002492 10.61921539 19.24610461
-126.7329282 -2.460845189e-05 126.9014956
187.9521798 -2.460845189e-05 42.33204661
-195.8581622 -2.460845189e-05 144.5633086
124.2334568 -2.460845189e-05 165.3739136
114.1374608 -2.460845189e-05 237.1788126
200.3263228 9.891348392 247.9999026
100.4800768 -2.460845189e-05 145.9957296
192.1590928 103.9488264 91.99990261
129.3306928 -2.460845189e-05 151.4449196
-176.0002492 43.15153239 205.9674156
176.1187248 164.9969044 207.5435396
103.3894148 -2.460845189e-05 118.4823296
184.0007278 5.471359392 109.7477046
-187.0575982 31.58293339 -9.738690687e-05
180.5010468 145.8867044 242.7115016
-56.05066218 17.07702939 -9.738690687e-05
-156.3147042 7.823429392 -9.738690687e-05
-180.0002492 11.99368139 150.7956176
180.0007278 156.4993494 131.5885266
180.0007278 225.5754481 137.7583596
-176.0002492 81.58385239 240.4896996
-176.0002492 34.02136539 29.80792561
184.0007278 98.82551139 107.3913946
123.7803698 -2.460845189e-05 93.08945161
184.0007278 64.57168239 194.1902746
-164.2385182 -2.460845189e-05 196.3211066
176.0007278 22.24190839 51.22759761
176.6009278 -2.460845189e-05 225.5913776
176.1523278 25.49997539 150.8074586
29.19587882 -2.460845189e-05 168.6875166
184.0007278 249.3448177 151.9504616
-140.7596652 -2.460845189e-05 226.0358006
116.4678508 -2.460845189e-05 49.18711861
-162.9286312 -2.460845189e-05 248.9228846
168.6370108 1.762133392 -9.738690687e-05
187.9583768 71.44361939 247.9957306
180.0007278 237.2610135 221.3163296
-194.7790992 43.48121639 -9.738690687e-05
184.0007278 171.5705884 224.0339786
188.9852718 251.2029733 247.9999026
112.0278628 -2.460845189e-05 141.4976606
-179.3986642 105.8488724 240.0050946
80.52536082 10.14678239 -9.738690687e-05
176.0244438 20.37002139 127.9569756
180.0007278 116.4874124 140.3258366
190.0570008 214.9073408 91.99990261
182.8191978 67.99997539 -0.1910103869
176.0007278 14.88800439 23.01041861
176.0007278 110.6099004 96.68401561
-152.8654242 -2.460845189e-05 90.91919261
-5.954301179 -2.460845189e-05 60.54172361
131.5920548 -2.460845189e-05 243.6290036
-187.6305952 -2.460845189e-05 249.9966656
-136.9467302 -2.460845189e-05 103.0960556
180.0007278 21.72027239 73.97430561
101.2654178 -2.460845189e-05 186.8376526
182.8221028 133.8044224 89.94936561
-45.74264618 42.93908239 -9.738690687e-05
-176.0002492 16.80129939 251.2539126
180.0007278 102.2646154 174.2100696
184.0007278 49.02529939 156.5132826
159.6556248 -2.460845189e-05 124.5307736
176.0007278 156.1755654 183.5967056
184.0007278 40.78032739 132.6889406
27.98633182 24.19798139 -9.738690687e-05
184.0007278 36.52466439 206.9794746
-36.99908518 -2.460845189e-05 180.3993436
-158.9034362 -2.460845189e-05 79.19304861
49.09257082 -2.460845189e-05 43.46536661
139.7490888 -2.460845189e-05 234.9744736
-67.02911718 -2.460845189e-05 191.3361916
198.9830278 -2.460845189e-05 112.8379816
-175.7109912 13.45425839 -9.738690687e-05
-180.0002492 46.86230639 180.4209096
-91.71141618 34.41546439 -9.738690687e-05
-74.59329618 -2.460845189e-05 241.3343866
180.0007278 151.6771474 164.4290206
-104.5862062 29.03925439 -9.738690687e-05
182.4954988 182.4351654 245.7897866
199.3536438 209.1896614 243.9999026
180.0007278 198.0489004 207.9717326
97.18775982 -2.460845189e-05 91.09726761
-122.0621382 -2.460845189e-05 200.1196766
-128.4534602 -2.460845189e-05 60.05464461
-104.0941862 -2.460845189e-05 39.72925361
-176.0002492 11.54450239 78.33054361
-86.20745518 19.57430039 -9.738690687e-05
176.0007278 42.66546139 82.22201561
184.0007278 73.16038539 236.8901466
180.0007278 83.79524939 187.3352006
180.0007278 173.9766604 102.6845336
184.0007278 107.3400314 163.5344336
176.0007278 63.59513039 76.05511161
-180.0002492 38.57904539 238.0126926
-180.0002492 50.26137739 76.18437261
-19.16521418 -2.460845189e-05 19.13719961
-137.2870342 -2.460845189e-05 3.120091613
184.0007278 19.94820239 184.2396376
135.2234588 -2.460845189e-05 34.75801261
-71.51815718 -1.679827608 -9.738690687e-05
184.0007278 149.4174044 232.2969476
176.0007278 75.93878739 206.6525996
176.0007278 34.66116639 171.4220326
184.0007278 193.3750134 111.6111996
-126.8973562 -2.460845189e-05 179.9598086
60.88415082 45.12307839 -9.738690687e-05
-163.3974752 -2.460845189e-05 222.8143906
176.0007278 87.54130339 158.3350876
49.30664082 -2.460845189e-05 72.36124461
-176.0002492 44.83691139 158.5591746
-12.28791718 -2.460845189e-05 186.3622416
176.0007278 117.8095574 195.3063976
180.0007278 170.6584664 115.2653586
93.06949782 -2.460845189e-05 211.3006406
-176.0002492 76.71589139 211.3034446
185.6742208 28.05567539 243.1825906
180.1260508 78.19549739 94.91043161
184.0007278 -1.743824608 124.8191186
-130.6841672 -2.460845189e-05 247.7183886
180.0007278 228.7313774 182.6096256
180.0007278 148.0534464 152.6374646
-176.0002492 13.46325939 103.1294246
91.62675682 -2.460845189e-05 51.43128461
-183.0965642 2.157877392 -9.738690687e-05
-176.0002492 84.36492039 251.5702366
198.7109878 -2.460845189e-05 61.02442361
-148.4297482 46.95094939 -9.738690687e-05
-180.0002492 45.22960939 50.81315761
-170.9215392 -2.460845189e-05 172.1231896
107.5805548 -2.460845189e-05 206.9093806
180.0007278 47.61393539 46.71273361
190.4109258 233.1498027 247.9999026
197.6721148 -2.460845189e-05 241.5219716
-176.0002492 44.69627439 138.6979656
-137.0298892 -2.460845189e-05 146.9749736
85.86346982 -2.460845189e-05 237.7070366
180.0007278 241.8764618 107.8085426
-40.15635018 -2.460845189e-05 125.3542416
184.0007278 8.405483392 147.0626876
-180.0002492 66.17952739 152.4349886
-129.7354282 -2.460845189e-05 221.0781656
-180.0002492 28.48304939 118.7896146
198.4642788 184.7588934 247.9999026
184.0007278 160.1941534 145.7593016
180.0007278 35.18943439 69.29717861
-176.0002492 72.31225939 172.3147086
-9.194233179 65.28846639 -9.738690687e-05
-91.21059518 -2.460845189e-05 44.16210161
-176.2171932 67.25345339 107.6652806
47.67775882 39.73388039 -9.738690687e-05
94.28301782 -2.460845189e-05 248.6495316
-107.7810622 -2.460845189e-05 73.96465761
200.8790138 22.39707239 91.99990261
-193.0587272 -2.460845189e-05 214.2710286
-109.2637472 -2.460845189e-05 192.0409936
158.9604628 49.20243639 -9.738690687e-05
-176.0002492 44.50084539 225.3927516
180.0007278 145.2907554 193.0809426
-176.0002492 62.62058639 211.0505766
191.8912778 57.73146839 243.9999026
8.045783821 -2.460845189e-05 184.8247086
180.0007278 212.5050553 205.8707546
-94.07534418 -2.460845189e-05 12.58444161
14.87758582 -2.460845189e-05 12.29504861
180.0007278 80.21838739 75.17823361
184.0007278 154.3994064 205.8025816
52.80345182 0.2229403915 -9.738690687e-05
176.0007278 169.4593534 163.0694796
176.0007278 44.64064139 186.6885496
176.0007278 74.67780839 147.0868276
25.90283182 -2.460845189e-05 69.16004661
72.71948482 -2.460845189e-05 212.3293076
-6.414402179 -2.460845189e-05 240.9676736
90.15951782 -2.460845189e-05 16.52740461
196.5648048 163.3355614 243.9999026
-54.14468518 -2.460845189e-05 45.99227861
177.3472528 0.4999753915 58.45099561
47.58517182 -2.460845189e-05 217.3480336
176.0007278 52.93089339 218.4222616
-129.9254252 -2.460845189e-05 167.2702516
184.0007278 135.4565924 187.4463816
-21.34991018 -2.460845189e-05 232.9675156
184.0007278 35.34782739 235.1162946
-57.51319118 -2.460845189e-05 142.8170886
176.0007278 71.40200339 35.88206261
-176.0002492 8.485351392 46.33740961
-14.17389518 14.24896439 -9.738690687e-05
200.3282438 -2.460845189e-05 218.7726026
30.11633682 -2.460845189e-05 7.942939613
14.16135482 43.48097139 -9.738690687e-05
184.0007278 86.91470239 177.1153556
-34.96459518 44.76115739 -9.738690687e-05
32.11877382 -2.460845189e-05 158.1635826
176.0007278 166.5952294 196.0203226
180.0007278 231.879276 202.2163226
71.32701082 -2.460845189e-05 63.25107261
-176.0002492 25.36553639 216.6783606
70.25402682 -2.460845189e-05 161.8262456
-176.0002492 97.50292239 251.0942836
78.98309682 -2.460845189e-05 15.77586061
176.0007278 35.21448639 145.9905656
0.4416088206 9.091583392 -9.738690687e-05
-180.0002492 83.04803139 200.3840976
45.47381082 11.61546139 -9.738690687e-05
200.3367278 168.5675674 87.99990261
191.8012988 4.612958392 -9.738690687e-05
191.9673398 58.60338439 -9.738690687e-05
180.0007278 189.8504304 185.0045226
180.0007278 218.5569991 220.2375786
-176.0002492 34.02052639 196.2656406
180.0007278 231.6856373 156.7599636
184.0007278 224.5891346 170.9062146
31.90898482 61.33118639 -9.738690687e-05
74.52297582 -2.460845189e-05 25.88577361
112.6514338 55.50971639 -9.738690687e-05
-185.4082662 51.16619239 -9.738690687e-05
-175.1927132 -2.460845189e-05 82.63160361
-115.6742352 -2.460845189e-05 3.226512613
60.98105082 22.51809939 -9.738690687e-05
-149.0596342 20.74104939 -9.738690687e-05
-176.0002492 62.59911139 143.1507396
-116.0806142 -2.460845189e-05 59.23972461
-94.55598518 -2.460845189e-05 221.5602816
104.8598348 -2.460845189e-05 229.4818306
180.0007278 66.10941939 54.59282561
180.0007278 57.03830639 67.22507961
176.0007278 61.50038039 179.9644526
-142.6137802 -2.460845189e-05 243.4978616
184.0007278 122.3471014 167.2379436
49.96446182 -2.460845189e-05 238.6180746
-108.5209392 -2.460845189e-05 225.9036176
138.4369818 8.868079392 -9.738690687e-05
-162.3508242 -2.460845189e-05 69.10555461
-52.33637618 -2.460845189e-05 200.2428036
184.0007278 213.819369 143.6524396
184.0007278 80.26893139 223.6737056
-172.7286182 -2.460845189e-05 134.2506776
176.0007278 29.72752139 205.1822556
0.03356882062 -2.460845189e-05 76.22526861
-79.43620018 -2.460845189e-05 77.76943661
-6.057238179 -2.460845189e-05 204.0672566
-157.3958772 -2.460845189e-05 35.61843161
-176.0002492 23.42173139 19.07715761
-200.9903182 12.51368239 -9.738690687e-05
6.205177821 -2.460845189e-05 106.9062056
-83.98622118 -2.460845189e-05 28.94082061
176.0007278 65.77897339 109.8623206
87.49508982 -2.460845189e-05 137.2796316
184.0844438 52.42151039 95.28047461
176.0007278 99.26159339 114.2600956
191.8664128 25.77359239 -9.738690687e-05
-54.77814518 -2.460845189e-05 10.45402361
138.6965538 25.05147139 -9.738690687e-05
-176.0002492 66.08030339 190.9609926
-42.20322118 -2.460845189e-05 146.8926746
-170.1738932 -2.460845189e-05 213.4245696
-29.55713818 5.787300392 -9.738690687e-05
-180.0002492 46.99253339 248.5838106
-37.69293418 -2.460845189e-05 61.67879261
-122.1706112 38.08697239 -9.738690687e-05
-15.36005718 -2.460845189e-05 157.5856416
176.0007278 85.72816739 198.7637026
176.0007278 36.37613439 222.7219746
64.83369082 -2.460845189e-05 131.2552876
-121.0270042 -2.460845189e-05 23.70266861
176.0007278 20.19506239 211.6432896
193.5023728 236.3358354 91.99990261
-83.92045518 58.36885339 -9.738690687e-05
180.0007278 186.1560454 204.2862586
-200.1305442 -2.460845189e-05 157.5694816
184.0007278 26.28896639 124.8376896
189.6873828 86.97685939 91.99990261
187.7887998 -2.460845189e-05 219.9501376
184.0007278 12.99407239 135.4848276
-142.1017072 -2.460845189e-05 17.35883161
176.0007278 91.50921239 135.7961446
200.2294068 19.70461739 243.9999026
176.0007278 51.65273639 101.9167686
72.67481182 -2.460845189e-05 186.2461616
184.0007278 210.9067584 99.88827861
141.6330018 -2.460845189e-05 152.2616476
92.46905782 -2.460845189e-05 63.95736161
185.3340458 250.9103959 93.05947761
145.4689088 -2.460845189e-05 173.0485146
184.0007278 123.3989654 146.9081836
-72.91321618 -2.460845189e-05 134.1046156
-27.17577918 -2.460845189e-05 244.1910546
49.43130082 -2.460845189e-05 151.0536726
184.0007278 82.75370639 162.7440336
166.6925838 -2.460845189e-05 88.52209861
188.1001478 24.03293039 91.99990261
176.0007278 171.6638234 174.1089016
176.0007278 6.356251392 32.58419461
184.0007278 54.04678339 124.6142576
-176.0002492 5.327976392 59.16476761
7.615690821 -2.460845189e-05 139.0483286
180.0007278 194.2648254 149.1880846
176.0007278 71.03413239 194.0902516
168.7985068 -2.460845189e-05 234.1530496
180.0007278 91.23330239 79.12444061
184.6196968 193.9602824 88.77553461
180.0007278 40.49836039 32.14572961
184.0007278 99.16874339 235.2653116
184.0007278 109.5003114 192.8317496
-176.0002492 27.58053039 86.28245061
4.223017821 -2.460845189e-05 59.39272061
-176.7264632 50.59615539 6.451291613
184.0007278 175.7412764 155.5617546
57.81668682 -2.460845189e-05 197.3863946
118.3201028 -2.460845189e-05 75.70731161
186.5665358 -2.460845189e-05 90.09947361
-149.5750342 -2.460845189e-05 70.53030161
-160.7138582 -2.460845189e-05 9.759607613
-183.9090062 -2.460845189e-05 169.8555336
131.9607628 -2.460845189e-05 225.3099376
-104.2035302 -2.460845189e-05 28.86737261
176.0007278 63.28246939 249.5642296
184.0007278 54.36690639 178.4181846
184.1159468 -2.460845189e-05 166.1370796
176.0007278 105.7184344 140.8044136
184.0007278 196.9542914 132.0847356
180.0007278 138.3113164 147.6031956
73.86464582 -1.292382608 -9.738690687e-05
-62.84856218 8.484677392 -9.738690687e-05
-188.8885552 -2.460845189e-05 239.9273546
-169.2465132 -2.460845189e-05 106.7090106
-176.0002492 11.38362839 137.6115876
-2.620748179 -2.460845189e-05 8.210410613
176.6080388 25.01743139 138.2752726
77.96875382 -2.460845189e-05 81.41778161
-109.0808792 -2.460845189e-05 101.1205426
180.0007278 22.89002439 223.3636836
122.0226228 -2.460845189e-05 139.9063176
31.44740382 -2.460845189e-05 220.2831346
-180.0002492 15.86400639 164.6689816
127.9140418 -2.460845189e-05 185.6016316
180.0007278 100.6382744 149.1013326
184.0007278 10.10622239 199.2294636
184.0007278 64.55918839 217.2655876
-7.526842179 -2.460845189e-05 50.09831661
-180.0002492 73.89600239 162.3649786
107.6594888 -2.460845189e-05 54.07817461
22.83518982 -2.460845189e-05 98.37294161
-146.1548612 -2.460845189e-05 116.3477496
180.0007278 184.3229524 232.1439536
176.0007278 14.43819139 107.5653176
184.0007278 72.85903839 188.2940086
4.660035821 -2.460845189e-05 160.3284626
-180.0002492 29.27511239 67.75088861
184.0007278 139.8877414 235.3992486
180.0007278 250.6984345 211.5900936
45.98329382 -2.460845189e-05 207.4553696
141.5812728 -2.460845189e-05 133.6855036
180.0007278 57.58390239 140.0532716
180.0007278 153.3424674 99.82375161
184.9380948 -2.460845189e-05 51.85766561
-82.10949918 -2.460845189e-05 228.5743816
18.48843782 -2.460845189e-05 79.59643661
180.0007278 106.7165324 223.0255486
-20.08662518 -2.460845189e-05 78.79283361
120.0213518 -1.408266608 -9.738690687e-05
183.2756778 226.3642474 89.57400861
184.0007278 207.2431594 113.3788076
-69.05663718 -2.460845189e-05 211.0361746
184.0007278 84.60858839 211.8963476
176.0007278 76.60841939 114.3922436
158.4878238 3.301298392 -9.738690687e-05
176.0007278 134.1505684 207.4000086
176.0007278 43.21619639 108.1995616
184.0007278 239.3753859 234.2535456
83.85131082 -2.460845189e-05 173.7984916
191.8411288 36.31854439 243.9999026
-198.4998302 -2.460845189e-05 237.4810056
-191.0110502 -2.460845189e-05 43.04286361
-15.32270718 -2.460845189e-05 9.996855613
-180.0002492 37.37051639 217.8163136
180.9440698 51.79518739 -9.738690687e-05
-123.6710812 -2.460845189e-05 45.29298661
180.0007278 176.1240514 215.4927706
-82.55328018 -2.460845189e-05 174.6441276
-176.0002492 26.45968639 233.1723766
-176.0002492 30.85698939 172.5149046
80.23953782 23.58902639 -9.738690687e-05
118.1161468 -2.460845189e-05 23.06215661
190.8240698 154.1477154 247.9999026
184.0007278 237.7538607 182.6250956
5.709201821 22.28193039 -9.738690687e-05
184.0007278 146.7278764 171.9445136
148.7047038 -2.460845189e-05 97.90851561
184.0007278 30.95784239 153.1029536
-180.0002492 9.565176392 111.7111906
-176.0002492 85.63571939 219.2509696
-9.183984179 -2.460845189e-05 103.4578246
-178.0766142 -2.460845189e-05 152.1088836
176.0007278 77.02882639 136.8329466
-18.45199818 -2.460845189e-05 117.3196636
191.1306568 127.4388264 91.99990261
-184.1858092 -2.460845189e-05 123.3015796
198.8701118 45.85927439 91.99990261
-180.0002492 5.318435392 12.04350061
15.09761682 58.76773839 -9.738690687e-05
176.0007278 67.65035339 235.6664216
-176.0002492 30.79804439 244.2521346
193.4162638 242.8646033 243.9999026
-10.28165418 34.23424639 -9.738690687e-05
176.0007278 56.65502739 227.7095686
176.0007278 166.2548134 146.0479866
-80.94460018 -2.460845189e-05 8.763141613
176.0007278 97.48467739 215.0748476
-98.35613118 -2.460845189e-05 140.0293126
-84.71377518 -2.460845189e-05 129.1454736
-70.63206418 -2.460845189e-05 22.06661461
142.4530248 -2.460845189e-05 59.64746761
-192.9920552 -2.460845189e-05 6.476310613
-45.32013718 -2.460845189e-05 113.5583596
82.30185882 -2.460845189e-05 214.1433746
176.0007278 148.0392964 204.4700486
184.0007278 64.98342039 152.5928096
134.5471568 -2.460845189e-05 142.6324166
191.7541758 -2.460845189e-05 22.17182361
-85.64504318 -2.460845189e-05 65.18526561
180.0007278 227.8958356 147.2133496
147.4604158 -2.460845189e-05 160.0571466
-116.9671212 -2.460845189e-05 210.4578076
-165.8998932 3.132106392 -9.738690687e-05
180.0007278 196.4222684 192.1600466
-180.0002492 8.655711392 209.3004336
176.9217328 -2.460845189e-05 194.1469826
69.68362182 9.763416392 -9.738690687e-05
180.0007278 32.76328739 11.51851561
149.2304968 -2.460845189e-05 230.3827286
118.4432148 13.49160039 -9.738690687e-05
190.5815778 -2.460845189e-05 188.0966506
184.1102658 202.9614244 240.6071276
-139.5131782 -2.460845189e-05 216.4512776
-116.7738432 -2.460845189e-05 242.9560896
184.0007278 66.79302339 127.8478516
191.9277448 152.8324234 91.99990261
-19.75692918 -2.460845189e-05 210.8878796
-176.0002492 55.95272639 159.7615376
184.0007278 42.23834239 194.9186546
184.0007278 171.9860824 195.8487146
165.3536368 -2.460845189e-05 171.0226746
-179.0697052 102.5175314 230.9574006
-54.13997018 -2.460845189e-05 167.9923706
184.0007278 110.4066824 103.9293246
173.7531628 -2.460845189e-05 107.2402756
-50.66722818 -2.460845189e-05 61.41789361
178.7609468 129.8178334 220.4505936
-78.67029618 -2.460845189e-05 210.6404636
184.0007278 243.9180937 175.2512206
104.2107518 -2.460845189e-05 0.007001613093
-69.43949818 26.52762139 -9.738690687e-05
-180.0002492 28.76980939 40.30296961
176.0007278 74.46366739 220.5041206
-26.87823718 -2.460845189e-05 103.5760686
200.9912258 72.72922339 91.99990261
40.38060882 -2.460845189e-05 249.4179966
-158.9332012 -2.460845189e-05 153.6522446
-150.9688692 -2.460845189e-05 100.5726316
184.0007278 20.51464339 237.5221736
79.01015882 -2.460845189e-05 124.8299116
-72.01045718 -2.460845189e-05 158.7487856
195.1553678 -2.460845189e-05 199.2414106
176.0007278 65.55665339 168.4572426
160.4317948 -2.460845189e-05 209.2307046
180.0007278 21.87546739 28.49015061
180.0007278 51.64745439 239.6894746
-134.6218272 61.19404139 -9.738690687e-05
173.2647888 -2.460845189e-05 143.3911246
-73.41012118 -2.460845189e-05 101.2823476
191.1147718 178.8155284 243.9999026
176.0007278 101.7321664 126.9568596
-118.6996342 67.99997539 -2.315770387
-46.40193918 -2.460845189e-05 94.76365661
-139.3570162 -2.460845189e-05 196.9963076
176.0007278 45.08969639 126.2075536
186.5144678 241.8290898 88.15022261
69.12321982 -2.460845189e-05 41.71290561
-32.57003618 -2.460845189e-05 197.0497966
176.0007278 39.71098439 237.7070326
150.8398858 43.50872939 -9.738690687e-05
184.0007278 137.8025854 126.7054736
189.2452228 -2.460845189e-05 237.2242756
79.33597582 -2.460845189e-05 142.0619046
-180.0002492 8.490104392 27.54513461
184.0007278 212.9114147 194.4686576
153.3058088 -2.460845189e-05 150.2462456
-128.3533972 -2.460845189e-05 13.69045161
91.70604182 -2.460845189e-05 73.89814461
184.0007278 127.6062224 199.5530016
-169.6363802 -2.460845189e-05 239.7212196
14.48434482 -2.460845189e-05 113.0449106
199.4617938 219.600304 91.99990261
-162.3586812 -2.460845189e-05 114.5333646
93.29888982 -2.460845189e-05 31.31303761
90.03006482 48.37539339 -9.738690687e-05
184.0007278 23.06603339 110.0880206
61.53827582 -2.460845189e-05 184.4835486
-66.83973818 -2.460845189e-05 250.0352976
-197.2972242 -2.460845189e-05 195.6128716
180.0007278 22.79362439 192.2527616
176.0007278 126.4705874 104.5843346
-180.0002492 30.82987039 6.490501613
-117.7919832 -2.460845189e-05 120.5437496
176.0007278 101.9845994 100.3855336
176.0007278 84.52258939 124.2203656
176.0007278 41.84680539 165.3989156
-180.0002492 15.04927939 68.44722761
-154.7900532 -2.215631608 26.64697661
-91.55018918 -2.460845189e-05 109.6395086
-21.06818218 -0.5477006085 -9.738690687e-05
-14.93680618 45.53303039 -9.738690687e-05
-14.52466118 23.60386939 -9.738690687e-05
184.0007278 213.4920202 153.3362916
-176.0002492 42.67548539 20.90621661
185.5663818 -2.460845189e-05 75.39409061
-3.829246179 -2.460845189e-05 194.9805726
184.0007278 222.8412698 206.2331466
89.06274382 -2.460845189e-05 103.3193636
184.0007278 87.08426939 130.1091026
176.0007278 131.1366894 125.8977136
176.0007278 1.028124392 12.67687961
180.0007278 7.236352392 43.42782061
176.0007278 41.43949539 137.4286216
167.8099778 23.92347639 -9.738690687e-05
189.3566118 -2.460845189e-05 147.2195766
31.66271082 15.64037639 -9.738690687e-05
-180.0002492 68.68834039 216.8739936
184.0007278 61.25632339 226.5161486
184.0007278 5.224464392 208.3567536
199.2908798 230.3730308 247.9999026
-90.00670618 -2.460845189e-05 211.6819336
-60.36328318 -2.460845189e-05 78.97286561
180.0007278 65.93032239 86.91703461
171.1521778 -2.460845189e-05 215.4315846
-180.0002492 26.27896939 165.1767406
180.0007278 243.1891242 138.6465636
-23.49922518 -2.460845189e-05 152.6493056
-109.4234222 21.12784139 -9.738690687e-05
184.0007278 176.1056104 137.9839076
176.0007278 152.5669554 144.1121716
124.5726998 -2.460845189e-05 66.16240861
45.24204482 30.80034139 -9.738690687e-05
184.0007278 31.74370939 181.4135436
180.0007278 200.0546414 161.7231406
184.0007278 147.1300504 122.9596856
172.1647398 -2.460845189e-05 125.6476086
-99.71769418 -2.460845189e-05 47.86599361
-176.0002492 29.45432739 101.9963796
180.4119628 107.0735614 242.4150466
-180.0002492 60.96323639 236.9731776
-180.0002492 52.30864839 192.2111166
176.0007278 5.257766392 90.29891961
-120.0961472 -2.288949608 104.3481896
110.2104558 -2.460845189e-05 178.2178836
-131.5113352 15.90361139 -9.738690687e-05
180.0007278 22.83096039 41.42099961
184.0007278 90.26678539 198.6700116
180.0007278 70.57392139 102.2188376
-176.0002492 46.86790839 115.7204706
193.8907188 -2.460845189e-05 132.6172906
173.9454978 -2.460845189e-05 76.04013161
180.0007278 18.71228739 62.00119061
169.7508728 -2.460845189e-05 51.59645261
184.0007278 234.2992892 139.8532366
57.67974182 -2.460845189e-05 68.61808161
-180.0002492 11.51111539 200.5851426
180.0007278 54.87087739 26.67333661
184.0007278 166.5816554 215.3102866
180.0007278 182.3350234 106.6346356
-137.9875272 -2.460845189e-05 79.38403561
-180.0002492 40.10558039 174.2333166
19.06082782 -2.460845189e-05 201.1930076
91.18968182 -2.460845189e-05 183.1673926
184.0007278 89.00586539 117.6275816
180.0007278 32.74285239 78.11543361
176.0007278 16.63068239 4.198363613
-179.9348392 -2.460845189e-05 242.0175536
-72.93608518 -2.460845189e-05 198.3087786
140.5130078 -2.460845189e-05 192.2022586
180.0007278 46.35607839 89.80655761
176.0007278 60.98877739 196.7429736
184.0007278 165.5409274 238.4256236
159.6278678 59.44437339 -9.738690687e-05
176.0007278 62.90944239 32.58452561
-54.38535918 40.05906739 -9.738690687e-05
109.2740158 -2.460845189e-05 39.58455461
176.0007278 37.60237039 180.7317446
176.0007278 8.863810392 235.0541726
-176.0002492 14.67443039 179.9883556
-154.9308992 -2.460845189e-05 171.4069396
176.0007278 46.45238839 147.4531496
184.0007278 54.89401439 200.6106776
184.0007278 244.5062725 160.4555746
-192.6044952 -2.460845189e-05 176.6335676
-168.6349622 45.77316839 -9.738690687e-05
200.4920978 242.1387588 91.99990261
-135.9557712 -2.460845189e-05 180.4909086
54.52512482 -2.460845189e-05 36.20779461
184.0007278 141.9491534 217.4920626
155.0968308 -2.460845189e-05 139.0124336
180.0007278 165.3916474 123.4954846
-85.92263718 -2.460845189e-05 160.0980376
176.0007278 144.5047954 118.3009396
1.489788821 -2.460845189e-05 40.23773261
176.0007278 165.9917114 181.1511686
-182.1169482 -2.460845189e-05 63.13753961
-180.0002492 4.994716392 230.5011136
-117.6672302 -2.460845189e-05 79.20518661
176.0007278 46.15183039 177.7872886
-30.40303018 -2.460845189e-05 222.0928566
152.7303538 -2.460845189e-05 47.26766061
184.0007278 100.4989174 185.4041626
-40.50465818 -2.460845189e-05 44.36567261
-180.0002492 48.32837239 130.8693436
176.0007278 31.71575239 39.00127661
-101.5910582 -2.460845189e-05 201.5223566
184.0007278 108.5152414 181.1128806
184.0007278 83.47656539 153.7706176
184.0007278 131.4609864 153.0951706
-17.73424518 59.91277739 -9.738690687e-05
180.0007278 120.1164654 239.9603586
180.0007278 223.7538087 104.9512376
176.0007278 65.51754239 212.8255976
189.6740828 114.3018794 243.9999026
-55.95776718 -2.460845189e-05 208.4609316
-24.29097518 -2.460845189e-05 91.15916961
-176.0002492 41.36237139 11.22923561
-35.72383218 -2.460845189e-05 99.88346861
39.69718382 -1.737315608 -9.738690687e-05
171.0020898 -2.460845189e-05 244.2985096
58.64910582 -2.460845189e-05 48.28737861
16.92732882 -2.460845189e-05 185.9879546
72.87955282 -2.460845189e-05 95.51238261
200.4450418 38.78629839 243.9999026
68.53241582 49.76089939 -9.738690687e-05
180.0007278 205.5663634 174.3271816
-42.33971618 -2.460845189e-05 244.0615206
176.0007278 70.31565539 94.03320661
-180.0002492 51.21571839 57.44768461
-180.0002492 32.10418039 141.6963746
180.0007278 189.5366414 213.2642056
-176.0002492 16.16812239 116.6286036
102.1651358 -2.460845189e-05 28.97204861
185.1418638 114.4947414 93.21243561
-176.0002492 62.91565039 128.0412046
-13.22948418 -2.460845189e-05 136.6877096
-27.94018918 26.48910839 -9.738690687e-05
-116.9777942 -2.460845189e-05 228.8153246
-141.2167262 -2.460845189e-05 207.4498076
184.0007278 238.0714671 100.3831916
184.0007278 115.5910844 158.0416616
40.91247082 -2.460845189e-05 17.36094961
-170.3901882 -2.460845189e-05 63.48291561
184.0007278 144.1390324 105.2412436
180.0007278 135.0188174 169.0649176
13.97532282 -2.460845189e-05 43.21051561
184.0007278 108.6218314 207.3215256
176.0007278 79.90341339 67.28433061
-170.9894402 -2.460845189e-05 124.5597976
-58.40389318 -2.460845189e-05 193.2702646
184.0007278 115.9997584 132.4617126
184.0007278 185.7203524 146.8407036
186.6434388 146.3085444 88.13384561
180.0007278 16.25541939 249.3255666
-180.0002492 51.31845939 201.6204936
180.4175008 181.2217914 93.56785861
176.2371768 90.43463039 231.5385926
-188.7078122 -2.460845189e-05 80.61771461
196.0286408 114.1233494 87.99990261
-64.16682918 53.95556439 -9.738690687e-05
180.0007278 166.3838064 97.35846961
160.3141868 -2.460845189e-05 38.41016561
184.0007278 41.64484039 161.2734626
-54.52398918 -2.460845189e-05 178.3181326
-180.0002492 23.78245439 202.3245046
180.0633608 129.3631744 240.6365056
-4.134961179 -2.460845189e-05 143.2653816
176.0007278 113.3260234 214.0766686
133.5728408 -2.460845189e-05 44.77087261
155.3516578 11.79066739 -9.738690687e-05
-176.0002492 49.79215639 43.51767861
184.0007278 231.6635271 164.5462396
-176.0002492 34.57757339 50.77954161
-133.9986322 7.482059392 -9.738690687e-05
-38.28279518 62.21490239 -9.738690687e-05
183.2564738 57.58068139 246.4310136
176.0007278 118.9772054 110.7398116
188.5437488 -2.460845189e-05 117.5677166
180.0007278 185.6470134 172.6860986
-122.6601512 -2.460845189e-05 189.8693426
-180.0002492 56.99941839 92.87222861
176.0007278 14.23002139 119.6622326
-141.4048742 39.77523239 -9.738690687e-05
176.0007278 50.02547839 159.8472696
184.0007278 88.22890139 100.6090246
176.0007278 8.890049392 76.46508961
176.0007278 151.9350084 125.3294836
-121.4785542 7.411259392 -9.738690687e-05
-4.641141179 -2.460845189e-05 110.8797806
113.0030008 -2.460845189e-05 119.4731036
43.40363182 -2.460845189e-05 50.04087661
180.0007278 52.66809339 210.0356866
180.0007278 20.92120239 175.8062006
176.0007278 122.1073854 135.0417886
-153.4573512 -2.255948608 204.7034956
-82.83639118 -2.460845189e-05 49.35068061
-180.0002492 20.97934839 185.2790876
176.0007278 39.45917439 205.3974916
8.728751821 -2.460845189e-05 83.18215461
184.0007278 31.02954239 134.1295466
-180.0002492 14.00843939 243.4041376
180.0007278 181.4080464 183.1318896
55.18259382 -2.460845189e-05 21.28260861
169.2310278 -2.460845189e-05 27.38613361
180.0007278 150.2585504 220.2264396
179.8116858 80.03378939 240.0395406
176.0007278 6.179689392 101.6315586
94.99386282 -2.460845189e-05 6.257173613
-176.0002492 26.79510839 129.7640666
176.0007278 69.73549739 129.2179386
30.21794182 52.30226239 -9.738690687e-05
106.7768428 -2.460845189e-05 110.5743066
71.53268382 -2.460845189e-05 244.7250306
184.0007278 40.47621539 227.6323846
-108.8069472 67.99997539 -1.905070387
97.18910382 65.18270739 -9.738690687e-05
-180.0002492 48.45136039 100.7280456
184.0007278 168.2651244 159.7633646
197.2444928 -2.460845189e-05 162.2729966
180.0007278 247.3132924 191.9226626
180.0007278 67.23611239 145.0630126
190.5092758 43.59875839 91.99990261
176.0007278 78.41365739 102.4106656
-180.0002492 31.82852639 80.01644861
121.2025768 55.90448139 -9.738690687e-05
191.4977538 189.7306794 247.9999026
49.05948782 63.26183239 -9.738690687e-05
180.0007278 31.37069839 94.00984161
176.0007278 43.38695139 214.1393286
184.0007278 195.1273124 220.3406256
178.6642508 -2.460845189e-05 180.4853096
-176.5515282 -2.460845189e-05 94.59873161
180.0007278 186.9271684 155.5203306
48.59178282 -2.460845189e-05 111.7004376
184.0007278 75.50685639 150.0137596
-78.30506218 16.36839139 -9.738690687e-05
184.0007278 179.7699454 163.1084236
180.0007278 139.9729274 136.0825486
-21.54531018 50.90711539 -9.738690687e-05
14.17021482 21.32210539 -9.738690687e-05
-200.2951412 -2.460845189e-05 40.95122061
-129.5059992 -2.460845189e-05 68.50387561
192.8455578 204.3396244 91.99990261
176.0007278 83.85517739 150.2220716
184.0007278 49.65979239 106.7380226
179.8122108 -2.460845189e-05 132.0123936
129.9570148 57.77391839 -9.738690687e-05
91.65250782 -2.460845189e-05 163.7310736
180.0007278 50.72414539 9.600974613
184.0007278 90.71449939 159.8026526
-81.82422618 -2.460845189e-05 37.14505461
199.7190538 146.0806184 91.99990261
180.0007278 57.16806839 116.4572356
190.5124218 165.2504904 91.99990261
130.5412558 -2.460845189e-05 118.9949936
184.0007278 117.0787634 116.2096326
-102.0009082 59.49147839 -9.738690687e-05
184.0007278 242.9501917 131.1921556
176.0007278 68.52665339 46.45171561
