# .PCD v0.7 - Point Cloud Data file format
VERSION 0.7
FIELDS x y z
SIZE 4 4 4
TYPE F F F
COUNT 1 1 1
WIDTH 1201
HEIGHT 1
VIEWPOINT 0 0 0 1 0 0 0
POINTS 1201
DATA ascii
140.2449041 -2.461375493e-05 22.09171765
229.3559631 -2.461375493e-05 55.27285565
104.6056221 -2.461375493e-05 -102.3774934
151.8658521 -2.461375493e-05 62.27291965
-1.543073907 62.63897339 6.661170647
148.3427071 11.97263839 -105.8869574
223.0012871 0.4058823862 -111.8869574
183.9316871 -2.461375493e-05 66.47223965
56.10251509 66.92104439 -111.8869574
120.7376201 12.33688539 -105.8869574
243.5343401 -1.753555614 -111.8869574
76.39941009 43.15014139 -111.8869574
103.7463311 -2.461375493e-05 -76.52494035
179.3444121 67.99997539 -109.9407014
244.4026871 41.12689039 -105.8869574
115.4731921 31.91633839 -111.8869574
110.2653041 50.32262939 -111.8869574
223.8120031 -2.461375493e-05 28.84373065
50.22538909 43.58737239 -111.8869574
225.9225831 28.20044939 -105.8869574
6.951207093 45.26656139 -105.8869574
15.13413409 -2.461375493e-05 86.86707365
219.4552951 -2.461375493e-05 78.04102265
144.3847051 -2.461375493e-05 -40.60349835
187.7989911 9.563559386 -105.8869574
89.90900309 -2.461375493e-05 -25.75692835
71.10021009 7.713043386 -105.8869574
94.32625709 37.53701139 -105.8869574
239.8588941 -2.461375493e-05 30.09377765
184.1179601 -2.461375493e-05 84.40177365
10.18707209 -1.314806614 -105.8869574
-2.906692316e-06 11.03545939 -91.29063435
226.5465511 -2.461375493e-05 -100.5083464
82.86182509 -2.461375493e-05 66.98690165
247.9335271 -2.461375493e-05 -93.52551335
36.58458609 -2.461375493e-05 31.64659965
205.3552861 35.00138139 -105.8869574
9.973035093 -2.461375493e-05 22.10707965
165.4475881 -2.461375493e-05 -3.006158353
109.5227051 -2.461375493e-05 87.27915065
117.9904291 -2.461375493e-05 -1.249586353
82.61862109 -2.461375493e-05 -76.56712135
41.96591909 -2.461375493e-05 89.14109365
204.5936921 2.168078386 -105.8869574
199.2198851 -2.461375493e-05 80.76373665
-2.906692316e-06 43.19440139 39.38300165
154.5158131 -2.461375493e-05 -76.21094335
234.1433911 -2.461375493e-05 -9.715813353
251.5961621 -2.461375493e-05 -42.68687635
207.0927331 43.33069239 -111.8869574
-2.906692316e-06 36.48616239 59.90820465
-2.906692316e-06 57.31424139 55.47997965
55.67782509 -2.461375493e-05 27.02251765
28.45274309 -2.461375493e-05 -28.77683135
33.98222109 -2.461375493e-05 -14.26928335
174.1778351 -2.461375493e-05 -39.76082535
25.85631109 23.15259339 -105.8869574
63.83162409 59.03124939 -111.8869574
234.9836861 43.96819339 -105.8869574
123.4281391 -2.461375493e-05 -11.87449935
37.77772209 -2.461375493e-05 -72.91170435
-2.906692316e-06 21.17541739 40.27694465
147.4390681 39.83314039 -105.8869574
131.3876061 -2.461375493e-05 40.71565065
42.41539509 -2.461375493e-05 63.07904865
197.8184391 -2.461375493e-05 -87.52327335
50.86338809 -2.461375493e-05 -81.88565135
131.7212491 -2.461375493e-05 -18.53678235
8.203717093 -2.461375493e-05 77.92995865
226.0012101 -2.461375493e-05 91.20064165
190.5747021 -2.461375493e-05 58.62813465
-2.906692316e-06 49.64554239 6.206969647
132.9617881 -2.461375493e-05 -53.15679635
56.43424409 -2.461375493e-05 -41.14738035
175.6566911 -2.461375493e-05 28.71251065
164.3347531 -2.461375493e-05 -96.01510235
196.7884241 62.20589639 -111.8869574
147.8557711 56.93975239 -111.8869574
209.2931281 -2.461375493e-05 -95.87827235
-2.906692316e-06 67.23471239 90.81908165
12.41547709 20.13990239 -105.8869574
22.24963009 -2.461375493e-05 4.149906647
236.5877901 -2.461375493e-05 46.35336765
99.81371209 -2.461375493e-05 -14.97175735
212.0876791 -0.8173736138 -111.8869574
144.5712431 -2.461375493e-05 6.181354647
176.3454071 -2.461375493e-05 -99.44186835
191.5880431 44.47821939 -105.8869574
119.6902471 -2.215307614 -111.8869574
169.3429651 -2.461375493e-05 -11.57166235
97.95747809 11.76999439 -111.8869574
136.8380501 44.32237339 -105.8869574
155.9476831 -2.461375493e-05 72.81938265
182.1694061 -2.461375493e-05 -27.45449835
156.1709831 52.58834939 -105.8869574
-2.906692316e-06 7.307195386 68.01363465
161.0870421 23.33797739 -111.8869574
45.21683509 62.06892539 -111.8869574
130.6924331 10.60832739 -111.8869574
155.4553151 -2.461375493e-05 -57.05362235
170.0581191 40.30338639 -105.8869574
75.59535009 -2.461375493e-05 25.94578065
95.01681209 -2.461375493e-05 67.10335265
177.5502841 59.10013339 -111.8869574
52.42656709 -2.461375493e-05 -49.72715435
-1.122436907 0.9999753862 16.33345565
11.57053709 53.68184439 -105.8869574
239.0010401 -2.461375493e-05 -62.45847435
218.4166741 55.96938439 -105.8869574
-2.906692316e-06 29.31173939 -94.09149135
87.76077109 -2.461375493e-05 -45.62994735
127.8192151 -2.461375493e-05 81.47588365
162.4239341 -2.461375493e-05 80.38210965
232.6872951 26.56618039 -111.8869574
243.8936691 20.34492839 -111.8869574
67.20056309 -2.461375493e-05 -69.31376635
11.61230109 -2.461375493e-05 -27.64334135
157.1017541 -2.461375493e-05 26.49797865
250.0272661 -2.461375493e-05 -80.47380035
5.939531093 4.032271386 -111.8869574
94.48661309 -2.461375493e-05 -103.4793344
126.4834081 34.08918739 -111.8869574
232.6184951 12.83401939 -111.8869574
111.5832141 -2.461375493e-05 -67.66000535
-2.906692316e-06 8.700980386 -19.97091035
244.6848561 29.61386639 -111.8869574
53.29696909 8.004845386 -105.8869574
139.2732121 -2.461375493e-05 -23.72176035
223.8222281 -2.461375493e-05 70.17915565
125.6527391 62.38083939 -111.8869574
103.8362371 -2.461375493e-05 -57.19967935
43.11173109 -2.461375493e-05 21.64738165
11.94389609 -2.461375493e-05 39.80604465
-2.906692316e-06 16.57187039 15.20769765
-2.906692316e-06 39.12718139 49.67990565
15.56243109 -2.461375493e-05 -96.24454035
132.5538611 19.62582739 -111.8869574
153.0056081 -2.461375493e-05 -18.40908835
190.6117071 -2.461375493e-05 -95.76324135
-0.7640389067 67.99997539 102.2052676
81.41462309 48.75477239 -105.8869574
140.1255281 -2.461375493e-05 59.32398765
-2.906692316e-06 35.71398339 -79.92119635
-2.906692316e-06 23.55211839 56.05020265
69.88632509 -2.461375493e-05 1.498959647
193.4175191 -2.461375493e-05 -36.85652735
-2.906692316e-06 58.99594939 75.82021565
65.15207409 40.40426339 -105.8869574
222.4758341 -2.461375493e-05 -10.64106835
-2.906692316e-06 43.01578839 87.63312665
32.95577909 -2.461375493e-05 16.31988865
137.9563251 64.53363339 -111.8869574
250.8845801 8.290762386 -105.8869574
23.26031109 67.91133939 -111.8869574
92.55484309 29.04560039 -111.8869574
108.4625061 -2.461375493e-05 -26.08503035
180.1971011 -2.461375493e-05 43.44665865
176.5628261 -2.461375493e-05 78.44293065
156.5891251 7.648044386 -105.8869574
186.4932981 22.30549439 -111.8869574
-2.906692316e-06 24.38227339 100.8705986
45.48045509 -2.461375493e-05 53.10288465
-2.906692316e-06 9.760956386 76.97554865
-2.906692316e-06 49.80970639 105.4164306
57.35083909 33.33469639 -105.8869574
4.518762093 -2.461375493e-05 46.33516265
-2.906692316e-06 33.55690139 102.4822266
229.6640671 -2.461375493e-05 13.54032565
229.8743521 40.36929939 -111.8869574
25.50909609 10.75101439 -105.8869574
183.1224961 -2.461375493e-05 -57.36486835
118.1166471 24.59646239 -105.8869574
220.1604941 -2.461375493e-05 52.88527565
64.58142909 -2.461375493e-05 27.23042465
38.40694309 57.80641939 -105.8869574
-2.906692316e-06 33.42886239 112.9911486
-2.906692316e-06 22.71334139 -71.62210935
0.8594530933 -2.461375493e-05 -76.43679835
53.83719209 -2.461375493e-05 -17.27400335
33.11786009 -2.461375493e-05 -80.36345935
-0.8294519067 0.9999753862 -58.25014435
-2.906692316e-06 17.42196839 -103.5932844
164.4674171 64.02947639 -111.8869574
68.79752309 22.45348239 -111.8869574
53.27737909 48.86563839 -105.8869574
83.67799609 15.69699939 -105.8869574
18.06106509 6.756200386 -111.8869574
-2.906692316e-06 8.653524386 94.25320765
56.93252309 24.43006839 -111.8869574
74.10746609 66.42159139 -105.8869574
-2.906692316e-06 39.31139039 -100.7224734
97.00531009 -2.461375493e-05 -50.11060235
-2.906692316e-06 58.76439839 46.99748065
26.40816509 -2.461375493e-05 68.33509965
210.0404801 -2.461375493e-05 -37.51407735
99.16376009 61.90136839 -105.8869574
157.7326661 -2.461375493e-05 -38.09119835
36.66756809 23.91074539 -111.8869574
179.3424711 49.51210239 -111.8869574
210.3313841 -2.461375493e-05 65.03033065
226.6957441 20.29620839 -111.8869574
112.3958911 -2.461375493e-05 17.74144165
73.19572709 -2.461375493e-05 -80.55253035
34.45186509 -2.461375493e-05 -60.39235035
-2.400283907 4.192254386 -111.8869574
174.5148561 -2.461375493e-05 57.63593965
209.7383961 56.41525439 -111.8869574
24.04594109 40.51395939 -111.8869574
153.4492941 67.79536339 -111.8869574
9.009032093 35.36734939 -111.8869574
83.86912809 -2.461375493e-05 32.00170265
25.36817909 -2.461375493e-05 58.68188065
102.8962391 -2.461375493e-05 -4.431044353
245.5398061 -2.461375493e-05 64.94068565
78.28333309 3.497862386 -105.8869574
213.7922961 67.99997539 -111.3165774
60.58417609 -2.461375493e-05 -32.46291235
245.5297611 6.393799386 -111.8869574
80.83223209 -2.461375493e-05 57.21362865
-1.575020907 42.87386439 -84.78606835
138.7318611 26.55550339 -105.8869574
39.02428809 -2.461375493e-05 -42.75662035
140.6584111 -2.461375493e-05 -85.08689335
203.5298351 20.23902339 -105.8869574
251.6520151 -2.461375493e-05 36.35227265
172.6577191 29.92605039 -105.8869574
194.4212541 -2.461375493e-05 18.68339465
43.77921709 4.412055386 -105.8869574
82.30247109 -2.461375493e-05 21.28695165
-2.906692316e-06 3.052218386 2.867571647
-2.906692316e-06 27.71043739 76.86744565
86.20832609 32.31727639 -105.8869574
250.0584811 44.21984439 -111.8869574
220.2024611 45.21831239 -111.8869574
169.1146711 -2.461375493e-05 4.196230647
233.1966701 65.09764939 -111.8869574
215.8048641 12.24237039 -105.8869574
248.3558521 -2.461375493e-05 78.76152565
168.2365761 47.74542139 -111.8869574
45.60267009 -2.461375493e-05 39.71460365
183.6568791 -2.461375493e-05 27.72657765
14.78617109 -2.461375493e-05 67.13213065
73.55502009 -2.461375493e-05 -15.75941535
133.2055071 -2.461375493e-05 -77.17691335
123.0070111 -2.461375493e-05 30.79374665
73.97412309 -2.461375493e-05 -36.39985235
8.949307093 61.78000439 -105.8869574
123.4023651 -2.461375493e-05 -32.83244435
-2.478493907 59.18829139 -111.8869574
-2.906692316e-06 60.22224639 103.9179136
45.46200609 -2.461375493e-05 -27.83272735
227.6910721 -2.461375493e-05 -26.87835835
-2.906692316e-06 12.14551639 35.16305265
232.2904421 7.565249386 -105.8869574
114.6226111 -0.7984556138 -105.8869574
-2.906692316e-06 18.94783339 -78.68707935
188.4574331 36.50308739 -105.8869574
114.3392751 20.96189439 -111.8869574
-2.906692316e-06 27.71564739 30.28985065
23.82387809 -2.461375493e-05 -41.52805335
123.2592451 4.873389386 -111.8869574
146.1304481 -2.461375493e-05 -54.48644635
81.53217309 40.84951239 -105.8869574
245.0576781 -2.461375493e-05 -26.57790035
103.7800551 40.96843539 -105.8869574
7.784413093 14.94314739 -111.8869574
83.36355509 -2.461375493e-05 -64.54430235
191.6785771 -2.461375493e-05 -14.27647835
37.12110609 1.614106386 -111.8869574
113.8428671 -2.461375493e-05 34.55415965
83.03275909 61.80165339 -111.8869574
5.847972093 -2.461375493e-05 -10.94584735
141.2487841 20.24862739 -111.8869574
189.9570191 1.864669386 -111.8869574
242.0977101 -2.461375493e-05 -9.679962353
213.8023891 -2.461375493e-05 1.478771647
185.3862581 16.98699239 -105.8869574
95.04379809 -2.461375493e-05 -6.926925353
161.2721431 32.00598039 -105.8869574
243.6567981 -2.461375493e-05 22.18218565
190.8370351 -2.461375493e-05 -103.5533134
143.0295441 37.49864239 -111.8869574
168.2383471 -2.461375493e-05 -51.29950935
29.26352009 60.17921139 -105.8869574
81.60121209 -2.461375493e-05 -28.16098435
121.1931521 -2.461375493e-05 65.46099365
56.78886509 -2.461375493e-05 86.85485065
205.4725121 -2.461375493e-05 53.69779365
192.1343961 32.39452939 -111.8869574
243.7321981 55.22584939 -105.8869574
111.8565301 67.99997539 -106.9546304
48.24317109 54.95370639 -111.8869574
32.51771509 -2.461375493e-05 3.859994647
-2.906692316e-06 43.92932439 79.27428365
75.26570709 -2.461375493e-05 43.68702465
202.5325341 9.499292386 -111.8869574
82.33591409 -2.461375493e-05 7.798899647
214.2248711 -2.461375493e-05 -53.57267435
101.8772401 19.51714339 -105.8869574
112.1636961 38.86990839 -111.8869574
156.3807091 -2.461375493e-05 -30.51736435
120.0059471 -2.461375493e-05 -55.09663435
66.62950909 -2.461375493e-05 76.04377465
97.18989909 -2.461375493e-05 59.74729465
182.2251581 44.33442039 -105.8869574
209.7362301 27.10866639 -111.8869574
-2.906692316e-06 20.50388639 -87.84863035
35.53707309 63.15947639 -111.8869574
150.7300771 -2.461375493e-05 40.43051765
173.3291441 -2.461375493e-05 -61.99368635
27.85969709 -0.6885786138 -105.8869574
50.03080509 -2.461375493e-05 -65.63458135
195.5504041 20.23578439 -105.8869574
-2.906692316e-06 15.13048739 -4.623601353
-2.906692316e-06 60.29642739 17.29548265
155.3486661 16.09951239 -111.8869574
196.9052121 67.99997539 -106.4802154
46.53358109 -2.461375493e-05 74.10709865
165.6195931 39.12452739 -111.8869574
19.97150409 -2.461375493e-05 -79.84711135
7.193176093 -2.461375493e-05 -40.35095735
205.8838791 58.85285439 -105.8869574
40.98952809 -2.461375493e-05 -79.72195135
157.9327361 -2.461375493e-05 49.89492665
138.9960231 -2.461375493e-05 88.66581165
122.5200661 65.66430339 -105.8869574
-2.906692316e-06 29.62064039 62.96947665
244.2829121 -2.461375493e-05 -19.10448435
223.0744691 -2.461375493e-05 -85.85277435
13.85971009 25.76757239 -111.8869574
115.4313391 -2.461375493e-05 -49.15833135
97.58999609 47.80471239 -105.8869574
-2.906692316e-06 45.77152739 19.92216165
203.6802881 -2.461375493e-05 -63.96825435
127.3209501 -2.461375493e-05 -59.88756235
-2.906692316e-06 14.35530139 -24.84933735
228.3991371 14.23113339 -105.8869574
81.36183709 19.48990239 -111.8869574
182.9202321 24.91911139 -105.8869574
99.30696709 -2.461375493e-05 -86.80098735
47.15972709 13.33119239 -111.8869574
7.101391093 -2.461375493e-05 -50.82608835
218.5964811 26.93063039 -105.8869574
-2.906692316e-06 22.10510139 -7.182392353
236.3149581 -2.461375493e-05 -84.54117435
56.23857809 -2.461375493e-05 -75.45252935
-2.906692316e-06 14.81616039 54.51943465
39.47040409 51.35693239 -111.8869574
35.50014909 7.097797386 -105.8869574
155.1359081 -2.461375493e-05 11.62488965
231.1100981 -2.461375493e-05 27.64916865
138.3960911 -2.461375493e-05 -68.98358835
-2.906692316e-06 3.653858386 -91.34785935
190.7775141 -2.461375493e-05 12.26482065
44.96048809 -2.461375493e-05 -47.13598635
76.67954309 26.36524639 -111.8869574
10.84044509 49.47516739 -111.8869574
-2.906692316e-06 46.78826039 -90.80947335
213.9945861 -2.461375493e-05 71.40470665
204.6451241 27.68868139 -105.8869574
69.68155009 -2.461375493e-05 59.24710265
155.0793311 27.78498739 -105.8869574
36.88535509 37.28236939 -105.8869574
168.1207131 -2.461375493e-05 34.52055865
0.9715330933 6.615971386 -105.8869574
40.93273109 -2.461375493e-05 -53.21633835
171.1451501 17.69790139 -105.8869574
216.5926961 52.25887139 -111.8869574
172.5899401 -2.461375493e-05 -105.6835194
226.6032191 62.00441839 -111.8869574
247.2003761 13.47027639 -111.8869574
16.99761709 -2.461375493e-05 20.23342965
95.11618709 52.09060639 -111.8869574
60.17833909 -2.461375493e-05 70.15163965
-2.906692316e-06 38.64111639 22.65584765
248.4862311 -2.461375493e-05 7.182743647
-1.046398907 49.02098739 -111.8869574
155.0140231 0.1652483862 -111.8869574
185.3623021 -2.461375493e-05 -4.506639353
105.7114391 -2.461375493e-05 8.948039647
-2.906692316e-06 46.26824039 115.0785076
111.4711841 31.40801439 -105.8869574
-2.906692316e-06 45.70289939 52.68245265
111.8619371 -0.2483356138 94.11304265
43.82088309 20.30259139 -111.8869574
156.8400541 45.81794039 -111.8869574
186.0700821 -2.461375493e-05 -79.13638435
157.3766561 64.17358039 -105.8869574
174.5030261 -2.461375493e-05 37.86437665
100.6537171 -2.461375493e-05 86.42682265
-2.906692316e-06 19.09079839 4.578079647
129.2110041 -2.461375493e-05 -68.14676335
220.8635261 -2.461375493e-05 -40.82257835
143.3914451 -2.461375493e-05 43.93435365
79.62884509 -2.461375493e-05 88.45319565
76.48327909 -2.461375493e-05 74.29086265
-2.906692316e-06 49.05508739 66.76288765
36.73674009 -2.461375493e-05 38.86881065
206.3756881 17.62928739 -111.8869574
174.5764381 -2.461375493e-05 -82.86837335
210.5477731 39.88768739 -105.8869574
225.0328801 -2.461375493e-05 47.65593765
197.5720901 29.36906539 -105.8869574
65.64163909 55.66112739 -105.8869574
126.7118341 3.231471386 -105.8869574
71.48691009 63.66090939 -111.8869574
42.09350609 -2.461375493e-05 -96.76374435
157.2748061 -2.461375493e-05 -96.80302135
85.94836109 59.27678439 -105.8869574
105.3703371 21.01466839 -111.8869574
210.7936801 -2.461375493e-05 -13.17190435
179.1713941 53.27192539 -105.8869574
129.5223871 -2.461375493e-05 -25.26343335
-2.906692316e-06 60.65749739 34.66864265
-2.906692316e-06 10.72706939 -49.88131435
193.2612661 -2.461375493e-05 65.15403665
99.84539709 -2.461375493e-05 21.85389765
172.9555971 59.21130939 -105.8869574
147.8705941 -0.3054116138 -111.8869574
-2.906692316e-06 2.125396386 101.4314796
127.6350241 -2.461375493e-05 -40.36816435
98.12354009 5.507175386 -105.8869574
237.3227691 7.617895386 -111.8869574
-2.906692316e-06 9.980335386 -10.50684435
228.8854661 53.45338539 -105.8869574
147.3360511 25.44168339 -105.8869574
-2.906692316e-06 16.60018339 103.6866646
-2.906692316e-06 7.861830386 -39.85395635
33.51895109 -2.461375493e-05 84.38162765
16.40887809 33.14921439 -105.8869574
212.1692311 -2.461375493e-05 11.21613465
53.94940909 -2.139741614 -105.8869574
-0.8409789067 47.60880439 -104.8869574
70.71517909 1.165277386 -111.8869574
229.1405551 -2.461375493e-05 74.64103865
132.9143681 -2.461375493e-05 -91.81710035
114.8739461 -2.461375493e-05 -29.56769135
201.2969211 -2.461375493e-05 -10.32122335
164.9885971 10.43129039 -105.8869574
183.2698421 -2.461375493e-05 73.36401265
-2.906692316e-06 21.50542839 21.46918765
40.31389709 9.227615386 -111.8869574
70.50877509 39.52119739 -111.8869574
205.1828061 -2.461375493e-05 -77.53876335
-2.906692316e-06 14.41365739 -84.57225335
120.3108141 -2.461375493e-05 -93.58724835
164.3297601 -2.461375493e-05 -89.11710035
120.9382621 54.61243139 -111.8869574
153.4112191 -2.461375493e-05 -66.20614935
73.88440909 9.636386386 -111.8869574
154.3659681 37.61785139 -105.8869574
154.1626191 24.55137339 -111.8869574
-2.906692316e-06 39.11072239 5.553711647
251.2961991 27.72816339 -111.8869574
232.0615211 -2.401965614 94.11304265
107.2266991 62.66188739 -111.8869574
82.75787409 34.04924739 -111.8869574
177.4206581 -2.461375493e-05 -11.25629035
195.2729481 -2.461375493e-05 -70.38142835
231.2771331 55.96833539 -111.8869574
190.9474191 -2.461375493e-05 84.92287365
203.9618601 44.34180139 -105.8869574
43.65295509 41.69022539 -111.8869574
21.15423809 38.97649539 -105.8869574
-2.906692316e-06 30.06752039 53.98513965
237.2265591 33.72375439 -111.8869574
-2.906692316e-06 16.22715139 -58.64174335
218.8253341 -2.461375493e-05 33.72513265
111.8412391 5.739275386 -105.8869574
88.46851509 1.512288386 -111.8869574
243.8807551 16.40578939 -105.8869574
62.40913809 49.68089439 -105.8869574
-1.477447907 0.9999753862 -82.74040235
28.01291709 43.34363039 -105.8869574
90.24879209 -2.461375493e-05 -51.94162635
211.7036461 -2.461375493e-05 -89.32665135
143.6074841 -2.461375493e-05 -30.10731035
203.8891401 32.21145039 -111.8869574
188.4937321 61.77860139 -111.8869574
-2.906692316e-06 51.17921439 24.81089165
244.3177831 -2.461375493e-05 -57.81192735
88.61148209 -2.461375493e-05 59.95249265
235.6268211 -2.461375493e-05 -3.122424353
66.66077809 -2.461375493e-05 12.83187465
110.6504781 -2.461375493e-05 -19.70663435
7.621402093 -2.461375493e-05 -69.39504235
188.4298401 -2.461375493e-05 -66.10182535
134.6259781 -2.461375493e-05 18.38434265
13.21811709 -1.592458614 -111.8869574
249.8908191 33.28224339 -105.8869574
243.6706031 -2.461375493e-05 -78.27710235
-2.906692316e-06 37.78730539 -2.046470353
27.11280309 20.43326739 -111.8869574
18.47878409 15.44666639 -105.8869574
125.1333091 18.69038139 -105.8869574
56.49880809 -0.6127026138 -111.8869574
173.8858031 -2.461375493e-05 90.87533165
-2.906692316e-06 28.69560339 -85.54345235
134.2655951 8.275477386 -105.8869574
47.23030909 59.66854239 -105.8869574
211.2479481 31.87317939 -105.8869574
1.086957093 -2.461375493e-05 86.16022165
-2.906692316e-06 35.88500439 89.80611765
-2.906692316e-06 32.90610339 7.968174647
45.47052009 -2.461375493e-05 -18.25471435
183.6811441 -2.461375493e-05 -48.42262935
96.41323209 62.55254239 -111.8869574
217.4005471 62.46855839 -111.8869574
107.2153801 43.27272239 -111.8869574
173.2467101 64.12666639 -111.8869574
116.4198721 -2.461375493e-05 82.94555965
247.0524711 -2.461375493e-05 57.70600765
162.4819941 1.978394386 -111.8869574
0.04760409331 60.15026339 -105.8869574
43.16391409 -2.138715614 -105.8869574
-2.906692316e-06 11.18954539 26.80597765
222.2294981 57.09860939 -111.8869574
-2.906692316e-06 4.993755386 11.24527465
-2.906692316e-06 49.90686139 39.57596165
218.6851251 20.37012639 -105.8869574
240.0236911 -2.461375493e-05 68.49181565
65.32044509 17.52514339 -105.8869574
-2.906692316e-06 5.391876386 42.97736165
217.1007651 -2.461375493e-05 -67.30336535
93.33438309 -2.461375493e-05 -34.75085035
134.6924011 21.06871839 -105.8869574
194.9588371 -2.461375493e-05 35.31712165
38.18670709 -2.461375493e-05 -85.87302835
60.19686609 -2.461375493e-05 44.39500365
179.4199541 5.615437386 -105.8869574
219.3159871 6.780463386 -105.8869574
200.2126451 -2.461375493e-05 -0.4378883532
142.0177331 48.22342339 -105.8869574
139.8473731 50.26122539 -111.8869574
-2.906692316e-06 61.19431239 88.45146765
137.6936061 60.42257239 -105.8869574
182.3680671 32.75655739 -111.8869574
31.07140209 14.03771339 -105.8869574
148.8851221 9.665873386 -111.8869574
16.44886509 57.89655439 -105.8869574
46.05232509 27.78935339 -111.8869574
47.64840509 44.33810139 -105.8869574
92.22514009 -2.461375493e-05 -96.82529235
-2.906692316e-06 55.06293339 9.989536647
14.30664409 11.97565639 -111.8869574
172.8430181 54.72144039 -111.8869574
239.5519611 4.049118386 -105.8869574
30.18469209 35.33108839 -111.8869574
12.58429709 55.70405939 -111.8869574
0.4098800933 65.67860039 -111.8869574
181.2839761 -2.461375493e-05 -17.34794835
138.5337991 -2.461375493e-05 28.26790665
110.1353381 -2.461375493e-05 -38.32714535
129.8161471 26.06545839 -111.8869574
186.4770611 -2.461375493e-05 49.47639165
110.3930351 48.14181739 -105.8869574
127.9902341 -2.461375493e-05 6.538193647
-2.906692316e-06 66.91287939 54.15299165
128.8964631 67.99997539 -111.5389204
3.322552093 -2.461375493e-05 55.53315565
223.1341661 -2.461375493e-05 -54.58606135
63.94316009 6.238850386 -105.8869574
31.96007709 28.20466139 -111.8869574
252.1211871 43.64920939 -105.8869574
143.1225751 -2.461375493e-05 13.82210965
108.7787101 -2.461375493e-05 72.74250465
203.3433721 -2.461375493e-05 -24.31852835
76.42673609 24.27153339 -105.8869574
192.7594761 14.39671539 -111.8869574
27.06459209 -2.461375493e-05 10.89674065
73.00498409 17.70442139 -111.8869574
220.4172761 47.25518539 -105.8869574
34.22929209 -2.461375493e-05 56.54982165
192.8501771 56.84759039 -105.8869574
36.79581209 44.54109739 -105.8869574
133.3563681 -2.461375493e-05 33.37333565
245.9602591 47.23544639 -105.8869574
37.75266909 -2.461375493e-05 51.28123665
-2.246084907 -2.461375493e-05 -34.14618835
117.1624781 -2.461375493e-05 -70.57678135
84.94761909 -2.461375493e-05 50.89474965
175.3486051 44.65224839 -111.8869574
168.1594641 23.23232239 -105.8869574
65.12682009 -2.461375493e-05 -63.37777735
229.7056201 -0.7481876138 -105.8869574
19.20201909 -0.04717061376 -105.8869574
57.12314409 -2.461375493e-05 -81.64906235
178.8473251 63.28897239 -105.8869574
205.2227901 52.65367039 -105.8869574
-2.906692316e-06 67.63718739 21.75114065
9.017254093 -2.461375493e-05 -34.40394735
145.4054431 -2.461375493e-05 -47.37611235
-2.906692316e-06 37.50347739 43.40590965
-2.906692316e-06 51.40510639 90.13625365
227.8442291 44.22476939 -105.8869574
73.14431009 54.98807539 -111.8869574
235.1049221 -2.461375493e-05 34.04954365
46.07366709 -2.461375493e-05 45.86303465
27.99147109 -2.461375493e-05 -69.01736835
6.364370093 40.93509939 -111.8869574
84.55558609 -2.461375493e-05 0.9675636468
26.38000609 56.79877839 -111.8869574
93.58119309 -2.461375493e-05 79.01166765
71.72931309 -2.461375493e-05 -65.01181935
228.6123171 22.66844339 -105.8869574
107.0295091 -2.461375493e-05 -8.986160353
150.8581421 -2.461375493e-05 -84.59754535
233.2467701 27.75390439 -105.8869574
-0.8756909067 -2.461375493e-05 66.82281465
178.5622271 17.69721239 -105.8869574
61.31365709 20.14358439 -111.8869574
-0.1125309067 -2.461375493e-05 -52.26053935
8.954645093 14.89322039 -105.8869574
198.5415621 56.14042639 -111.8869574
207.8520461 49.39352639 -111.8869574
37.50830709 20.65738139 -105.8869574
226.1842431 5.611509386 -111.8869574
143.4176001 3.676435386 -105.8869574
107.2985891 -2.461375493e-05 55.93343965
222.3881981 15.26041639 -105.8869574
92.73317009 23.85179739 -105.8869574
-2.906692316e-06 52.69302439 60.32883665
219.4014531 27.59062139 -111.8869574
68.75810609 32.09679039 -105.8869574
208.5854461 -2.461375493e-05 77.43641965
197.8264041 -2.461375493e-05 -62.31154035
234.4893971 -2.461375493e-05 86.44174665
179.7741981 -2.461375493e-05 20.77722565
160.9446881 22.35960339 -105.8869574
67.13194209 -2.461375493e-05 -34.85885635
232.9243361 -2.461375493e-05 -50.15148935
9.675201093 35.90800239 -105.8869574
234.9250081 46.47235139 -111.8869574
238.6835761 30.40553439 -105.8869574
170.5864381 -2.461375493e-05 -26.39680935
149.2994761 -2.461375493e-05 92.83735565
-2.906692316e-06 23.66686939 -100.3483694
8.782474093 67.99997539 -109.4544344
100.4628421 6.273826386 -111.8869574
-2.906692316e-06 20.08250339 -50.11410735
233.7156711 19.08695239 -111.8869574
-2.906692316e-06 2.657718386 -21.04206535
47.82459809 -2.461375493e-05 60.41649265
222.5261401 0.2800833862 -105.8869574
89.49884709 34.23099139 -111.8869574
67.14079709 -2.461375493e-05 -12.00617935
172.5186961 -2.183005614 12.42169865
120.4277271 -2.298414614 -105.8869574
148.8384181 -2.461375493e-05 -0.2025293532
45.53992809 67.99997539 -111.1773384
-2.906692316e-06 1.678023386 -39.42745635
-2.906692316e-06 21.89643339 46.20925065
215.6817521 3.956216386 -111.8869574
158.2349451 6.176807386 -111.8869574
162.0429581 48.74050739 -111.8869574
-2.906692316e-06 9.663999386 51.52092365
138.4859091 8.614774386 -111.8869574
39.50287109 -2.461375493e-05 -27.93884935
87.21837109 -2.461375493e-05 -100.1298404
-2.906692316e-06 43.30990239 73.35779365
230.7987601 -2.461375493e-05 45.01577565
3.139173093 -1.201344614 -111.8869574
-1.542417907 31.54131839 -75.72003135
240.5020261 64.47462539 -111.8869574
119.1993541 48.29253839 -105.8869574
199.4768341 -2.461375493e-05 54.95128765
41.33037509 -2.461375493e-05 11.46827665
229.4570421 38.06180139 -105.8869574
153.2635021 41.11094539 -111.8869574
137.9294291 -2.461375493e-05 -56.35981635
103.1471431 -2.461375493e-05 -37.02506335
137.8269511 -2.461375493e-05 70.34926165
102.5185791 -2.461375493e-05 1.584680647
-0.5181629067 26.24528239 -13.67182935
138.5011461 -2.461375493e-05 -40.30662435
155.1351571 -2.461375493e-05 -4.727643353
44.42931709 5.015014386 -111.8869574
-2.906692316e-06 21.37131539 -18.49189235
61.26289209 -2.461375493e-05 32.69728065
-2.906692316e-06 19.07096639 109.8994216
146.0787841 -2.461375493e-05 23.18969665
53.46439909 -2.461375493e-05 75.53293365
70.40908909 -2.461375493e-05 -74.23050635
221.1787631 -2.461375493e-05 -4.931553353
249.5869471 21.70859139 -111.8869574
109.6814031 -2.461375493e-05 -56.98035035
-2.906692316e-06 14.85954139 -66.54442335
-2.906692316e-06 47.77131839 84.25304965
101.7091111 50.71299739 -111.8869574
-2.906692316e-06 33.56500439 15.96972365
86.52429309 -2.461375493e-05 85.00736065
106.5880811 -2.461375493e-05 47.98747665
3.116901093 36.74721939 -105.8869574
13.49308309 31.66055739 -111.8869574
116.5872881 -2.461375493e-05 -98.57210535
97.68056309 -2.461375493e-05 -81.21905135
102.3853901 11.10432039 -105.8869574
-2.906692316e-06 32.43340139 -98.97996735
96.59972109 -2.461375493e-05 44.64564965
88.78156309 -2.461375493e-05 -39.92435535
245.0222851 -2.461375493e-05 72.91034765
39.24680809 57.14327039 -111.8869574
84.89835809 53.37783639 -105.8869574
147.9062011 -2.461375493e-05 55.81539565
18.03419609 -2.461375493e-05 -60.54239735
191.1776831 -2.461375493e-05 70.82197265
252.3682661 -2.461375493e-05 -97.23467935
175.1237941 -2.461375493e-05 49.04994765
123.2133011 -2.461375493e-05 55.11016065
-2.906692316e-06 5.646701386 -67.53650835
-2.906692316e-06 62.97172839 98.69666065
36.01652409 -2.461375493e-05 -98.53440335
20.72333509 -2.461375493e-05 67.54651465
-2.906692316e-06 24.58915239 2.953075647
130.9738611 13.78399639 -105.8869574
-2.906692316e-06 45.46708739 101.6891556
75.34167009 47.07160339 -105.8869574
115.6232331 -2.461375493e-05 64.18339565
88.30049409 -2.461375493e-05 -77.14690235
-2.906692316e-06 65.39193739 61.54524565
-2.906692316e-06 12.58936439 41.01093765
106.3377261 28.05264939 -105.8869574
23.94401409 67.99997539 -106.2434774
123.0606651 -2.461375493e-05 84.58561965
100.1508351 31.05054739 -111.8869574
51.05688909 -2.461375493e-05 -12.31688535
184.6579831 -2.461375493e-05 -32.74493235
126.3319811 -2.461375493e-05 -88.05375535
102.4644961 -2.461375493e-05 68.54780965
235.5603711 62.96699239 -105.8869574
-2.906692316e-06 53.80062439 70.41554965
26.07921109 -2.461375493e-05 -2.836000353
-2.906692316e-06 6.315975386 -28.37017035
123.5117651 -2.461375493e-05 0.7237776468
235.2319081 -2.461375493e-05 40.45504465
165.8887131 -2.461375493e-05 44.13377665
242.9102681 -0.3058496138 94.11304265
-2.906692316e-06 2.284612386 22.17767765
77.67986509 13.81625639 -111.8869574
18.63033309 -2.461375493e-05 -11.04087535
216.8941711 -2.461375493e-05 -87.11599435
163.4888641 -2.461375493e-05 71.02163865
65.06492009 -2.461375493e-05 4.387178647
23.11726409 -2.461375493e-05 84.55408765
41.09992809 14.78344739 -111.8869574
50.65613809 60.75090139 -111.8869574
113.4584611 19.83866239 -105.8869574
48.83222009 38.17215139 -111.8869574
91.48688209 -2.461375493e-05 34.48621165
138.2979621 -2.461375493e-05 -74.86931735
-2.906692316e-06 46.33132939 28.78818665
93.29490509 43.02837439 -105.8869574
-2.906692316e-06 25.33864639 50.76320265
-2.906692316e-06 15.90028739 -33.95437235
209.5952271 -2.461375493e-05 -46.64134735
194.7475691 62.90326239 -105.8869574
156.9242031 29.38401839 -111.8869574
228.7428311 -2.461375493e-05 -44.18718735
23.82688009 59.00265039 -105.8869574
54.55190209 -2.461375493e-05 -55.68323535
7.379058093 27.62313839 -111.8869574
159.2977041 55.23372739 -111.8869574
74.82026009 -2.461375493e-05 -1.007622353
-2.906692316e-06 41.39812939 97.90126165
-2.906692316e-06 21.68136339 -57.75813335
244.0016831 -2.461375493e-05 -97.40423235
-2.906692316e-06 24.30522639 72.51973665
135.6576211 -2.461375493e-05 -5.556901353
113.9609731 58.15018539 -105.8869574
156.5406381 -2.461375493e-05 -81.33698035
143.4112761 29.46436539 -105.8869574
-2.906692316e-06 21.18745339 -36.23346435
183.8695831 -2.461375493e-05 78.83804365
70.58437109 -2.461375493e-05 7.499165647
-2.906692316e-06 24.85313639 36.18457665
124.8770141 -2.461375493e-05 -22.18505035
-2.906692316e-06 18.67196939 58.58505365
67.64316109 26.33624839 -105.8869574
-2.906692316e-06 13.82218439 73.27241065
77.53154509 60.10618939 -111.8869574
-2.906692316e-06 51.60159739 97.67020765
-2.906692316e-06 19.15008839 -42.27641135
204.2632121 -2.461375493e-05 37.84603765
148.1038821 66.59568739 -111.8869574
176.7821801 -2.461375493e-05 65.13571465
77.60961409 32.20430639 -111.8869574
224.8228891 -2.461375493e-05 -61.82365835
181.2241191 -2.461375493e-05 34.44410565
141.8201471 16.27341939 -105.8869574
-2.906692316e-06 61.41124939 70.09976465
232.4004791 -2.461375493e-05 -74.81508235
28.92963509 -2.461375493e-05 43.79249465
109.4281101 -2.461375493e-05 -3.580791353
47.34155109 -2.461375493e-05 89.97623065
16.13164209 -2.461375493e-05 -5.417738353
211.8923121 -2.461375493e-05 -73.48177435
141.6668631 -2.461375493e-05 -79.74579635
-2.906692316e-06 61.98221139 83.07457565
197.9454971 -2.461375493e-05 -48.60766735
242.3648451 63.83532039 -105.8869574
104.0761561 4.106057386 -105.8869574
198.2670621 33.34480939 -111.8869574
195.8834171 -2.461375493e-05 -41.68685335
86.42817709 38.53391339 -105.8869574
108.9852941 -2.461375493e-05 -75.16450435
60.15064209 -2.461375493e-05 -60.40132035
207.0211461 4.074160386 -111.8869574
117.4727351 -2.461375493e-05 30.55057165
155.0013151 -2.461375493e-05 67.50575565
38.40163209 -2.461375493e-05 74.62682865
123.8299581 -2.461375493e-05 -67.88556535
177.8763121 -2.362668614 2.711919647
-2.906692316e-06 43.67254539 66.56207565
-2.906692316e-06 20.32998739 82.17156765
239.0869811 -2.461375493e-05 -14.42355935
83.44605809 4.977756386 -105.8869574
104.1778621 -2.461375493e-05 -21.27948035
58.71039709 -2.461375493e-05 57.51380265
208.5133871 -2.461375493e-05 -102.9347474
-2.906692316e-06 5.253769386 -55.09207335
-2.906692316e-06 19.64791939 -23.98770735
26.77168409 -2.461375493e-05 -37.04899235
120.0800221 59.90505939 -111.8869574
-2.906692316e-06 13.71862239 -76.26315635
86.93521709 -2.461375493e-05 -71.19487935
91.51506209 -0.7942206138 9.027596647
110.2484131 -2.461375493e-05 43.44434565
199.6788071 -2.461375493e-05 -54.46435535
-2.906692316e-06 11.14105639 64.30413665
223.0240261 51.72315939 -111.8869574
155.1236431 -1.730532614 94.11304265
16.32717009 48.27963539 -111.8869574
-2.906692316e-06 32.53577039 74.64854365
223.5127171 -2.461375493e-05 6.959844647
-2.906692316e-06 32.21440839 39.77625565
-2.906692316e-06 26.85067539 90.12888365
173.4914101 -2.461375493e-05 -14.87882935
-2.906692316e-06 50.04477139 55.72872965
60.58681309 -2.461375493e-05 -37.76668535
179.5641421 -2.461375493e-05 90.41515065
62.28143809 64.09268039 -111.8869574
-2.906692316e-06 22.42407639 -66.14167635
-2.906692316e-06 5.862413386 -34.06359735
-0.8853649067 11.73486439 -96.44491335
165.4035261 46.41680239 -105.8869574
134.1073181 29.94451539 -111.8869574
80.24286509 46.74952239 -111.8869574
132.5286461 41.30244039 -105.8869574
149.8763611 14.83263439 -111.8869574
234.7837121 49.22420339 -105.8869574
128.9934791 -2.461375493e-05 90.09713765
32.46105009 -2.461375493e-05 -65.24912335
-2.906692316e-06 1.026147386 81.13143165
124.8494071 -2.461375493e-05 -53.08755135
213.3697961 57.37871239 -105.8869574
188.6546641 -2.461375493e-05 -73.76195335
29.88705909 -2.461375493e-05 49.75180665
134.8555341 44.73947639 -111.8869574
58.70934709 -2.461375493e-05 -105.7533254
223.6393481 41.29034939 -111.8869574
164.8840671 40.96973939 -105.8869574
-1.625443907 0.9999753862 31.99973965
4.670632093 -2.461375493e-05 16.75674265
125.0363981 43.06833339 -111.8869574
193.7840201 67.99997539 -110.7159904
48.96545409 -0.6222356138 -105.8869574
177.3093271 -2.461375493e-05 -22.51289735
13.64018809 -2.461375493e-05 -66.25044335
-2.906692316e-06 11.39586839 111.4836376
-2.906692316e-06 41.09368439 92.71358765
202.2223011 -2.455203614 -105.8869574
231.0835601 7.871167386 -111.8869574
-2.906692316e-06 56.81155639 31.17998165
118.5811191 23.95057239 -111.8869574
57.31441709 6.008213386 -111.8869574
85.24782909 -2.461375493e-05 -86.93812935
-2.906692316e-06 4.709476386 27.44274765
238.0963891 -2.461375493e-05 53.38182765
72.36210509 -2.461375493e-05 -53.77693335
28.38705709 -2.461375493e-05 -92.16315435
20.15401509 -2.461375493e-05 46.11793165
-2.906692316e-06 25.02113839 25.25883465
-2.906692316e-06 29.25051639 68.12332165
-2.906692316e-06 10.09709439 15.37118765
213.6775261 -2.461375493e-05 76.56732565
171.6677621 -0.6500696138 -111.8869574
238.3408151 -2.461375493e-05 -89.28998235
201.5978671 -0.9117006138 94.11304265
116.7254781 -2.461375493e-05 89.98464265
243.7548221 -2.461375493e-05 53.73704265
11.05143509 3.360222386 -111.8869574
-2.906692316e-06 31.46715639 33.81216765
-2.906692316e-06 39.28201739 54.81994565
139.8298771 21.02597139 -105.8869574
143.6043561 -2.461375493e-05 -65.32839335
102.3000271 -2.461375493e-05 59.27316265
23.35340809 -2.461375493e-05 -29.35524335
-2.906692316e-06 3.553692386 -7.114122353
231.0393741 -2.461375493e-05 -98.05396335
150.5573201 -2.461375493e-05 -72.97102935
227.9909771 -2.461375493e-05 33.57589665
162.8285951 -2.461375493e-05 -37.70841735
90.74176109 -2.461375493e-05 48.40546365
160.1559961 -2.461375493e-05 -3.779266353
-2.906692316e-06 -1.560247614 112.9824266
-2.906692316e-06 22.28327439 113.9097926
-2.906692316e-06 13.77637039 0.2933656468
144.4763821 32.61528139 -111.8869574
-2.906692316e-06 8.541300386 1.945067647
-2.906692316e-06 17.06028239 36.43417165
140.2239861 10.90462439 -105.8869574
217.6811671 18.41511539 -111.8869574
215.2470791 34.99337239 -105.8869574
44.71890609 -2.461375493e-05 7.700640647
-2.906692316e-06 12.45443539 97.60132965
150.0269141 17.44090339 -105.8869574
73.28823709 -2.461375493e-05 -27.16959135
53.93594409 -2.461375493e-05 14.14951365
224.9397451 -2.461375493e-05 -79.46600835
-2.906692316e-06 50.95679439 113.2100146
43.94147009 -2.461375493e-05 69.77807265
-2.906692316e-06 47.21204939 35.31153865
68.86571509 -0.6396506138 94.11304265
234.1672891 -2.461375493e-05 11.27345365
-2.906692316e-06 26.31782139 -1.781151353
146.2456971 20.86545339 -111.8869574
11.58203909 -2.461375493e-05 45.84151565
-2.906692316e-06 38.48994339 105.6338626
-2.906692316e-06 32.44029739 28.58061265
-2.906692316e-06 56.42760839 90.37856265
-2.906692316e-06 44.85225039 -96.70715435
-2.906692316e-06 41.80421839 61.47581465
-2.906692316e-06 39.38073539 77.16602665
139.1292101 -2.461375493e-05 -62.29781635
105.2939771 0.9111423862 -111.8869574
150.7100591 67.99997539 -107.6963394
-2.906692316e-06 24.82144139 60.89273865
140.6644611 67.99997539 -109.4978144
-2.906692316e-06 12.29459539 -37.53859835
-2.906692316e-06 41.41311339 17.46994165
-2.906692316e-06 4.831933386 50.24117865
72.22140309 -2.461375493e-05 -41.88340035
-2.906692316e-06 66.52257739 26.93763165
99.63629909 38.72932439 -111.8869574
-2.906692316e-06 34.40520139 51.28969665
181.6529121 -2.461375493e-05 0.2969496468
51.36186609 10.65113239 -111.8869574
-2.906692316e-06 11.55763739 -54.82808535
183.5623301 13.92752439 -111.8869574
71.16072309 -2.461375493e-05 38.52241865
54.14368309 19.61968239 -111.8869574
-2.906692316e-06 64.21437539 106.8855886
-2.906692316e-06 55.48785039 65.73905265
-2.906692316e-06 7.396406386 -74.08504335
222.3762761 23.61305639 -111.8869574
-2.906692316e-06 18.14264139 -73.56318635
10.64359209 48.58643839 -105.8869574
-2.906692316e-06 4.258652386 -47.41230435
114.9272631 -2.461375493e-05 -61.67404435
10.85613109 -2.461375493e-05 55.07280865
172.1134941 -2.461375493e-05 -57.19958135
192.6941841 39.04823539 -105.8869574
-2.906692316e-06 23.13330839 -82.28507735
-2.906692316e-06 15.33796839 87.66421965
240.2840801 -2.461375493e-05 -22.55740335
86.79862109 -2.461375493e-05 -29.57486235
138.2656361 59.62624039 -111.8869574
-2.906692316e-06 8.074070386 32.40634165
139.7386491 29.22917739 -111.8869574
-2.906692316e-06 31.21681639 80.30854465
-2.906692316e-06 40.02439239 34.22417465
80.09796409 21.00897039 -105.8869574
13.57961209 -2.461375493e-05 -32.58950035
119.1765971 -2.461375493e-05 -42.62068935
-2.906692316e-06 22.16831139 15.29356865
203.3445661 -2.461375493e-05 89.50349265
142.6318301 43.35072139 -111.8869574
212.2084201 -2.461375493e-05 -67.12417335
-2.906692316e-06 6.081745386 106.0197896
25.76217409 18.25866639 -105.8869574
169.9035881 60.55737039 -111.8869574
148.5205811 42.29474439 -111.8869574
74.05048609 47.43492739 -111.8869574
138.9493611 -1.224562614 94.11304265
-2.906692316e-06 62.69667739 44.10851565
117.2444241 -2.461375493e-05 18.13715065
128.2127751 -2.461375493e-05 -11.01648735
-2.906692316e-06 8.919302386 46.69569665
-2.906692316e-06 37.53485339 65.27231965
150.4409201 47.25905439 -111.8869574
210.9801021 11.73557739 -105.8869574
163.5385921 -2.461375493e-05 31.57645665
-2.906692316e-06 56.53515339 42.69343265
35.67822909 39.97266239 -111.8869574
41.33265809 25.20650839 -111.8869574
215.6213971 -2.461375493e-05 -12.88931035
77.13102609 -2.461375493e-05 -102.7546084
176.3877461 -2.461375493e-05 86.74523465
196.7874421 -2.461375493e-05 -93.01459535
-2.906692316e-06 5.311109386 -85.24865535
-2.906692316e-06 54.61128839 77.81417365
3.997375093 -2.461375493e-05 75.58533165
227.7947291 44.70058239 -111.8869574
-2.906692316e-06 15.94513939 64.32709765
108.5839081 35.24219339 -105.8869574
2.724586093 -2.461375493e-05 25.40104565
-2.906692316e-06 54.42960939 104.1210596
-2.906692316e-06 5.712805386 80.10864865
57.52431209 55.83101339 -105.8869574
-2.906692316e-06 43.58749339 47.92570465
78.08502609 -2.461375493e-05 66.61046565
-2.906692316e-06 63.75810239 39.27701065
10.16262409 22.41339939 -111.8869574
-2.906692316e-06 7.081532386 73.01320565
-2.906692316e-06 30.75452739 86.15801665
12.74138809 -2.461375493e-05 -102.0699294
190.4179431 -2.461375493e-05 -90.99019635
-2.906692316e-06 58.26082039 60.15997165
-2.906692316e-06 58.24732739 22.51729965
-2.906692316e-06 37.70600439 38.63777265
81.22480109 -2.461375493e-05 73.78555365
-0.4813259067 67.99997539 76.56659265
68.67596609 -2.461375493e-05 -3.097426353
-2.906692316e-06 46.63999539 9.888367647
-2.906692316e-06 63.60065139 74.64591565
-2.906692316e-06 42.98172939 12.98525865
-2.906692316e-06 24.21081739 -90.81910735
-1.821169907 66.18612539 9.799916647
124.3626591 51.68780839 -105.8869574
63.24681409 0.1381553862 -111.8869574
43.89625409 53.06039339 -111.8869574
-2.906692316e-06 27.28926839 -103.9476364
-2.906692316e-06 19.23742239 -62.63691635
-2.906692316e-06 64.12278839 113.3764196
82.86353309 -2.461375493e-05 25.98906365
-2.906692316e-06 14.04746039 59.59739865
122.0414231 2.465321386 -105.8869574
94.04124009 -2.461375493e-05 15.43214465
-2.906692316e-06 22.16265739 90.76940065
-2.906692316e-06 61.58640739 53.46715965
225.8712681 32.92122839 -105.8869574
-1.693681907 2.451175386 -105.8869574
-2.906692316e-06 29.09649839 100.6683536
240.9351951 20.08720639 -105.8869574
248.1119231 -0.6506996138 -111.8869574
37.75957109 -2.461375493e-05 -49.73801835
-2.906692316e-06 50.61503639 20.13832765
55.40231209 -2.461375493e-05 32.95261865
121.6542981 -2.461375493e-05 -37.19533235
-1.263454907 0.9999753862 44.06534965
-2.906692316e-06 21.65007339 97.04969965
-2.906692316e-06 34.18164439 24.10449665
178.6761081 37.95031139 -105.8869574
118.4641161 2.292323386 -111.8869574
-2.906692316e-06 17.89810739 -9.209239353
-2.906692316e-06 7.901751386 89.64465065
82.23413409 14.90929539 -111.8869574
169.7146911 -2.461375493e-05 -64.93673935
8.708697093 -2.461375493e-05 -83.47923735
116.1637051 -2.461375493e-05 45.83681965
-2.906692316e-06 35.80906039 2.274825647
120.7954321 42.32112639 -105.8869574
62.38891009 -2.461375493e-05 -28.17507735
-2.906692316e-06 41.78720039 1.753879647
-2.906692316e-06 42.53988539 -104.0646844
71.73222409 -2.461375493e-05 -11.31584935
227.9746571 15.83359139 -111.8869574
-2.906692316e-06 14.67182639 31.27133865
35.14006409 -2.461375493e-05 7.685955647
-2.906692316e-06 30.60472739 109.3161156
-2.906692316e-06 28.24396039 5.797981647
120.3943771 20.56769739 -105.8869574
-2.906692316e-06 36.98919239 -84.36936435
173.3789341 67.99997539 -108.4574014
189.8333711 -2.461375493e-05 54.06423265
125.1887941 -2.461375493e-05 39.06533165
199.5684321 5.952882386 -111.8869574
206.9591791 -2.461375493e-05 -18.16543435
-2.906692316e-06 45.98641839 109.5824416
35.05481709 -2.461375493e-05 -45.11663935
149.1993421 -2.461375493e-05 4.487130647
125.9809981 28.60633339 -111.8869574
-2.906692316e-06 2.741850386 89.67955565
-2.906692316e-06 12.34796939 -17.18274735
249.0401911 23.13389339 -105.8869574
-2.906692316e-06 55.20559139 49.88679565
-2.906692316e-06 63.87052239 94.20282365
37.23045509 -2.461375493e-05 13.51009565
2.323850093 52.46015939 -111.8869574
-1.402270907 25.49997539 -52.00773035
141.5290401 -2.461375493e-05 54.25251265
203.2996481 -2.461375493e-05 -99.44147835
-2.906692316e-06 20.88690639 51.81024465
46.39133309 -2.461375493e-05 65.33714165
14.70159309 -2.461375493e-05 -17.19581035
211.6227911 43.90132739 -111.8869574
-2.906692316e-06 6.437307386 -13.38583535
99.24707809 -1.607060614 -77.24502835
-2.906692316e-06 3.083923386 55.02525565
10.91801109 41.18628839 -111.8869574
118.8796591 -2.461375493e-05 -33.41648935
-2.906692316e-06 16.46782639 25.38919965
-2.906692316e-06 14.47384139 9.490130647
216.2681511 -2.461375493e-05 -40.35282735
-2.906692316e-06 16.20487439 -89.32053235
122.6416921 24.93068539 -105.8869574
-2.451504907 -2.461375493e-05 -48.37745135
227.9312941 -2.461375493e-05 7.954071647
81.98744509 66.20340939 -111.8869574
-2.906692316e-06 19.69313339 68.82949965
50.00685609 -2.461375493e-05 -76.56454335
-2.906692316e-06 5.315649386 61.70975365
-2.906692316e-06 5.306705386 17.05505165
162.9101911 59.79878039 -111.8869574
53.03182809 -2.461375493e-05 -68.99793235
-2.906692316e-06 30.73876539 -89.82205235
-2.906692316e-06 9.436680386 10.60024465
107.3326701 -0.6252466138 -105.8869574
-2.906692316e-06 49.76659439 79.28419665
112.7091521 -2.461375493e-05 -100.8233704
239.7202901 -2.461375493e-05 -44.45368035
66.02849409 -2.461375493e-05 -58.32671435
168.8911041 -2.461375493e-05 14.19613765
33.29142009 20.98126939 -111.8869574
250.0034951 -2.461375493e-05 64.87071565
176.3957341 2.318382386 -105.8869574
103.4801951 -2.461375493e-05 -49.52098435
201.6544971 60.23724639 -105.8869574
244.0620661 7.346785386 -105.8869574
152.6000931 -2.461375493e-05 7.975518647
234.8230111 51.57126539 -111.8869574
51.87416609 -2.461375493e-05 -61.59168235
224.0773471 -2.461375493e-05 87.19854565
70.96568909 5.598020386 -111.8869574
85.67333509 -2.461375493e-05 91.93116165
199.5584641 -2.461375493e-05 87.18975465
197.1704721 -2.461375493e-05 22.29083165
213.3774251 67.99997539 -106.9050584
40.63730309 -2.461375493e-05 -102.0497764
1.676304093 -2.461375493e-05 -103.1071374
216.5899501 -2.461375493e-05 -1.955462353
15.50033509 -2.461375493e-05 -56.92908435
82.13757409 67.86316839 -105.8869574
2.615784093 -2.461375493e-05 -36.31091335
228.9690961 0.9576963862 -111.8869574
109.1430431 35.54839939 -111.8869574
231.8683111 -2.461375493e-05 78.08893965
143.0753641 40.27255039 -105.8869574
98.74512809 16.45140239 -105.8869574
84.56466409 43.98999939 -105.8869574
-0.1938899067 0.9999753862 94.59154065
24.13220909 23.62212539 -111.8869574
29.89161309 13.33841239 -111.8869574
112.6515521 -2.461375493e-05 22.11372965
55.98587909 -2.461375493e-05 91.13027165
168.0263141 2.910070386 -111.8869574
156.4125141 -2.461375493e-05 -15.70734635
135.5713111 29.54157139 -105.8869574
107.7228771 67.20788639 -105.8869574
175.5914101 33.11841439 -105.8869574
134.1307301 -2.461375493e-05 -58.44763035
151.3483891 -2.461375493e-05 -80.29508935
208.7812401 55.11670739 -105.8869574
86.08073209 54.71580939 -111.8869574
131.0372081 -2.461375493e-05 84.36485765
33.57359809 32.21217339 -111.8869574
167.3328121 -2.461375493e-05 40.06243665
153.3308901 -2.461375493e-05 -98.54669535
239.8766181 4.143628386 -111.8869574
106.1444771 -2.461375493e-05 31.29614265
213.5624261 -2.461375493e-05 -95.29541535
55.55705209 30.50053639 -111.8869574
5.159235093 59.76267039 -105.8869574
58.30953309 -2.461375493e-05 -17.25476235
108.3148211 -2.461375493e-05 91.72127765
238.8718161 29.77695139 -111.8869574
112.2104651 -2.461375493e-05 53.76411665
33.10923609 42.38162739 -105.8869574
103.6611521 15.63729539 -105.8869574
30.53903209 44.53227739 -111.8869574
152.1882621 -2.461375493e-05 -59.78964935
7.774359093 2.190102386 -105.8869574
80.90417709 -2.461375493e-05 84.39432765
49.35832809 -2.461375493e-05 27.16238565
33.84741209 67.99997539 -106.4936494
228.2322431 -2.461375493e-05 -85.89065835
250.4286121 -2.461375493e-05 74.99754865
171.8218591 -2.461375493e-05 -86.09224635
234.6927721 39.74257139 -105.8869574
16.21948009 -2.461375493e-05 47.67375665
201.6551181 -2.461375493e-05 -67.68248035
186.6192561 -2.461375493e-05 30.74524865
24.91168209 -2.461375493e-05 -85.16018735
37.82635709 19.85470339 -111.8869574
201.4216511 -2.461375493e-05 -85.33639735
207.5591171 21.66524539 -111.8869574
50.84933209 -2.461375493e-05 11.10801665
175.1263421 54.40342839 -105.8869574
23.25708909 -2.461375493e-05 40.97746065
245.2040991 -2.461375493e-05 4.562822647
135.7524061 -2.461375493e-05 78.07282365
