# .PCD v0.7 - Point Cloud Data file format
VERSION 0.7
FIELDS x y z
SIZE 4 4 4
TYPE F F F
COUNT 1 1 1
WIDTH 1245
HEIGHT 1
VIEWPOINT 0 0 0 1 0 0 0
POINTS 1245
DATA ascii
52.00026364 16.80129939 251.2539126
-47.99973636 23.51203139 29.52164461
-6.975229359 -2.460833298e-05 250.7985496
-47.99973636 17.42130439 218.4951756
-69.47629136 -2.460833298e-05 67.46010761
48.00026364 20.29973639 176.4139396
52.00026364 27.23274739 61.66091461
-47.99973636 63.60002539 194.7603876
10.10005464 -2.460833298e-05 216.2461246
64.16682264 -2.460833298e-05 197.1729396
0.5497256412 28.70621839 -9.73869187e-05
48.52225064 63.42023339 89.04540761
52.00026364 81.35101239 245.1851416
-39.44931136 64.92039439 -9.73869187e-05
42.32291064 -2.460833298e-05 224.6944966
27.96121064 -1.908285608 -9.73869187e-05
72.34259764 -2.460833298e-05 88.11191561
-35.76557336 -2.460833298e-05 248.5809086
-27.58338736 -0.6880866083 26.76577161
-51.99973636 50.01451139 19.97771461
48.00026364 62.26604139 221.4431306
-34.62848436 -1.924150608 199.5659606
-47.99973636 60.52600539 76.79562061
-68.00113036 -2.460833298e-05 110.3801496
52.00026364 24.73037039 124.8400906
-71.28028636 41.12042639 -9.73869187e-05
52.00026364 16.17868939 10.71177261
48.11503164 89.45183339 191.6510806
8.066425641 -2.460833298e-05 30.29847861
-4.232956359 -2.460833298e-05 194.5477546
69.07648164 -2.460833298e-05 141.7299626
-71.64305936 6.501523392 -9.73869187e-05
23.40320564 -2.460833298e-05 56.38678161
51.27404964 50.59615539 6.451291613
-51.99973636 15.41241139 140.7277486
34.88064664 -2.460833298e-05 119.2639646
34.43369664 -2.460833298e-05 167.4672866
-17.63482336 50.87799339 -9.73869187e-05
16.16629464 47.52163539 -9.73869187e-05
-47.99973636 60.09571139 165.0553696
48.00026364 48.81977239 171.5935996
-65.68514336 -2.460833298e-05 225.1795206
52.00026364 11.25558139 94.35176761
-47.99973636 50.14143139 125.7388206
48.00026364 26.31527239 230.0357346
-51.99973636 20.24250039 60.18481361
-13.16997436 -2.460833298e-05 146.2110926
52.00026364 13.24018239 40.50752861
-44.78141336 -2.460833298e-05 111.8631276
-22.91603836 -2.460833298e-05 64.29328261
52.00026364 62.59911139 143.1507396
-51.99973636 85.64893639 235.1807686
-51.99973636 11.24192539 185.0508376
-30.58025636 14.37509539 -9.73869187e-05
72.74037364 -2.460833298e-05 59.09023861
-57.66669736 23.63309239 -9.73869187e-05
52.00026364 43.29930839 76.25553861
-47.99973636 22.63208239 165.6387946
-13.32575536 -2.460833298e-05 109.9272386
48.00026364 48.70478939 123.8688986
65.07188164 -2.460833298e-05 248.9228846
48.00026364 53.31205839 37.59329361
8.250590641 -2.460833298e-05 77.33659561
-51.99973636 48.38537639 248.9870296
-51.99973636 1.898850392 30.67136361
52.00026364 14.50711139 156.9368826
-51.99973636 43.13997439 97.11470361
51.87289564 -2.460833298e-05 178.7248266
7.172048641 -2.460833298e-05 177.4143566
-51.99973636 35.80317439 209.5200266
-51.99973636 17.53113839 98.50567261
-38.74125436 -2.460833298e-05 152.4852266
52.00026364 43.64014339 191.3657526
-46.71635236 -2.460833298e-05 230.3083956
-65.61407636 -2.460833298e-05 45.76499761
13.58177664 11.37601739 -9.73869187e-05
59.81526364 -2.460833298e-05 19.39573461
-29.35734436 -2.460833298e-05 83.94549461
-47.99973636 69.58193739 217.9676716
48.00026364 23.71298639 80.28816561
-11.67267936 -2.460833298e-05 37.44909061
52.00026364 101.6876254 234.4577136
18.97482464 -2.460833298e-05 140.4024876
-51.13750636 49.88861339 -9.73869187e-05
-48.22852036 89.13555639 190.6323446
-51.99973636 9.575308392 245.8972496
-10.29306136 -2.460833298e-05 18.86284361
52.00026364 44.50084539 225.3927516
48.00026364 74.50291039 176.0600146
52.00026364 56.20356539 105.7827996
48.00026364 8.655711392 209.3004336
42.09936164 -2.460833298e-05 48.77550061
7.724770641 -2.460833298e-05 234.5254886
42.23926464 -2.460833298e-05 11.36493561
44.83415564 -2.460833298e-05 252.1056076
-47.99973636 12.94886839 12.16586061
48.66516064 31.56231839 1.499902613
-47.49875936 -0.7845616083 70.93914961
7.448157641 -2.460833298e-05 95.89687561
29.34988964 -2.460833298e-05 209.2704066
-7.867995359 -2.460833298e-05 164.3169916
48.00026364 52.26101839 206.3660786
-48.74907236 101.2877184 227.5706566
-8.785783359 -2.460833298e-05 211.5056276
48.00026364 39.71000439 50.00825861
-51.99973636 31.38499939 46.65694961
-47.99973636 34.12514139 132.8369366
-47.99973636 45.20789839 66.56786661
-51.99973636 42.65798139 173.4163676
-30.63510536 -2.460833298e-05 101.8794606
-47.99973636 56.22991939 141.9290656
-19.75492436 67.99997539 -1.155925387
48.00026364 6.870665392 129.4536896
-47.99973636 34.79795139 229.4501626
-51.99973636 87.46451639 252.2757036
57.02147664 -2.460833298e-05 233.4887536
52.00026364 61.00828839 160.2668746
-51.99973636 -1.923520608 214.1756316
-17.55192436 33.84169339 -9.73869187e-05
-47.99973636 21.10991839 198.9892346
-71.69523736 -2.460833298e-05 161.4116746
33.22141364 43.48121639 -9.73869187e-05
-52.81371336 -2.460833298e-05 133.9250596
-51.99973636 61.00267939 235.7502276
-51.99973636 35.72884139 10.24864661
48.00026364 21.43740539 140.8292506
-47.99973636 13.46051239 124.5553496
-1.191941359 47.72526539 -9.73869187e-05
48.00026364 32.75259339 248.2072446
48.00026364 11.43837839 190.5673206
-47.99973636 16.72937639 81.41966361
-38.07697536 -2.460833298e-05 169.7744416
-7.721356359 -2.460833298e-05 72.24131961
-58.68255536 -2.460833298e-05 11.84697561
-49.54907636 79.18370339 156.5470996
-36.09410736 -2.460833298e-05 12.57146661
6.495347641 -2.460833298e-05 13.81238861
41.98265864 -2.460833298e-05 104.3219646
-47.99973636 66.13888939 121.5775686
43.21817964 -2.460833298e-05 86.12482961
48.00026364 77.26534639 208.3113946
-51.99973636 69.36729039 179.5997516
26.50168064 -2.460833298e-05 73.62562561
52.00026364 33.92101639 166.3395546
15.92205764 66.47896939 -9.73869187e-05
66.10250164 18.93155539 -9.73869187e-05
48.00026364 16.95621039 108.9764606
-12.44851836 -2.460833298e-05 126.0661236
-67.16890136 -2.460833298e-05 177.0365496
12.72362964 -2.460833298e-05 199.8611396
52.00026364 74.83732839 230.4750286
-47.99973636 39.48720039 31.30277461
70.02933764 -2.460833298e-05 103.9094316
-51.99973636 53.93988539 206.7983696
59.57118664 -2.460833298e-05 216.0278926
37.48457664 10.84556739 -9.73869187e-05
48.00026364 65.16290339 242.4970676
-9.027507359 -2.460833298e-05 233.5670526
-36.39904236 -2.460833298e-05 216.2143216
22.88776164 -2.460833298e-05 105.2002016
-51.99973636 11.96711139 42.85822061
52.61100164 -2.460833298e-05 162.9016656
52.00026364 9.736001392 55.95786461
-63.34700636 -2.460833298e-05 95.45788861
-56.32638836 -2.460833298e-05 150.5961386
65.16397364 52.76731139 -9.73869187e-05
48.00026364 14.70280939 25.53163361
-47.99973636 50.30054539 187.3552306
52.00026364 47.83802939 23.56948661
-51.99973636 79.71987839 201.6936366
-51.99973636 52.69104539 110.6953986
-19.81062536 -2.460833298e-05 200.3992586
-28.45762036 -0.4322796083 -9.73869187e-05
48.00026364 94.72399139 249.8297816
-69.54275636 -2.460833298e-05 82.15985361
-51.99973636 5.008580392 200.8030986
48.00026364 38.07630739 133.8931896
-35.33807436 -2.460833298e-05 185.1728786
52.00026364 49.33631739 89.46255361
-25.58986736 -2.460833298e-05 158.5733496
-32.02171236 -2.460833298e-05 118.6183016
-5.838031359 13.95920839 -9.73869187e-05
-47.99973636 56.67580339 94.50238461
-57.49343136 -2.460833298e-05 57.54715161
48.18296264 73.61042139 134.9279106
51.68349964 60.76817639 75.40168861
-47.99973636 12.68666739 155.4449626
51.08143164 -2.460833298e-05 35.42915861
48.00026364 15.04927939 68.44722761
17.67895464 -2.460833298e-05 167.9972846
48.00026364 25.78498439 45.44817861
48.00026364 10.67016339 239.2797496
54.60295464 -2.460833298e-05 145.8084466
8.993672641 -2.460833298e-05 46.15766361
48.00026364 39.12499639 213.0051176
52.00026364 28.80813239 186.6976766
-10.08788936 -2.460833298e-05 181.8698846
28.49764264 -2.460833298e-05 18.06345061
54.85887964 -2.460833298e-05 5.682349613
23.77477164 -2.460833298e-05 233.7364796
-51.99973636 23.25773339 235.9166676
48.00026364 27.74672839 18.31950161
52.00026364 49.90246439 152.3172476
61.43121064 -2.460833298e-05 51.45165761
52.00026364 15.18512439 223.2556026
56.20513964 67.79521439 -9.73869187e-05
52.00026364 42.64444739 112.4158466
-47.99973636 57.84411339 58.68351561
5.442422641 0.5383193917 -9.73869187e-05
57.00532264 -2.460833298e-05 100.2370666
36.77611364 -2.460833298e-05 61.17757661
-61.34176436 59.94584439 -9.73869187e-05
39.11195764 -2.460833298e-05 239.9273546
-47.99973636 16.74571739 111.3567256
-51.99973636 53.42571839 32.94841561
21.76324864 -2.460833298e-05 126.1118686
-27.78173036 -2.460833298e-05 51.92486361
-49.13773136 -2.460833298e-05 177.7654496
22.79338864 -2.460833298e-05 155.7734326
48.00026364 60.31110239 130.2518676
-47.99973636 82.89040539 222.7074646
-51.99973636 22.76221739 178.5899836
71.79664464 -2.460833298e-05 180.6762236
26.91160364 -2.460833298e-05 41.85877161
-47.99973636 46.16267439 82.13683761
70.80581864 -2.460833298e-05 208.4490706
52.00026364 5.827680392 78.38927961
-51.99973636 26.97710839 146.8217136
48.00026364 87.05963039 232.7275356
42.45579764 -2.460833298e-05 193.3423056
-23.20320736 -2.460833298e-05 14.22458361
-51.99973636 33.44100539 62.83203861
48.00026364 5.297304392 114.6159086
-58.72115436 6.565662392 -9.73869187e-05
52.00026364 75.28737439 191.6570766
41.09702864 -2.460833298e-05 156.4002816
-71.08964536 -2.460833298e-05 236.9490926
10.77485164 -2.460833298e-05 246.9959296
-28.34394636 26.97588939 -9.73869187e-05
48.00026364 29.25286139 112.2654696
-46.55361436 16.29846439 -9.73869187e-05
48.00026364 40.78508039 13.76331961
11.84108464 -2.460833298e-05 61.45300461
12.84547064 23.89263439 -9.73869187e-05
-55.57078936 -2.460833298e-05 189.2900976
-47.99973636 29.33301639 99.81059361
-1.716583359 -2.460833298e-05 141.1816306
26.77612564 55.59252839 -9.73869187e-05
56.63015864 41.35154339 -9.73869187e-05
-33.69199236 -2.460833298e-05 236.3365486
-30.93278136 55.90244539 -9.73869187e-05
48.00026364 45.38113039 61.03398461
48.00026364 56.98090339 233.2169186
48.00026364 58.71346139 178.9913666
-47.99973636 43.27444339 200.5797396
20.90718864 -2.460833298e-05 27.74916361
11.43578164 36.16449739 -9.73869187e-05
-8.429444359 59.18040439 -9.73869187e-05
65.64968864 -2.460833298e-05 69.10555461
-51.99973636 50.48743039 155.5666646
-51.99973636 5.379480392 99.97408161
52.00026364 23.92340339 93.59243861
13.93016164 -2.460833298e-05 187.6893556
25.27963564 -2.460833298e-05 220.7925286
-51.99973636 38.15415639 242.4193736
-51.99973636 46.82846139 233.7023466
-57.81753636 -2.460833298e-05 235.1923836
-71.61325136 -2.460833298e-05 211.5551436
52.00026364 39.29230539 177.8804006
67.39213564 -2.460833298e-05 126.4449336
48.00026364 49.27002939 138.3997256
48.00026364 9.484533392 142.1640076
-51.99973636 25.80790139 18.42716061
-47.99973636 68.44839139 151.3809806
-2.527358359 -2.460833298e-05 102.5183886
52.00026364 63.51334239 205.6615806
-51.99973636 9.674402392 67.38296461
-47.99973636 65.17476839 206.6051326
69.06731164 -2.460833298e-05 153.6522446
53.88234664 -2.460833298e-05 203.6028906
48.00026364 22.38777139 241.2465486
40.18377064 -2.460833298e-05 180.5328466
-47.99973636 1.772190392 19.55022161
-59.53576936 41.38410939 -9.73869187e-05
48.00026364 38.57904539 238.0126926
-51.99973636 12.67883939 170.3896456
52.00026364 73.94085639 146.1238026
-27.11093136 -2.460833298e-05 143.6986476
44.92373664 43.16522439 -9.73869187e-05
-47.99973636 74.75883839 191.2280576
3.021779641 -2.460833298e-05 207.0213486
-51.99973636 23.67379639 129.6977936
-47.99973636 37.43851339 163.5542096
-45.11080036 -2.460833298e-05 142.5956056
21.72634864 -2.460833298e-05 178.8385926
-48.90063336 -2.460833298e-05 123.0463366
-47.99973636 11.66777439 25.95836761
52.00026364 25.36553639 216.6783606
-20.18485236 -2.460833298e-05 236.5435056
-51.99973636 13.28880439 228.4884446
-51.99973636 96.80003839 237.9856736
-51.99973636 40.06750339 118.2701966
48.00026364 90.42898139 206.2193716
-70.13767936 -2.460833298e-05 11.11848361
48.00026364 26.29518839 154.6388386
-47.99973636 43.40052339 141.3741856
11.98246664 -2.460833298e-05 108.6877206
-47.99973636 25.67446239 6.395748613
44.90394864 2.157877392 -9.73869187e-05
-40.10551236 -2.460833298e-05 79.60075461
52.00026364 20.95100939 195.4450116
48.00026364 34.38639039 84.24107561
4.795623641 -2.460833298e-05 130.1108956
-32.95250936 -2.460833298e-05 36.69016861
-20.51272936 -2.460833298e-05 134.5356336
-59.94364936 -2.460833298e-05 76.22266161
-46.12434136 -2.460833298e-05 244.1729366
44.82355564 21.09139239 -9.73869187e-05
-47.99973636 57.72938839 178.9167006
49.96386164 -2.105645608 56.50991961
-51.99973636 63.06318839 131.8873476
51.78331964 67.25345339 107.6652806
-47.99973636 10.23851239 209.8541776
-42.81427836 -2.460833298e-05 206.9244236
-40.87578036 -2.460833298e-05 27.94278861
60.19778864 -2.460833298e-05 186.7671216
-12.73258536 -2.460833298e-05 51.42477761
48.00026364 21.14699739 165.3490546
55.27189464 -2.460833298e-05 134.2506776
-51.99973636 75.00074339 232.0866506
-20.02988736 6.771622392 -9.73869187e-05
48.00026364 41.09992539 202.1692886
48.00026364 22.00994439 35.10399861
43.91067764 55.60508139 -9.73869187e-05
-0.7090333588 -2.460833298e-05 117.3232556
69.66499264 -2.460833298e-05 236.0202246
-55.52468636 -2.460833298e-05 113.9396766
-25.07780136 -2.460833298e-05 190.8112626
-47.99973636 25.94688939 69.71958661
-47.99973636 11.79225539 54.56169961
52.00026364 84.90229839 182.5727956
52.00026364 69.31363539 167.3953306
41.43849964 -2.460833298e-05 22.80259861
-47.99973636 92.38683139 202.9208226
52.00026364 36.83919339 66.62292361
-51.99973636 69.89139139 168.8250766
48.00026364 98.94361939 224.6993456
50.17801664 56.30555739 49.08001061
48.00026364 35.53129139 123.5015976
10.52981564 57.25858039 -9.73869187e-05
52.28952164 13.45425839 -9.73869187e-05
-36.16181236 -2.460833298e-05 58.98179261
-0.1618083588 -2.460833298e-05 241.6342786
27.01019464 12.51368239 -9.73869187e-05
52.00026364 14.68645639 121.4417186
-43.64088836 -2.460833298e-05 191.7651116
-2.040299359 -2.460833298e-05 41.85963761
34.41486764 -2.460833298e-05 135.0619366
48.00026364 6.804368392 169.5813686
-62.54213836 -2.460833298e-05 35.63995461
51.57258064 83.51975139 171.9068886
48.00026364 37.49430939 38.92675661
-47.99973636 22.20489539 39.97974161
60.38400764 -2.460833298e-05 30.60342761
-51.99973636 20.45957039 208.6175906
47.50124064 -1.052905608 213.0972946
23.08594864 -2.460833298e-05 115.7612096
-47.99973636 81.90539739 244.4253686
-39.65253236 24.10103639 -9.73869187e-05
-4.285355359 -2.460833298e-05 30.13312561
-51.99973636 60.08488639 247.6567826
0.7044186412 -2.460833298e-05 84.46808661
56.05889064 -2.460833298e-05 89.91043161
-51.99973636 60.33448039 220.4160976
-47.99973636 31.32852739 200.6546436
48.00026364 82.24513539 223.5093596
52.00026364 70.13372639 214.6251076
-47.99973636 47.45565839 9.526811613
72.33603264 -2.460833298e-05 48.78085861
51.64003564 -2.460833298e-05 244.4299976
-3.405192359 -2.460833298e-05 174.1016506
-47.99973636 37.40352539 89.63380561
-51.99973636 32.56190539 175.0828716
34.88807664 -2.460833298e-05 200.2100306
48.00026364 66.17952739 152.4349886
-51.99973636 28.16452239 216.2756466
-51.99973636 41.56316839 221.2552586
-51.99973636 40.90884539 40.56395661
-55.56234636 -2.460833298e-05 224.1330996
52.00026364 72.93487939 250.8918766
52.00026364 5.470734392 26.81924661
-67.64112836 15.80841939 -9.73869187e-05
-55.60598636 -2.460833298e-05 44.23438161
-47.99973636 35.20608739 19.51021161
-47.99973636 28.19279539 156.0115686
48.00026364 48.45136039 100.7280456
48.00026364 51.97386039 219.9423586
-47.99973636 12.16655739 90.39282661
52.00026364 15.25135739 85.11928361
52.00026364 34.02052639 196.2656406
52.00026364 51.04958539 184.1032616
-15.80808736 -2.460833298e-05 81.20544061
-50.84557736 76.43635139 146.0297866
67.28665464 -2.460833298e-05 9.759607613
-46.60042836 -2.460833298e-05 161.2875256
-47.99973636 72.07423339 242.6266016
-24.07676136 -2.460833298e-05 94.33996361
58.68221064 -2.460833298e-05 171.4777636
48.00026364 19.18595839 207.2878186
-47.49875936 -1.066003608 59.17669761
52.50124064 -1.366123608 224.7878416
-47.99973636 77.47725439 210.4520756
52.00026364 93.88537939 240.8473366
-47.99973636 36.99998039 105.9977356
48.00026364 52.92483039 114.9681366
5.966348641 -2.460833298e-05 167.6465916
-47.99973636 96.01125439 246.9327846
-71.03611036 -2.460833298e-05 186.0696616
43.81470364 -2.460833298e-05 123.3015796
48.00026364 50.42012039 69.43240661
-51.99973636 56.77847739 84.91108361
-47.99973636 40.89782339 2.222753613
20.70216364 4.616567392 -9.73869187e-05
48.00026364 54.83670439 196.5467146
48.00026364 18.44013939 57.76893361
52.00026364 18.20574639 132.0529656
-51.99973636 49.99218139 74.14810961
-13.69199136 -2.460833298e-05 8.915628613
59.61758964 6.218319392 -9.73869187e-05
48.00026364 51.65293839 80.96451061
21.14928064 30.44924539 -9.73869187e-05
52.00026364 7.504685392 103.6741046
-51.99973636 47.76245139 165.2314286
-8.368107359 25.09715539 -9.73869187e-05
-72.70458936 50.62940539 -9.73869187e-05
-51.99973636 57.65833939 67.38429961
-51.99973636 5.090766392 81.95257961
48.00026364 4.994716392 230.5011136
36.84597664 -2.460833298e-05 39.86332561
-51.99973636 93.53452439 223.1242876
-0.4839893588 -2.460833298e-05 154.2698926
-0.04827335885 -2.460833298e-05 183.5908376
-47.99973636 105.1798514 239.9945996
69.09707664 -2.460833298e-05 79.19304861
-21.52380536 -2.460833298e-05 104.5137436
-51.99973636 39.85743139 73.87973161
-41.26430736 -2.460833298e-05 129.3133306
-51.99973636 60.32104639 154.0444906
-47.99973636 22.92683039 88.52979461
48.00026364 32.10418039 141.6963746
48.00026364 83.04803139 200.3840976
71.90302364 43.88917639 -9.73869187e-05
-47.99973636 46.52586639 210.9759876
48.00026364 34.35546839 221.0869566
52.00026364 29.75205539 72.77352761
-37.79499936 -2.460833298e-05 225.4823776
-51.99973636 41.55382239 58.14034361
-50.06969336 55.25298839 41.90787861
-44.29362236 -2.460833298e-05 102.5484306
52.00026364 57.13973539 96.50770861
-47.99973636 19.22275339 252.2123966
-47.99973636 7.143302392 218.6361806
-47.99973636 78.65103339 180.3003876
52.00026364 7.335456392 64.93009161
3.170900641 16.19264039 -9.73869187e-05
-59.76821436 -2.460833298e-05 244.2418566
52.00026364 13.49394139 201.1817626
-64.05071736 -2.460833298e-05 156.1934416
-47.99973636 2.066925392 10.29984461
56.51447964 -2.460833298e-05 252.3654716
-58.15030836 -2.460833298e-05 179.7228476
-47.99973636 11.39392339 193.3365026
5.476517641 -2.460833298e-05 191.2843396
-17.30373636 -2.460833298e-05 154.6219546
-47.99973636 59.81511039 114.8758676
71.68580864 7.823429392 -9.73869187e-05
52.00026364 73.66467539 200.6335956
52.00026364 4.197647392 17.39182361
57.09382364 28.49513939 -9.73869187e-05
-10.32764236 -2.460833298e-05 60.18830661
-16.45230836 -2.460833298e-05 216.6504766
-58.08848136 -2.460833298e-05 205.7198036
52.00026364 46.57221839 236.6280516
52.00026364 23.71915839 27.17777461
48.00026364 3.200802392 93.91982361
52.00026364 68.83198339 181.7728926
-36.14160936 -2.460833298e-05 141.7566576
-34.81084136 -2.460833298e-05 161.4165446
53.82859664 -2.460833298e-05 194.6448866
52.00026364 64.88697039 232.0230446
20.80148164 -2.460833298e-05 206.7317456
-47.99973636 4.777097392 151.3481586
35.25506364 -2.460833298e-05 4.737494613
48.00026364 20.97934839 185.2790876
-51.99973636 51.70484139 100.6939296
-47.99973636 40.74497539 126.9179696
48.00026364 41.59156839 248.8996606
34.12908264 -2.460833298e-05 220.3920036
48.00026364 57.56558039 170.1903436
-47.99973636 51.98890839 198.9975846
48.00026364 8.256291392 252.3212496
48.00026364 46.20147839 159.2815496
-39.09734336 3.241272392 -9.73869187e-05
-47.99973636 63.90386139 228.4639106
48.00026364 61.28105539 119.9216786
48.00026364 58.87943739 212.1498546
52.00026364 81.78049339 215.7098096
-71.28353936 -2.460833298e-05 52.45409661
-62.94359236 30.63228839 -9.73869187e-05
-47.99973636 37.24182939 181.2930846
-47.99973636 47.40237539 27.58880861
-19.32462136 25.28606239 -9.73869187e-05
9.445437641 -2.460833298e-05 137.5080956
52.00026364 4.860845392 42.98225361
-31.25380836 -2.460833298e-05 209.1580506
-20.16348536 -2.460833298e-05 35.59152761
-34.17176636 -2.460833298e-05 91.18177461
52.40890564 -2.460833298e-05 126.0456856
48.00026364 27.58645839 171.1815426
52.00026364 31.03393939 236.4285796
-51.99973636 7.552154392 116.3418216
32.14235064 -2.460833298e-05 144.5633086
48.00026364 28.51006239 53.66961361
-51.99973636 31.68955839 38.00845161
52.00026364 35.25998539 107.5052156
48.00026364 14.10892639 77.54956361
48.00026364 26.95812539 9.720266613
-51.99973636 17.52365239 149.5377956
-53.20688536 -2.460833298e-05 249.7915366
61.11111664 -2.460833298e-05 241.0427186
-47.99973636 29.89892539 125.3661236
52.00026364 44.80621739 40.91885961
-65.99640736 -2.460833298e-05 168.5490816
30.88567364 -2.460833298e-05 102.1307246
48.00026364 71.53195739 222.0644386
48.00026364 4.599646392 154.2857936
-47.99973636 21.98994839 186.1138066
-51.70763636 64.10772639 92.48126961
52.00026364 36.14866439 158.1028036
2.469493641 -2.460833298e-05 21.31898261
52.00026364 26.49458239 135.2906546
52.00026364 29.96188839 37.27207161
-10.04376436 67.50106339 -9.73869187e-05
-51.99973636 54.23559039 131.9759736
40.46109064 64.71329239 -9.73869187e-05
-47.99973636 41.45763539 251.7289496
52.00026364 24.38325639 102.0315036
64.60303764 -2.460833298e-05 222.8143906
-0.004520358846 -2.460833298e-05 8.427776613
12.56644864 -2.460833298e-05 70.09882661
48.00026364 57.81637939 153.2851186
-51.99973636 26.70795839 54.82482261
1.841613641 -2.460833298e-05 217.7519926
-51.99973636 7.115502392 139.5165666
70.94147664 -2.460833298e-05 192.2618966
-51.99973636 16.91269439 241.9025896
-47.99973636 28.26408339 224.2696416
-20.75956536 -2.460833298e-05 126.1921906
-57.23514636 -2.460833298e-05 20.02848561
-34.10261736 -2.460833298e-05 46.53382861
48.00026364 14.67646339 100.9940476
-51.99973636 43.01046939 185.7227656
-51.99973636 62.46783639 172.5380716
-71.10798436 -2.460833298e-05 98.34401061
52.00026364 19.98657039 50.68934261
-51.99973636 16.60794739 71.89792961
52.00026364 8.724816392 176.5641016
-47.99973636 12.98563739 201.4527936
-51.71326236 86.91459239 183.4785586
52.00026364 42.41993739 145.4399056
-47.99973636 28.15753239 138.5412226
58.00948464 -2.460833298e-05 58.96384361
-51.99973636 61.98063539 187.7364986
72.40110164 -2.460833298e-05 111.8017246
44.61310764 -2.460833298e-05 68.65661561
52.00026364 57.43765139 242.1426456
52.00026364 45.11445639 31.33469661
48.00026364 38.74955839 229.7051716
26.82438564 -2.460833298e-05 170.5708256
52.00026364 75.16318339 239.7784386
-48.17873436 97.77877539 217.2217266
16.65131464 -2.460833298e-05 237.8187666
-47.80811536 -2.460833298e-05 169.4021126
-26.70668136 -2.460833298e-05 182.0753076
35.81652764 -2.460833298e-05 229.6578096
48.00026364 42.53083639 85.02872061
-47.99973636 8.765521392 109.3150106
34.67591464 53.49171439 -9.73869187e-05
52.00026364 27.58053039 86.28245061
-46.84399736 67.99997539 -1.508581387
48.00026364 100.6588344 242.9825616
-47.99973636 24.31532639 48.14262161
-51.99973636 8.861281392 235.3207796
-47.99973636 67.83007939 113.5233326
-51.99973636 53.99800039 239.8614426
52.00026364 20.39629539 234.4876966
62.86191064 -2.460833298e-05 94.30221261
-46.52373036 30.41055239 -9.73869187e-05
43.41859164 -2.460833298e-05 173.1211646
-51.99973636 19.11975239 120.4279596
-37.37483736 -2.460833298e-05 106.6916206
52.00026364 67.28621439 130.8225946
-51.99973636 13.18803739 5.000639613
52.00026364 76.94633339 183.5276966
52.00026364 22.52241939 147.6822456
-47.99973636 68.47399739 162.0457226
52.00026364 36.75612539 185.4536956
-4.131275359 5.953689392 -9.73869187e-05
48.04164464 51.99001939 18.02760161
-47.99973636 45.81021239 110.5462766
-59.69081836 52.19189639 -9.73869187e-05
48.00026364 11.02111939 16.85587761
-47.99973636 1.841409392 37.51051961
48.00026364 61.07494439 112.0028476
52.00026364 46.91609139 54.39080761
-51.99973636 50.80089739 146.0341846
48.00026364 43.48779739 184.4776946
-47.99973636 60.23537239 101.7268276
-47.99973636 57.83692039 124.0779106
61.43868164 -2.460833298e-05 178.8478236
-51.99973636 23.10011639 109.0047296
-47.99973636 36.06954439 217.2898646
40.94291464 31.58293339 -9.73869187e-05
48.00026364 14.03207039 229.9262436
52.00026364 14.00528039 164.7814546
-17.59920036 -2.460833298e-05 45.25210461
48.00026364 23.82379939 69.53334461
-32.38524636 -2.460833298e-05 175.1818296
48.00026364 88.09140539 244.8821956
52.00026364 70.91502639 157.2315436
52.00026364 34.29157039 16.74322561
-39.17045136 13.69664239 -9.73869187e-05
48.00026364 61.45091639 249.3845906
-51.99973636 5.073652392 60.95901261
-59.23084236 -2.460833298e-05 216.4397536
-5.591627359 -2.460833298e-05 110.9309416
52.00026364 31.82746739 129.6088616
-31.09790336 -2.460833298e-05 76.36197361
52.00026364 5.832275392 221.8837616
48.00026364 8.234844392 3.853873613
-16.02219336 41.46213339 -9.73869187e-05
-47.99973636 17.67329539 132.5938106
-27.51018636 67.99997539 -1.370223387
48.00026364 11.99368139 150.7956176
-12.13874636 -2.460833298e-05 201.4625736
-15.32747936 -2.460833298e-05 187.5705996
-15.33846636 -2.460833298e-05 242.5812896
48.00026364 39.64353539 169.6851986
52.16832964 -1.681438608 80.24225061
-59.70814236 -2.460833298e-05 64.95026861
-51.99973636 50.77309739 172.3443756
48.00026364 32.21536839 177.3479526
4.208139641 -2.460833298e-05 198.8875996
52.00026364 49.39260939 165.0420236
-47.99973636 6.890559392 47.03862761
-64.05592736 -2.460833298e-05 6.342410613
-51.99973636 0.01153039167 107.1115136
-28.55862936 -2.460833298e-05 165.8836276
52.00026364 26.36022539 246.7351196
20.31151164 -2.460833298e-05 147.9540796
72.25651664 -2.460833298e-05 96.58396861
48.00026364 18.85907239 216.7710956
19.39049764 -2.460833298e-05 225.6540466
-47.99973636 6.143271392 127.4825396
48.00026364 4.727102392 186.9445876
-44.92493636 -2.460833298e-05 184.1187736
29.18860264 -2.460833298e-05 180.3746146
25.08842264 -2.460833298e-05 82.54847361
27.38090164 -2.460833298e-05 49.46000461
52.00026364 60.23702839 185.4622646
-51.99973636 0.2322173917 50.93420261
-51.99973636 37.70230039 144.4475556
8.922210641 45.22375739 -9.73869187e-05
-51.99973636 24.20019939 193.3147116
48.00026364 81.73616939 191.9723776
-51.99973636 36.93899339 52.11786061
-51.99973636 35.52107739 157.4031126
-51.99973636 32.02915239 86.09113861
48.00026364 7.429818392 196.9888506
48.00026364 95.41347239 233.0859076
52.00026364 54.20838139 132.1972546
-51.99973636 13.67255239 19.87528761
16.49093064 -2.460833298e-05 45.25627361
-51.99973636 76.84031839 248.3290506
-51.99973636 5.243280392 161.7365666
-51.99973636 32.72174139 94.39420761
21.08885464 -2.460833298e-05 68.39675061
-51.99973636 21.86111939 223.0651656
48.00026364 55.57809039 88.26510461
-21.91070836 -2.051292608 21.30504261
48.00026364 65.45888639 198.3820716
-47.99973636 45.71676639 243.2644526
52.00026364 107.6506594 245.1624486
27.19354564 -2.460833298e-05 133.1446986
-51.99973636 2.214184392 240.1340236
11.82055564 -2.460833298e-05 3.823356613
54.06410364 -2.460833298e-05 48.24006561
8.954346641 -2.460833298e-05 227.1904806
36.83006464 -2.460833298e-05 188.4810936
52.00026364 0.1117253917 105.7326026
-51.99973636 69.10154939 127.0966696
42.72410564 -2.460833298e-05 232.3821466
-11.40380336 -2.460833298e-05 138.9993066
-51.99973636 38.88723439 82.17810261
4.927180641 -2.460833298e-05 64.12453861
49.92349164 64.84732139 96.17751761
-47.99973636 79.59534039 166.4022266
-52.88362036 -2.460833298e-05 94.96213261
-51.99973636 58.81592439 212.3709376
-51.99973636 16.15569739 160.6177926
48.00026364 41.80710239 127.5025286
48.00026364 31.79652939 214.0138336
48.00026364 47.21923839 198.0204166
-24.60957336 18.68955339 -9.73869187e-05
-7.203530359 -2.460833298e-05 120.7954456
-65.13623136 -2.460833298e-05 232.6169516
63.62885064 -2.460833298e-05 206.8084726
-27.93666836 -2.460833298e-05 127.8279746
-40.76481436 -2.460833298e-05 87.91262361
48.00026364 2.950477392 138.7786606
-47.99973636 15.68110139 64.34012861
48.00026364 38.21577039 25.29112961
48.00026364 79.01350039 165.3439516
-47.99973636 81.33319039 230.7840546
-66.19298936 47.23308539 -9.73869187e-05
25.36646964 67.99997539 -2.214687387
48.00026364 43.86382339 218.6101376
-22.85617636 -2.460833298e-05 71.63152961
-47.99973636 30.07116039 182.8363956
-51.99973636 87.48621639 228.0834986
-51.99973636 35.33990539 26.78857961
-47.99973636 23.22515639 78.04832461
-51.99973636 75.59992739 216.9165866
52.00026364 23.81799439 109.3101906
52.00026364 35.61066839 77.12557361
-20.63210036 -2.460833298e-05 6.660927613
52.00026364 41.53449239 5.637210613
-47.99973636 0.5541343917 221.7579646
-51.99973636 52.77993939 120.2469386
46.75693564 -2.460833298e-05 202.0824976
19.84395964 -2.460833298e-05 133.1380566
-11.01131836 8.833609392 -9.73869187e-05
-54.21365936 -1.625608608 -9.73869187e-05
59.08571964 16.00194839 -9.73869187e-05
4.048544641 54.01402939 -9.73869187e-05
41.62131864 -2.460833298e-05 163.6286426
-51.99973636 7.940177392 36.83559761
-51.99973636 7.925023392 175.8554646
48.05209464 53.03315439 26.69104061
-40.71782736 -2.460833298e-05 234.3429096
32.26779764 -2.460833298e-05 55.53103561
48.65047764 59.17715939 66.22100961
-42.97288236 58.61920839 -9.73869187e-05
-51.99973636 51.32634539 89.61604061
-41.71422136 -2.460833298e-05 7.494741613
-22.27483936 -2.460833298e-05 149.4328486
-51.99973636 98.43273639 252.3734096
-51.99973636 53.50296239 231.0886796
48.00026364 15.20477139 47.17551061
48.00026364 38.12126139 56.98334761
48.00026364 42.11350239 106.5098936
45.33375564 -2.460833298e-05 149.5117416
-51.99973636 76.79399239 174.6814406
-51.99973636 18.78968939 33.05350961
-47.99973636 27.63421839 239.8674326
-47.99973636 30.35200639 32.26794361
52.00026364 10.59032739 245.1425626
-47.99973636 28.67786439 210.4348066
41.66696564 -2.460833298e-05 94.04253261
52.00026364 67.46165339 174.8131156
52.00026364 26.65343839 179.9551546
0.01032764115 -2.460833298e-05 249.6932326
-51.99973636 64.91508639 138.7079416
52.00026364 84.36492039 251.5702366
-60.55948336 -2.460833298e-05 194.2683906
6.934581641 -2.460833298e-05 149.6692946
-66.14652136 -2.460833298e-05 217.7677076
47.95330164 -2.460833298e-05 7.060159613
58.26770064 -2.460833298e-05 11.84089961
48.00026364 11.38998139 31.72270761
-51.99973636 73.76132539 197.9913736
48.00026364 48.32837239 130.8693436
34.53146864 -2.460833298e-05 48.89652261
52.00026364 46.97783139 203.7706326
-51.99973636 86.38522039 203.8450036
52.00026364 69.39981839 140.7916566
52.00026364 43.33832339 242.8333286
52.00026364 101.4199874 248.6706446
-65.95899536 -2.460833298e-05 133.6876266
-1.326857359 -2.460833298e-05 69.41445061
-54.44180736 -2.460833298e-05 70.73288061
-47.99973636 85.19488039 196.3896186
52.00026364 20.86990639 118.2134306
48.00026364 36.24909139 92.25940261
-51.99973636 16.95432539 47.72970261
52.00026364 31.57241439 227.8433726
51.88114464 -2.460833298e-05 170.0017596
-16.66979036 -2.460833298e-05 67.34727161
52.00026364 6.298735392 123.1397946
-47.99973636 25.37485739 62.61876461
-10.11383536 -2.460833298e-05 219.4875736
19.45149264 -2.460833298e-05 217.0182716
-51.99973636 27.04318239 170.8736416
-51.99973636 87.27196439 242.5999426
-51.99973636 74.62895039 163.6748756
-19.69883436 13.69713139 -9.73869187e-05
-51.99973636 51.52792539 213.6226956
-41.00690336 -2.460833298e-05 43.85785361
-56.37162536 -2.460833298e-05 143.6704506
-49.40687036 23.45582439 -9.73869187e-05
48.00026364 20.24498439 225.7460776
5.821724641 -2.460833298e-05 89.17878361
52.00026364 50.87407639 192.5398586
34.18627764 16.90586239 -9.73869187e-05
-51.99973636 75.70641739 185.6874246
-30.95641836 -2.460833298e-05 230.0038016
-5.652525359 -2.460833298e-05 205.3636636
48.00026364 47.55594639 211.4036526
37.17194664 37.34844539 -9.73869187e-05
48.00026364 6.408028392 162.7054066
43.84320464 -2.460833298e-05 116.0603536
-51.99973636 6.682700392 91.49725961
-51.99973636 53.75622439 161.6081346
-47.99973636 37.67384239 112.8320286
52.00026364 31.24068639 148.9020116
52.00026364 14.67443039 179.9883556
11.57299864 -2.460833298e-05 171.6056746
61.69612164 -2.460833298e-05 165.3150496
48.00026364 11.82549539 215.3834926
-51.99973636 15.68490239 105.1055716
28.34257164 -2.460833298e-05 159.7933816
-33.72300336 -2.460833298e-05 191.8292856
52.00026364 20.31744839 5.255213613
29.50068264 -2.460833298e-05 237.4810056
-51.99973636 47.62995939 195.5840726
-48.37436936 62.56449539 84.76871061
48.00026364 8.788351392 71.15556061
-51.99973636 64.67419039 241.4963866
2.615441641 6.923763392 -9.73869187e-05
-51.99973636 72.13310539 209.1030206
48.00026364 61.19959939 81.11344361
52.00026364 14.97683839 141.9875126
-47.99973636 40.83289039 133.9059276
30.25728464 -2.460833298e-05 24.62240861
48.00026364 55.38529439 225.8105016
65.61122164 10.82936739 -9.73869187e-05
-8.899218359 -2.460833298e-05 240.4750286
48.00026364 5.318435392 12.04350061
-47.99973636 52.22129339 66.86978261
48.00026364 60.85397939 137.9805846
39.29270064 -2.460833298e-05 80.61771461
28.27027864 -2.460833298e-05 124.2731826
48.00026364 32.41719539 202.1205546
-47.99973636 52.48985139 79.76044461
48.06696864 -2.460833298e-05 26.30171761
-38.61446536 -2.460833298e-05 65.27687661
65.63923964 -1.243048608 22.54244961
-51.99973636 42.61943239 11.96447361
2.893972641 -2.460833298e-05 37.28291761
-47.99973636 21.50003139 159.0068136
-51.99973636 35.14353539 126.6905716
3.124878641 -2.460833298e-05 160.1470656
-47.99973636 38.75615639 189.8995516
-57.98941636 -2.460833298e-05 28.29314361
52.00026364 23.66957339 14.79307561
-47.99973636 6.604651392 144.8975036
58.75399964 -2.460833298e-05 106.7090106
52.00026364 41.21000039 153.7100406
-47.99973636 14.03373239 175.5809596
-51.99973636 10.65660739 130.3768386
-47.99973636 6.154601392 225.3943626
-51.99973636 43.53032539 47.26792461
-49.00492936 -2.460833298e-05 204.4609406
-51.99973636 70.61064139 237.5035406
48.00026364 23.78245439 202.3245046
48.00026364 97.13954939 215.6561216
-54.89989636 61.60397939 -9.73869187e-05
-31.27322536 36.10709539 -9.73869187e-05
-51.99973636 27.66230839 80.96627861
48.00026364 33.93960039 62.18585861
-47.99973636 30.02102339 192.0951396
5.170016641 -2.460833298e-05 70.74841661
70.25663964 -2.460833298e-05 219.3565666
48.00026364 51.21571839 57.44768461
52.00026364 69.07826139 226.9004246
52.00026364 32.03479839 8.344057613
48.00026364 89.96658739 198.2368306
48.00026364 43.08156039 96.88169261
-51.99973636 15.86067239 86.65884961
52.00026364 18.33949139 64.35787861
-16.00327036 -0.6187196083 -9.73869187e-05
-47.99973636 36.62474539 69.75244261
65.98835364 -2.460833298e-05 110.2724956
-51.99973636 11.25057439 96.50387061
53.32932164 -2.460833298e-05 218.1397056
-47.99973636 56.73072639 188.7873256
52.00026364 22.17575539 157.8680136
-47.99973636 35.08313439 57.86883861
-34.45741736 -1.623641608 18.73489061
-47.99973636 23.88728639 114.9451976
-51.99973636 23.16748339 243.9271666
48.00026364 28.48304939 118.7896146
52.00026364 44.90348439 120.3091456
-28.81004736 -2.460833298e-05 67.18421861
-51.99973636 43.45523239 20.14713461
-71.70763936 -2.460833298e-05 203.7322876
52.00026364 34.57757339 50.77954161
59.49552764 35.46056439 -9.73869187e-05
52.00026364 9.565140392 185.0958686
-51.99973636 68.39799639 146.2104466
-47.99973636 4.825899392 53.30557661
-7.818214359 -2.460833298e-05 12.81496961
16.87509464 -2.460833298e-05 117.7873406
-51.99973636 0.02568539167 24.41527761
-47.99973636 54.16667439 167.7911966
-47.99973636 60.15420839 200.3030046
-47.99973636 63.31171839 216.1590786
-51.99973636 11.93982139 31.68553261
-11.66666436 53.53729339 -9.73869187e-05
48.00026364 4.639464392 56.53124361
-37.99144136 -2.460833298e-05 116.0396806
52.00026364 38.56296939 206.6214436
-47.99973636 44.61236739 35.30142161
-47.99973636 22.48876839 214.4271316
48.00026364 70.09590939 238.2710766
48.00026364 40.72668339 140.6107466
-51.99973636 14.26509939 250.9603066
-51.99973636 53.70454539 182.0656916
-47.99973636 6.874754392 182.3973496
48.00026364 64.66822639 215.0820766
48.26140564 71.93998139 128.2970156
-3.094058359 -1.307367608 -9.73869187e-05
-37.31620536 -2.460833298e-05 241.7072056
19.24101164 -2.460833298e-05 34.00883761
-47.99973636 47.62966139 42.31436861
-2.043188359 58.11391939 -9.73869187e-05
-51.99973636 29.60087739 12.33766661
13.57138964 -2.460833298e-05 178.3943276
21.10761864 52.47290139 -9.73869187e-05
-51.99973636 3.761675392 211.0940516
-51.99973636 41.84275639 104.4668876
48.00026364 36.07844739 72.07121861
-51.99973636 47.90994039 59.28963661
-11.73534236 -2.460833298e-05 195.0159966
38.98104364 23.82895639 -9.73869187e-05
-51.99973636 47.79802239 131.7247956
-47.99973636 22.90584539 103.9596976
48.00026364 68.22049739 146.3303116
43.19952464 -2.460833298e-05 40.84649461
-51.99973636 32.35445939 150.3289946
-47.99973636 36.71567939 197.1750056
52.00026364 50.48996139 13.21009461
-51.37732336 7.643107392 1.856770613
-70.21544836 -2.460833298e-05 61.10912061
31.17633064 -2.460833298e-05 95.74504561
1.560090641 22.41353539 -9.73869187e-05
-0.3292063588 -2.460833298e-05 166.6858736
48.00026364 6.033516392 38.18021961
-51.99973636 13.71367839 215.2486336
-6.444922359 -2.460833298e-05 65.67416461
-49.74643536 107.8597414 245.4664776
-47.99973636 28.89625339 162.3069116
30.60966264 -2.460833298e-05 245.4494556
48.00026364 41.40707039 68.41467861
-50.49748236 -2.460833298e-05 193.0721276
-23.21912136 -2.460833298e-05 217.8904716
-7.433495359 -2.460833298e-05 187.6131346
52.00026364 94.83445439 227.3493136
-51.99973636 26.52599339 95.60015461
52.00026364 17.89210539 211.9898076
-51.99973636 47.03312639 180.8709056
52.00026364 8.954620392 84.92488061
-47.99973636 64.85835639 246.7219346
67.36781764 -2.460833298e-05 241.8786786
38.72082164 46.53090639 -9.73869187e-05
52.00026364 5.225067392 248.4121726
-43.54300636 -2.460833298e-05 217.3745246
-47.99973636 92.81201339 240.7146766
27.60515964 -2.460833298e-05 203.2464986
-47.99973636 12.09621639 73.60615661
48.00026364 0.8648873917 51.36188361
-47.99973636 57.76591439 149.9675536
-51.99973636 19.84987739 16.52799661
26.54404264 61.83860839 -9.73869187e-05
51.60064964 -2.460833298e-05 156.7376926
-47.99973636 17.28008639 7.666247613
-47.99973636 36.81517039 43.04166061
-51.99973636 9.244359392 149.6343806
48.00026364 15.94709039 197.0930906
53.20280164 -2.460833298e-05 119.8735136
52.00026364 27.98947239 222.7678916
-51.99973636 30.52284939 68.31618861
23.53257064 -2.460833298e-05 165.3034906
52.00026364 28.08524739 198.0951186
52.00026364 2.149936392 210.2720206
-22.38337836 -2.460833298e-05 165.2975996
52.00026364 15.70058139 17.58855961
48.00026364 31.69940839 43.60894361
-51.99973636 0.03087739167 78.38151261
-47.99973636 9.483175392 62.62929961
-47.99973636 9.455272392 80.18606161
-47.99973636 50.08020339 115.0077016
-47.99973636 69.15966839 188.6231846
35.39601764 -2.460833298e-05 176.6335676
34.94178564 -2.460833298e-05 214.2710286
52.00026364 0.4592453917 237.0493806
53.86990364 -2.460833298e-05 188.4757296
-40.44342736 -2.460833298e-05 158.9012456
48.00026364 34.16224839 191.5722626
52.00026364 56.84041439 248.5194826
48.00026364 41.54559839 116.9698176
-51.99973636 25.98535739 25.54323861
17.64947064 -2.460833298e-05 101.9617666
59.03034264 52.21738039 -9.73869187e-05
-47.99973636 19.60096139 192.4645386
52.00026364 28.83862439 252.3681186
-51.99973636 96.36113339 229.3073696
-47.99973636 69.19533739 198.9782656
-65.59656336 5.385132392 -9.73869187e-05
52.00026364 35.21328439 138.2201686
-47.90666536 -2.460833298e-05 46.36411761
52.00026364 53.52178839 76.70626761
9.625956641 29.10894639 -9.73869187e-05
-4.090384359 -2.460833298e-05 216.2072096
-60.44664836 18.17319639 -9.73869187e-05
-21.29186336 -2.460833298e-05 185.9976826
-51.99973636 13.50308739 206.5666646
48.00026364 53.17516139 238.0083736
-15.26155436 -2.460833298e-05 232.9133536
52.00026364 56.49604339 142.7765176
52.00026364 50.59570839 214.8871206
-23.95434536 -2.460833298e-05 88.23166261
-51.99973636 62.49129039 118.7487876
-51.99973636 26.62398339 42.83428761
4.290429641 64.42029339 -9.73869187e-05
32.41827164 -2.460833298e-05 75.12119661
-51.99973636 28.51726039 120.9784706
52.00026364 17.54475439 169.7428206
-47.99973636 100.7984674 235.7175876
52.00026364 25.74485839 142.5133976
10.55095464 6.092724392 -9.73869187e-05
-51.99973636 81.76183739 218.2579106
-51.99973636 42.36022039 148.3666346
-47.99973636 87.24475639 247.6945566
30.70328864 -2.460833298e-05 195.6128716
68.65920864 -2.460833298e-05 132.3836676
48.00026364 52.35158939 148.4645606
3.450197641 -2.460833298e-05 101.4831166
52.00026364 13.95301339 127.7358066
52.00026364 26.23078639 3.940313613
48.00026364 46.18108439 149.7045666
48.00026364 68.02902139 206.1769466
-47.99973636 69.07043739 173.2940986
52.00026364 63.07843639 101.5804486
-47.99973636 34.41539139 170.9358826
-47.99973636 21.87140539 150.8417006
-16.06401036 -2.460833298e-05 180.9467916
48.00026364 22.02965839 248.0655746
52.00026364 50.36540439 95.40954961
-47.99973636 62.05126339 158.2124256
48.00026364 0.8966523917 110.4961156
-35.81091636 -2.460833298e-05 3.872617613
52.00026364 89.11739239 237.1692756
42.66569064 7.779856392 -9.73869187e-05
-26.63333736 -2.460833298e-05 6.193515613
48.00026364 73.80730639 150.6185116
-51.99973636 82.67735639 208.5824206
-40.59676336 -2.460833298e-05 196.9528856
48.60184864 105.8488724 240.0050946
-18.84951636 -2.460833298e-05 206.3336516
-47.99973636 25.18616439 229.4332986
-10.49578036 -2.460833298e-05 115.7693496
48.00026364 10.36331439 134.3363626
-51.99973636 25.80656239 74.39156261
48.00026364 30.96847839 98.67789361
48.00026364 18.50568039 88.18942061
-51.99973636 63.37700039 179.9380006
1.821475641 -2.460833298e-05 235.5909976
23.53014664 -2.460833298e-05 184.5568846
-51.99973636 21.92960239 67.76877661
52.00026364 6.204537392 239.3025476
-47.99973636 44.04338839 169.1740476
48.00026364 10.10864539 157.6898936
52.00026364 79.74300739 235.9250046
-49.53178236 95.24629339 209.7526776
-47.99973636 11.40375339 238.9586546
65.54413764 -2.460833298e-05 15.47014361
-51.99973636 75.98904139 240.0954926
-5.039207359 43.16329139 -9.73869187e-05
31.33312664 3.015064392 -9.73869187e-05
52.00026364 48.32079339 144.5556796
-51.99973636 60.72529739 106.4858306
16.32975864 58.65408639 -9.73869187e-05
52.00026364 18.10724139 242.3657816
-47.99973636 55.49734239 244.0232256
52.00026364 33.85303739 22.68865961
-47.99973636 49.71085439 238.8152026
48.00026364 24.07662939 212.4599436
-47.99973636 44.16583639 116.6463026
48.00026364 33.53163339 170.8930026
52.00026364 44.69627439 138.6979656
-47.99973636 57.25534939 109.5086596
4.588279641 -2.371874608 116.0365236
52.00026364 68.55130139 245.2858496
31.28720864 -2.460833298e-05 225.8234846
-51.99973636 22.49990439 83.89157761
29.57556264 -2.460833298e-05 116.6288036
48.00026364 73.89600239 162.3649786
48.00026364 63.88451739 163.5432796
52.00026364 56.72979839 112.3111076
20.30916564 -2.460833298e-05 74.25686661
-54.30241336 -2.460833298e-05 83.87025461
48.00026364 64.57334239 185.1826326
51.29175064 68.55627639 113.4007626
-51.99973636 45.09938739 157.9679106
48.00026364 60.24269639 202.8238566
-56.30627236 -2.460833298e-05 171.8916426
-51.99973636 18.47615339 166.8329616
64.62164564 -2.460833298e-05 191.3007416
-49.52317236 72.63925939 131.1126276
-43.64227136 -2.460833298e-05 134.6963796
17.96832064 -2.460833298e-05 231.3624166
48.00026364 37.23454739 5.929206613
-51.99973636 33.09697939 137.0182576
-47.99973636 5.212250392 166.0351926
-51.99973636 17.74688939 185.4480436
-51.99973636 15.97320339 92.52581361
-65.77304736 -2.460833298e-05 30.74234961
48.00026364 63.18451339 228.0863906
-52.43998936 -0.6616706083 229.2195416
52.00026364 43.35012039 231.1413446
-22.10553236 47.08865939 -9.73869187e-05
-47.99973636 37.83357339 246.6864706
-43.33997636 -2.460833298e-05 13.18450861
-51.99973636 33.86669139 233.6203886
-47.99973636 72.05191039 223.2635106
52.00026364 5.101606392 50.92143561
11.00839664 -2.460833298e-05 210.4741166
-47.99973636 33.47104039 6.637775613
-47.99973636 41.18103939 16.54826861
52.00026364 5.322055392 143.0310236
48.69115664 47.62329939 -9.73869187e-05
-47.99973636 37.96078539 139.2645656
52.00026364 44.29913139 92.39792661
48.00026364 38.53570739 100.7197576
48.00026364 39.89066739 30.86726561
52.00026364 53.58707439 202.3498246
-47.99973636 12.48493139 48.64408761
-51.91604336 56.05444039 47.36891661
59.44362064 -2.460833298e-05 36.34591761
52.00026364 63.23483339 123.6686416
52.00026364 86.25668639 205.5500166
48.00026364 1.762277392 193.2536346
48.00026364 10.95987239 51.15473361
-47.99973636 22.45633939 139.7010946
-49.00887136 -2.460833298e-05 154.5052746
-18.11987836 -2.460833298e-05 17.03868061
52.00026364 42.67548539 20.90621661
52.00026364 50.07036839 34.91073861
-52.17665236 -2.460833298e-05 5.184947613
52.00026364 17.85898039 103.7390776
42.15246664 -2.460833298e-05 246.9607426
-47.99973636 48.59437239 97.89631961
-51.99973636 34.26575139 99.97243761
62.49494864 -2.460833298e-05 122.0703526
47.37314264 -2.460833298e-05 221.8730536
48.00026364 69.30740739 194.0662496
48.00026364 27.31334439 106.8188556
-47.99973636 43.89218939 51.95845061
52.00026364 37.77427639 128.5528956
48.00026364 38.38823639 19.52208561
-51.99973636 5.875109392 20.23877661
-50.07210936 -2.460833298e-05 117.3960826
-47.99973636 56.45070639 135.4951266
-47.99973636 55.71396139 73.61832561
-47.99973636 18.36168039 225.2864246
52.00026364 28.49102039 31.40610661
-33.00741736 -2.460833298e-05 151.9943976
48.00026364 83.00065939 208.7766536
-47.99973636 54.90617039 157.6363096
-47.99973636 27.16559039 131.9079206
-47.99973636 11.07522239 166.5869036
-47.99973636 59.19139239 224.3746256
-47.99973636 2.830182392 188.0567136
52.00026364 20.43282039 220.9285676
-47.99973636 32.98884939 206.1494516
-51.99973636 40.71951039 226.9329616
48.00026364 29.27511239 67.75088861
48.00026364 27.59556639 90.38650861
-51.99973636 74.13444839 157.6875306
52.00026364 71.26063339 208.6980216
48.00026364 52.84687139 180.4206126
-47.99973636 73.95587839 168.3166476
-51.99973636 57.22473539 174.8358716
52.00026364 37.23513239 87.16019761
-47.99973636 75.18789739 141.2364416
52.00026364 14.05368339 174.2606376
48.00026364 53.19707439 108.5321196
48.00026364 27.67587439 26.21202361
-54.26595336 -2.460833298e-05 101.8727996
-47.99973636 89.48131539 223.4771946
-47.99973636 3.728068392 105.4580736
48.00026364 20.76432439 125.7301546
-51.99973636 41.03968839 26.62517361
-42.28854936 -2.460833298e-05 93.40688461
48.00026364 75.40572739 234.4950726
48.00026364 29.46756639 159.3720556
52.00026364 30.59150239 124.0473756
52.00026364 27.82719239 241.1308396
52.00026364 52.59254539 122.7703146
11.72185864 -2.460833298e-05 114.5921676
-47.99973636 79.65203639 195.1344706
48.70472764 -2.460833298e-05 144.9367726
39.50318764 -2.460833298e-05 150.9484066
-51.99973636 64.61845439 166.7138906
-47.99973636 85.92704339 217.9138296
-47.99973636 15.75127139 211.1815486
-53.35404736 15.49116839 -9.73869187e-05
-26.42105736 33.18223239 -9.73869187e-05
45.88356464 -2.460833298e-05 63.13753961
-51.99973636 40.93757639 179.7445086
-51.99973636 5.518219392 12.33474461
-51.99973636 33.79289839 194.4355876
-47.99973636 19.13649739 124.4303436
52.00026364 59.16625539 192.2223956
48.00026364 53.53755439 126.8075626
-51.99973636 42.00643839 86.89110261
-15.97048036 -2.460833298e-05 103.4647356
-51.99973636 1.104330392 56.51793861
52.00026364 28.18856239 192.3150286
-47.99973636 21.37865839 97.44665461
-18.33472436 -2.460833298e-05 52.14752061
-51.99973636 36.10908839 167.3096846
52.00026364 79.55603639 202.2996176
8.144412641 -2.460833298e-05 182.9729846
-46.18314136 -2.460833298e-05 29.85892861
-51.99973636 21.65337239 92.29811061
-51.99973636 50.48674139 45.07924161
-47.99973636 71.45795639 205.1890546
52.00026364 12.93019939 194.2477736
-47.99973636 33.63742539 116.7620746
52.00026364 21.60772739 45.29494261
-47.99973636 57.73327939 207.9433706
-51.99973636 15.14856639 57.78751161
-51.99973636 16.88637439 24.49687561
