# .PCD v0.7 - Point Cloud Data file format
VERSION 0.7
FIELDS x y z
SIZE 4 4 4
TYPE F F F
COUNT 1 1 1
WIDTH 1206
HEIGHT 1
VIEWPOINT 0 0 0 1 0 0 0
POINTS 1206
DATA ascii
0.0002150008722 116.1898364 -66.87917739
-48.046125 -2.461323038e-05 0.02955761387
0.0002150008722 7.947719387 11.76487161
-3.999784999 113.2461004 -54.65987739
-151.914789 -2.461323038e-05 25.71655561
0.0002150008722 48.70849539 58.13428961
-93.330398 -2.461323038e-05 50.33161961
0.0002150008722 156.6040404 48.65280261
0.8474370009 0.4999753868 -41.25287539
-120.560242 -2.461323038e-05 -16.12570739
-36.838776 -2.461323038e-05 -12.83476339
-102.203657 -2.461323038e-05 -56.83464439
-198.235406 -2.461323038e-05 -5.258237386
-197.209123 -2.461323038e-05 46.37346661
-210.239706 -2.461323038e-05 4.192064614
0.0002150008722 49.41296139 -23.94419739
0.0002150008722 54.90920439 -66.75924939
-219.05715 -2.461323038e-05 2.672490614
-191.106608 -2.461323038e-05 36.68580361
0.0002150008722 27.64825339 56.49576861
-3.999784999 96.57794939 -37.31885039
-205.785004 -2.461323038e-05 -17.40968539
-114.960509 -2.461323038e-05 -59.91440639
-173.934213 -2.461323038e-05 4.649343614
0.0002150008722 100.4131654 43.62514461
-137.232709 -2.461323038e-05 41.38409961
0.0002150008722 210.8562664 -22.69032939
-244.654414 -2.461323038e-05 54.91845061
0.01188200087 103.2395304 72.11849161
0.0002150008722 141.2450974 16.02177661
0.0002150008722 31.95117639 65.72735361
-3.999784999 53.22685839 -33.77559139
0.0002150008722 247.2529912 27.33851461
0.0002150008722 18.07117939 -30.81797239
-3.999784999 53.62217239 11.22122061
-109.665924 -2.461323038e-05 26.21666061
-9.022984999 -2.461323038e-05 -38.18079039
-169.820844 -2.461323038e-05 -26.44203339
-58.716826 -2.461323038e-05 28.63499661
-171.87079 -2.461323038e-05 45.38846461
0.0002150008722 39.28881539 56.21902661
-13.008716 -2.461323038e-05 -50.97562139
-56.315433 -2.461323038e-05 -9.921456386
0.0002150008722 203.9633794 41.90268361
-214.289424 -2.461323038e-05 65.98437261
-3.999784999 154.9579294 -19.01300839
-164.477957 -2.461323038e-05 19.90359761
-150.62102 -2.461323038e-05 -45.98702939
-3.999784999 62.78497939 40.87448661
-249.029235 -2.461323038e-05 -9.004946386
-187.360242 -2.461323038e-05 -47.88962139
0.0002150008722 172.1312184 70.21128161
0.0002150008722 88.77447739 36.58675161
-3.999784999 82.92940339 -17.65451239
0.0002150008722 3.822191387 64.96790361
0.0002150008722 141.7551334 1.240550614
-4.832628999 -2.461323038e-05 23.50506761
0.0002150008722 7.539566387 33.38890661
0.0002150008722 99.98929539 25.25173761
0.0002150008722 72.51721639 -43.81768339
0.0002150008722 103.0152114 -25.73145439
-3.999784999 115.0290934 -44.39253339
0.0002150008722 109.6873204 30.55495861
-196.522031 -2.461323038e-05 -66.30394839
-26.26188 -2.461323038e-05 -40.84466339
-159.098664 -2.461323038e-05 -3.363635386
-90.043744 -2.461323038e-05 -45.90109539
0.0002150008722 202.5871054 63.55619061
-157.773223 -2.461323038e-05 14.96957161
-108.767734 -2.461323038e-05 -38.49214139
0.0002150008722 61.01487339 59.39283561
-98.23958 -2.461323038e-05 32.81557261
-82.31392 -2.461323038e-05 30.42721361
0.0002150008722 223.6409776 -32.49723239
-122.751818 -2.461323038e-05 -30.67510039
0.0002150008722 210.6610704 27.79709061
0.0002150008722 85.90528539 69.91936161
0.0002150008722 245.4571645 -27.47800339
-3.618414999 0.4999753868 73.72563661
0.0002150008722 107.5236574 37.95282361
-62.14027 -2.461323038e-05 66.59789561
0.0002150008722 92.54642539 48.19001361
-3.999784999 47.09218039 63.87943961
-3.999784999 138.3430914 -55.53412839
-65.072494 -2.461323038e-05 41.21779661
0.0002150008722 85.31199939 -27.83221239
-16.440374 -2.461323038e-05 -23.36360639
0.0002150008722 126.1009264 53.15472061
-3.999784999 127.1194144 42.62168161
-3.999784999 63.46064339 -46.18376039
-3.999784999 81.09301539 9.676861614
-230.976559 -2.461323038e-05 7.174824614
0.0002150008722 171.8935934 -55.89403539
-3.999784999 69.82068939 -65.98388039
0.0002150008722 6.363951387 -71.14656739
-3.999784999 164.0714924 -13.00535639
0.0002150008722 72.89013539 -0.9927363861
0.0002150008722 74.34289239 30.87818761
-62.564152 -2.461323038e-05 -2.842129386
0.0002150008722 149.7488294 -30.23181939
0.0002150008722 92.52304239 10.31009461
-40.529306 -2.461323038e-05 -67.59739839
-81.718178 -2.461323038e-05 -34.78253239
-3.999784999 130.5531964 -34.08663439
0.2753810009 15.13795639 -66.50203939
0.0002150008722 247.7039027 -62.70857539
0.0002150008722 180.0776394 31.08939561
-3.235271999 -2.461323038e-05 36.50167661
-214.646534 -2.461323038e-05 -42.75689539
0.0002150008722 126.1708754 -56.16459139
-240.718318 -2.461323038e-05 14.48982561
0.0002150008722 39.30432039 35.32830061
0.0002150008722 81.39833039 62.13885961
0.0002150008722 226.9864052 16.39257761
0.0002150008722 143.5848304 -58.92395639
-3.999784999 43.78342839 6.307035614
0.0002150008722 92.18184439 -64.74012439
-3.999784999 157.3128384 19.71244661
0.0002150008722 54.76334239 53.38104461
-3.999784999 66.44779939 -23.03531039
0.0002150008722 30.91729239 -10.00770639
0.0002150008722 241.8900757 44.89515761
0.0002150008722 172.3828034 41.17002261
0.0002150008722 63.21400639 23.72381861
-3.999784999 36.07515139 -66.41731539
0.0002150008722 70.72267339 -57.65550739
-3.999784999 73.13818239 -25.42995939
-84.27584 -2.461323038e-05 -24.43195039
-3.999784999 33.07049339 39.24402561
0.0002150008722 8.758258387 -30.99191639
-3.999784999 42.42945339 -71.12966439
-221.687166 -2.461323038e-05 -17.52363539
-198.377273 -2.461323038e-05 -44.34595639
-146.147404 -2.461323038e-05 29.39163561
0.0002150008722 183.4384504 -59.67419839
0.0002150008722 244.3816368 -1.897440386
0.0002150008722 32.04394739 -40.07145239
-250.719636 -2.461323038e-05 45.37954061
-203.705694 -2.461323038e-05 -56.85253439
0.4015680009 194.7276104 74.38812461
0.0002150008722 29.49035339 -67.62548939
-93.019841 -2.461323038e-05 59.17093061
-232.811741 -2.461323038e-05 -23.80036739
-3.999784999 140.5768344 -38.52168739
0.0002150008722 139.5410464 -15.06238939
-244.223244 -2.461323038e-05 -52.62491339
-175.849597 -2.461323038e-05 -59.16789239
-240.638498 -2.461323038e-05 62.30462861
0.0002150008722 95.20294539 39.31026361
-3.999784999 108.0069304 52.47647561
-164.698184 -2.461323038e-05 7.045444614
-3.999784999 73.78622139 13.56565261
0.0002150008722 85.83672639 6.399016614
0.0002150008722 78.43833839 -21.78224839
-3.999784999 15.37402639 67.50940361
0.0002150008722 26.79636239 -58.56320839
-229.650012 -2.461323038e-05 -39.02913039
-190.619266 -2.461323038e-05 -2.411244386
0.0002150008722 185.9929964 67.98935161
-248.276239 -2.461323038e-05 -44.87327139
-103.172319 -2.461323038e-05 48.86129361
-164.981223 -2.461323038e-05 35.84906461
0.0002150008722 55.56865039 35.98066661
-178.474494 -2.461323038e-05 46.48732061
0.0002150008722 34.07041439 52.03001261
0.0002150008722 92.53254039 -2.057206386
-103.934851 -2.461323038e-05 -64.93071439
-93.541748 -2.461323038e-05 -26.88258239
0.0002150008722 45.15592739 14.75808961
-3.999784999 47.54965539 45.82301061
-246.140526 -2.461323038e-05 27.58069461
-216.294012 -2.461323038e-05 16.96989961
0.0002150008722 127.4962594 -21.64078239
-121.639836 -2.461323038e-05 6.083636614
0.0002150008722 247.2894457 9.011519614
-174.654908 -2.461323038e-05 29.65105561
0.0002150008722 215.0482117 44.53037661
0.0002150008722 243.4114311 -33.76144039
-3.999784999 77.66584639 39.45950261
0.0002150008722 234.2498545 19.25351861
-174.623519 -2.461323038e-05 -30.95506539
0.0002150008722 75.21356839 -67.49155439
-61.068135 -2.461323038e-05 -24.01033739
-177.494666 -2.461323038e-05 -45.74576039
-24.830945 -2.461323038e-05 -15.76838239
-245.787414 -2.461323038e-05 -22.76158539
-52.736065 -2.461323038e-05 39.03839161
-184.261208 -2.461323038e-05 39.47502961
0.0002150008722 211.1705704 -8.538163386
0.0002150008722 56.08367639 17.38793161
-146.913905 -2.461323038e-05 -63.75424539
-99.29617 -2.461323038e-05 -43.97458239
-3.999784999 61.27550639 -69.30259939
0.0002150008722 6.888079387 47.99989661
-3.999784999 103.1895684 2.339845614
-112.094149 -2.461323038e-05 -74.31030239
-124.881627 -2.461323038e-05 -50.44122839
-3.999784999 146.6196984 23.51144961
-3.999784999 25.13597039 39.17160461
0.0002150008722 72.91173239 73.32710861
0.0002150008722 41.55385239 -36.96450339
-245.457208 -2.461323038e-05 40.61094561
-123.203052 -2.461323038e-05 27.28940961
-3.999784999 164.7913754 10.49521861
-3.999784999 67.46829539 71.42311961
0.0002150008722 9.696148387 -53.17345639
-223.214402 -2.461323038e-05 -7.737083386
0.0002150008722 110.4692344 62.23439661
0.0002150008722 24.65357439 1.462627614
0.0002150008722 141.0172684 38.44273461
0.0002150008722 84.14789339 -46.67761539
-131.175186 -2.461323038e-05 -5.212493386
-7.961693999 -2.461323038e-05 7.356947614
-108.270202 -2.461323038e-05 8.597555614
0.0002150008722 202.2001364 34.35907561
-3.999784999 52.97831039 66.52086261
0.0002150008722 172.9345464 19.60397061
0.0002150008722 76.25104439 6.726336614
-3.999784999 95.09605439 24.08854161
-3.999784999 86.71254739 -3.226862386
-214.246191 -2.461323038e-05 -2.411970386
0.0002150008722 131.8867644 11.15944261
0.0002150008722 117.2523424 50.85040561
-128.756784 -2.461323038e-05 61.72650761
0.0002150008722 158.6034854 -31.81464239
-94.865931 -2.461323038e-05 26.02371561
0.0002150008722 213.9377478 -34.60779139
0.0002150008722 91.35451339 -12.82951539
0.0002150008722 177.3714964 -30.50280539
0.0002150008722 36.75659739 17.57100161
0.0002150008722 42.42660339 -7.752087386
-216.033613 -2.461323038e-05 -25.02999439
-3.999784999 75.43537639 46.10386561
-173.798823 -2.461323038e-05 -19.09200939
-3.999784999 53.37101539 -7.376759386
-207.86987 -2.461323038e-05 10.10163761
0.0002150008722 128.3670594 68.75580661
-16.843367 -2.461323038e-05 -5.229226386
0.0002150008722 10.43767039 67.64927361
0.06427400087 162.1969274 -72.57855839
-3.999784999 115.2934504 -73.22007139
-249.735631 -2.461323038e-05 65.75142961
0.0002150008722 121.1821394 58.50712861
-3.999784999 175.6462074 11.20655561
0.0002150008722 95.58919739 -57.17141739
-186.603454 -2.461323038e-05 17.43307661
0.0002150008722 179.3980594 6.348657614
-5.081081999 -2.461323038e-05 44.77549261
0.0002150008722 131.9146914 -43.60247239
0.0002150008722 222.1342667 53.09339861
0.0002150008722 199.2253614 14.86557561
0.0002150008722 148.8473414 33.94679061
-3.999784999 148.4764174 39.15900361
-3.999784999 35.47438839 -25.91637239
-45.417416 -2.461323038e-05 29.87433961
0.0002150008722 70.65882139 -36.93625139
-3.999784999 90.96054939 -40.12084339
0.0002150008722 221.771479 3.402694614
-54.172204 -2.461323038e-05 64.06129961
0.0002150008722 65.77220639 1.336144614
-90.884506 -2.461323038e-05 44.09064861
0.0002150008722 146.5955994 67.58737761
-158.020656 -2.461323038e-05 3.528566614
-124.629169 -2.461323038e-05 45.09625761
-3.999784999 108.8698874 -35.17715839
-231.953306 -2.461323038e-05 72.19143161
-134.946807 -2.461323038e-05 22.51506861
-3.803109999 182.7819754 -3.553943386
0.0002150008722 16.45629839 21.55425161
0.0002150008722 102.3240854 -66.83179339
0.0002150008722 142.1010724 -32.44171439
0.0002150008722 178.4070064 -42.30892139
-3.999784999 0.7025443868 -64.61313839
-3.999784999 61.72891739 29.90924261
0.0002150008722 47.59073039 41.12964261
-57.390339 -2.461323038e-05 -58.40957739
0.0002150008722 3.101813387 4.460581614
0.0002150008722 16.71685039 63.01367461
-3.999784999 62.30401339 -35.72838139
-3.999784999 40.26038639 51.45647461
0.0002150008722 216.1546501 23.73153761
0.0002150008722 167.8448354 -0.2256773861
0.0002150008722 119.9678544 30.38301961
0.0002150008722 226.1381465 45.73787861
-105.848033 -2.461323038e-05 67.67933761
0.0002150008722 99.03015739 14.43920261
-119.919703 -2.461323038e-05 55.44379461
0.0002150008722 107.4353464 -73.89027139
0.0002150008722 191.7005964 -69.59279539
0.0002150008722 111.7114634 -25.13807439
0.02644000087 138.4513954 -72.24862739
0.0002150008722 166.8223384 -33.99727039
-3.999784999 89.89366439 -27.17031239
-123.478343 -2.461323038e-05 -37.38491039
-27.074293 -2.461323038e-05 -10.07800739
-3.999784999 86.82851339 31.46221461
-3.999784999 65.68649939 13.89860861
-156.525051 -2.461323038e-05 -21.60724539
0.0002150008722 112.8187874 24.14238261
0.0002150008722 221.4285019 32.02404661
-239.705259 -2.461323038e-05 -69.36966339
-160.64389 -2.461323038e-05 -43.47549339
-22.893327 -2.461323038e-05 -49.77493039
0.0002150008722 105.0162194 -37.82851739
0.0002150008722 24.54250039 -20.63980139
-141.634189 -2.461323038e-05 -15.79346139
-3.999784999 98.67772239 6.375491614
-3.999784999 86.79487439 47.91959461
-87.89444 -2.461323038e-05 52.98210961
0.0002150008722 237.8659164 49.40953861
0.0002150008722 39.96515639 -48.19911939
0.0002150008722 66.26117539 30.06672861
0.0002150008722 51.32289839 -18.21012539
0.0002150008722 187.0163204 -15.07788639
1.319981001 -2.461323038e-05 70.28469961
-3.999784999 61.63149039 -26.81852639
0.0002150008722 34.10059639 7.216456614
-17.836968 -2.461323038e-05 -66.45842139
-82.714514 -2.461323038e-05 -18.62001439
0.2597780009 225.8071968 -73.97698339
0.0002150008722 150.2665564 26.13294061
-3.999784999 9.446967387 -60.93567939
-24.454696 -2.461323038e-05 42.33233261
-3.999784999 37.21200939 -35.49513539
0.0002150008722 211.3569254 13.16481661
-0.4997849991 -0.2318806132 -47.65936939
0.0002150008722 153.3782604 -23.53670439
-27.37112 -2.461323038e-05 -24.47027039
-3.999784999 171.1171604 -5.730196386
0.0002150008722 58.96537139 -1.591117386
0.0002150008722 202.0891464 22.44161061
0.0002150008722 16.99864439 -55.45169439
0.0002150008722 77.35905239 -52.34125639
-211.359563 -2.461323038e-05 21.21526461
-152.71225 -2.461323038e-05 72.17586461
-223.900249 -2.461323038e-05 -48.92285139
0.0002150008722 215.7210303 63.57097061
0.0002150008722 1.297178387 59.54748961
0.0002150008722 134.8558464 55.92382361
-103.889872 -2.461323038e-05 -1.939361386
-3.999784999 102.1645514 47.69696961
-3.999784999 73.23671139 -49.56716939
0.0002150008722 163.6565984 37.07759561
0.0002150008722 105.4710534 16.22253061
-213.789837 -2.461323038e-05 28.66186461
-97.379856 -2.461323038e-05 45.98144561
-141.01756 -2.461323038e-05 11.76599361
-143.887766 -2.461323038e-05 -56.25737639
0.0002150008722 121.9536524 39.43868961
0.0002150008722 120.0168834 -29.30654239
-3.999784999 76.23476939 -41.48366439
-111.030067 -2.461323038e-05 -21.06802539
-3.999784999 98.64750039 -25.95233039
-3.999784999 26.59222639 66.57218161
0.0002150008722 78.90471439 -10.17017439
0.0002150008722 75.63955339 24.57740261
-3.999784999 25.59585939 -69.56637339
0.0002150008722 160.7221374 -6.626709386
-53.711328 -2.461323038e-05 22.57167861
0.0002150008722 93.31962739 -22.92309539
-58.553995 -2.461323038e-05 -48.56994439
-3.999784999 114.5143674 -38.08187539
0.0002150008722 64.08234639 -18.44813739
0.0002150008722 179.0946344 -48.69638539
0.0002150008722 20.93046439 7.112829614
-3.999784999 92.74488839 34.89425761
-3.999784999 54.98280939 -43.80083339
0.0002150008722 157.5618074 -44.23261239
-151.328917 -2.461323038e-05 -30.16728939
0.0002150008722 65.31573339 -55.35663239
-117.016571 -2.461323038e-05 10.27258861
0.0002150008722 108.9538044 -54.88432239
-3.999784999 67.98104239 63.75925361
-152.794033 -2.461323038e-05 41.47813361
-3.999784999 144.0042014 -28.40680439
-213.229574 -2.461323038e-05 -65.76995239
0.0002150008722 116.6930084 -57.93425039
-3.999784999 27.88856339 -39.15998039
0.0002150008722 65.34901039 54.21660961
-133.383471 -2.461323038e-05 -41.98136039
-3.999784999 48.26208539 -71.24507039
-3.999784999 39.67812939 0.2700846139
0.0002150008722 149.6941424 -51.89678939
0.0002150008722 45.35990239 -60.14067039
0.0002150008722 130.6900534 -16.52973739
0.0002150008722 100.1219574 -48.54583839
0.0002150008722 123.8543664 22.66989861
0.0002150008722 146.7511984 12.78289061
0.0002150008722 94.94649539 -41.50551439
-3.290847999 4.970721387 -49.58549739
-3.999784999 51.14144639 16.47592161
-3.999784999 105.0910604 -52.54855639
-226.110954 -2.461323038e-05 15.70902261
-2.953619999 107.4397794 -14.81098139
-242.310299 -2.461323038e-05 -5.625900386
0.0002150008722 192.4728204 -26.33125839
-172.780174 -2.461323038e-05 16.31317061
0.3614430009 142.4545334 74.25234061
-3.999784999 151.7523514 43.93118261
0.0002150008722 22.30787039 58.72723961
0.0002150008722 99.54946839 -34.37722239
0.0002150008722 49.07680239 -43.96170039
-3.999784999 57.39112839 -12.12567139
-3.999784999 92.61052039 15.46882261
0.0002150008722 235.2456912 61.51551861
-181.2474 -2.461323038e-05 -8.679411386
-37.280923 -2.461323038e-05 14.26464661
0.0002150008722 97.57708739 60.73431461
-3.680627999 17.07276439 43.64795861
-239.645957 -2.461323038e-05 52.07823261
0.0002150008722 103.9464764 30.89834761
0.0002150008722 175.9250254 -10.91033039
-3.999784999 74.09001739 19.30576461
0.0002150008722 182.8099264 61.63807261
-3.999784999 57.04553239 48.74834861
0.0002150008722 96.44246439 -68.81157939
-2.536502999 0.4999753868 -58.21626039
-93.604872 -2.461323038e-05 9.503149614
-208.632296 -2.461323038e-05 65.00789561
-167.948524 -2.461323038e-05 -49.63538539
-109.23874 -2.461323038e-05 -60.34210939
-205.780599 -2.461323038e-05 28.87927461
-3.999784999 66.19823239 34.81296461
-203.851343 -2.461323038e-05 74.07288761
0.0002150008722 71.78920139 60.30527161
0.0002150008722 192.6250474 11.57843961
-3.999784999 47.24142039 -33.37102139
-3.999784999 30.82302139 -58.18137139
0.0002150008722 53.75250639 -60.83846139
-3.999784999 65.64524839 5.659587614
-3.999784999 45.53614739 -53.21200139
0.0002150008722 227.9234712 -21.87052139
-3.999784999 60.56424539 -51.05407139
-60.114448 -2.461323038e-05 -16.99137739
-3.999784999 107.0178824 -25.81423539
-119.8305 -2.461323038e-05 -57.03235239
-3.999784999 10.36474339 -71.20957839
0.0002150008722 130.7298254 46.44421861
-163.1597 -2.461323038e-05 12.48652661
-43.612178 -2.461323038e-05 -39.35032539
-29.923983 -2.461323038e-05 -50.29392639
-3.999784999 35.01598839 -20.28248439
0.0002150008722 148.6916624 -4.109923386
-3.999784999 76.80563239 -1.752162386
0.0002150008722 9.314764387 53.09945761
-222.821041 -2.461323038e-05 69.32476361
-3.999784999 31.85113739 -70.82845439
0.0002150008722 67.98558139 -69.51243539
-42.358081 -2.461323038e-05 -58.59398439
0.0002150008722 189.2425804 -60.87402539
-92.43167 -2.461323038e-05 -60.63445339
-238.158324 -2.461323038e-05 -37.82614039
-93.42032 -2.461323038e-05 -34.70943539
-199.289899 -2.461323038e-05 66.67908161
-184.684167 -2.461323038e-05 -24.41911839
-3.999784999 144.6449214 -46.77304739
0.0002150008722 27.16234039 42.94553961
0.0002150008722 155.5270644 28.11656261
-145.620439 -2.461323038e-05 65.60183861
0.0002150008722 70.27645539 -22.21598839
0.0002150008722 21.47929439 31.16726461
0.0002150008722 17.27397839 -22.11472639
-182.26766 -2.461323038e-05 25.57187761
-0.5703369991 150.9182694 48.25900061
-3.999784999 26.97909539 -52.08991939
-3.999784999 56.55242139 39.74912561
-221.776689 -2.461323038e-05 -56.11508539
0.0002150008722 246.4232791 -54.84719839
-3.999784999 37.14989039 69.27448961
0.0002150008722 64.97464539 66.41063361
-140.044136 -2.461323038e-05 57.20632761
0.0002150008722 103.4124984 -5.210066386
0.0002150008722 106.1141414 49.10641761
-13.230598 -2.461323038e-05 14.35822361
-3.999784999 84.96374339 22.23659461
-69.805151 -2.461323038e-05 -48.31835539
-243.090453 -2.461323038e-05 -46.85453639
-3.999784999 31.61558139 -30.25319239
0.0002150008722 153.1909504 -11.27623239
-3.999784999 46.58728639 -4.950152386
-131.96981 -2.461323038e-05 -22.13718939
0.0002150008722 126.2782794 35.38814361
0.0002150008722 179.8190684 -17.75184039
-3.999784999 123.7843864 -37.83391039
0.0002150008722 38.12200639 74.11878961
-205.414062 -2.461323038e-05 -43.73142039
-3.999784999 54.31835939 -20.54509839
-112.726939 -2.461323038e-05 72.53415361
-3.999784999 148.8097904 -40.53870539
-3.999784999 12.35185039 -55.87795539
-75.558092 -2.461323038e-05 -23.87614939
-16.71863 -2.461323038e-05 42.82013761
0.0002150008722 239.4390823 -53.40369339
0.0002150008722 118.8224524 66.38094161
-3.999784999 30.00531939 16.50971861
0.0002150008722 161.2474254 -21.11722939
-3.999784999 54.61197739 2.543135614
0.0002150008722 54.05663539 22.61276161
0.0002150008722 69.21955739 22.17668261
0.0002150008722 100.6518484 -59.24319639
0.0002150008722 234.5182435 67.85765461
-158.137725 -2.461323038e-05 -15.89275139
0.0002150008722 137.8221384 70.15374061
-73.074939 -2.461323038e-05 -43.25251539
0.0002150008722 129.5102134 -38.53065939
-3.999784999 23.84841939 71.28312461
-136.308494 -2.461323038e-05 -2.955957386
0.0002150008722 114.6724324 42.11398861
0.0002150008722 214.7056806 -65.08848939
0.0002150008722 123.5796284 -61.73261839
-1.109376999 181.7270414 11.13521661
-3.999784999 45.70288639 -13.10408239
0.0002150008722 155.2424314 15.32263961
-3.999784999 138.0228844 36.33838061
-3.999784999 63.18791339 -9.125490386
-166.261954 -2.461323038e-05 -5.318211386
-192.01321 -2.461323038e-05 -50.65859139
-3.999784999 40.32327539 -61.21442539
-249.802939 -2.461323038e-05 37.38999461
0.0002150008722 79.56363639 -43.80728239
0.0002150008722 59.34480839 -63.60178739
0.0002150008722 173.5367054 14.23189161
-21.135031 -2.461323038e-05 -33.16197139
-3.049745999 124.1493194 -26.72532439
0.0002150008722 168.1645384 -60.74327539
-3.999784999 55.33525739 71.37633061
-3.999784999 87.06871439 -36.38621239
-3.999784999 136.4897404 -42.04110739
-3.999784999 93.95232239 -51.49399139
-3.999784999 31.48937339 49.51389961
-3.999784999 72.83107639 -30.80368339
0.0002150008722 92.75882039 20.43779161
0.0002150008722 60.61827639 -14.34274139
0.0002150008722 207.4804484 -18.42335539
0.0002150008722 49.03164639 -66.55091439
0.0002150008722 219.886788 -13.52863639
-3.999784999 15.46816439 73.21992961
0.0002150008722 98.81626139 -21.25821039
-76.592477 -2.461323038e-05 12.09271661
-3.999784999 104.2836824 -41.93867139
-3.999784999 18.88282739 -48.19638839
0.0002150008722 48.25260339 26.08300061
-186.306129 -2.461323038e-05 -74.03807139
-3.999784999 81.52189239 -57.00177039
-99.142365 -2.461323038e-05 16.80025561
-3.999784999 26.15075739 -62.02017639
0.0002150008722 162.0400954 8.312590614
0.0002150008722 48.92188339 -36.97307239
0.0002150008722 236.8170247 -11.38008739
-3.999784999 167.9992274 6.251021614
-3.999784999 5.817114387 62.10000661
0.0002150008722 223.793974 -37.80571439
-3.999784999 64.59606639 50.40588461
-3.999784999 97.45084439 -31.60222439
-230.010942 -2.461323038e-05 -48.56090539
0.0002150008722 29.49090639 37.55794361
-3.772954999 -2.461323038e-05 68.45834361
-17.258686 -2.461323038e-05 -16.87426539
0.0002150008722 80.68747639 37.77087461
-3.210615999 -2.461323038e-05 -35.93662739
-3.999784999 82.59206139 -41.34229939
-3.999784999 155.4698534 -33.95418739
0.0002150008722 63.66899639 44.19524761
-3.999784999 65.81567539 19.16986661
0.0002150008722 129.6280054 40.28074861
-32.798561 -2.461323038e-05 68.00499961
-3.999784999 83.50301739 -10.70119239
-3.999784999 81.35308739 18.14069561
-221.368497 -2.461323038e-05 20.84014361
-3.999784999 116.2028874 27.87821761
0.0002150008722 97.05812039 -11.55469239
-3.573195999 178.5124784 21.01272761
-3.999784999 65.92645039 -51.94674239
-3.999784999 30.70216439 -23.72908239
-3.999784999 133.2440044 -56.77194139
-3.999784999 101.8626514 40.55707461
-15.600318 -2.461323038e-05 -58.56374039
-83.561365 -2.461323038e-05 -7.867148386
0.0002150008722 161.8600494 28.92308961
0.0002150008722 81.20519639 -67.03064739
-69.931653 -2.461323038e-05 19.72079061
0.0002150008722 133.8836724 -65.73774539
0.0002150008722 171.4911774 3.509107614
-3.999784999 10.61483339 56.18072061
-3.999784999 127.4710814 -53.08927939
0.0002150008722 47.80440939 33.01567761
-159.837609 -2.461323038e-05 66.56097561
0.0002150008722 133.6643964 -32.90960039
0.0002150008722 136.0937084 -53.08420739
-3.999784999 40.26362039 -19.39037239
-3.999784999 54.21729639 32.94865361
-3.999784999 96.22406439 -1.031693386
0.0002150008722 211.4792604 40.75683361
0.0002150008722 4.439998387 -62.67349539
-3.999784999 64.70368239 -65.10864239
-3.999784999 113.7487824 -64.66955439
-59.103021 -2.461323038e-05 3.513484614
-3.999784999 93.16822939 -68.57809439
-3.999784999 54.55083739 -51.73378839
-3.999784999 84.82570139 -69.42249039
-3.999784999 120.4770494 50.29584161
-3.999784999 31.34510939 68.93421061
-3.999784999 72.55263539 -13.83172839
0.0002150008722 32.38496639 29.88515861
0.0002150008722 82.73730039 -61.17258439
0.0002150008722 109.3398434 -65.69712739
0.0002150008722 81.76538839 21.65681661
-20.935013 -2.461323038e-05 38.57069361
-164.212687 -2.461323038e-05 47.35841461
0.0002150008722 49.95607739 12.89330361
-1.393521999 25.49997539 14.04040161
0.0002150008722 156.9095174 43.29261661
-3.743259999 157.3753814 -5.512048386
0.0002150008722 173.0714064 -68.08889039
-3.999784999 10.67144139 70.86617461
-112.727961 -2.461323038e-05 20.04844361
0.0002150008722 180.6225044 -0.8697793861
-3.999784999 50.78827439 41.34289061
-103.400392 -2.461323038e-05 58.21550061
-11.414573 -2.461323038e-05 66.08507261
0.0002150008722 243.8530818 -17.81473739
-231.782777 -2.461323038e-05 -71.09515839
0.0002150008722 141.5618354 43.53407561
0.0002150008722 91.07166439 -74.43793839
-120.570992 -2.461323038e-05 -41.93886439
0.0002150008722 37.89396639 -52.86965739
-0.5929629991 91.50239739 62.85482861
0.0002150008722 140.4567504 -43.73847739
0.0002150008722 42.83047339 46.00275261
0.0002150008722 59.37374239 -34.51400339
0.0002150008722 71.89931439 -5.999035386
-144.144421 -2.461323038e-05 -42.31054139
-3.999784999 88.82567739 59.25310161
0.0002150008722 22.32770439 -40.07550539
-3.999784999 83.67534339 67.67431461
-63.801121 -2.461323038e-05 29.03538761
0.0002150008722 167.7054934 -22.08534439
0.0002150008722 21.68916939 48.14342261
0.0002150008722 98.37365039 -6.201590386
-3.999784999 173.5386604 -17.65030239
-3.999784999 63.80118839 -58.12182239
-3.999784999 133.0406514 41.79236861
0.0002150008722 246.2692931 -13.23894839
0.0002150008722 187.0242044 -49.69708739
-3.999784999 74.11090939 -19.01962739
-3.999784999 35.34885239 -55.88615939
-204.136865 -2.461323038e-05 45.71326861
-3.834780999 99.86595739 58.30581161
-3.999784999 46.06013839 53.56230761
-3.999784999 162.4220804 -35.72539839
0.0002150008722 176.4683524 51.99275761
-3.999784999 153.9170144 -40.26498839
-3.999784999 42.02420239 63.97269761
-3.999784999 36.82498539 12.17425561
-0.6726719991 13.28065339 -46.45418139
0.0002150008722 44.70090339 -22.09573839
-3.999784999 47.84906739 69.40728361
-3.999784999 82.89129639 -24.80830139
0.0002150008722 67.14853739 38.27998061
-3.999784999 94.94776939 46.23652661
-3.999784999 165.0602534 -25.96178839
0.0002150008722 82.77840239 14.13513161
-3.999784999 42.08859039 15.01016061
0.0002150008722 43.36225939 -44.46847639
0.0002150008722 205.3023724 -70.42833739
0.0002150008722 44.91468539 66.05030061
0.0002150008722 15.68114039 12.92412961
0.0002150008722 28.54633839 -14.45314239
0.0002150008722 34.88715239 -17.22514439
-72.182724 -2.461323038e-05 33.02583561
0.0002150008722 67.23678539 10.48796761
-0.03696699913 141.1557554 -54.22749139
-3.999784999 28.55439239 28.12719261
0.0002150008722 42.45397839 39.24871861
-3.999784999 76.48126939 -57.70303539
0.0002150008722 123.1502454 -43.30523739
-3.999784999 76.15820739 3.227889614
-3.001634999 -2.461323038e-05 1.897194614
-3.999784999 101.4974824 29.10835461
-3.999784999 15.21094739 54.16306761
-0.8751899991 -2.461323038e-05 -26.79609439
0.0002150008722 29.22807739 9.792059614
0.0002150008722 48.90813439 19.41943961
-3.999784999 112.5582714 21.14994461
-3.535670999 -2.461323038e-05 15.58859561
-38.466037 -2.461323038e-05 72.65372461
0.0002150008722 75.39421339 68.21424461
-242.989473 -2.461323038e-05 71.25512561
0.0002150008722 161.0362154 -0.08211938613
-3.999784999 41.44496739 -4.944397386
0.0002150008722 147.3254114 -45.50142339
-3.999784999 92.11800339 51.12323461
-3.999784999 101.1088864 12.32711461
0.0002150008722 80.04542239 -16.98591939
-3.999784999 142.9277024 40.90798361
-3.999784999 140.2554284 31.05437161
-3.999784999 170.6039954 13.93183961
-3.999784999 102.2957024 -36.70258839
-3.999784999 102.1798544 23.28718961
-3.999784999 58.84738339 34.73613861
-3.999784999 79.10324739 57.71726961
-67.882866 -2.461323038e-05 -67.24233639
-3.999784999 155.3133134 -13.32649839
-3.999784999 78.84288539 29.55724961
-49.497379 -2.461323038e-05 -24.08377739
-3.999784999 80.38011139 -6.487315386
0.0002150008722 165.6187564 -17.59661939
-11.46442 -2.461323038e-05 35.47607961
0.0002150008722 40.11504139 -30.50208739
0.0002150008722 96.91872839 50.50440661
0.0002150008722 170.1326444 29.01224661
0.0002150008722 36.49830939 41.51615461
-3.999784999 165.3235674 2.093868614
0.0002150008722 69.53751939 -62.45395539
0.0002150008722 57.77013339 29.67593261
-143.960026 -2.461323038e-05 -6.333696386
-3.999784999 160.1844074 -43.02094639
-3.999784999 125.9127524 29.84579661
-3.999784999 70.83849639 -54.77536039
0.0002150008722 65.72913139 -36.99319239
-3.999784999 46.38453939 10.49347661
-3.999784999 102.2110434 -13.73040439
0.0002150008722 91.49745939 -54.43015939
-192.514854 -2.461323038e-05 -62.41260639
-3.999784999 114.0011654 -29.35543639
-3.999784999 94.52759839 -12.98965739
0.0002150008722 205.2596454 28.01661761
-3.999784999 149.9735974 -49.04784039
-210.210382 -2.461323038e-05 -40.63411839
-3.999784999 51.69738739 48.46302961
-14.391074 -2.461323038e-05 -40.60321739
-126.909004 -2.461323038e-05 3.025825614
0.0002150008722 51.59989239 -48.54976039
0.0002150008722 86.71416939 61.72571961
0.0002150008722 72.88627839 50.77793261
-2.785804999 25.49997539 21.76974061
0.0002150008722 50.10514639 51.83182561
0.0002150008722 12.41389439 47.17988061
-3.999784999 150.5148524 -21.09508839
-3.999784999 160.0531274 -18.53914639
0.0002150008722 77.56895039 48.37983661
0.0002150008722 37.51213239 -7.550914386
0.0002150008722 107.2086554 -2.112255386
-168.554687 -2.461323038e-05 39.19667461
-3.999784999 156.2347324 34.75684061
-100.985979 -2.461323038e-05 -24.55697139
0.0002150008722 54.82940539 -10.86035039
-5.198479999 -2.461323038e-05 -6.065161386
-3.999784999 71.73649639 -60.27572239
-3.999784999 119.8551394 -43.62622239
0.0002150008722 36.75264739 -41.36366839
-3.999784999 161.2245954 34.99839261
-3.999784999 169.9159564 31.79239061
0.0002150008722 239.2537035 -65.70979639
-3.999784999 50.45324339 -59.06845139
-58.499604 -2.461323038e-05 61.82402861
0.0002150008722 136.2148914 -27.77542339
-3.999784999 26.22840439 -47.27826039
0.0002150008722 44.95610839 -72.27563139
0.0002150008722 47.10287639 -15.49873039
0.0002150008722 83.20993939 -20.68065139
-3.999784999 39.51845139 -10.71126139
0.0002150008722 33.27484939 -4.045877386
-3.999784999 54.12671939 26.13231661
-42.199292 -2.461323038e-05 40.76208161
0.0002150008722 125.5295054 -68.90997739
-3.999784999 160.1649284 -9.476523386
0.0002150008722 229.8641426 35.98224761
-3.999784999 131.1587604 29.75772861
-3.999784999 145.1126214 45.74060861
0.0002150008722 89.47617739 -30.79586539
0.0002150008722 60.54408339 -56.20560839
-3.999784999 27.46962239 59.22476761
0.0002150008722 60.59214539 39.24216561
-3.999784999 106.4290104 -64.99966639
0.0002150008722 182.1544944 -7.333221386
-3.999784999 164.9153634 31.27068961
-3.999784999 22.84115939 54.56386761
-116.768315 -2.461323038e-05 59.11279661
-78.589291 -2.461323038e-05 41.09838761
-3.999784999 4.746042387 67.56736161
-3.999784999 42.47480539 27.32129361
0.0002150008722 170.2533724 59.81841061
-3.999784999 66.31676139 44.78161061
-3.999784999 58.10328039 -32.00162739
-39.8368 -2.461323038e-05 -47.73291139
-3.999784999 172.3875544 24.09042561
-24.516583 -2.461323038e-05 -1.786410386
0.0002150008722 185.0282264 1.360987614
-3.999784999 96.63123039 41.71960361
-3.999784999 96.65650539 29.26182261
0.0002150008722 33.50501139 -22.50552539
-3.999784999 58.88708039 43.96361961
-3.999784999 72.34712639 32.67436161
0.0002150008722 34.23077939 12.85018561
-3.999784999 92.26402639 -5.281713386
-2.600731999 119.7139634 -69.68337039
-3.999784999 83.30504539 38.29805461
0.0002150008722 224.420438 -1.889308386
0.0002150008722 87.16572139 -50.92195539
-3.999784999 39.10809539 7.944309614
-3.999784999 50.48288839 -41.69954739
0.0002150008722 34.23920539 -69.65212539
0.0002150008722 101.7561134 -42.76027839
0.0002150008722 77.14540639 42.06268561
0.0002150008722 84.27786039 -2.176493386
0.0002150008722 220.2183654 -29.13326039
-65.351661 -2.461323038e-05 -8.000106386
0.0002150008722 68.49163539 -74.28156939
-3.999784999 25.53211639 -1.032749386
0.0002150008722 83.06625539 -36.60405939
-155.253054 -2.461323038e-05 -44.75071439
-3.949249999 154.9042194 -46.43331739
-3.999784999 127.0139524 50.67864761
-3.999784999 109.7947034 39.29529661
0.0002150008722 64.51247539 -24.82638039
0.0002150008722 60.69075339 -41.43804339
0.0002150008722 133.3083904 27.94481261
0.0002150008722 25.95177339 -4.360508386
-3.999784999 108.9934314 -42.76914039
0.0002150008722 77.77124339 0.6835996139
0.0002150008722 39.84070539 -72.16508939
0.0002150008722 139.2104894 34.01568861
0.0002150008722 81.83909139 54.00591061
-121.263686 -2.461323038e-05 35.46514861
-3.999784999 28.41040639 53.16199161
-7.401106999 -2.461323038e-05 54.80690761
-3.999784999 17.22518139 -66.84881839
0.0002150008722 49.42426639 -3.625500386
0.0002150008722 59.68321739 63.97069261
0.0002150008722 151.3820204 -40.87527739
-2.827140999 181.1258944 -13.70319039
-3.999784999 69.98094239 53.54021361
0.0002150008722 53.97026039 0.03398061387
-3.999784999 148.5781304 -27.08249239
-3.999784999 61.29818939 -22.06996139
0.0002150008722 207.1251344 51.59952061
-3.999784999 151.3741534 23.31947261
0.0002150008722 245.1552438 38.71168661
0.0002150008722 174.9767364 -21.02638439
0.0002150008722 104.8391734 25.94123961
0.0002150008722 157.4797074 -26.98346439
-3.999784999 113.0777254 -59.40925139
-3.999784999 93.78149439 59.99545361
-193.190627 -2.461323038e-05 43.84176361
-3.999784999 101.0046064 -6.077401386
0.0002150008722 204.8680164 -65.70038239
-3.999784999 157.7634014 -23.84346139
0.0002150008722 44.83648339 -30.95509639
-3.999784999 137.1461474 -50.76545639
0.0002150008722 162.9598374 64.47461661
-3.999784999 41.48548639 -39.58697239
0.0002150008722 40.73641839 2.573360614
-3.999784999 175.6084124 -4.229082386
-3.999784999 109.3108464 -30.00583939
-3.999784999 14.31010639 62.22374661
-3.999784999 89.30531739 -11.34265739
-3.999784999 171.3170074 -12.50868439
-3.999784999 66.26715639 24.72430761
0.0002150008722 105.4653674 -49.13210139
-157.745067 -2.461323038e-05 -30.42060639
0.0002150008722 54.82650939 73.83463661
-3.878079999 174.4510454 28.55702661
-3.999784999 79.31821339 -69.90664739
0.0002150008722 162.0270514 -28.56607639
0.0002150008722 226.7672701 67.60766161
-3.999784999 143.3977754 -51.32286439
-3.999784999 88.48633839 -16.38118439
-3.999784999 20.37240239 50.26608961
-3.999784999 125.8280124 -33.38953539
0.0002150008722 18.47623139 -63.19070439
-3.999784999 40.12087839 -25.14934239
0.0002150008722 78.15434539 -30.63490639
-216.528947 -2.461323038e-05 55.19217761
-3.999784999 87.74986539 8.334341614
-3.999784999 39.03338839 32.52636161
0.0002150008722 52.85678639 64.04322961
0.0002150008722 43.10154039 -53.64551139
0.0002150008722 144.7363734 -37.02808339
-53.363303 -2.461323038e-05 48.65972861
0.0002150008722 58.58611839 -69.68578639
0.0002150008722 138.1236684 7.649140614
-3.999784999 91.26477439 29.91866761
0.0002150008722 102.8254814 -0.09348438613
0.0002150008722 48.53578239 1.763801614
0.0002150008722 39.05512639 49.32212361
-3.999784999 102.6691624 -69.25471339
-3.999784999 127.5357984 -62.16904739
-3.999784999 18.31092839 -42.78962239
0.0002150008722 146.1006314 -18.20772839
-8.714355999 -2.461323038e-05 2.738645614
-115.638916 -2.461323038e-05 36.78734561
-3.999784999 119.0432464 -50.34398139
-3.999784999 167.6693804 -16.31392539
0.0002150008722 31.82807839 -55.39913639
0.0002150008722 100.7566894 36.89244061
0.0002150008722 134.6353924 4.083674614
0.0002150008722 75.75817539 12.16962761
0.0002150008722 117.1951134 -34.75801639
0.0002150008722 121.7562884 -33.64221639
-70.843735 -2.461323038e-05 48.09484261
0.0002150008722 59.02544239 3.748386614
-3.999784999 32.44779639 -62.55273639
-3.999784999 112.6050824 54.07741361
0.0002150008722 109.0476744 44.99385361
0.0002150008722 202.8524054 4.130394614
0.0002150008722 74.81819039 -72.13561139
-3.999784999 177.4861384 4.912810614
-3.999784999 98.02647639 -70.59767339
-3.999784999 127.5530434 37.40535261
0.0002150008722 75.24140539 -26.55529939
-3.999784999 0.5077633868 -50.69949339
-3.999784999 66.38857739 -71.27281239
0.0002150008722 218.5080338 17.12929161
0.0002150008722 73.14664739 55.67431661
-238.804929 -2.461323038e-05 56.65118761
0.0002150008722 101.4982484 51.62050561
-3.999784999 79.27448439 66.18980461
-3.999784999 39.98079239 58.47108761
-0.6130069991 128.7431944 -27.40610339
-3.999784999 93.22693139 -33.52218939
0.0002150008722 35.10483539 26.12681361
0.0002150008722 51.03092339 36.93845561
0.0002150008722 41.71137339 22.99496161
-3.999784999 89.53219139 -22.54694139
0.0002150008722 232.23984 12.24738961
0.0002150008722 153.0445834 35.91616261
0.0002150008722 22.98931939 69.10233661
-248.863425 -2.461323038e-05 52.98221661
-3.999784999 100.6733074 -19.83857439
-210.356864 -2.461323038e-05 -16.12481339
-3.999784999 58.43246439 -46.89155139
0.0002150008722 33.15579539 -46.19817039
-3.999784999 58.38731139 -16.64511539
-218.912197 -2.461323038e-05 66.19389361
0.0002150008722 66.91353739 -42.22413139
-3.999784999 45.27611739 -64.00484339
0.0002150008722 31.69948439 -35.46403039
0.0002150008722 116.4877904 -53.32434439
-62.365335 -2.461323038e-05 51.69466061
0.0002150008722 14.50156739 51.97595361
-3.999784999 120.0862524 -64.64527139
-3.999784999 137.9018454 43.70983961
0.0002150008722 17.36909039 -50.86022039
-3.999784999 30.62184039 43.14412161
-3.999784999 67.67804239 -10.14694739
-3.999784999 49.84064739 60.18575061
-3.999784999 160.3649224 12.73564261
-60.047501 -2.461323038e-05 -40.05684839
-3.999784999 85.94177839 17.39941361
-3.999784999 78.30299439 -12.35390739
-3.999784999 37.20034639 -30.29101839
-3.999784999 21.38628139 -62.47545639
0.0002150008722 214.9253684 -71.31411339
-178.61792 -2.461323038e-05 31.97600561
0.0002150008722 84.32720439 -15.33396139
-3.999784999 161.4654974 17.76211061
-3.999784999 132.7899974 -52.20707039
0.0002150008722 81.25209439 6.491388614
0.0002150008722 24.91361439 -29.52183239
1.262371001 229.2081337 -50.50009739
0.0002150008722 164.7119264 18.02803761
-3.999784999 40.61344439 45.80370161
0.0002150008722 179.2094784 18.17334561
-3.999784999 65.26765339 -0.8227993861
0.0002150008722 51.36071139 -70.48558839
-3.999784999 77.06382739 50.53320561
0.0002150008722 79.33959939 32.75460161
0.0002150008722 86.64995039 -65.99737639
0.0002150008722 56.86208039 42.78418261
-3.999784999 46.63556839 31.14524661
0.0002150008722 165.4500384 -4.113036386
-3.999784999 105.1624454 32.72318161
-3.999784999 40.43906839 -50.33841739
-3.999784999 87.46283439 -62.54872039
0.0002150008722 54.10798139 4.670815614
0.0002150008722 18.12323639 -10.09698839
0.0002150008722 106.1548684 -69.29787339
-3.999784999 36.59423939 -72.49082039
-1.072993999 117.2421464 23.98715461
-205.25442 -2.461323038e-05 -11.75420839
-39.349941 -2.461323038e-05 45.64731161
-48.559325 -2.461323038e-05 18.48298061
0.0002150008722 117.9393464 -62.30936339
-3.999784999 111.5899064 29.52489961
0.0002150008722 49.60251539 -28.48629839
-3.999784999 85.13325439 4.138486614
-3.999784999 59.56450339 -74.37220639
-229.778391 -2.461323038e-05 -43.56529239
-0.6078439991 131.2409834 -60.79352939
0.0002150008722 14.42584639 -70.97138139
0.0002150008722 96.06457739 -51.27786839
-3.999784999 80.80600339 -32.82432339
0.0002150008722 18.46066639 67.19118361
-82.05665 -2.461323038e-05 65.97995461
-3.999784999 38.74965139 18.28963561
-3.999784999 105.7985454 20.57137561
0.0002150008722 11.56819439 31.33103061
0.0002150008722 40.81267139 67.95626961
0.0002150008722 72.96731339 -11.76174939
-3.999784999 32.42841139 25.79342361
-58.18301 -2.461323038e-05 23.24356161
0.0002150008722 137.7218514 47.59475461
-152.120182 -2.461323038e-05 -23.94414839
-3.999784999 99.00730439 -60.55394839
-3.999784999 50.14101439 -12.25366339
-139.896855 -2.461323038e-05 -58.37263839
-153.769563 -2.461323038e-05 -33.96605739
0.0002150008722 59.33888939 20.51616261
-3.999784999 78.67863539 -61.76521739
0.0002150008722 42.79464839 18.59930861
-3.999784999 23.18421339 -54.52165939
-3.999784999 105.0949834 37.41839161
-1.384298999 0.4999753868 -69.70237539
-3.999784999 113.3691614 -23.90661739
-3.999784999 56.91611639 -66.28231939
-3.999784999 73.51384639 -68.65995439
0.0002150008722 43.83095339 -12.28093739
0.0002150008722 97.71832739 -62.89774839
0.0002150008722 102.5798484 21.28434961
-3.999784999 158.3506884 24.08115261
-3.999784999 70.49994939 -43.55649139
-3.999784999 111.6077464 48.44380661
-216.389779 -2.461323038e-05 -15.17178039
-3.999784999 34.63891539 -50.35286339
0.0002150008722 55.87607039 -73.85360339
-56.184584 -2.461323038e-05 -32.34678539
-3.999784999 50.01654039 -53.11110939
-3.999784999 103.8480234 -46.39596639
0.0002150008722 106.6082654 -20.48508739
0.0002150008722 32.28095039 17.57499761
0.0002150008722 63.65268439 5.781588614
-3.999784999 33.43476339 63.57552961
-3.999784999 45.15312339 -24.04858739
-12.274325 -2.461323038e-05 19.09643261
-3.999784999 84.76779039 -52.80259739
0.0002150008722 35.98420739 63.81304761
-3.999784999 50.57137639 73.46301361
-204.80382 -2.461323038e-05 -51.72704439
0.0002150008722 114.9066274 29.36967861
-81.002075 -2.461323038e-05 -39.18596639
0.0002150008722 80.75958239 -25.58987139
0.0002150008722 116.2739154 -25.56756039
-3.999784999 162.5814314 27.09473361
0.0002150008722 132.6756224 50.60953861
-3.999784999 58.03828139 17.51292161
-71.004959 -2.461323038e-05 28.44514261
-223.045625 -2.461323038e-05 -21.76050639
-3.999784999 77.19791039 -23.61288239
0.0002150008722 56.74924339 -44.60715439
-138.999715 -2.461323038e-05 36.79667261
-3.999784999 159.8277104 30.77937961
0.0002150008722 114.6253554 -48.69837639
0.0002150008722 17.25757839 48.42040361
0.0002150008722 241.3629531 -25.77154439
0.0002150008722 98.89293639 -16.13744239
0.0002150008722 121.2402124 -16.27554139
-208.141874 -2.461323038e-05 -21.15674139
-232.547685 -2.461323038e-05 22.05811261
-89.737987 -2.461323038e-05 -23.55501839
-3.999784999 173.0079554 17.71616361
-140.270801 -2.461323038e-05 23.37578661
0.0002150008722 79.44355539 -57.12308339
0.0002150008722 27.03878539 64.75402961
-3.999784999 30.04356239 35.77369061
0.0002150008722 143.2894444 32.33097461
-246.173236 -2.461323038e-05 3.415784614
0.0002150008722 84.02928339 58.22797761
-3.999784999 25.81186939 -21.98973839
-3.999784999 159.7772564 1.274238614
-3.999784999 44.49783139 -58.50821639
-123.243399 -2.461323038e-05 65.36481061
-3.999784999 35.93999239 52.28433361
-3.999784999 135.4966364 -36.33559739
-246.701117 -2.461323038e-05 -33.62312239
-3.999784999 69.66398839 7.996849614
0.0002150008722 92.97502939 5.940364614
0.0002150008722 113.3176094 -43.78904639
-3.999784999 121.3932664 -30.48638639
-3.999784999 56.62241339 -27.86737939
0.0002150008722 136.8929714 -48.25439739
0.0002150008722 171.5231044 -7.479823386
-3.999784999 68.46011139 -30.47014539
0.0002150008722 99.89446739 -30.00970339
-3.999784999 94.30484539 -25.37786939
-3.999784999 167.6724874 -2.001751386
0.0002150008722 138.0913804 -34.20218639
-12.900948 -2.461323038e-05 -65.06836839
-29.922503 -2.461323038e-05 56.39725361
-3.999784999 74.34368439 56.97904161
-6.472862999 -2.461323038e-05 33.56294861
0.0002150008722 108.9264624 55.87480661
0.0002150008722 41.75095939 -25.81895539
-3.999784999 109.1995184 -51.06044139
-3.999784999 94.05076939 9.462088614
0.0002150008722 54.16048539 9.562910614
0.0002150008722 223.4258562 36.80973461
-68.772428 -2.461323038e-05 -42.53951239
-3.999784999 59.88904239 11.30615861
-3.999784999 132.2706464 37.08017661
-3.999784999 151.5659684 -35.88286339
0.0002150008722 83.71319139 30.41995361
0.0002150008722 85.33369239 41.86296461
0.0002150008722 111.7719354 -69.30372839
-151.922617 -2.461323038e-05 51.48641661
-210.689241 -2.461323038e-05 -11.66407739
-3.999784999 82.93635139 61.40037861
0.0002150008722 24.54863839 -47.56260439
-1.572923999 22.53825539 36.66880561
0.0002150008722 183.2933004 50.63437561
0.0002150008722 217.8848106 -59.66121539
-3.999784999 94.75431439 -43.16520339
-3.999784999 84.45442239 51.56738261
-3.999784999 54.70586739 -39.05358939
-232.88219 -2.461323038e-05 63.11424861
0.0002150008722 29.58317339 52.02538561
-3.233816999 0.4999753868 63.13993161
-3.999784999 107.3414874 -58.99710539
-3.999784999 139.8286944 51.34798261
-161.074321 -2.461323038e-05 -69.38220839
-3.999784999 70.56308439 39.00930161
-3.999784999 60.78539039 68.87951261
-3.999784999 121.4948884 40.97891461
-3.999784999 33.34783539 2.835891614
-3.999784999 33.33463039 -2.216763386
-3.999784999 85.74946639 27.29402461
-3.999784999 130.4339564 -29.45712839
-2.613293999 139.6928924 -25.82011939
-132.303062 -2.461323038e-05 -37.81593339
-3.999784999 51.24577539 -68.14717639
-3.999784999 93.15447239 -63.52634139
0.0002150008722 149.7932334 39.98619061
-3.999784999 52.76423439 20.44822061
-20.793905 -2.461323038e-05 -53.59740639
-3.999784999 171.2765234 -27.50742439
0.0002150008722 70.48529239 47.23057361
0.0002150008722 96.22228039 44.51059961
-31.321348 -2.461323038e-05 -7.576618386
-141.279746 -2.461323038e-05 -9.655942386
-177.584081 -2.461323038e-05 15.45824361
0.0002150008722 64.70797839 -46.97991539
0.0002150008722 13.25255439 -29.67337239
-3.999784999 62.35715939 58.80486261
-3.999784999 58.60832839 52.70881361
-199.468368 -2.461323038e-05 52.06342561
0.0002150008722 123.9730844 28.97738761
0.0002150008722 214.9400079 -54.92667139
-40.360963 -2.461323038e-05 23.70165961
-3.999784999 68.29356639 -4.536693386
-220.22467 -2.461323038e-05 47.23227461
0.1395310009 114.3782224 -73.21679739
0.0002150008722 80.06996439 10.63842661
0.0002150008722 90.40087839 -41.39834039
0.3566840009 126.4273094 74.23559761
-2.937413999 106.1184324 12.64169261
-139.895791 -2.461323038e-05 -21.13268139
-81.877487 -2.461323038e-05 -70.45370439
-181.190444 -2.461323038e-05 35.56828061
0.0002150008722 4.599267387 14.32618761
0.0002150008722 18.86429839 27.86719961
0.0002150008722 96.28200439 56.73493861
-197.737282 -2.461323038e-05 -60.89535439
0.0002150008722 9.168130387 38.46278461
-184.770842 -2.461323038e-05 72.44580361
-201.798724 -2.461323038e-05 -69.13232239
-36.938239 -2.461323038e-05 -24.09365739
-3.999784999 8.550657387 -53.68134139
0.0002150008722 29.12862139 21.35077161
-176.547295 -2.461323038e-05 -54.12301339
-168.787736 -2.461323038e-05 6.224651614
-3.999784999 41.84701839 21.82139961
0.0002150008722 40.88352539 -15.89544639
0.0002150008722 39.55866639 -2.620705386
-17.587985 -2.461323038e-05 6.542968614
-103.792784 -2.461323038e-05 40.00493061
0.0002150008722 71.67431839 12.86602261
0.0002150008722 197.4187744 51.43642261
0.0002150008722 28.11953639 60.75563361
0.0002150008722 126.8740184 -45.11737839
-215.201727 -2.461323038e-05 50.58575861
-3.999784999 16.72094839 -54.43849339
-3.999784999 141.4692054 -33.24145539
0.0002150008722 143.8543824 62.06768961
-18.081013 -2.461323038e-05 66.19408661
0.0002150008722 22.52681439 -71.82446739
0.0002150008722 168.6386544 -30.30393739
0.0002150008722 118.9133514 -43.81192839
0.0002150008722 237.3680576 13.97385461
-3.999784999 83.03824539 44.57499661
-3.999784999 167.2319814 -33.18356039
-248.127855 -2.461323038e-05 -13.00105439
-3.999784999 24.68718539 -34.66812239
0.0002150008722 9.875406387 -64.41244039
0.0002150008722 24.39952339 9.276196614
0.0002150008722 155.4008844 -18.29383339
-3.685487999 8.526045387 48.63286961
0.0002150008722 219.5582123 25.98013561
-220.959206 -2.461323038e-05 -11.13311039
-3.999784999 30.49694439 -9.347315386
0.0002150008722 177.5428294 1.799326614
-98.438762 -2.461323038e-05 -67.04262739
-110.341587 -2.461323038e-05 -43.42187439
-3.999784999 131.2054684 -43.79590639
0.0002150008722 38.52030139 -62.79386739
0.0002150008722 12.41253639 -59.37712839
0.0002150008722 191.0311744 -64.51542939
