# .PCD v0.7 - Point Cloud Data file format
VERSION 0.7
FIELDS x y z
SIZE 4 4 4
TYPE F F F
COUNT 1 1 1
WIDTH 1190
HEIGHT 1
VIEWPOINT 0 0 0 1 0 0 0
POINTS 1190
DATA ascii
1.964131843e-05 8.998647387 -10.03310039
-157.4119424 53.64638439 148.7499026
1.964131843e-05 18.13077539 -124.3400044
-73.05972536 -2.014679613 148.7499026
1.964131843e-05 75.31566639 84.59243161
-64.33687136 -2.461336499e-05 28.03767961
-219.7763704 -2.461336499e-05 -52.51876939
-128.5570854 91.60100639 148.7499026
-100.7125964 -2.461336499e-05 40.49519661
-186.8408804 -2.461336499e-05 123.0677216
-179.5695554 12.10818639 -145.2500974
-89.44612336 -2.461336499e-05 -127.0152334
-70.46638036 -2.461336499e-05 -34.48093939
-73.60935636 91.18905139 148.7499026
1.964131843e-05 61.00923639 118.5635786
-108.0436814 32.41258439 -139.2500974
-17.42133736 2.746686387 148.7499026
-21.78539436 -2.461336499e-05 68.42142961
1.964131843e-05 6.812606387 80.48064461
-104.6008754 67.99997539 -141.2028184
-139.4359084 6.669714387 148.7499026
-45.94231236 -2.461336499e-05 37.59053361
1.964131843e-05 56.21125339 51.84081761
-206.6063894 67.99997539 -141.7927484
-156.5328744 -2.461336499e-05 -114.2916364
1.964131843e-05 96.57986739 123.3491106
-173.9536234 2.318848387 148.7499026
1.448451641 63.97428239 148.7499026
-192.2732294 -2.461336499e-05 -120.1053004
-240.9960254 -2.461336499e-05 101.1426826
-18.48933536 -2.461336499e-05 -34.75703139
1.964131843e-05 86.12022639 60.32540161
-88.40648236 5.994454387 148.7499026
1.964131843e-05 34.22878039 2.139088614
1.964131843e-05 103.1226844 94.40254161
-143.4218794 -2.461336499e-05 -27.46955639
-143.8290474 -2.461336499e-05 123.0819246
-5.358434359 -0.7092646134 -145.2500974
1.964131843e-05 40.49761739 41.02881961
-44.39404336 25.35191139 148.7499026
1.964131843e-05 56.28615039 77.59150061
-43.11044736 -2.461336499e-05 -35.54815939
-111.0904414 88.97436439 148.7499026
-250.2619184 -2.461336499e-05 134.7039656
-108.0220124 -2.461336499e-05 -25.30124339
-237.5263894 56.19013739 -139.2500974
-25.47929936 -2.461336499e-05 114.3750256
-190.5876154 -2.461336499e-05 -23.65240639
-164.5527864 17.11047239 -139.2500974
-125.8397604 -2.461336499e-05 89.28626161
-156.9531894 -2.461336499e-05 -130.9526114
-89.55649736 37.24982139 148.7499026
-182.3914544 -2.461336499e-05 29.29035061
-108.7370194 -2.461336499e-05 78.55977361
-233.6751454 15.52850339 -139.2500974
-116.7347464 0.4807783866 -139.2500974
-190.7095994 65.88891639 -145.2500974
-30.68203236 56.00902339 148.7499026
-248.9293864 -2.461336499e-05 -122.4453584
-173.7822394 -2.461336499e-05 -51.19458139
-84.96597736 131.4807754 152.6678136
1.964131843e-05 69.20850839 -4.527926386
-11.83694136 102.5942154 148.7499026
-233.8506774 -2.461336499e-05 27.48874161
-5.384343359 -2.461336499e-05 -93.59384939
-64.04873136 -2.461336499e-05 -121.1968814
-153.9160424 -2.461336499e-05 36.96652861
-208.7413104 -2.197814613 -139.2500974
-123.7650014 1.268606387 148.7499026
-78.22315136 -2.461336499e-05 15.09435661
-126.4832334 -2.461336499e-05 -8.654678386
-103.8465184 -2.461336499e-05 24.79589861
1.964131843e-05 19.80470539 35.59243161
-134.5774854 28.59317339 -139.2500974
1.964131843e-05 73.27208339 27.00754961
-101.9296824 119.0693924 153.3633416
-44.04693436 34.76752139 -139.2500974
1.964131843e-05 72.59151139 50.31422561
-26.57141936 -2.461336499e-05 11.53692561
-42.03514936 -2.461336499e-05 -100.9758634
-17.92037036 -2.461336499e-05 -10.01436839
-95.45526336 -2.461336499e-05 -46.44039139
-105.9572804 72.19140739 148.7499026
1.964131843e-05 9.367330387 50.05156861
-191.8448614 19.57510439 -139.2500974
-201.1721084 -2.461336499e-05 109.7469376
-54.07649736 -2.461336499e-05 -6.729181386
1.964131843e-05 43.35645639 -10.35596739
-170.4666654 17.38403639 148.7499026
-13.32729636 -2.461336499e-05 -71.26910239
-176.7405064 -2.461336499e-05 61.82677661
1.964131843e-05 8.809956387 126.4067546
-14.16385036 66.47688239 -139.2500974
-248.2771764 41.27394839 148.7499026
-76.48031436 -2.461336499e-05 101.0229316
-51.26384836 -2.461336499e-05 107.3273356
1.964131843e-05 0.4477513866 18.49712261
-201.3638574 31.87017439 148.7499026
-222.6278964 25.23578839 -145.2500974
-47.48307636 67.99997539 -142.0815774
-57.19233836 -2.461336499e-05 131.2275686
1.964131843e-05 0.1518833866 97.41629361
-227.1065354 -2.461336499e-05 55.36534461
-69.24214936 -2.461336499e-05 -97.48976639
-175.3677384 -2.461336499e-05 -66.39638039
-182.3358614 47.79845739 -139.2500974
-207.1804654 14.29686439 148.7499026
-64.17043736 116.8140274 148.7499026
-122.7157434 -2.461336499e-05 -84.93489239
-81.49471736 -2.461336499e-05 -20.61686439
-158.9572454 54.42284239 -139.2500974
-140.8819094 -2.461336499e-05 -105.0878674
-243.3798194 -2.461336499e-05 -14.16518039
-238.8888964 -2.461336499e-05 144.5222616
1.964131843e-05 36.25158839 133.7743136
-204.5876944 -2.461336499e-05 -48.90467239
-219.8423384 -2.461336499e-05 -109.8684204
-48.07181136 89.26817839 148.7499026
-88.54925836 -2.461336499e-05 -61.50583139
-74.09443236 30.47872139 -145.2500974
-186.1826004 -2.461336499e-05 140.4191906
-144.9183084 52.15892239 -145.2500974
-33.37001036 -2.461336499e-05 -65.35609339
-197.2632354 -2.461336499e-05 -84.85326039
-140.2494534 -2.461336499e-05 5.184745614
-168.6152714 -2.461336499e-05 -82.15649839
-135.6606064 78.02815639 148.7499026
-132.4518514 -2.461336499e-05 35.95676361
-205.5536784 11.88806539 -139.2500974
-131.5568894 13.27700939 -145.2500974
-163.6048894 -2.461336499e-05 -7.499457386
1.964131843e-05 19.24339539 -66.27799739
1.964131843e-05 40.76213739 -93.69337639
-55.47657536 -2.461336499e-05 74.08111461
-148.0367954 -2.461336499e-05 -76.73873939
-249.3451584 -2.461336499e-05 -43.21427539
1.964131843e-05 58.36026939 18.55856161
-121.1798374 51.12589039 -139.2500974
-115.6362624 -2.461336499e-05 -107.5530204
-239.8785844 -2.461336499e-05 -74.13438239
1.964131843e-05 95.08165639 146.8095746
-136.5940714 62.74763939 -139.2500974
-132.7367204 61.90768039 148.7499026
-8.537351359 -2.461336499e-05 -45.96051339
2.081534641 114.7348194 124.0167906
1.964131843e-05 1.076048387 -66.74132539
-122.4476454 38.41704539 -145.2500974
-54.85232036 -2.461336499e-05 -65.65759139
-65.18598736 18.93634739 148.7499026
-166.7032094 -2.461336499e-05 115.4943856
-191.9183014 -2.461336499e-05 -7.815863386
1.964131843e-05 30.85626439 64.01944461
-39.02773336 -2.461336499e-05 -137.3517424
-149.0615944 -2.461336499e-05 -62.00383439
-21.85481036 -2.461336499e-05 100.7019476
-82.94612436 50.21883339 -139.2500974
-251.3127044 -2.461336499e-05 -98.22821239
-44.76578836 102.7621214 148.7499026
-109.6309114 -2.461336499e-05 -89.50376739
-77.95706836 105.4442484 148.7499026
-229.1432334 -2.461336499e-05 -1.833942386
-165.5480204 30.92616039 -139.2500974
-223.6669444 -2.461336499e-05 -127.6267544
-213.0230024 -2.461336499e-05 -19.90009039
-126.9880074 -2.461336499e-05 -123.2829364
-76.73240836 -2.461336499e-05 118.6318016
-27.49776736 15.57618739 -145.2500974
-135.4486724 -2.461336499e-05 109.3910086
-34.88832036 85.38642339 148.7499026
-220.8513234 -2.461336499e-05 -32.92029639
-209.0141854 40.43000439 -145.2500974
-103.8104014 -2.461336499e-05 110.6666946
1.964131843e-05 22.20130739 -50.90731439
-151.6636634 41.24420939 148.7499026
1.964131843e-05 118.0205054 146.5112106
-239.5481354 -2.461336499e-05 70.99111261
-93.37873736 -2.461336499e-05 -112.1806444
-8.161335359 -2.461336499e-05 -20.41172139
-47.28990136 -2.461336499e-05 6.615805614
-216.7186114 -2.461336499e-05 140.9014546
1.964131843e-05 85.88737539 134.5526796
-156.8223154 -2.461336499e-05 126.9740196
-31.16300236 -2.461336499e-05 -92.87156739
-162.9407294 -2.461336499e-05 54.80746261
-74.87662036 -2.461336499e-05 41.15346661
-209.5220864 -2.461336499e-05 -79.18542539
-184.7779254 -2.461336499e-05 43.90136961
0.4945476413 42.25585939 147.2499026
-14.34545836 -2.461336499e-05 -108.1177994
-55.56741836 57.24243339 -145.2500974
-186.7998284 34.56882539 148.7499026
-48.51707436 38.12961839 148.7499026
1.964131843e-05 44.14720939 -77.01889839
1.964131843e-05 17.83598639 68.00704261
-179.9066774 -2.461336499e-05 -135.8190374
1.964131843e-05 51.67314839 -40.27391739
-106.5656454 -2.461336499e-05 53.57858061
-8.593510359 45.91412039 -145.2500974
-205.0279364 -2.461336499e-05 -108.9524074
-213.4663544 51.59144039 148.7499026
-80.93368136 68.74595839 148.7499026
-204.9864234 -2.461336499e-05 92.20592561
-190.2473954 -2.461336499e-05 65.52790961
-232.4176544 67.99997539 153.1768846
-28.87978836 97.75400239 148.7499026
-73.63335936 35.45312939 148.7499026
-9.254191359 -2.461336499e-05 73.94206761
-19.27964736 -2.461336499e-05 22.49837961
-237.3755864 67.84045839 -145.2500974
-107.5461974 -2.461336499e-05 -38.39648839
-192.1109224 -2.461336499e-05 -38.11988639
-24.11152936 76.69612739 153.2725546
-64.38436536 -2.461336499e-05 -48.17612339
-50.16464236 22.51587639 -139.2500974
1.964131843e-05 41.31418239 -62.26739039
-83.49097536 -2.461336499e-05 -40.65420639
-91.38859136 -2.461336499e-05 -8.817086386
-162.6100294 68.22156839 153.8619226
-48.41727436 -2.461336499e-05 55.61820061
1.964131843e-05 71.25618439 138.1419106
1.964131843e-05 42.42826639 15.96095461
-209.8914634 67.99997539 150.1857436
-110.8244664 -2.461336499e-05 -66.36742439
-247.5959154 67.99997539 152.2849146
-189.2376594 38.74970939 -145.2500974
-165.5600994 -2.461336499e-05 25.52027761
-30.92960936 -2.461336499e-05 -39.61278639
-48.20128436 -1.446232613 148.7499026
-252.3430714 -2.461336499e-05 95.15442761
-97.52724636 23.93775739 -145.2500974
-204.2555814 -2.461336499e-05 17.55188961
-122.9167294 -2.461336499e-05 124.0923106
-32.45045836 54.62421739 -145.2500974
-112.6517424 -2.461336499e-05 15.55911461
-228.7965914 28.13548239 148.7499026
-69.68733536 -2.461336499e-05 -15.84465939
-188.0924924 -2.461336499e-05 -66.84840139
-176.0682424 -2.461336499e-05 -93.52825339
-64.90795236 -2.461336499e-05 -85.54268639
-123.4209504 -2.461336499e-05 -20.98574539
1.964131843e-05 59.41250939 90.63173461
1.964131843e-05 22.56173939 -108.0067434
-25.88194236 -2.461336499e-05 80.39162961
-68.60298136 -2.461336499e-05 57.33609561
-88.98692436 -2.461336499e-05 73.73350361
-41.83003436 -2.461336499e-05 -23.00647439
1.964131843e-05 13.54839439 -26.21598739
-94.19970636 24.53112339 148.7499026
-233.5715444 -2.461336499e-05 -63.30669839
-144.4586884 9.734758387 -139.2500974
-59.57971036 56.10099639 148.7499026
-94.76620236 -2.461336499e-05 -85.95571439
1.964131843e-05 28.56901839 113.4726456
1.964131843e-05 10.85044639 107.8336076
-143.8108154 -2.461336499e-05 -93.00413239
-91.79127836 7.631096387 -139.2500974
-11.05029436 -2.461336499e-05 -134.1563484
-74.61927436 64.54524839 -139.2500974
-134.6294134 -2.461336499e-05 60.78477661
-45.56975836 -2.461336499e-05 91.83829761
-122.3232714 -2.461336499e-05 -52.35837639
-7.918812359 10.54103539 148.7499026
-95.49974936 57.42950939 -139.2500974
1.964131843e-05 30.62720539 -34.33070539
-171.2820464 -2.461336499e-05 2.029859614
-12.90360036 31.79765739 -145.2500974
1.964131843e-05 64.38044839 -28.14283839
-142.4276334 -2.461336499e-05 75.11651961
1.964131843e-05 43.20365439 29.13801261
-237.4824744 25.41358939 -145.2500974
-213.9096554 -2.461336499e-05 50.24213961
-220.5765904 -2.461336499e-05 -90.08095539
-186.9290494 59.31380439 148.7499026
-60.98396936 81.78495039 148.7499026
0.4010426413 17.93014939 -145.2500974
-23.97391736 -2.461336499e-05 54.59455961
1.964131843e-05 35.51245239 -131.6195424
-148.4954054 -2.461336499e-05 138.6658236
-69.28533636 -2.461336499e-05 82.36206261
-189.0225884 -2.461336499e-05 86.25251561
-251.4163304 33.45832439 -145.2500974
-75.60269936 11.32644439 -139.2500974
1.964131843e-05 69.66384139 38.64165461
-174.3779034 48.75157439 148.7499026
-166.4277784 -2.461336499e-05 74.32328861
-229.0615044 48.76743639 -145.2500974
-54.15297936 -2.461336499e-05 21.76262161
-136.3810324 38.16885339 148.7499026
-235.4877234 -2.461336499e-05 -100.8865004
-236.5224544 -2.461336499e-05 -28.55672939
-202.3162224 58.19648339 148.7499026
-102.8206674 -2.461336499e-05 -133.8166204
1.964131843e-05 20.70760239 88.28792061
-71.70909436 -2.461336499e-05 129.4422696
-250.4220114 55.96810239 -139.2500974
-75.36182336 120.7158694 148.7499026
-8.604823359 -2.461336499e-05 -57.78528839
1.964131843e-05 38.99431339 75.27326461
-231.6151374 -1.880271613 -145.2500974
-209.7587164 -2.461336499e-05 5.975154614
-172.3786084 45.78861439 -145.2500974
-36.83371036 25.44200739 -139.2500974
1.964131843e-05 23.97007239 -134.5776534
-151.2377914 -2.461336499e-05 61.89720361
-101.0809704 -2.461336499e-05 136.4544546
-11.16824636 115.2258834 148.7499026
-144.9227344 60.16395739 148.7499026
-62.44531736 -2.461336499e-05 103.8969156
-168.6180824 -2.461336499e-05 -108.6576634
-154.4285784 -2.461336499e-05 -17.39871739
-169.8855124 67.51716639 -139.2500974
-8.947883359 77.97975039 148.7499026
1.964131843e-05 71.83249739 112.7140626
-136.3558324 -2.461336499e-05 -82.00371639
1.964131843e-05 96.96848839 111.7715716
-177.3587924 -2.461336499e-05 97.51097061
-110.1894364 -2.461336499e-05 65.35070161
-61.70479636 -2.461336499e-05 148.0958416
-241.1145684 -2.461336499e-05 12.17912761
-229.7323004 -2.461336499e-05 98.62506961
-57.67789936 -2.461336499e-05 62.48254561
-19.41515636 53.32239139 151.7330316
-219.8888694 36.78365739 -145.2500974
-11.09101636 57.12807439 -145.2500974
1.964131843e-05 84.26848139 91.73037861
-155.6102144 -2.461336499e-05 -30.41755439
0.5712296413 -2.461336499e-05 -114.7041114
-91.50756736 -2.130154613 -145.2500974
-137.3004734 -2.461336499e-05 22.35350261
-13.22972036 -2.461336499e-05 33.72738861
-52.53972936 10.75678039 -139.2500974
-94.69833036 -2.461336499e-05 50.17048461
1.964131843e-05 45.29436639 -117.1304684
1.964131843e-05 40.14554239 123.0760936
-216.5415894 17.20020139 -139.2500974
-81.56075336 -2.461336499e-05 -73.33180239
-66.16719436 -2.461336499e-05 -61.15470239
2.179198641 -2.461336499e-05 -0.9594473863
-251.3705274 -2.461336499e-05 34.60702461
-76.39013236 40.99068539 -139.2500974
-221.6032494 10.34447039 148.7499026
-127.6680634 49.35060739 148.7499026
-212.1509384 -2.461336499e-05 76.31898361
-48.37611936 -2.025830613 -145.2500974
1.964131843e-05 44.96588439 51.95380961
-246.3184404 11.91274739 -139.2500974
-135.2878544 -2.461336499e-05 -130.8672314
1.964131843e-05 35.14131039 100.2403196
-30.61678936 39.84155139 -145.2500974
-52.87781236 -2.461336499e-05 -120.3441234
-30.05812036 24.92404539 148.7499026
-41.16358436 -2.461336499e-05 67.46074861
-123.6789384 19.73076039 148.7499026
-156.6740554 -2.461336499e-05 88.17074661
-103.0287494 -2.461336499e-05 -11.86092439
-134.4528154 -2.461336499e-05 -19.71166339
-234.4405184 -2.461336499e-05 113.2061826
-47.68126936 132.9999754 151.3337086
1.964131843e-05 51.46847739 112.5492846
-61.26926536 1.271438387 -145.2500974
-29.98780636 -2.461336499e-05 140.2221526
-51.95774736 -2.461336499e-05 -96.08269239
-95.63541836 108.8941334 148.7499026
-241.1572764 29.41384539 148.7499026
-113.7566694 8.688820387 148.7499026
1.964131843e-05 23.10219539 -82.37549139
-141.1661014 35.06502339 -145.2500974
-101.2865144 -2.461336499e-05 -60.08596039
-37.35224436 -2.461336499e-05 46.89563861
-5.849950359 -2.461336499e-05 132.6958976
-125.7648304 -2.461336499e-05 101.0866846
-41.21408036 59.42797539 -139.2500974
-132.1950524 -2.461336499e-05 48.91129261
1.964131843e-05 19.55194539 20.75149661
-163.0878864 -2.461336499e-05 11.17672861
-128.9027094 -2.461336499e-05 -110.0982514
-107.5231524 21.47824439 -139.2500974
-6.177582359 -2.461336499e-05 -9.290232386
-72.40010836 61.92980539 148.7499026
-97.95301236 45.16204439 -145.2500974
1.964131843e-05 59.45261339 -67.39179039
-73.53433036 -2.461336499e-05 4.486185614
-180.9934654 20.23008239 148.7499026
-98.76658236 -2.461336499e-05 100.8512686
-99.97222236 -2.461336499e-05 85.02108761
-121.6052184 10.20503339 -139.2500974
1.964131843e-05 18.70679839 134.5120166
1.964131843e-05 19.55349739 -7.480898386
1.964131843e-05 52.97003839 -4.331771386
1.964131843e-05 5.640718387 -42.37153939
-6.481238359 -2.461336499e-05 44.73460661
-58.60434636 45.33570439 148.7499026
-21.27779936 60.99237739 -145.2500974
-20.27213436 -2.461336499e-05 -87.13686039
-20.22115236 10.32589639 -139.2500974
-161.2993384 6.822314387 -139.2500974
-220.8561684 -2.461336499e-05 -8.736316386
-250.9770394 -2.461336499e-05 -111.8564784
-24.57489636 41.77782439 153.8899116
-85.96893936 96.01189539 148.7499026
-187.0292954 57.46140339 -139.2500974
-112.9229294 56.71617339 -145.2500974
-175.1545294 21.98983939 -139.2500974
-83.60516936 26.61647639 -139.2500974
-19.26029936 24.26623539 -139.2500974
-250.6248374 -2.461336499e-05 109.1828456
-97.57671636 65.52194539 148.7499026
1.964131843e-05 81.53499439 75.87548961
1.964131843e-05 70.98064539 -15.08442339
-141.6541634 19.75049039 148.7499026
-199.0613424 -2.461336499e-05 135.5927676
1.964131843e-05 10.97934639 -136.0438444
1.964131843e-05 36.28773639 89.31745161
-210.2005904 40.58945539 148.7499026
-115.1719324 -2.461336499e-05 -11.45238639
-42.45675736 -2.461336499e-05 -70.93377939
-92.33276136 -2.461336499e-05 128.9602946
-36.81328636 -2.461336499e-05 -82.51641939
-130.6308384 -2.461336499e-05 -58.95066339
-192.4598944 -1.769864613 148.7499026
-0.4990033587 -1.961174613 -76.86296639
-63.92740236 -2.461336499e-05 -2.876661386
-84.47890536 -2.461336499e-05 -97.56808739
-198.7091144 -2.461336499e-05 40.67701861
-214.0908304 -2.461336499e-05 106.9908756
-138.3958994 18.75479039 -139.2500974
-214.3861434 56.75045639 -145.2500974
-198.4492374 -2.461336499e-05 -100.5447414
1.964131843e-05 53.13020539 144.4765406
-48.91454936 -2.461336499e-05 121.2393746
-95.73150236 33.84543239 -139.2500974
-139.6347704 -2.461336499e-05 -40.49695239
1.964131843e-05 17.91321739 116.6318326
1.964131843e-05 64.80297139 10.26702161
-202.6572534 -2.461336499e-05 -22.90315339
1.964131843e-05 14.72321839 -98.55059939
-117.5381554 -2.461336499e-05 24.82092561
-147.2532254 -2.461336499e-05 100.5500416
-214.5169264 -2.461336499e-05 24.10721761
-164.6644074 -2.461336499e-05 142.4462706
-28.58797036 -2.461336499e-05 126.4188836
-23.03963536 -2.461336499e-05 -67.42301339
-74.08108836 21.93033739 -139.2500974
-237.1056294 59.80800239 148.7499026
-34.90124336 70.10680539 148.7499026
-181.5280274 67.99997539 152.9994946
-197.6847084 -2.461336499e-05 119.5530626
-34.03749436 -2.461336499e-05 -51.81486939
-204.5720034 -2.461336499e-05 67.41661261
-229.5852394 -2.461336499e-05 9.958602614
-118.9428814 -2.461336499e-05 -72.83497739
-216.1236824 -2.461336499e-05 -62.22972239
1.964131843e-05 27.10713039 140.5995166
-11.56330436 -2.461336499e-05 101.9252186
-246.0907314 -2.461336499e-05 -133.9930874
-65.02201736 -2.461336499e-05 -134.1393424
1.964131843e-05 29.44269539 39.34649361
-164.6022784 -2.461336499e-05 -60.37097339
1.964131843e-05 10.61717339 15.58487561
-242.9485384 35.75716039 -139.2500974
-99.35451236 -2.461336499e-05 0.5539416137
-153.9357814 32.91354939 -139.2500974
-181.2126324 -2.461336499e-05 -0.6745413863
-17.02851636 0.5655833866 -145.2500974
-117.7693044 -2.461336499e-05 132.9848446
-189.2022424 -2.461336499e-05 -91.20121739
-41.62371736 -2.461336499e-05 20.61510961
-220.8840414 41.41061739 148.7499026
-73.87721236 -2.461336499e-05 -124.0704494
-119.3119934 -2.461336499e-05 76.58467861
-8.989257359 -2.461336499e-05 13.63363161
-218.6860454 -2.461336499e-05 -138.5539384
-48.10114336 -2.461336499e-05 135.8603676
1.964131843e-05 57.24042339 100.5872226
-95.98956136 86.57565739 148.7499026
-236.0530684 -2.461336499e-05 123.6943246
-18.96542336 30.40674939 148.7499026
-242.7087024 -2.461336499e-05 -90.92149639
-176.4932284 -1.569737613 -145.2500974
-75.22280836 132.9999754 150.3650756
-200.8650054 40.18109139 -139.2500974
-149.1253354 31.45818539 148.7499026
-26.05403836 -2.461336499e-05 91.53321261
-115.9059224 -2.461336499e-05 -97.37210339
-190.1381804 49.89566939 -145.2500974
-27.30523036 129.5984754 148.7499026
-214.8729174 -2.461336499e-05 118.0995856
-239.1934564 -2.461336499e-05 56.55788761
-192.6470964 7.646029387 -145.2500974
1.964131843e-05 51.36812239 122.5948636
-151.1773254 -2.461336499e-05 -105.7994504
-154.2526884 -2.461336499e-05 49.79409461
-129.1578914 51.87804539 -145.2500974
-21.27530636 -2.461336499e-05 -100.9002674
1.913161641 7.611690387 -145.2500974
0.02881564132 82.77501239 30.01876361
-11.27243236 -2.461336499e-05 54.02718961
-94.12099536 123.1720344 148.7499026
-42.30763536 11.65490839 148.7499026
-119.5637304 95.79421539 148.7499026
1.964131843e-05 53.65068539 -27.44491439
-242.2211574 -2.461336499e-05 22.13965761
-224.9289734 -2.461336499e-05 -44.07359639
-166.7374014 -2.461336499e-05 -38.26697939
-140.4964214 -0.5115486134 -139.2500974
-116.4901864 45.74435339 148.7499026
-96.66122036 14.10246139 -145.2500974
-169.9788534 -2.461336499e-05 34.34902361
-90.74003836 -2.461336499e-05 139.5500236
-116.1249894 -2.461336499e-05 6.346574614
-18.29294936 -2.461336499e-05 -19.85123339
-150.1528244 46.02947939 -139.2500974
-134.6195994 -2.461336499e-05 -3.124324386
1.964131843e-05 119.8173074 136.8393396
-99.04306936 -2.461336499e-05 -20.84951539
-8.096917359 -0.3447936134 148.7499026
-182.1291694 -2.461336499e-05 -46.03483439
-198.7518654 -2.461336499e-05 -73.27912439
-116.8503724 30.37637539 -145.2500974
-126.7051044 19.29512339 -139.2500974
-230.7845134 37.70799039 148.7499026
-115.6679114 -2.461336499e-05 -45.20020739
-168.9161954 7.836020387 -145.2500974
-133.7936924 -1.279651613 148.7499026
1.964131843e-05 13.79993039 95.14476361
-83.02744936 -2.461336499e-05 6.595113614
1.964131843e-05 34.23922139 -25.30920239
-166.4976604 40.90820239 -139.2500974
-104.5512194 11.77170539 148.7499026
-8.815042359 -2.461336499e-05 -35.49194839
-109.3468174 63.10943239 148.7499026
-8.099460359 -2.461336499e-05 25.53281861
-115.6009024 -2.461336499e-05 142.3851676
-196.7168034 -2.461336499e-05 -128.6605564
-94.13702636 -2.461336499e-05 27.46039761
-19.69457636 -2.461336499e-05 4.790839614
-58.35783636 91.81093539 148.7499026
-55.80732436 123.9063354 148.7499026
1.964131843e-05 27.61533339 9.123436614
-232.4787734 -2.461336499e-05 152.2837876
-224.2699024 -2.461336499e-05 26.83680261
-227.1052934 -2.461336499e-05 -117.1062324
0.02988964132 49.16665539 -137.7500974
-72.17652236 12.36857639 148.7499026
1.964131843e-05 39.78185439 -103.2277644
1.964131843e-05 31.39354839 -53.96396439
-5.449468359 27.31089039 148.7499026
-37.65058836 115.7237274 148.7499026
-130.7323624 -2.461336499e-05 -30.65982039
-191.4984784 26.27256539 148.7499026
-247.7248294 5.852769387 148.7499026
1.964131843e-05 68.35660639 129.0723116
-154.8215874 62.80662139 148.7499026
-86.21844436 46.14479339 148.7499026
1.964131843e-05 32.21746239 -64.93310939
1.964131843e-05 87.82092739 119.1498196
-95.71347136 65.73759239 -145.2500974
-66.11433636 106.9770014 148.7499026
1.964131843e-05 94.74976539 99.00710861
-73.49765436 -2.461336499e-05 -80.60407539
-99.59981736 -2.461336499e-05 119.1192206
1.964131843e-05 10.11806039 62.56602961
-238.7211234 48.99809839 -145.2500974
1.964131843e-05 42.59149539 -37.69499339
-183.7028194 -2.461336499e-05 -114.2565004
-209.4135254 23.47439639 -139.2500974
-69.87763136 78.73788439 148.7499026
-156.7073564 25.29623139 -145.2500974
-75.09837436 -2.461336499e-05 139.0887796
1.964131843e-05 55.40223439 -48.88117939
-113.5623054 -2.461336499e-05 46.90135361
-65.75782536 57.43016339 -139.2500974
-102.7777934 10.17284839 -139.2500974
-220.6334284 -2.461336499e-05 -80.74158639
1.964131843e-05 43.75776139 0.5029056137
-240.4321594 -2.461336499e-05 135.3120896
-179.7512324 -2.461336499e-05 87.34600161
-163.0386594 47.27569839 -145.2500974
-83.12394936 -2.461336499e-05 63.15965961
1.964131843e-05 7.652229387 3.883552614
-237.8478794 9.758789387 -145.2500974
-183.3904164 67.99997539 -139.8966564
-141.5457484 -2.461336499e-05 33.98757661
-228.7829014 -2.461336499e-05 -54.82303939
-217.7490374 -2.461336499e-05 1.226883614
-109.2255764 30.31906139 148.7499026
1.964131843e-05 7.360831387 27.45990161
1.964131843e-05 49.58748239 -90.83892639
1.964131843e-05 54.06449639 66.10053761
-89.95143136 51.06791139 -145.2500974
-197.5420584 -2.461336499e-05 -0.4611513863
1.964131843e-05 8.673335387 40.82275861
-104.4294214 38.57381439 -145.2500974
-172.5092044 -2.461336499e-05 -18.26929439
-138.7252974 -2.461336499e-05 140.4853446
-36.02243736 105.7114874 148.7499026
-192.2761404 -2.461336499e-05 27.35919961
-196.9939504 -2.461336499e-05 96.79529961
-47.13330436 -2.461336499e-05 -15.47316839
-50.02380936 108.6738044 153.4610046
-62.35238836 -2.461336499e-05 -29.87909539
-185.9862634 28.43070539 -139.2500974
-119.6644214 -2.461336499e-05 -29.38440639
-176.7551434 -2.461336499e-05 -102.7024434
-222.6102044 52.58538539 148.7499026
1.964131843e-05 8.033708387 -124.9165724
-175.1044074 35.59145639 -139.2500974
-122.2743094 58.00428839 -145.2500974
1.964131843e-05 10.18435239 -115.6412084
-151.5741004 -2.461336499e-05 118.1854316
-164.1742004 59.82443339 148.7499026
-6.352147359 125.7729124 148.7499026
1.964131843e-05 50.08933439 44.38366061
-152.4253274 -2.461336499e-05 -8.493919386
-147.4941104 10.95203639 148.7499026
-102.2985314 58.35651239 -145.2500974
-94.93140736 15.46420439 148.7499026
-163.7278154 64.55906639 -145.2500974
-210.0075944 -2.461336499e-05 134.2542136
-181.5372224 -2.461336499e-05 -59.73777739
-58.43267736 26.24185139 -139.2500974
-155.5254444 -2.461336499e-05 -81.83262439
1.964131843e-05 60.81459739 139.6852946
-22.77670936 -2.461336499e-05 -129.4755084
-116.3154164 -2.461336499e-05 -130.2182684
-24.06775336 38.09826139 -139.2500974
-227.0680774 -2.461336499e-05 -104.1697364
-5.769482359 29.12077839 -139.2500974
-43.68986036 24.43397639 -145.2500974
-123.0283094 -2.461336499e-05 0.5212566137
-83.65602736 13.66319139 148.7499026
1.964131843e-05 66.47700539 82.83065961
-6.992815359 38.14514739 -139.2500974
-131.1004484 -2.461336499e-05 81.97910261
-202.8581994 -2.461336499e-05 49.29426961
-97.40178936 5.804274387 148.7499026
1.964131843e-05 99.14633139 138.7922866
-213.9172964 20.23692039 148.7499026
-128.3122584 -2.461336499e-05 -136.5133464
0.7193366413 -1.283411613 -58.11671739
-137.9560564 -2.461336499e-05 97.66378561
-82.05556036 9.703664387 -145.2500974
-233.3308824 -2.461336499e-05 -80.24752739
-228.7224734 -2.461336499e-05 35.91982161
-8.562263359 -2.461336499e-05 -118.7581244
-49.95458436 52.65507639 -139.2500974
-186.6304474 -2.461336499e-05 18.02574361
-243.6306884 -2.461336499e-05 -33.98301639
-242.3140324 -0.5432366134 152.7499026
-40.52691236 125.1292944 148.7499026
-141.8239854 -2.461336499e-05 131.7660256
1.964131843e-05 46.92437339 79.33027161
-113.6252874 63.24402839 -139.2500974
1.964131843e-05 33.77965939 55.62273361
-63.61673636 -2.461336499e-05 19.17673761
-204.7417324 56.39304239 -145.2500974
1.964131843e-05 94.04905739 88.81219561
-99.56784836 -2.461336499e-05 -118.5505984
-139.0099484 -2.461336499e-05 -61.88389539
-154.2806784 -2.461336499e-05 14.66422061
-85.64972436 -2.461336499e-05 96.83157161
-146.3938414 -2.461336499e-05 -114.2393454
1.964131843e-05 27.62994439 -117.1748094
-242.1082794 17.84756039 -145.2500974
-203.5469534 -2.461336499e-05 -11.99748039
-97.11120936 77.08423439 148.7499026
-199.9930594 2.704406387 -145.2500974
1.964131843e-05 6.987693387 71.63946061
-229.9722004 -2.461336499e-05 -35.98198339
-192.0361574 -2.461336499e-05 77.96842761
-179.5203354 -2.461336499e-05 7.976305614
-184.0008794 1.833736387 148.7499026
-24.26321036 -2.461336499e-05 -116.7304624
-22.03211636 118.3709054 148.7499026
1.964131843e-05 22.08666039 -24.10345939
-244.7023634 62.64815739 -139.2500974
-164.4631934 10.96296239 148.7499026
1.964131843e-05 21.51706039 58.48862261
-40.72989036 62.23817639 148.7499026
1.964131843e-05 81.18196939 52.13033161
-195.1422794 -2.461336499e-05 -108.6707624
-155.8342514 67.45129539 -139.2500974
-111.1468374 -2.461336499e-05 118.5928006
-213.2460264 -2.461336499e-05 -70.49448239
1.019962641 -2.461336499e-05 121.4074106
1.964131843e-05 30.35616639 -6.798544386
-80.57595836 56.08751339 -145.2500974
-26.98189236 -2.461336499e-05 148.4036516
-130.4060124 36.24603539 -139.2500974
-127.9326694 69.60331239 148.7499026
0.02403864132 -2.461336499e-05 -85.33654539
1.964131843e-05 3.713544387 89.46434361
-174.6081704 51.92772439 -139.2500974
-47.81265036 -2.461336499e-05 -131.2014484
-67.57337836 97.46450839 148.7499026
1.964131843e-05 109.4023014 145.3184066
-191.7841254 -2.461336499e-05 108.9419406
-16.79988436 -2.461336499e-05 -60.64197339
-15.84055436 39.95632339 -145.2500974
-193.6523204 25.56151639 -145.2500974
-199.7623814 63.34871739 -139.2500974
-0.4990033587 -0.9134536134 76.61267961
1.964131843e-05 48.62210539 22.00414061
-82.46592036 -0.2849766134 148.7499026
-124.8117984 28.91677639 148.7499026
-207.9222144 50.24696839 -139.2500974
-3.782746359 -2.461336499e-05 -107.2455214
1.964131843e-05 63.91242439 45.08064261
-103.9569244 51.27057939 148.7499026
-112.6601334 8.068683387 -139.2500974
-211.2413094 6.947882387 -145.2500974
-121.9278374 83.85379439 148.7499026
-154.9218954 13.24474339 -145.2500974
1.964131843e-05 9.503225387 -18.64562239
-159.4973144 37.74791439 148.7499026
-52.67846436 27.57680139 148.7499026
1.964131843e-05 17.51627339 47.18856961
-47.62276936 -2.461336499e-05 47.08864461
-127.0706574 -2.461336499e-05 -76.00691539
-21.45255736 -2.461336499e-05 139.7122656
-196.0375284 -2.461336499e-05 -47.64098139
-208.9623354 -2.461336499e-05 -57.56485439
-70.60839536 38.27286339 -145.2500974
-7.159080359 132.8350264 153.4697566
-80.15981036 78.40037139 148.7499026
-37.74716036 -2.461336499e-05 -15.52718739
-155.2249334 -0.8300296134 -139.2500974
-38.17698036 33.39053939 -145.2500974
-83.93791836 35.64319739 -139.2500974
-89.87411836 45.03946639 -139.2500974
-35.43799036 7.464708387 -139.2500974
-34.97759336 -2.461336499e-05 10.29268361
-1.609810359 67.99109839 -139.2500974
-38.53442036 -2.461336499e-05 33.46490561
-234.7922274 -2.461336499e-05 85.99631161
1.964131843e-05 59.96122339 3.311751614
-75.26594736 -2.461336499e-05 32.69597861
-113.3110694 -2.461336499e-05 103.0959396
1.964131843e-05 2.595000387 -99.58225439
-230.0139914 63.85208139 -139.2500974
-199.8969714 -2.461336499e-05 -116.4847374
-223.3064654 59.79075539 -145.2500974
1.964131843e-05 65.40200239 29.98985261
1.964131843e-05 27.23072739 -126.8211554
-226.7882274 -2.461336499e-05 -136.3127304
1.964131843e-05 18.40426239 79.37832361
1.964131843e-05 14.04371439 -86.70666139
1.964131843e-05 37.59285939 -85.92322339
-37.93570336 64.68095039 -145.2500974
-148.7942494 -2.461336499e-05 -122.5087654
-139.8062984 66.81224539 148.7499026
1.964131843e-05 68.40751339 93.49368461
-166.3230394 -2.461336499e-05 -46.62856939
-162.5274474 -2.461336499e-05 -124.7224094
-213.0632344 -2.461336499e-05 37.39734661
-211.3227564 -0.7366186134 148.7499026
-6.661904359 -2.461336499e-05 82.13698961
-52.35208136 -2.461336499e-05 96.65697061
-72.75072636 6.365071387 -145.2500974
-16.49592736 14.65870339 -145.2500974
-36.54650636 -2.461336499e-05 116.4620086
-56.35341036 -2.461336499e-05 84.19997861
1.964131843e-05 67.17589639 74.58959661
1.964131843e-05 48.78271539 -16.59483239
-246.6664874 -2.461336499e-05 -55.14076839
1.964131843e-05 78.68091839 63.91733661
-113.2991484 38.77266039 -139.2500974
-203.2104314 49.99627339 148.7499026
1.964131843e-05 75.64075439 104.2864666
1.964131843e-05 23.26125239 28.10632561
-210.2846144 15.12935039 -145.2500974
-191.2591004 -2.461336499e-05 37.16743761
-212.9183864 -2.461336499e-05 15.67645561
-129.2025504 26.95109839 -145.2500974
-199.9453814 11.98610539 -145.2500974
-67.43330836 27.76773239 148.7499026
-221.4738404 30.72073039 -139.2500974
-175.7408734 -2.461336499e-05 -77.31540139
-191.3372594 43.94256439 -139.2500974
-220.0715884 -2.461336499e-05 87.09297361
-100.1944014 -2.461336499e-05 -28.97358739
-51.89743236 32.38852639 -139.2500974
1.964131843e-05 62.62874539 108.2289916
-25.99168436 -2.461336499e-05 -31.49049439
-167.4829614 21.82197339 -145.2500974
-47.74472836 59.59779539 -145.2500974
-54.07236636 -2.461336499e-05 -28.63870239
-174.2336164 10.64557439 -139.2500974
-5.569728359 56.85537439 -139.2500974
-228.5839874 17.43328639 148.7499026
-194.1149634 55.47204939 148.7499026
-5.980218359 56.64693339 148.7499026
-215.2916564 39.82381039 -139.2500974
-161.9180424 -2.461336499e-05 33.17728861
-91.13777036 -2.461336499e-05 -0.6780273863
-53.58803236 -2.461336499e-05 1.455492614
1.149686641 61.70155439 -58.79398039
-48.41325836 -2.461336499e-05 63.75396061
-244.1377974 -2.461336499e-05 50.10528561
1.964131843e-05 2.814328387 54.85353061
-160.3422534 -2.461336499e-05 41.93165961
1.964131843e-05 13.39662739 -44.76242039
-143.7350404 77.21902239 148.7499026
-228.0237474 -2.461336499e-05 118.8910556
-83.89107536 -2.461336499e-05 -48.75690739
-45.18035736 -2.461336499e-05 -84.02333139
-46.94499736 5.949740387 -145.2500974
-187.6226424 1.231352387 -145.2500974
-108.8357754 -2.461336499e-05 -101.3171414
1.964131843e-05 24.13897939 1.817205614
0.9677426413 -2.461336499e-05 -136.9816904
-46.96416136 -2.461336499e-05 -42.65099739
-25.54085736 62.23446939 148.7499026
-132.2973504 66.01978839 -145.2500974
-173.9381694 29.74019339 148.7499026
-88.99709136 26.37788039 -145.2500974
-68.84136936 61.84947939 -145.2500974
-117.2295364 47.46304139 -145.2500974
-87.44866636 57.85760439 -139.2500974
-71.41124936 -2.461336499e-05 -23.71415139
-178.9277594 39.36032439 -145.2500974
-84.85925336 -2.461336499e-05 19.64551161
-217.8092884 -2.461336499e-05 -102.0848204
-18.14260736 52.57898039 -145.2500974
-198.8209894 -2.461336499e-05 61.80108861
0.7464026413 71.83809939 147.2499026
-128.3861494 -2.461336499e-05 23.01045561
1.964131843e-05 18.44521239 -74.26712439
-38.43606836 53.96670939 148.7499026
-27.62265936 52.41530539 -139.2500974
1.964131843e-05 13.70104839 -2.015404386
-48.96951736 18.79628439 148.7499026
-87.30962636 -2.461336499e-05 47.12381861
-250.1338544 -2.461336499e-05 143.8738346
-234.7310764 -2.461336499e-05 -15.20146239
-209.1856884 60.89157539 -139.2500974
-111.1564554 -2.461336499e-05 -81.67420239
2.117984641 -2.461336499e-05 132.9773466
-180.5727904 -2.461336499e-05 104.8036076
-15.97683336 -2.461336499e-05 -2.287350386
-126.2915994 -2.461336499e-05 43.57081261
-144.0829614 -2.461336499e-05 -1.790058386
-76.60400936 5.767381387 148.7499026
-233.7765224 6.535036387 -139.2500974
-129.5565124 7.336787387 -139.2500974
-82.84412836 -2.461336499e-05 113.5865746
-135.6452894 -2.461336499e-05 -114.2625544
-243.5507224 44.71656439 -139.2500974
-142.4853654 28.73842139 -139.2500974
-47.41768436 -2.461336499e-05 -62.96226739
-92.03578336 -2.461336499e-05 -93.62806439
-64.64122036 -2.461336499e-05 -39.80778439
0.7030786413 41.30799639 -137.7500974
-220.0182744 -2.461336499e-05 76.71499061
-141.6103364 43.83705939 -139.2500974
-21.66842836 67.99997539 -141.0736134
-47.59325336 -2.461336499e-05 26.11102061
-64.95713336 10.93491139 -139.2500974
1.964131843e-05 27.25520539 92.64080961
-60.04496636 -2.461336499e-05 -71.54075039
-58.21661236 18.20978939 -139.2500974
-189.2975694 -2.461336499e-05 -0.4283153863
-37.38573336 -2.461336499e-05 143.4064896
-117.0428884 -2.461336499e-05 84.07797761
-241.4662984 -2.461336499e-05 -47.71204139
-151.6630594 -2.461336499e-05 -69.38227239
-1.452195359 54.02601139 -145.2500974
-173.0619374 -2.461336499e-05 78.43748661
-57.42592836 -2.461336499e-05 -87.76110439
-102.0867384 -2.461336499e-05 -111.1661384
-171.4958794 31.32660739 -145.2500974
1.964131843e-05 35.82615839 116.3305086
-148.4149194 3.213668387 148.7499026
-6.175423359 46.06599639 148.7499026
-157.2305224 3.969034387 -145.2500974
-15.01626436 -2.461336499e-05 82.23504161
1.964131843e-05 47.69273439 -53.14692739
-55.35199036 67.99997539 -141.6244294
-241.2414474 3.071380387 -139.2500974
-211.4674814 -2.461336499e-05 99.66564361
-95.12246836 -2.461336499e-05 -74.24983339
-110.7656614 99.34511239 148.7499026
-99.32252536 44.67777139 148.7499026
-60.17958836 -2.461336499e-05 34.59656261
-231.1953624 -2.461336499e-05 143.5175276
-23.42868136 -2.461336499e-05 39.63139861
-75.37092636 -2.461336499e-05 65.25303861
1.964131843e-05 71.05264039 19.57868061
-165.2307614 35.89111039 -145.2500974
1.964131843e-05 45.58031539 -68.73881839
1.964131843e-05 57.25496839 -34.91407639
0.005242641319 93.00345139 63.84094061
-238.1301064 6.892932387 148.7499026
-133.3231354 54.39300239 -139.2500974
-172.5350024 -2.461336499e-05 -138.1194884
-142.8377014 -2.461336499e-05 -129.2896654
-243.5713254 -2.461336499e-05 125.6150946
-202.0588544 -2.461336499e-05 6.392030614
-248.1526914 -2.461336499e-05 -8.111644386
-227.6456914 19.38486839 -145.2500974
-97.03988436 -2.461336499e-05 -128.3136744
-185.3795644 -2.461336499e-05 -31.28587939
-181.0398654 16.68114439 -139.2500974
-240.1269624 -2.461336499e-05 -21.11751739
-28.87425736 61.81102639 -145.2500974
-211.0184874 33.06461439 -145.2500974
-77.65677136 52.86398639 148.7499026
-90.99821036 65.85006939 -139.2500974
-36.84099936 -2.461336499e-05 85.54502861
-185.9255094 23.71972539 -145.2500974
-18.03566136 57.57771539 -139.2500974
-42.26205136 3.496734387 148.7499026
-213.2705804 66.76192439 -145.2500974
-70.35281636 -2.461336499e-05 -8.270167386
-164.3540284 -2.461336499e-05 -114.9528814
-69.11478536 -2.461336499e-05 99.14005661
1.964131843e-05 34.03123439 143.7302566
-201.0821064 -2.461336499e-05 -138.2330114
-90.09403336 64.21079039 148.7499026
-108.0120374 26.10851039 -145.2500974
1.964131843e-05 14.32636039 -57.94163339
1.964131843e-05 71.61869739 121.4322036
-133.4385734 -2.461336499e-05 -44.87985539
-159.6185914 -2.461336499e-05 61.62472661
-115.6428114 67.42015839 -145.2500974
-159.5360734 -2.461336499e-05 117.9533176
-33.31653336 -2.461336499e-05 -125.6994474
-158.2817164 45.09382039 -139.2500974
1.964131843e-05 105.4398384 129.1758866
-73.72094936 15.53128039 -145.2500974
1.964131843e-05 45.51233739 -84.47334839
-166.1507074 -2.461336499e-05 123.0278366
-66.24214036 89.54276439 148.7499026
-87.59942036 -2.461336499e-05 -15.34401339
-8.696107359 95.73206339 148.7499026
-157.3387064 19.30048039 -139.2500974
-162.8581824 -2.461336499e-05 135.1283386
-21.34245136 110.6998384 148.7499026
1.964131843e-05 87.91810539 48.75585261
0.4385556413 75.83959339 4.435376614
-98.82628836 -2.461336499e-05 19.19836861
1.964131843e-05 29.28012739 -99.98719939
-134.7540854 12.54235439 148.7499026
-86.27001436 88.51086339 148.7499026
-58.20072936 108.1367154 148.7499026
-28.67314736 10.69692439 -139.2500974
1.964131843e-05 102.1265684 106.3318676
-146.5468534 43.36339639 -145.2500974
-16.74335236 -2.461336499e-05 74.06047261
-161.4607824 17.98921839 148.7499026
0.9958846413 10.76476939 133.5547066
-229.5627814 55.32857639 148.7499026
-31.30431536 23.71994239 -145.2500974
-125.5025424 41.85402939 -139.2500974
1.964131843e-05 111.2600224 117.7693916
-251.8983604 33.29223739 148.7499026
-4.309925359 20.09795139 -139.2500974
-218.7086884 44.81725039 -145.2500974
-194.3254904 -2.461336499e-05 141.7786446
1.964131843e-05 15.69887739 27.09643361
-35.73204536 -2.461336499e-05 -33.96280839
-68.38326336 42.01815439 -139.2500974
-31.70226136 48.67485039 148.7499026
-74.47771636 21.41424139 148.7499026
-229.5725844 44.46856239 -139.2500974
-117.0332624 -2.461336499e-05 69.54643261
-150.0723734 57.45609239 -145.2500974
-77.71837836 45.09126239 -145.2500974
-0.8835493587 -2.461336499e-05 69.29782361
-184.3119664 52.41487739 148.7499026
-12.47931236 -2.461336499e-05 142.8303786
1.964131843e-05 43.34012339 131.7482806
-197.0488574 47.34101939 -145.2500974
-131.6785664 84.93055239 148.7499026
-49.00156636 -2.461336499e-05 77.58139461
-6.679766359 -2.461336499e-05 37.08341861
1.964131843e-05 40.43290039 -21.21615839
-226.6169124 39.75823939 -145.2500974
-222.0467504 25.21575639 148.7499026
-148.0706704 -2.461336499e-05 6.802990614
-219.4045104 -2.461336499e-05 -25.72134339
-197.1496774 -2.461336499e-05 71.86916261
-99.55640936 -2.461336499e-05 77.70136561
1.964131843e-05 34.78935839 -119.0843554
-59.77169636 -2.461336499e-05 -11.34054739
1.964131843e-05 49.88433139 105.3983506
-17.00833836 95.19647839 148.7499026
-209.4701884 -2.461336499e-05 113.1633456
-251.9070644 -2.461336499e-05 -138.9194074
-202.6620064 20.57851739 -145.2500974
-246.8064634 -2.461336499e-05 6.828631614
-41.33584936 81.70391739 148.7499026
-53.52672736 20.08097639 -145.2500974
-221.0209404 -2.461336499e-05 61.15686661
-101.3717724 23.28250939 148.7499026
-76.49978636 -2.461336499e-05 -13.28453639
-55.48516236 -2.461336499e-05 53.89994661
-53.78348036 82.81467739 148.7499026
-197.6691774 67.99997539 -145.1960594
1.964131843e-05 26.35561339 -44.94158339
-240.7646434 -2.461336499e-05 -64.33600539
1.964131843e-05 91.46178639 72.87620261
-17.41982236 -2.461336499e-05 -41.93983039
-145.5962484 56.18183539 -139.2500974
-98.03032036 -0.4003326134 -139.2500974
-223.5025194 -2.461336499e-05 138.3489766
1.964131843e-05 51.12768039 -112.8307254
-124.4230044 -2.461336499e-05 -91.97292439
-153.1560654 -2.461336499e-05 -47.97740139
-193.4397114 -2.461336499e-05 -78.19186839
1.964131843e-05 40.62115139 95.52009261
1.964131843e-05 101.8434724 117.0985156
-232.8766494 -2.461336499e-05 -121.4442414
-66.89600136 -2.461336499e-05 111.0756316
-8.671912359 4.517627387 -139.2500974
-77.98559336 -2.461336499e-05 -94.29897439
-161.0665054 61.58273539 -139.2500974
-85.97126736 108.7583634 148.7499026
-107.2420064 -2.461336499e-05 -17.70394139
1.964131843e-05 78.73024139 45.35806261
-24.07358936 71.09514139 148.7499026
-144.4132954 -2.461336499e-05 82.03045661
-171.2174064 -2.461336499e-05 -9.514108386
-136.0680384 -2.461336499e-05 42.17398461
-118.8809364 64.16368739 148.7499026
-24.73971236 103.6313354 148.7499026
-84.06920636 -2.461336499e-05 126.6545976
-144.2790624 36.76483739 148.7499026
-240.0004774 53.23220439 148.7499026
-0.1547653587 101.9964924 148.7499026
-117.6828724 9.812332387 -145.2500974
-143.1338274 -2.461336499e-05 -71.49985539
-162.2660604 -2.461336499e-05 -105.3303004
-68.55676036 17.12875139 -139.2500974
1.964131843e-05 33.34764139 70.72945961
-215.6855584 -2.461336499e-05 -37.87062639
-98.23318936 52.47617139 -145.2500974
-20.51863836 -1.126962613 -139.2500974
-242.9435274 40.88583839 -145.2500974
-180.2734694 6.837838387 -139.2500974
-192.4007144 -2.461336499e-05 133.0229436
-40.65120236 67.42025739 -139.2500974
-160.7918054 -2.461336499e-05 -14.19322639
-112.5782064 74.82148239 148.7499026
-101.8551034 -2.461336499e-05 -85.33682339
-194.2350704 5.114149387 148.7499026
-113.5172624 -2.461336499e-05 -32.94791539
-10.31498136 -2.461336499e-05 127.1728336
-11.42583936 -2.461336499e-05 -14.06967339
-166.1281184 -2.461336499e-05 -75.50834339
1.964131843e-05 54.87005239 59.05039261
-96.65845736 -2.461336499e-05 34.08611361
-59.63795036 25.57706739 148.7499026
-113.9564804 16.33072039 -139.2500974
-48.99874336 97.91797839 151.6732286
1.964131843e-05 38.59406239 23.78761961
-20.40766236 132.9999754 153.0570966
1.964131843e-05 36.93492939 11.53236561
-46.44590836 -2.461336499e-05 -138.7745654
-233.3964484 54.33116839 -145.2500974
-78.69651836 2.574737387 -145.2500974
-217.2210234 -2.461336499e-05 -120.9193144
-16.59763636 47.02726639 153.1613736
-177.1044774 -2.461336499e-05 135.8531606
-122.7900254 61.64731639 -139.2500974
-5.926962359 -2.461336499e-05 119.5135776
-108.3100204 58.64532839 -139.2500974
-83.35775436 65.06653339 -139.2500974
-138.5812584 13.37557239 -145.2500974
-146.5998544 -2.461336499e-05 56.63014561
-127.7832964 -2.461336499e-05 62.32779461
-57.78252736 -2.461336499e-05 -45.80955639
-203.2000944 40.82655939 148.7499026
-103.8716464 98.10706939 148.7499026
-204.2037194 -2.461336499e-05 -124.8404624
-111.1020824 45.66595139 -139.2500974
-34.59721436 12.96076339 -145.2500974
-235.8551514 -2.461336499e-05 19.24224461
-24.58967736 -2.461336499e-05 -42.56555339
-169.6667554 55.50079539 148.7499026
1.964131843e-05 2.582096387 44.33888361
1.964131843e-05 5.766646387 116.4672886
-36.92114836 26.23143839 148.7499026
-35.27441036 -2.461336499e-05 77.31466261
-41.55976636 42.96613239 -145.2500974
-102.0293684 60.14622639 148.7499026
-217.9332364 57.08489339 -139.2500974
-15.63019736 4.881648387 -139.2500974
-18.84990536 -2.461336499e-05 -75.51753539
-213.1956344 21.45762739 -145.2500974
-151.8543964 15.01552939 -139.2500974
-21.76782536 21.80568339 -145.2500974
-101.8577514 -2.461336499e-05 -42.39314239
-141.0938604 -2.461336499e-05 113.4325066
-83.75281836 121.9747954 148.7499026
-116.7491724 -2.461336499e-05 -56.48823339
-175.4329804 -2.461336499e-05 -109.9481394
-48.42407936 32.59501139 -145.2500974
-250.7527584 -2.461336499e-05 52.17137261
-237.9862494 21.03323939 148.7499026
1.964131843e-05 58.24168839 -10.26755339
-16.69541136 -2.461336499e-05 -28.07095539
-196.8728504 -2.461336499e-05 -57.50826239
-191.7037034 39.69785839 148.7499026
-6.966771359 -2.461336499e-05 96.75447261
-244.3868034 66.81722339 -145.2500974
-229.9972654 -2.461336499e-05 -96.68164839
-48.02562036 40.41066039 -139.2500974
-185.6552194 61.19169839 -145.2500974
1.964131843e-05 16.37987339 -18.09530939
-196.0425814 7.541638387 -139.2500974
-22.46245136 7.442041387 148.7499026
-214.9905924 1.175497387 -145.2500974
-80.71863636 6.617917387 -139.2500974
-148.3327564 -2.461336499e-05 40.97475461
-152.4792844 24.15870439 -139.2500974
-87.65043336 -2.461336499e-05 -87.30454239
1.964131843e-05 51.64908839 -65.52029439
-220.0507234 -2.461336499e-05 103.5750796
-76.69722736 53.05231139 -139.2500974
-20.76734236 -2.461336499e-05 87.16274061
1.964131843e-05 30.63988539 -81.50638739
1.964131843e-05 37.06370639 -13.05630939
-114.5763034 -2.015379613 -145.2500974
-159.9004234 36.26901739 -139.2500974
-59.83528636 23.27168439 -145.2500974
-124.0282594 46.71388239 -145.2500974
-81.67818336 61.94804839 148.7499026
-179.6656154 57.01831339 -145.2500974
1.964131843e-05 12.63098539 56.05634061
-30.39783736 -2.461336499e-05 100.3799536
-133.6938804 32.10012339 -145.2500974
-250.7653524 6.725126387 -139.2500974
-126.5333154 8.549566387 -145.2500974
-201.2849714 25.52310539 -139.2500974
-5.795713359 -2.461336499e-05 -129.8031194
-2.823592359 15.07013739 148.7499026
-127.1509394 58.00072939 148.7499026
-155.9389854 69.55761839 154.2358266
-178.1144644 -2.461336499e-05 42.48509861
-75.11221736 28.81153939 148.7499026
-94.37056536 16.33377339 -139.2500974
1.964131843e-05 79.79227239 131.5496986
-214.8282114 9.831913387 148.7499026
-237.7115034 20.97968939 -139.2500974
-159.3292244 -2.461336499e-05 77.96413761
-51.59171136 61.21800339 148.7499026
-45.94110336 46.87857339 -139.2500974
-227.0423704 6.305452387 148.7499026
-121.7745204 -2.461336499e-05 -110.4137644
-70.69332136 4.002348387 -139.2500974
-183.7123254 -2.461336499e-05 50.57782561
-68.83957936 -2.461336499e-05 47.83706861
-180.0559214 34.81624539 148.7499026
1.964131843e-05 65.13625239 62.58927861
-64.54590436 123.5439074 148.7499026
-26.43401436 -2.461336499e-05 4.731034614
1.964131843e-05 76.84065339 71.04130961
-179.5670044 62.49169739 -139.2500974
-174.3766234 -2.461336499e-05 55.51995661
-21.20426536 -2.461336499e-05 61.71323261
-103.4791584 -2.461336499e-05 -92.23854139
-43.03829136 12.65008639 -139.2500974
-51.31036136 -2.461336499e-05 -102.7773664
-172.8194514 -2.461336499e-05 -33.83820039
1.345503641 -1.154528613 -145.2500974
1.964131843e-05 57.33616439 125.6787306
1.964131843e-05 20.79252639 -30.69295839
-173.5971114 24.59679539 -145.2500974
-247.5243814 55.19077939 -145.2500974
-28.53816836 120.0024534 148.7499026
-60.03338436 62.84262539 -145.2500974
-195.0848924 16.59815839 -145.2500974
-122.8928894 -2.461336499e-05 -128.9507774
-147.9061654 63.72392539 -139.2500974
-85.68477336 -2.461336499e-05 -5.314764386
-165.6162344 53.81936739 -139.2500974
1.964131843e-05 51.37273639 -81.26877339
-5.987057359 26.20130239 -145.2500974
-83.30309536 -0.2539346134 -139.2500974
-223.3401694 -2.461336499e-05 4.868694614
-231.0661774 27.22419239 -145.2500974
-70.89859636 24.62861339 -145.2500974
-112.2721474 39.18114239 148.7499026
1.964131843e-05 24.94906639 16.85600261
-85.63503936 54.84846339 148.7499026
-71.37536736 -2.461336499e-05 -48.60589739
1.964131843e-05 41.04013339 -125.7515404
-188.5967914 -2.461336499e-05 92.88531561
1.964131843e-05 56.72015839 44.75835961
