# .PCD v0.7 - Point Cloud Data file format
VERSION 0.7
FIELDS x y z
SIZE 4 4 4
TYPE F F F
COUNT 1 1 1
WIDTH 1186
HEIGHT 1
VIEWPOINT 0 0 0 1 0 0 0
POINTS 1186
DATA ascii
1102.395272 -47.36039861 233.9999026
-539.927886 -2.461360896e-05 91.27970361
1007.529935 -2.461360896e-05 145.5809636
-139.328074 -2.461360896e-05 202.5561206
1143.19216 -2.461360896e-05 189.7281566
-728.89814 -15.86197861 -9.738635799e-05
-683.108323 -2.461360896e-05 153.2392496
-573.24744 -3.172090614 -9.738635799e-05
1250.726257 -18.72320461 -9.738635799e-05
-300.269729 -2.461360896e-05 48.52520661
668.341841 -13.03835561 -9.738635799e-05
-1256.688285 -19.27713861 -9.738635799e-05
1245.636535 -2.461360896e-05 71.77357161
-651.177859 -2.461360896e-05 110.8075676
1185.187773 -2.461360896e-05 160.1290486
-1283.999955 -43.62057061 130.3007336
-163.250793 -2.461360896e-05 109.9092956
767.590887 -2.461360896e-05 194.1563396
-1250.596506 -2.461360896e-05 108.1051486
1142.372023 -17.31663561 233.9999026
-83.36388695 -2.461360896e-05 45.58063861
-1280.035998 -2.461360896e-05 250.7643706
1191.427523 -38.22987261 233.9999026
604.382218 -2.461360896e-05 194.4363326
-437.276989 2.478655386 -9.738635799e-05
1277.436223 -43.65922661 232.6673696
1050.368414 -47.24702661 -9.738635799e-05
625.519087 -22.16643061 233.9999026
-128.916172 -2.461360896e-05 42.05205061
557.421567 -2.461360896e-05 192.2163916
1004.523002 -20.28117461 -9.738635799e-05
1191.221754 -15.19142061 -9.738635799e-05
193.20519 -43.08910561 252.4106366
1099.015165 -2.461360896e-05 118.1242776
58.29174905 -26.92222761 -9.738635799e-05
941.25176 -34.10113061 227.9999026
-915.671816 -41.11944161 -9.738635799e-05
683.746475 -19.44864861 227.9999026
401.028308 -2.461360896e-05 50.22327461
-216.744638 -2.461360896e-05 51.37103961
680.882411 -60.47347261 -9.738635799e-05
176.754565 -2.461360896e-05 210.0675806
-1277.999955 -40.92322361 38.17861661
412.3465 -2.461360896e-05 214.7242156
-140.905294 -28.73927961 -9.738635799e-05
-1182.199358 -2.461360896e-05 93.53824661
462.246975 -6.616469614 -9.738635799e-05
-77.08655795 -31.22060961 -9.738635799e-05
-1044.461471 -2.461360896e-05 138.0148526
535.721949 -2.461360896e-05 36.15528261
335.18431 -18.98476261 241.2366256
245.824054 -32.56485661 -9.738635799e-05
-523.333795 -19.02475661 -9.738635799e-05
937.713277 -16.05490261 -9.738635799e-05
-491.876067 -2.461360896e-05 44.19813361
437.268591 -2.461360896e-05 141.7553706
165.812277 -25.44042761 -9.738635799e-05
865.974099 -35.53528561 233.9999026
544.392496 -27.58156261 233.9999026
-744.651108 -2.461360896e-05 83.71375261
893.692786 -2.461360896e-05 179.0494466
789.776601 -39.84633961 227.9999026
-359.670671 -2.461360896e-05 29.77539461
-356.033529 -34.44193661 -9.738635799e-05
-977.860162 -2.461360896e-05 205.7531136
877.351619 -2.461360896e-05 94.79282761
1140.306634 -42.34179461 -9.738635799e-05
-966.980545 -2.461360896e-05 33.26400761
386.998186 -39.63490761 243.1774816
802.923045 -2.461360896e-05 47.88645961
853.582141 -2.461360896e-05 22.08441861
318.244308 -13.16336761 -9.738635799e-05
-1301.145101 -2.461360896e-05 96.57091361
-636.920383 -2.461360896e-05 198.5216206
1277.999923 -38.96369061 154.3236566
373.137734 -2.461360896e-05 132.8958456
831.736662 -2.461360896e-05 118.4506246
591.437889 -68.00002461 -1.538465386
-1107.749652 -2.461360896e-05 199.9092576
-358.943608 -2.461360896e-05 122.3583616
346.281948 -2.461360896e-05 92.86860461
-708.861811 -2.461360896e-05 239.9653446
-786.306168 -2.461360896e-05 227.6195386
-996.134895 -41.51347661 -9.738635799e-05
-282.957644 -44.03789161 -9.738635799e-05
-445.297031 -2.461360896e-05 84.66461561
238.484284 -2.461360896e-05 26.55446361
-189.527544 -2.461360896e-05 186.3547826
-789.80727 -2.461360896e-05 58.62713461
1277.999923 -32.87709361 98.66018061
1063.628257 -2.461360896e-05 44.87199561
1182.022967 -2.461360896e-05 116.8476786
52.21639005 -2.461360896e-05 136.9195466
-1171.820759 -1.671899614 -9.738635799e-05
-467.431122 -2.461360896e-05 250.7456186
990.16515 -2.461360896e-05 63.34556561
715.650805 -2.461360896e-05 42.75257661
-1111.756012 -2.461360896e-05 139.6083266
-375.687449 -2.461360896e-05 248.3384676
118.239848 -2.461360896e-05 187.2793686
-898.396687 -2.461360896e-05 165.3246446
-653.246367 -28.99824961 -9.738635799e-05
-90.47139595 -2.461360896e-05 247.2628746
110.971889 -2.461360896e-05 136.0309666
-56.27438295 -2.461360896e-05 173.2129646
838.785871 -31.58555061 -9.738635799e-05
113.134027 -2.461360896e-05 68.04153261
-509.913448 -2.461360896e-05 247.8839216
1056.631837 -2.461360896e-05 191.5282246
362.403678 -20.04182861 -9.738635799e-05
-575.921989 -2.461360896e-05 166.8178866
-11.64689795 -32.81845761 -9.738635799e-05
-1154.398903 -2.461360896e-05 208.4998446
-257.883299 -2.461360896e-05 123.6968746
43.55421205 -2.461360896e-05 72.81338261
-1164.345769 -2.461360896e-05 134.8358796
768.64803 -68.00002461 -1.076978386
-705.733955 -2.461360896e-05 57.54436361
-839.892213 -47.10257361 -9.738635799e-05
-263.369423 -2.461360896e-05 66.68073061
514.27058 -2.461360896e-05 117.2625756
1205.492158 -2.461360896e-05 72.01653661
-1103.455683 -28.29077261 -9.738635799e-05
429.293133 -33.28182461 -9.738635799e-05
-678.941795 -2.461360896e-05 199.2520476
1224.229734 -48.56108261 -9.738635799e-05
666.140254 -2.461360896e-05 95.66896661
-388.425131 -2.461360896e-05 66.60158461
494.079344 -23.40316161 234.7500336
-925.847103 -2.461360896e-05 40.91547161
-286.723813 0.2481073864 -9.738635799e-05
1177.287591 -2.461360896e-05 34.38338561
-750.979674 -2.461360896e-05 208.6754646
1299.497072 -57.64730661 -9.738635799e-05
-589.711381 -2.461360896e-05 45.93354061
-899.135053 -2.461360896e-05 210.3846366
-1283.999955 -36.23149361 214.9272826
828.072046 -27.70258261 227.9999026
486.508631 -2.461360896e-05 181.8667106
537.576694 -28.86053861 -9.738635799e-05
-172.281288 -2.461360896e-05 252.1933896
-794.167892 -2.461360896e-05 143.2357956
-864.278728 -2.461360896e-05 235.3972706
972.483522 -42.38788461 -9.738635799e-05
885.790738 -2.461360896e-05 43.84271361
-25.11738695 -2.461360896e-05 108.6649776
689.80577 -2.461360896e-05 193.4948376
-907.20698 -2.461360896e-05 81.56756761
279.488434 -2.461360896e-05 48.27224261
-1243.770228 -2.461360896e-05 150.8974676
702.11638 -2.461360896e-05 79.02393361
-827.139201 -2.461360896e-05 202.9550846
1018.309591 -2.461360896e-05 36.63563561
-12.32554595 -2.461360896e-05 227.1379956
-1026.732686 -2.461360896e-05 102.1596246
938.303093 -2.461360896e-05 101.7709596
488.156406 -2.461360896e-05 45.68473661
932.113516 -2.461360896e-05 35.76957661
-983.909817 -2.461360896e-05 167.9728616
624.306844 -2.461360896e-05 56.10487161
-960.417022 -29.67025961 -9.738635799e-05
1118.394081 -2.461360896e-05 31.86236061
39.26399005 -2.461360896e-05 31.24945161
-577.484591 -2.461360896e-05 91.98318461
977.5803 -2.461360896e-05 190.0141376
-46.71894795 -2.461360896e-05 209.5108256
1132.034629 0.2614203864 96.09121161
1217.728305 -1.473406614 233.9999026
-1298.806622 -33.24177561 -9.738635799e-05
752.972708 -28.61713561 233.9999026
-1244.593095 -2.461360896e-05 29.62840461
-1195.759126 -31.20945061 -9.738635799e-05
966.690925 -2.461360896e-05 142.4667076
-288.062376 -2.461360896e-05 153.3978646
-1283.999955 -12.19513361 177.6716666
935.883323 -2.461360896e-05 207.3003316
-23.95237695 -2.461360896e-05 145.8422136
230.907608 -24.63873561 249.4433886
953.273111 -2.461360896e-05 67.02061661
-1069.697347 -44.20413961 -9.738635799e-05
288.379478 -34.59198061 -9.738635799e-05
1068.718462 -2.461360896e-05 95.91801461
501.065094 -38.01343561 -9.738635799e-05
-459.425988 -2.461360896e-05 186.5049466
-225.450715 -2.461360896e-05 194.8454806
659.548194 -46.60780161 227.9999026
-1033.465084 -24.49082961 -9.738635799e-05
-1208.080489 -2.461360896e-05 36.17744961
269.159442 -31.19037461 252.4515666
293.564158 -2.461360896e-05 115.2898106
-336.882338 -2.461360896e-05 242.7859336
423.100762 -31.59562061 240.3361546
482.678763 -2.461360896e-05 99.60844461
-759.805427 -2.461360896e-05 171.9022966
-206.244925 -58.03004061 -9.738635799e-05
292.000728 -2.461360896e-05 155.4950236
1067.192711 -34.15847061 227.9999026
-901.321316 -2.461360896e-05 9.160615614
1277.999923 -18.06269061 207.0938556
-972.728301 -2.461360896e-05 100.6803956
190.639301 -2.461360896e-05 148.7480916
-1070.71968 -2.461360896e-05 34.52223361
-1200.044513 -2.461360896e-05 234.6220886
11.00314505 -2.461360896e-05 155.4557966
-695.09793 -30.94011161 -9.738635799e-05
-457.174738 -2.461360896e-05 118.0928336
364.034333 -2.461360896e-05 62.20592461
1006.053307 2.022704386 227.9999026
568.06167 -2.461360896e-05 20.15224461
-485.746926 -34.14889561 -9.738635799e-05
-816.741134 -20.33274761 -9.738635799e-05
706.564472 -34.84003261 -9.738635799e-05
781.069317 -2.461360896e-05 20.47609861
-1136.522545 -2.461360896e-05 65.24055461
1014.254121 -2.461360896e-05 111.2527586
673.031169 -2.461360896e-05 160.5351826
-766.960415 -40.45957061 -9.738635799e-05
-335.353261 -2.461360896e-05 187.7116096
183.782658 -2.461360896e-05 30.23022861
-7.455310953 -2.461360896e-05 26.90196061
-90.80264395 -2.461360896e-05 117.0974246
209.616363 -32.01012761 -9.738635799e-05
589.777423 2.252259386 103.2626256
-1212.25071 -2.461360896e-05 167.9904116
-1174.47589 -2.461360896e-05 170.9890466
-1107.065806 -2.461360896e-05 86.05652761
1271.948201 -2.461360896e-05 167.4087706
476.872288 -2.461360896e-05 216.4342186
908.154681 -35.64463361 -9.738635799e-05
715.863122 -37.37325861 227.9999026
377.696474 -2.461360896e-05 193.1003916
744.12937 -2.461360896e-05 19.39820061
-255.284529 -20.94750061 -9.738635799e-05
1230.813313 -32.98706361 233.9999026
-130.555131 -2.461360896e-05 119.5672676
372.441485 -61.75271261 -9.738635799e-05
151.206565 -2.461360896e-05 76.58547161
212.356954 -2.461360896e-05 204.3585396
-199.576318 -2.461360896e-05 22.22175161
308.361136 -2.461360896e-05 218.5681416
109.208688 -53.63622461 -9.738635799e-05
-1038.082147 -2.461360896e-05 25.73901461
936.114002 -66.94662561 233.9999026
-407.015677 -38.75072661 -9.738635799e-05
-710.590852 -2.461360896e-05 133.7216746
-440.599176 -2.461360896e-05 222.0855146
-1269.884823 -2.461360896e-05 217.2071276
378.264291 -2.461360896e-05 25.47371061
-232.270974 -2.461360896e-05 244.9237186
83.20727605 -2.113037614 -9.738635799e-05
313.789777 -2.461360896e-05 45.18600561
-932.483913 -2.461360896e-05 214.0759766
766.223152 -2.461360896e-05 109.0744736
546.025208 -2.461360896e-05 73.26775961
-192.723935 -2.461360896e-05 88.37246661
-460.488887 -2.461360896e-05 32.76538161
-315.895377 -32.24074861 -9.738635799e-05
1004.971349 -68.00002461 230.7091116
104.22912 -2.461360896e-05 244.8286516
-1000.859343 -2.461360896e-05 41.41418661
804.756884 -35.71423161 -9.738635799e-05
-318.617643 -2.461360896e-05 113.7530626
-137.92831 -61.80610361 -9.738635799e-05
809.479427 -2.461360896e-05 143.0327146
905.589987 -31.56890961 233.9999026
256.094228 -2.461360896e-05 164.6057546
-581.349 -2.461360896e-05 234.4329336
559.845192 -56.02493061 -9.738635799e-05
-645.205385 -62.13359561 -9.738635799e-05
-466.636955 -68.00002461 -1.271061386
974.135936 -32.44000261 227.9999026
-143.400521 -2.461360896e-05 81.72505061
-825.563644 -2.461360896e-05 111.5735916
-176.847148 -30.19063561 -9.738635799e-05
431.258186 -2.461360896e-05 15.42903761
79.92297905 -2.461360896e-05 65.48683561
-494.603387 -2.461360896e-05 178.5841806
1141.984407 -2.461360896e-05 54.50314961
657.692719 0.03633338639 233.9999026
1252.547884 -2.461360896e-05 35.90989961
-522.285609 -2.461360896e-05 58.37161161
428.769224 -2.461360896e-05 70.48513761
-856.426565 -2.461360896e-05 36.95529261
-506.580329 -2.461360896e-05 115.4365506
1221.24346 -2.461360896e-05 201.6775286
719.301024 -2.461360896e-05 138.0570746
593.599207 0.3002583864 -9.738635799e-05
410.563476 -2.461360896e-05 123.2232626
147.763785 -2.461360896e-05 9.073240614
734.52973 -2.461360896e-05 202.9830106
166.275776 -2.461360896e-05 244.8540916
363.428704 -2.461360896e-05 163.8725916
-168.14015 -2.461360896e-05 220.0068926
1079.866408 -27.70195161 -9.738635799e-05
-402.662001 -2.461360896e-05 224.7833466
1283.999923 -29.92911261 6.240812614
-28.29863995 -2.461360896e-05 54.78068461
-407.21777 -2.461360896e-05 138.1974626
1225.136789 1.878833386 -9.738635799e-05
-1074.848463 -2.461360896e-05 249.6689546
239.368742 -64.47783461 -9.738635799e-05
-522.996448 -2.461360896e-05 163.6788546
1036.957678 -2.461360896e-05 166.2283836
-644.988991 1.948584386 -9.738635799e-05
-599.742396 -24.79006761 -9.738635799e-05
-72.96763795 0.5170223864 -9.738635799e-05
274.552488 -2.461360896e-05 84.09415861
26.04534605 -34.67955561 -9.738635799e-05
-856.877544 -2.461360896e-05 118.9690536
-1277.999955 -17.64910561 109.7379336
-1227.027342 -2.461360896e-05 212.9364056
615.131661 -26.77236561 -9.738635799e-05
689.981441 -2.461360896e-05 23.23872361
1300.446099 -2.461360896e-05 31.71801261
229.053745 -2.461360896e-05 137.9822696
235.478349 -2.461360896e-05 102.4908256
-1098.467468 -2.461360896e-05 13.48321861
-1077.11822 -2.461360896e-05 67.24204161
261.551044 2.313324386 247.0316526
1111.757919 -28.46840661 -9.738635799e-05
-972.142959 0.8346333864 -9.738635799e-05
117.440009 -2.461360896e-05 26.59901061
756.110156 2.174380386 227.9999026
860.313419 -66.17869461 227.9999026
47.82346005 -60.03481161 -9.738635799e-05
847.018537 -68.00002461 -2.203721386
170.100837 -2.461360896e-05 124.5375366
-583.691732 -67.71271761 -9.738635799e-05
216.2177 -2.461360896e-05 50.63615161
-115.111064 -2.461360896e-05 222.3069346
111.86454 -2.461360896e-05 103.1823996
173.955321 -57.58974161 -9.738635799e-05
-43.30790495 -28.16329561 -9.738635799e-05
-533.001505 -2.461360896e-05 224.6173936
1172.318258 -1.292550614 233.9999026
1178.541105 -67.13174961 227.9999026
647.963561 -2.461360896e-05 120.8666686
-110.650261 -2.461360896e-05 184.4726466
492.541392 -68.00002461 -0.1958593864
1267.267826 -2.461360896e-05 93.97817761
1275.027741 -2.461360896e-05 61.97831361
88.77449505 -2.461360896e-05 197.5796376
389.422021 -35.16356261 -9.738635799e-05
724.838569 -66.99144861 227.9999026
440.33447 -67.03638861 -9.738635799e-05
-821.005734 -2.461360896e-05 62.99604861
-110.064439 -29.96314461 -9.738635799e-05
-868.708551 -2.461360896e-05 156.9358436
-710.254713 -2.461360896e-05 27.07856761
733.467425 -2.461360896e-05 72.67281061
-632.347713 -2.461360896e-05 228.9175826
-649.136278 -2.461360896e-05 31.22892561
936.210375 -2.461360896e-05 138.7432916
647.421576 -2.461360896e-05 35.91497861
-135.305531 -2.461360896e-05 9.083346614
-659.720854 -2.461360896e-05 175.4087096
46.22591105 -2.461360896e-05 103.2648506
-1049.888457 -2.461360896e-05 188.5560266
-763.23972 -2.461360896e-05 108.6071786
17.43146105 -2.461360896e-05 217.0158726
-157.648155 -2.461360896e-05 31.90701361
142.736265 -2.461360896e-05 143.0403046
275.206078 -2.461360896e-05 219.9514466
-544.882225 -2.461360896e-05 10.36247961
-966.853569 -2.461360896e-05 142.8596656
-623.939452 -2.461360896e-05 126.7775166
-1239.194157 -44.06514461 -9.738635799e-05
-610.372918 -2.461360896e-05 174.7228776
550.241773 1.981750386 227.9999026
1037.138308 -26.02139461 227.9999026
-460.155344 -17.79108861 -9.738635799e-05
-1301.422268 -2.461360896e-05 49.25680061
1300.660162 -2.461360896e-05 156.7689696
-1135.909231 -2.461360896e-05 237.7159656
-787.77268 -2.461360896e-05 28.65371961
-678.724251 -2.461360896e-05 122.7673896
-872.173139 -2.461360896e-05 74.64751161
1283.97834 -68.00002461 162.1870046
983.676007 2.175874386 -9.738635799e-05
597.459856 -35.29809861 227.9999026
-844.98838 -2.461360896e-05 0.3945926136
-361.430242 2.324299386 -9.738635799e-05
-515.971524 -2.461360896e-05 26.47545461
-1192.948565 -2.461360896e-05 65.57710961
891.863684 -2.461360896e-05 208.8844716
-261.754568 -2.461360896e-05 249.7932276
1171.834062 -39.73960261 -9.738635799e-05
346.561773 -2.461360896e-05 221.1651706
303.497576 -60.32217761 -9.738635799e-05
875.225403 -0.8512416136 233.9999026
1212.827218 -2.461360896e-05 149.0402326
307.712987 -30.23300161 243.3986686
-72.89803195 -67.96194161 -9.738635799e-05
-1139.18528 -64.45337261 -9.738635799e-05
1246.533899 -2.461360896e-05 138.6235116
867.091969 -2.461360896e-05 122.6390576
-1130.779315 -2.461360896e-05 36.15230561
176.424929 -2.461360896e-05 93.71267461
867.7231 -25.29075261 -9.738635799e-05
-1053.529342 -2.461360896e-05 89.04018961
-318.387572 -2.461360896e-05 77.70517261
357.532662 -37.78092361 245.4964616
-563.170598 -2.461360896e-05 211.1969366
46.61084005 1.188562386 -9.738635799e-05
912.407704 -2.461360896e-05 156.1190186
81.94257305 -2.461360896e-05 131.2781576
541.924723 -2.461360896e-05 3.620390614
-1028.608655 -2.461360896e-05 220.8252186
-672.881335 -2.461360896e-05 88.98695261
837.175703 0.9500093864 227.9999026
-1169.908444 -68.00002461 -0.1369433864
-1016.340303 -2.461360896e-05 155.7293216
1256.476723 -2.461360896e-05 194.0172426
321.293738 -68.00002461 246.2083806
-327.293747 -2.461360896e-05 29.99414561
446.021947 -49.89523961 232.5135056
239.809326 -2.461360896e-05 192.4299686
-1222.151548 -2.461360896e-05 101.4113896
-753.211779 -2.461360896e-05 2.448760614
-526.732662 -47.95283661 -9.738635799e-05
-355.146022 -63.51356861 -9.738635799e-05
-564.069018 -2.461360896e-05 117.7770876
-282.585478 -2.461360896e-05 228.7004436
51.71152205 -2.461360896e-05 165.9855496
-228.126729 -2.461360896e-05 126.8187306
1119.313617 -2.461360896e-05 168.9925026
625.34467 -2.461360896e-05 215.3450786
-1033.382233 -2.461360896e-05 250.5053206
-463.725879 -2.461360896e-05 61.53297961
464.039029 -2.461360896e-05 75.11180661
596.875915 -2.461360896e-05 75.30125461
391.008669 -68.00002461 239.1035436
48.20950505 -2.461360896e-05 238.6424726
825.853343 -2.461360896e-05 87.75303461
516.107355 -2.461360896e-05 181.3717476
-3.399712953 -2.461360896e-05 86.64555361
-914.397242 -2.461360896e-05 141.4100606
1163.278313 -41.22182461 227.9999026
733.248582 -24.18360761 -9.738635799e-05
-628.712519 -2.461360896e-05 51.42246461
-81.14459995 -2.461360896e-05 86.33942761
-1107.885729 -2.461360896e-05 171.2238386
-387.430354 -2.461360896e-05 193.6614216
342.44043 2.074101386 -9.738635799e-05
-254.405817 -2.461360896e-05 93.82543861
1277.999923 -29.87136161 127.2806656
112.651177 -2.461360896e-05 215.9356866
784.255404 -2.461360896e-05 171.0329746
518.938086 -38.90842761 227.9999026
-316.50182 -2.461360896e-05 221.6442646
-354.444004 -2.461360896e-05 151.4643246
793.833388 -68.00002461 228.6576616
-560.150329 -2.461360896e-05 69.45171761
404.148932 -1.891340614 241.8276916
640.625356 -6.992181614 -9.738635799e-05
265.187952 -65.55821161 246.7454646
754.928831 -2.461360896e-05 164.4281896
-24.24086395 -7.230927614 -9.738635799e-05
1273.049949 0.8639313864 -9.738635799e-05
215.935031 -2.461360896e-05 79.08682461
652.328334 -2.461360896e-05 71.00943761
1090.230585 -2.461360896e-05 34.07233961
1282.740496 1.074110386 227.3197916
-227.625188 -2.461360896e-05 19.04187061
251.056817 1.322515386 -9.738635799e-05
-415.997414 -65.47208161 -9.738635799e-05
-409.112663 -2.461360896e-05 166.2363166
1283.999923 -34.94481661 181.4787536
847.131282 -2.461360896e-05 183.4827056
-926.261241 -67.07456761 -9.738635799e-05
559.389473 -2.461360896e-05 140.7305056
-1283.999955 -26.21494861 63.45665861
-386.746961 -2.461360896e-05 36.63760961
464.97676 -28.71273361 231.0217276
1263.972321 -68.00002461 230.6112976
-644.353987 -2.461360896e-05 83.76827961
-222.245551 -2.461360896e-05 162.5135356
89.00792205 -29.38404261 -9.738635799e-05
-1277.999955 -27.95287961 152.5398136
189.231943 -2.461360896e-05 185.2169056
-769.813137 -68.00002461 -2.418023386
505.510972 -2.461360896e-05 155.3848426
319.974975 -2.461360896e-05 170.7617606
-176.643913 -2.461360896e-05 134.4976826
828.261978 -2.461360896e-05 33.38983661
628.010274 -2.461360896e-05 179.5991336
1124.610235 -65.08474461 -9.738635799e-05
-1277.999955 -12.21375861 33.11676261
-1077.577758 -2.461360896e-05 136.3827956
-271.809143 -2.461360896e-05 186.4655696
1080.253379 -2.461360896e-05 141.0297656
-1080.241669 -2.461360896e-05 198.6966706
-916.616692 -2.461360896e-05 110.6456386
940.522678 -7.271307614 233.9999026
1154.587267 -2.461360896e-05 117.6699346
780.471646 -2.461360896e-05 70.93977561
-15.18204795 -60.37251761 -9.738635799e-05
1108.900365 -20.87442761 233.9999026
-709.769227 -59.68193961 -9.738635799e-05
-429.919188 -2.461360896e-05 117.4291006
-66.86496695 -2.461360896e-05 227.8774606
-999.618271 -2.461360896e-05 105.0476876
-1005.880396 -67.09965961 -9.738635799e-05
1283.306307 -25.50002461 72.99315961
550.526325 -54.41571361 233.9999026
608.071346 -2.461360896e-05 133.5345416
819.380752 -2.461360896e-05 207.5073106
524.75811 -8.249582614 233.9999026
1207.237172 -2.461360896e-05 178.4754606
985.069789 -2.461360896e-05 164.0226876
707.968614 -2.461360896e-05 213.4884556
-366.329128 -2.461360896e-05 95.39782161
1291.687735 -2.461360896e-05 109.5014146
144.0036 -2.461360896e-05 195.2610446
439.054106 -2.461360896e-05 211.4189636
482.937318 -2.461360896e-05 19.29153061
-656.550728 -2.461360896e-05 137.9810786
132.763386 -38.61251961 -9.738635799e-05
905.096984 -62.33449561 -9.738635799e-05
-1089.553846 -2.461360896e-05 227.1892616
337.175379 -2.461360896e-05 67.62652361
871.699993 -2.461360896e-05 68.61384161
-85.16215195 -2.461360896e-05 176.2948136
1205.69848 -64.89125561 233.9999026
1133.368635 -42.50718661 233.9999026
763.937266 0.3696063864 -9.738635799e-05
-236.070757 -39.59194961 -9.738635799e-05
-705.529007 -2.461360896e-05 0.8837706136
1083.393674 -13.46139861 233.9999026
-1270.376008 -2.461360896e-05 88.91675461
60.36195705 -2.461360896e-05 198.4731656
1079.420903 -59.23261861 227.9999026
457.59206 -2.461360896e-05 158.8003156
910.011337 -2.461360896e-05 19.09807861
418.493168 -2.461360896e-05 95.97978561
-1283.999955 -24.40006761 239.2531476
-829.081673 -2.461360896e-05 176.5826366
-465.809725 -2.461360896e-05 143.3726036
301.838168 -2.461360896e-05 19.91508361
-308.044426 -2.461360896e-05 170.6451726
-1276.763207 0.8565883864 -9.738635799e-05
-1131.53866 -38.57822061 -9.738635799e-05
1001.30906 -2.461360896e-05 87.25969461
597.154798 -2.461360896e-05 39.84265461
-764.234692 -2.461360896e-05 64.87833161
-793.64823 -32.93774961 -9.738635799e-05
-1004.114377 -2.461360896e-05 207.3048936
1042.46492 -2.461360896e-05 97.12846261
174.674433 1.616599386 -9.738635799e-05
-723.625363 -2.461360896e-05 218.2372636
1216.260556 -23.11157861 -9.738635799e-05
966.291862 -67.90491161 -9.738635799e-05
-601.979453 2.472532386 -9.738635799e-05
1157.460001 -2.461360896e-05 167.7254486
-627.509675 -17.58801061 -9.738635799e-05
572.94131 -28.38223161 233.9999026
-726.472455 -2.461360896e-05 154.5065246
-301.727337 -2.461360896e-05 22.40945261
-364.731405 -2.461360896e-05 180.7360096
1038.140827 -24.16534661 -9.738635799e-05
-891.257171 -31.83517161 -9.738635799e-05
421.390929 -2.461360896e-05 183.1635416
-1138.599809 -2.461360896e-05 144.6554336
576.590549 -2.461360896e-05 173.9471006
-607.322386 -2.461360896e-05 148.1748326
1112.901782 -2.461360896e-05 143.7364276
791.950681 -2.461360896e-05 123.7895336
-57.78122295 -2.461360896e-05 50.24723761
-104.355418 -2.461360896e-05 25.80729961
796.032759 -2.461360896e-05 195.5772286
1070.249971 -2.461360896e-05 213.6171376
851.113747 -2.461360896e-05 93.67326361
-183.368197 -2.461360896e-05 159.5425936
918.387639 -2.461360896e-05 188.1974946
-1179.455807 -2.461360896e-05 218.5292286
325.469373 -2.461360896e-05 108.2803286
-724.663109 -2.461360896e-05 111.9825886
1059.249754 -2.461360896e-05 71.85586161
604.940052 -2.461360896e-05 167.9255806
530.832748 -2.461360896e-05 97.09089261
-812.283954 -2.461360896e-05 224.1039956
-877.008458 -2.461360896e-05 18.83556461
776.919104 -13.11546261 227.9999026
1127.405044 -2.461360896e-05 220.9740086
459.910288 -2.461360896e-05 127.2568976
-1244.685867 -2.461360896e-05 56.20677461
-242.164246 -2.461360896e-05 47.47127261
1198.611656 -2.461360896e-05 96.77811161
-1036.833967 0.9685973864 -9.738635799e-05
1062.594249 -2.461360896e-05 164.9112686
-915.371901 -2.461360896e-05 190.3723326
-775.605312 -2.461360896e-05 199.7214546
1168.800086 -2.461360896e-05 190.8550456
-385.453443 -2.461360896e-05 120.7206366
-741.180327 -43.09011161 -9.738635799e-05
1152.867005 -2.461360896e-05 217.4337916
-1150.343167 -15.56703561 -9.738635799e-05
-156.226931 -2.461360896e-05 182.4651056
911.393687 -2.461360896e-05 101.8570136
-1230.07282 -2.461360896e-05 129.0000076
-411.566738 -2.461360896e-05 24.92032161
-1226.252795 -20.71491161 -9.738635799e-05
9.157418047 -2.461360896e-05 190.7646646
-466.166589 -2.461360896e-05 224.7124316
702.778006 -2.461360896e-05 161.6464986
884.742786 -2.461360896e-05 149.1646976
-687.892622 -2.461360896e-05 223.0520736
1117.158004 -68.00002461 232.5944166
1123.519817 0.2979723864 -9.738635799e-05
-50.36397895 -2.461360896e-05 105.8926086
-924.833629 -2.461360896e-05 242.4744926
-273.061108 -67.42163961 -9.738635799e-05
834.033251 -2.461360896e-05 149.4415426
-779.715986 -2.461360896e-05 252.1011866
1226.738834 -2.461360896e-05 88.59595861
-126.99644 -2.461360896e-05 163.7004596
-1300.266594 -2.461360896e-05 235.6180186
1015.393343 -2.461360896e-05 10.44749061
-815.835011 -2.461360896e-05 87.67973961
958.733686 -1.535874614 -9.738635799e-05
691.18141 -2.461360896e-05 103.9432356
347.974663 -2.461360896e-05 141.1980526
1157.572378 -68.00002461 -0.5050003864
-849.980039 -2.461360896e-05 213.6003546
749.634478 -51.50038661 -9.738635799e-05
213.110611 -2.461360896e-05 22.01688361
-107.875563 -2.461360896e-05 55.87283661
-417.492618 -2.461360896e-05 70.31592061
-732.02809 -2.461360896e-05 57.01481661
1172.064353 1.077312386 -9.738635799e-05
-1154.138233 -2.461360896e-05 83.16369261
-292.329215 -2.461360896e-05 122.9705616
1183.896235 -2.461360896e-05 59.28050861
-81.43452195 -2.461360896e-05 150.4478286
-571.578817 -2.461360896e-05 28.48480161
-719.708719 -2.461360896e-05 81.05188761
332.287851 -46.03734861 241.4645826
-769.465813 -2.461360896e-05 147.1022676
1277.999923 -42.97699761 205.0514796
510.71486 -2.461360896e-05 34.91783161
838.746827 -2.461360896e-05 1.523559614
-685.383919 -2.461360896e-05 248.5228536
497.940761 -50.82263361 234.4461346
105.755407 -2.461360896e-05 161.8742506
-198.876428 -2.461360896e-05 112.5695456
-481.586445 -2.461360896e-05 112.9405496
232.960046 -2.461360896e-05 246.1745666
675.307557 -2.461360896e-05 213.7658346
-421.674722 -16.93948561 -9.738635799e-05
615.648864 -61.47853961 -9.738635799e-05
21.16095105 -2.461360896e-05 96.12557661
-570.655466 -2.461360896e-05 142.5067976
989.189934 -2.461360896e-05 128.7778206
1070.199901 -2.461360896e-05 9.453719614
1023.240788 -45.87390461 -9.738635799e-05
1094.547887 -2.461360896e-05 194.0821666
-292.999955 2.041389386 72.16811561
100.548665 -2.461360896e-05 44.77924361
694.079489 -11.56960961 -9.738635799e-05
864.843858 0.5792273864 -9.738635799e-05
790.74384 -10.00312861 -9.738635799e-05
-696.133576 -2.461360896e-05 177.8917696
658.113532 -35.54922361 -9.738635799e-05
-343.39537 -2.461360896e-05 48.75476961
-510.038268 -2.461360896e-05 200.9109396
750.568204 -2.461360896e-05 134.0949756
1275.339484 -2.461360896e-05 26.37431461
-516.310941 -2.461360896e-05 139.5967826
-871.8427 -2.461360896e-05 99.27444361
-534.921804 -2.461360896e-05 117.3945856
604.325206 -2.779408614 233.9999026
319.53535 -2.461360896e-05 240.6594526
-1150.322792 -2.461360896e-05 21.23369661
1254.360045 -2.461360896e-05 114.9038456
-962.794934 -2.461360896e-05 184.2828016
486.635163 -14.71693961 -9.738635799e-05
-383.030055 -33.56327761 -9.738635799e-05
580.511478 -2.461360896e-05 200.4429396
1033.538725 -2.461360896e-05 209.6987626
1192.040938 -14.46916161 227.9999026
-1022.413749 -2.461360896e-05 68.26757261
-555.380181 -19.85394661 -9.738635799e-05
327.436394 -35.79729261 -9.738635799e-05
-1277.999955 -37.83208561 11.92252561
-1186.627935 -2.461360896e-05 24.53425361
-230.681021 -2.461360896e-05 71.40748861
1030.697692 -2.461360896e-05 131.9854496
395.431013 -2.461360896e-05 142.7296396
1254.352281 -31.29196661 227.9999026
-507.903377 -2.461360896e-05 3.055019614
1155.685859 -21.56874661 -9.738635799e-05
364.609252 -2.461360896e-05 108.8316666
-433.529848 -2.461360896e-05 177.5174206
-225.662353 -2.461360896e-05 221.1015516
-1260.721861 -2.461360896e-05 131.3409486
671.314429 -68.00002461 228.2631166
1226.604995 -2.461360896e-05 55.21471461
270.092246 0.9674433864 107.9088386
-604.068616 -2.461360896e-05 105.0474586
995.056804 -2.461360896e-05 30.03441461
1283.999923 -65.15223161 216.1371136
756.792348 -2.461360896e-05 78.88143861
426.244762 -2.461360896e-05 46.49583861
129.957239 -2.461360896e-05 166.2306596
-1298.039002 -2.461360896e-05 162.3586956
-1268.023051 -2.461360896e-05 164.4619616
649.285953 -25.72697361 233.9999026
-1115.047124 -2.461360896e-05 225.8372896
-242.222774 -0.7725656136 -9.738635799e-05
1202.692257 -2.461360896e-05 14.61002061
253.477004 -2.461360896e-05 50.02860861
-934.101525 -25.80172361 -9.738635799e-05
-1241.159488 -2.461360896e-05 84.65068161
1106.300906 -2.461360896e-05 95.33805261
-1255.955237 -2.461360896e-05 236.6540316
205.731112 -22.60335161 251.4248246
845.492106 -48.48425761 233.9999026
1248.917334 -46.34394461 -9.738635799e-05
-982.054846 -67.78761961 -9.738635799e-05
695.862328 0.6846413864 233.9999026
-1052.136746 -2.461360896e-05 160.5615936
619.285883 -46.26694661 227.9999026
-516.996286 -2.461360896e-05 85.04193261
-1228.702178 -66.49909961 -9.738635799e-05
369.89076 2.478227386 -9.738635799e-05
130.749629 -2.461360896e-05 88.60255461
1040.303261 -2.461360896e-05 49.14249361
970.754138 -2.461360896e-05 83.23180661
-684.913017 -2.461360896e-05 34.68748561
1031.86706 -57.88003061 233.9999026
-188.484409 -2.461360896e-05 47.72110661
-984.99853 -2.461360896e-05 229.9838386
1197.577295 -49.14175661 -9.738635799e-05
-1237.304763 -2.461360896e-05 2.570547614
1168.294447 -2.461360896e-05 143.6421486
-192.627254 -10.21366361 -9.738635799e-05
-1277.999955 -48.17859261 107.9649266
1029.427082 -3.597975614 233.9999026
921.464413 -47.91223361 227.9999026
992.84228 -2.461360896e-05 207.9322056
-1.941208953 -2.461360896e-05 248.2579326
-489.225107 -2.461360896e-05 236.6960826
217.380019 -48.82280261 250.5080346
870.218634 -2.461360896e-05 187.7635056
-803.471023 0.1028923864 -9.738635799e-05
-552.522222 -2.461360896e-05 165.0717696
806.42165 -21.02473461 233.9999026
877.000249 -2.461360896e-05 21.15024461
-540.960495 -68.00002461 -0.4902083864
-944.939582 -2.461360896e-05 151.1075196
1153.778964 -2.461360896e-05 34.29947061
78.39852405 -2.461360896e-05 250.1603346
743.509307 -49.51572061 227.9999026
880.607831 -56.38291761 233.9999026
-871.883357 -45.29580261 -9.738635799e-05
-929.480185 -2.461360896e-05 88.40191461
658.988696 -2.461360896e-05 179.1160876
-891.146506 -2.461360896e-05 142.6055476
-943.236801 -2.461360896e-05 22.09115461
-75.86188095 -2.461360896e-05 23.56368961
1012.547956 -2.461360896e-05 170.6430086
-809.443909 -2.461360896e-05 160.7253706
-1130.268217 -2.461360896e-05 194.2983846
-1296.213625 -2.461360896e-05 73.90785861
854.409959 -14.56681161 227.9999026
-281.866682 -2.461360896e-05 34.36722861
-472.883661 -2.461360896e-05 165.4287846
-798.037116 -2.461360896e-05 205.4727776
207.980582 -2.461360896e-05 228.7985936
385.91236 -2.461360896e-05 69.73251061
-266.309329 -2.461360896e-05 145.5604276
938.187893 -39.95003661 -9.738635799e-05
404.320928 -2.461360896e-05 27.37911961
521.45272 -2.461360896e-05 55.34082061
953.161602 -2.461360896e-05 192.0584016
-1020.739618 -2.461360896e-05 128.7567136
228.150315 -2.461360896e-05 1.792563614
-1277.999955 -18.54688461 198.9563866
667.020715 -2.461360896e-05 21.76960761
367.936752 -2.461360896e-05 84.87828661
-955.110028 -2.461360896e-05 209.9139306
-1058.181698 -64.11880661 -9.738635799e-05
-438.809752 -2.461360896e-05 22.80960061
923.302595 1.855760386 -9.738635799e-05
-1083.925848 -62.24454461 -9.738635799e-05
-704.248702 -2.461360896e-05 205.9001906
-401.44905 -2.461360896e-05 247.7161666
-148.148534 -2.461360896e-05 54.59841661
-968.626269 -2.461360896e-05 56.16150861
-340.145923 -2.461360896e-05 97.27662661
-293.084737 -23.50414161 -9.738635799e-05
-195.765606 -2.461360896e-05 248.9379006
-250.780137 -2.461360896e-05 195.4981296
-652.950357 -2.461360896e-05 214.8408156
896.706722 -2.461360896e-05 82.29307261
57.27244605 -2.461360896e-05 45.22885161
812.460313 -43.18068861 233.9999026
1121.491488 -2.461360896e-05 70.09762461
187.500878 -18.60603161 -9.738635799e-05
-1216.368809 -47.41554961 -9.738635799e-05
1246.58096 -2.461360896e-05 12.15902661
95.85158905 -2.461360896e-05 19.56381361
353.151752 2.162902386 245.8412466
793.863874 -55.62571861 -9.738635799e-05
-717.770028 -35.64083361 -9.738635799e-05
-732.234789 -2.461360896e-05 21.44917161
-674.096931 -20.05629461 -9.738635799e-05
-849.260362 -25.24339261 -9.738635799e-05
1133.036897 -20.55061461 -9.738635799e-05
-1046.964176 -44.42350461 -9.738635799e-05
987.397964 -14.35518261 233.9999026
407.711255 -47.48789461 235.5286256
-873.541253 -2.461360896e-05 214.7479716
-635.757224 -2.461360896e-05 251.2859206
33.05332005 -2.461360896e-05 148.9484266
-904.483003 -2.461360896e-05 31.55776461
-146.202732 -2.461360896e-05 136.2397066
-8.883144953 -2.461360896e-05 129.0015446
6.416911047 -46.39447061 -9.738635799e-05
-1020.853548 -43.22420461 -9.738635799e-05
597.22264 -68.00002461 232.6064436
1283.999923 -57.98114861 141.4196046
538.617599 -2.461360896e-05 179.6801206
962.974944 -2.461360896e-05 212.3839836
-34.29821995 -2.461360896e-05 165.9013066
862.052286 -2.461360896e-05 48.22914561
-50.54502695 -6.200995614 -9.738635799e-05
-923.387231 -2.461360896e-05 65.91462661
-847.972213 -68.00002461 -2.004218386
486.193881 -2.461360896e-05 71.31872361
-1283.999955 -24.38350161 86.82312761
-158.142517 -43.09437361 -9.738635799e-05
-357.179052 -2.461360896e-05 230.3728596
-1005.667391 -20.65754261 -9.738635799e-05
1283.999923 -19.91187861 164.8467826
-565.293963 -2.461360896e-05 188.8835596
-1224.093171 -2.461360896e-05 190.7253266
-259.159409 -49.86788061 -9.738635799e-05
1236.975521 -2.461360896e-05 221.2601066
600.218517 -45.25914261 -9.738635799e-05
543.362722 -2.461360896e-05 124.3657166
1275.457239 -19.18197761 233.4237486
976.432431 -18.96064261 -9.738635799e-05
1120.949708 -2.461360896e-05 122.3730496
-604.437711 -2.461360896e-05 223.2662486
-337.868388 -2.461360896e-05 209.8639276
424.743172 -5.701752614 234.1881826
-585.461246 0.9999753864 67.79383561
-582.675772 -39.12986061 -9.738635799e-05
573.152647 -2.461360896e-05 118.7722796
1074.926351 -49.62573061 -9.738635799e-05
971.389503 -2.461360896e-05 51.36940261
64.07208605 -2.461360896e-05 13.76480561
-742.058135 -2.461360896e-05 188.2940236
-141.553184 -2.461360896e-05 230.4728296
-800.987661 -2.461360896e-05 121.3296406
-214.159382 1.432945386 -9.738635799e-05
-1051.912398 -2.461360896e-05 117.1068256
-204.40639 -2.461360896e-05 202.8199456
374.176705 -21.55276961 244.1865506
-485.442454 -2.461360896e-05 22.10240561
17.64471305 -2.461360896e-05 36.24035261
-1283.999955 -49.16634061 154.9845586
538.525007 -2.461360896e-05 203.8085956
1213.075278 -44.87982261 227.9999026
-27.86034495 -2.461360896e-05 77.95035461
-1283.999955 -21.51075161 131.0554286
703.682116 -67.51597761 -9.738635799e-05
-904.896984 -61.34421261 -9.738635799e-05
462.80564 -28.71835361 -9.738635799e-05
992.063255 -50.27294861 227.9999026
948.50979 -2.461360896e-05 19.55660361
806.509759 -2.461360896e-05 20.80772961
-890.434579 -2.461360896e-05 190.1064736
435.641825 -2.461360896e-05 117.2787696
649.088964 -67.16758561 227.9999026
161.869521 -2.461360896e-05 28.01339361
679.922297 -32.66192461 -9.738635799e-05
-153.794651 -8.859427614 -9.738635799e-05
889.306263 -18.09012461 227.9999026
523.817171 -46.32400461 -9.738635799e-05
-1289.530779 -2.461360896e-05 123.0051766
123.093652 -2.461360896e-05 48.51454361
-1252.792216 -62.30949461 -9.738635799e-05
390.858256 -2.461360896e-05 219.0101476
854.151514 -47.20431461 -9.738635799e-05
-203.558631 -2.461360896e-05 68.86346761
96.10433905 -2.461360896e-05 87.66166161
-441.807322 -2.461360896e-05 199.4517106
250.396349 -41.44691561 247.9095906
691.750445 -38.88506761 233.9999026
280.300625 -13.70677061 245.5560696
1047.968313 -2.461360896e-05 28.68332661
263.080664 -2.461360896e-05 196.0434466
370.681082 -58.87678461 244.4616616
167.428712 -2.461360896e-05 146.1770736
-1260.346794 -2.461360896e-05 14.27331361
-1125.393706 -2.461360896e-05 122.6405876
-1278.587157 -50.00002461 57.95044361
324.023848 -2.461360896e-05 24.42578961
-817.72339 -2.461360896e-05 135.2290946
769.91799 -48.72720761 227.9999026
820.350771 -2.461360896e-05 60.90265161
-688.723521 -2.461360896e-05 71.09316661
265.73078 -2.461360896e-05 31.43416861
907.282767 -2.461360896e-05 47.02425061
459.350617 -2.461360896e-05 203.6189296
710.4797 -2.461360896e-05 186.8806186
-823.927656 -68.00002461 -2.255479386
-378.12887 -2.461360896e-05 224.7761656
-615.313584 -2.461360896e-05 202.3608986
-339.653007 -20.24103661 -9.738635799e-05
-1016.405963 -2.461360896e-05 25.99803961
-202.046154 -35.75130461 -9.738635799e-05
-1169.707636 -2.461360896e-05 193.1627776
345.026534 -2.461360896e-05 118.1091276
1202.626164 -2.461360896e-05 123.5118706
266.712605 -38.22817161 -9.738635799e-05
-912.815295 -15.86538661 -9.738635799e-05
-849.230088 -2.461360896e-05 57.34594761
-489.483855 -2.461360896e-05 65.68675361
-949.598492 -2.461360896e-05 107.6295246
1203.001541 -2.461360896e-05 49.16936061
339.768338 -2.461360896e-05 162.1523576
565.078977 -2.461360896e-05 83.38936161
-1.977338953 -13.01980461 -9.738635799e-05
964.758319 -2.461360896e-05 171.2807256
1277.999923 -49.48803561 13.04487561
-1189.326399 -2.461360896e-05 155.4119016
1045.240509 -68.00002461 -2.439227386
-344.244934 -2.461360896e-05 14.79702561
-1195.788474 -2.461360896e-05 112.3205726
-275.696111 -2.461360896e-05 208.3345686
1263.916669 -2.461360896e-05 214.5931556
887.471792 -2.461360896e-05 113.7516666
-1193.098666 -4.546457614 -9.738635799e-05
-1189.027357 -51.59728161 -9.738635799e-05
262.070864 -17.10677661 -9.738635799e-05
566.733673 -7.243796614 -9.738635799e-05
-817.355022 -41.77168961 -9.738635799e-05
318.401874 -2.461360896e-05 194.6583046
-60.45266595 -47.47740461 -9.738635799e-05
934.988814 -2.461360896e-05 80.53593061
809.749507 -2.461360896e-05 111.8699806
-833.400888 -2.461360896e-05 227.6435426
-1300.353035 -2.461360896e-05 186.8552896
658.046516 -2.461360896e-05 139.7423546
-777.30506 -2.461360896e-05 85.91784061
953.14805 -50.82063361 233.9999026
-598.165912 -2.461360896e-05 26.31970061
-127.605128 -2.461360896e-05 67.35153861
395.867072 -21.40778061 236.4607836
-306.776531 -2.461360896e-05 138.6926396
1074.704626 -2.461360896e-05 120.4117346
-424.425183 -2.461360896e-05 96.75053361
-35.46921095 -2.461360896e-05 229.1534046
227.009847 -44.28169061 -9.738635799e-05
1163.398453 -20.63075161 233.9999026
-468.02166 -45.93437461 -9.738635799e-05
-24.88720095 -2.461360896e-05 209.9558976
491.957207 -2.461360896e-05 118.7538286
1277.999923 -5.967853614 186.9100086
-637.98616 -2.461360896e-05 177.2799796
409.119904 -43.15299661 -9.738635799e-05
-804.20402 -2.461360896e-05 248.7718106
-169.999045 -2.461360896e-05 198.8392526
653.482754 -63.40303661 -9.738635799e-05
73.29301205 -46.98975461 -9.738635799e-05
-91.24360395 -47.04319161 -9.738635799e-05
470.453989 -1.543424614 236.6093846
-755.646599 -2.461360896e-05 229.3803846
670.84701 -2.461360896e-05 116.5452336
556.235724 -2.461360896e-05 47.02996261
715.229703 -2.461360896e-05 114.7908866
-178.62833 -2.461360896e-05 25.53635161
-761.080279 -19.49227161 -9.738635799e-05
61.57278805 -2.461360896e-05 83.90733661
-462.660584 -2.461360896e-05 11.72342461
705.035634 -18.34389761 233.9999026
-771.54231 -2.461360896e-05 43.28046961
-976.860885 -2.461360896e-05 121.3843946
1283.999923 -47.82364061 112.2848206
207.274162 -2.461360896e-05 135.3106206
-846.045443 -2.461360896e-05 245.9716706
440.094577 -11.29785561 -9.738635799e-05
-41.42573695 -2.461360896e-05 189.1379506
-388.213307 -2.461360896e-05 87.64687761
696.957353 -2.461360896e-05 58.62521461
-936.718312 -48.85505761 -9.738635799e-05
1143.984808 -2.461360896e-05 78.82276161
-734.039038 -2.461360896e-05 236.4630996
24.81116205 -2.461360896e-05 173.3408336
639.260341 -48.35746361 233.9999026
-1219.878613 -2.461360896e-05 147.3081796
360.850669 -2.461360896e-05 205.5557886
504.230469 -4.071459614 233.9999026
285.65289 -2.461360896e-05 135.5332196
1082.958827 -2.461360896e-05 56.56571661
645.445462 -2.461360896e-05 100.0811686
48.37335305 -2.461360896e-05 215.6327276
953.7364 -2.461360896e-05 40.14102461
-918.865044 -2.461360896e-05 169.5139496
1244.243456 -48.98645461 233.9999026
-989.755436 -2.461360896e-05 188.5824646
-324.53565 -2.461360896e-05 57.68633861
-466.934542 -2.461360896e-05 98.08740861
-980.645063 -24.56506661 -9.738635799e-05
-1170.606743 -2.461360896e-05 65.21400961
-1124.448603 -18.98535861 -9.738635799e-05
629.41971 -2.461360896e-05 130.3521946
782.209304 -2.461360896e-05 212.7464476
736.65665 0.6821213864 -9.738635799e-05
-590.735492 -2.461360896e-05 181.5617426
-6.907027953 -2.461360896e-05 167.0134626
169.498628 -2.461360896e-05 62.15554761
1050.857808 -47.25704161 233.9999026
1059.224167 -25.64859561 -9.738635799e-05
-270.740172 -2.461360896e-05 107.1143876
-1262.484283 -2.461360896e-05 40.09030661
354.807583 -39.32193261 -9.738635799e-05
-261.931794 -2.461360896e-05 6.289744614
-241.404427 -2.461360896e-05 142.6889806
-785.286384 -52.26448461 -9.738635799e-05
923.249756 -16.91108461 227.9999026
-985.81464 -2.461360896e-05 24.82190261
-1220.886231 -2.461360896e-05 19.99103761
33.56999105 -2.461360896e-05 126.0114796
988.036216 -61.96437061 -9.738635799e-05
-884.886567 -2.461360896e-05 236.1559376
125.119208 1.278182386 -9.738635799e-05
-61.54287195 -2.461360896e-05 195.2058536
297.815224 -10.68896661 -9.738635799e-05
-1202.553262 -2.461360896e-05 90.51638561
444.669483 -25.93565861 232.6199466
-503.800927 -43.98101161 -9.738635799e-05
-79.17043995 -2.461360896e-05 65.88289661
30.06678405 -2.461360896e-05 57.31626961
401.880665 -2.461360896e-05 189.5620046
415.942304 -2.461360896e-05 143.5810466
-825.329953 -2.461360896e-05 6.305921614
-46.43744895 -2.461360896e-05 147.9943796
-1159.005755 -2.461360896e-05 115.0338856
-1277.999955 -17.33578961 12.31885061
521.85386 -2.461360896e-05 17.71184161
821.052809 -18.12740861 -9.738635799e-05
-448.453372 -2.461360896e-05 243.0712896
-410.643975 0.3042853864 -9.738635799e-05
-117.240565 -49.10724361 -9.738635799e-05
229.191778 -20.69862661 -9.738635799e-05
-914.682908 -2.461360896e-05 224.0980766
-1269.745847 -2.461360896e-05 193.8159356
468.043033 -2.461360896e-05 51.95139561
1283.999923 -14.72091061 91.51670261
-436.212828 -68.00002461 -0.05289838636
-851.066414 -2.461360896e-05 167.1164086
-109.107807 -2.461360896e-05 108.1764606
1245.765986 -2.461360896e-05 95.84328661
1265.078188 -2.461360896e-05 148.2504116
-976.546622 -2.461360896e-05 80.73581761
948.626803 -2.461360896e-05 122.6782496
-539.858237 -2.461360896e-05 68.75882861
-1118.284233 -2.461360896e-05 17.87745661
822.52697 -45.50626261 -9.738635799e-05
731.239173 -22.75223661 233.9999026
146.346644 -19.81935061 -9.738635799e-05
-948.668189 -2.461360896e-05 41.92102761
1283.999923 -19.51725461 143.6184736
-1277.999955 -49.58858161 198.2471556
-112.055781 -2.461360896e-05 245.2857546
-596.589836 -2.461360896e-05 85.40228661
-1249.796545 -2.461360896e-05 215.0984706
457.201849 -68.00002461 233.0320386
-1235.371005 -2.461360896e-05 169.2003556
556.741355 -2.461360896e-05 170.5986376
-344.442701 -2.461360896e-05 168.9294116
-1058.220972 -2.461360896e-05 18.75198461
253.737373 -19.20083461 247.6466456
-844.875298 -2.461360896e-05 193.4740446
-443.631952 -2.461360896e-05 60.73569861
-923.377164 -2.461360896e-05 18.99095261
477.389883 -2.461360896e-05 162.2488126
885.6844 -34.29424061 -9.738635799e-05
153.348642 -2.461360896e-05 218.7645006
1214.683604 -22.63261861 227.9999026
955.014298 -26.25056861 -9.738635799e-05
-1027.491822 -2.461360896e-05 42.77977061
197.187538 -50.77902061 -9.738635799e-05
-865.8813 -2.461360896e-05 136.8882876
103.084504 0.5264703864 -9.738635799e-05
-1054.821405 -2.461360896e-05 248.7889956
-331.811463 -44.42225461 -9.738635799e-05
597.515033 -2.461360896e-05 19.65307261
128.609297 -2.461360896e-05 126.5264546
-637.846462 -43.50509061 -9.738635799e-05
-128.257321 -2.461360896e-05 99.68790961
-843.099131 -2.461360896e-05 20.72204361
-607.153829 -2.461360896e-05 55.72352261
183.651233 -2.461360896e-05 228.8371836
133.463 -2.461360896e-05 67.39019561
839.841874 -2.461360896e-05 204.4036266
683.002995 -2.461360896e-05 84.80483861
-279.966758 -2.461360896e-05 55.58286261
804.277865 -2.461360896e-05 72.74664661
-780.926112 -2.461360896e-05 167.5715656
196.117204 -2.461360896e-05 90.53397961
287.032386 -35.96978861 245.0262686
750.738391 -14.62042761 -9.738635799e-05
511.692617 -17.86789661 -9.738635799e-05
-1184.870707 -2.461360896e-05 133.6974596
749.775883 -2.461360896e-05 183.6626976
-707.552943 -2.461360896e-05 160.7094306
914.918803 -2.461360896e-05 214.7761396
-570.46276 -2.461360896e-05 51.00888161
1297.734486 -2.461360896e-05 51.43503861
-535.796008 -2.461360896e-05 28.19779761
462.621541 -2.461360896e-05 26.81282161
1021.826833 -2.461360896e-05 92.85416661
-292.889821 -65.80088561 -9.738635799e-05
957.892789 -2.461360896e-05 98.42184261
-494.525046 -16.32359861 -9.738635799e-05
778.394293 1.325625386 44.10832661
405.883665 -2.461360896e-05 69.47709561
-1283.717927 -50.00002461 229.2084366
-274.167359 -2.461360896e-05 85.29074061
339.866651 -17.57896561 -9.738635799e-05
223.794352 -2.461360896e-05 118.4865026
613.401862 0.2212023864 -9.738635799e-05
-521.173363 -67.42405861 -9.738635799e-05
-1.907568953 -2.461360896e-05 207.1609836
-372.125128 -2.461360896e-05 55.40426861
236.209734 -2.461360896e-05 160.3224796
-513.251073 -2.461360896e-05 225.1277896
-883.013438 -2.461360896e-05 0.01735861364
-888.60088 -2.461360896e-05 88.84723761
323.858021 -2.461360896e-05 88.61110361
-622.157383 1.533789386 -9.738635799e-05
381.493872 -2.461360896e-05 47.43727061
-844.062931 -2.461360896e-05 103.9737066
-1086.287279 -2.461360896e-05 84.70070361
1037.043451 -2.461360896e-05 189.4422676
1075.344633 -2.461360896e-05 185.3775086
1084.121767 -2.461360896e-05 83.68353161
740.877973 -2.461360896e-05 43.57436461
-210.095437 -2.461360896e-05 177.9602226
272.850026 -2.461360896e-05 151.1604936
291.154732 -2.461360896e-05 94.57031261
1090.690293 -32.81948461 227.9999026
-1083.676487 -30.46133961 -9.738635799e-05
-1109.705531 -2.461360896e-05 105.4810026
-1292.267167 -55.02418261 -9.738635799e-05
-769.828869 -2.461360896e-05 127.5141806
-121.784993 -14.27704661 -9.738635799e-05
1113.273467 -2.461360896e-05 50.75882361
-1259.046759 -43.75780461 -9.738635799e-05
175.495545 -2.461360896e-05 167.9700596
464.794962 -2.461360896e-05 108.3122206
-1117.207496 -2.461360896e-05 69.33790461
1159.184591 -2.461360896e-05 98.67029261
433.522906 -2.461360896e-05 167.8625936
-878.06201 -2.461360896e-05 174.0622836
502.839497 -2.461360896e-05 94.39663361
-95.12867995 -17.45635761 -9.738635799e-05
-1091.656883 -12.29749761 -9.738635799e-05
1102.384119 -2.461360896e-05 18.85828061
-344.080159 -2.461360896e-05 134.9309846
-262.534439 -2.461360896e-05 46.92390661
-1283.999955 -17.49781661 221.0750946
-1091.907176 -2.461360896e-05 183.1787666
152.900374 -46.48497561 -9.738635799e-05
-1283.999955 -30.78641861 183.1811856
-1296.882938 -9.173588614 -9.738635799e-05
1264.711264 -32.09715461 -9.738635799e-05
605.599003 -2.461360896e-05 213.7468616
1143.071445 2.011757386 233.9999026
419.754382 1.873450386 -9.738635799e-05
-406.769018 -2.461360896e-05 51.88551361
123.556647 -2.461360896e-05 245.0265306
327.151679 -2.461360896e-05 214.0519486
556.128 -34.27393061 -9.738635799e-05
-1098.528993 -2.461360896e-05 125.5325586
1277.999923 -55.05802761 175.2110216
928.729512 -2.461360896e-05 54.77961061
266.434117 -2.461360896e-05 64.32880261
-164.179611 -2.461360896e-05 90.63612261
295.884705 -2.461360896e-05 174.3782956
-106.429776 -2.461360896e-05 128.3757686
