# .PCD v0.7 - Point Cloud Data file format
VERSION 0.7
FIELDS x y z
SIZE 4 4 4
TYPE F F F
COUNT 1 1 1
WIDTH 1243
HEIGHT 1
VIEWPOINT 0 0 0 1 0 0 0
POINTS 1243
DATA ascii
-2.899975698e-05 59.93944739 15.07982761
-2.899975698e-05 69.22752839 11.30231061
-83.570319 -2.461360646e-05 -2.680348387
-96.549296 0.4943593864 37.16028261
-2.899975698e-05 79.91915339 -19.55430239
-249.14855 -2.461360646e-05 30.76541461
-2.899975698e-05 53.72716939 -7.973922387
-90.925117 5.450332386 36.71764961
-107.225115 -2.461360646e-05 -11.99205339
-2.899975698e-05 28.66446339 1.257056613
-2.899975698e-05 52.71953839 -0.3613873866
-38.481636 47.46971339 38.60898461
-2.899975698e-05 34.06631839 16.31578061
-16.611619 -2.461360646e-05 -2.757040387
-2.899975698e-05 88.91680539 -25.04503539
-121.302839 4.717656386 39.10843061
-2.899975698e-05 59.85658739 -10.59292539
-2.899975698e-05 6.918839386 15.44914061
-37.188245 -2.461360646e-05 -4.829838387
-147.160656 -2.461360646e-05 5.629046613
-6.886906 -2.461360646e-05 -30.76751139
1.392751 107.8172374 -9.835479387
-162.778325 -2.461360646e-05 38.27587961
-2.899975698e-05 44.27285639 -25.71616139
-2.899975698e-05 45.16695739 17.62824661
-2.899975698e-05 43.31102639 -3.445054387
-2.899975698e-05 5.522356386 1.883392613
-2.899975698e-05 149.7621274 -34.07972339
-2.899975698e-05 140.8805274 -20.58757739
-65.048952 -2.461360646e-05 4.484455613
-2.899975698e-05 49.43466939 -33.76919639
-88.837229 -2.461360646e-05 31.81840261
-29.494704 50.99395439 37.90169961
0.7975240002 48.33196039 31.49990261
-48.857739 24.70657739 33.40687161
-49.369171 -2.461360646e-05 -5.300111387
-71.153219 47.34939539 35.16156561
-94.487702 40.31139239 36.99803161
-2.899975698e-05 7.091058386 -8.991392387
-2.899975698e-05 28.97799039 -8.210610387
-2.899975698e-05 31.52640239 20.53614061
-21.320858 -2.461360646e-05 -38.36018839
-58.128153 47.58878739 34.13646961
0.3289530002 98.54893739 -5.868106387
-45.20609 41.52217839 33.11948061
-145.846553 -2.461360646e-05 27.53993761
-101.257986 1.380833386 37.53086461
-52.735079 30.03396139 33.71202461
-249.456984 -2.461360646e-05 23.87647161
-3.101439 -2.461360646e-05 16.85961161
-169.610141 -2.461360646e-05 -36.72409239
-7.596745 25.38271539 31.49990261
-2.899975698e-05 87.33303539 -30.67103139
-3.928512 67.99997539 37.23418261
-2.899975698e-05 45.13942639 22.65525361
-41.990697 34.21313039 32.86642261
-2.899975698e-05 28.32308639 -33.68065339
-2.899975698e-05 158.1859294 -35.83533439
-2.899975698e-05 94.51406239 -35.83518539
-2.899975698e-05 82.55203339 -10.18612139
-2.899975698e-05 50.07268339 25.02839161
-2.899975698e-05 24.67252939 14.61184961
-2.899975698e-05 127.8308564 -25.84441739
-228.757822 -2.461360646e-05 -31.78490839
-2.899975698e-05 22.64328539 26.77520261
-19.228595 36.96216339 31.49990261
-2.899975698e-05 122.7246494 -15.17880439
-2.899975698e-05 81.85944239 -15.30042039
-52.194602 -0.1458246136 -37.99473739
-2.899975698e-05 168.2586814 -32.44389139
-45.057204 9.199372386 33.10776261
-2.899975698e-05 70.79909939 -35.67011039
-191.535521 -2.461360646e-05 0.5245226134
-2.899975698e-05 23.13437339 -19.54615439
-30.93409 44.51879339 31.99624861
-26.744543 30.99802339 37.68525761
-139.693296 -2.461360646e-05 7.121462613
-2.899975698e-05 48.84473639 14.22462661
-119.203579 -2.461360646e-05 -15.17567139
-2.899975698e-05 28.55718639 -27.73356439
-160.46247 -2.461360646e-05 0.9283846134
-35.216009 63.24803139 32.33324261
-2.899975698e-05 52.06882439 5.514132613
-145.787463 -2.461360646e-05 19.46269061
-208.967927 -2.461360646e-05 26.95009461
-2.899975698e-05 41.94479139 9.369235613
-172.809771 -2.461360646e-05 34.37973961
-27.784361 61.47420739 31.74835861
-2.899975698e-05 101.7812984 -34.21286539
-2.899975698e-05 38.78518939 -11.07228039
-2.899975698e-05 12.84744939 -4.856047387
-2.899975698e-05 55.11752539 -18.24404439
-2.899975698e-05 115.3618664 -15.52459639
-2.899975698e-05 117.0243564 -36.02076339
-103.15562 20.37217539 37.68021161
-153.879351 -2.461360646e-05 -23.02154739
-2.899975698e-05 67.05375739 -31.87331339
-1.261018 -2.461360646e-05 -21.78684239
-79.762237 -2.461360646e-05 35.72105561
-2.899975698e-05 77.05497839 -9.623684387
-2.899975698e-05 63.98651139 18.03168761
-69.082974 -2.461360646e-05 9.119478613
-2.899975698e-05 112.4869334 -30.78753539
-135.841365 -2.461360646e-05 -20.29256839
-70.998447 1.516566386 35.14938461
-86.583153 -2.461360646e-05 -36.26375839
-2.899975698e-05 31.12250939 5.756903613
-2.899975698e-05 145.3765544 -20.79644739
-2.899975698e-05 63.70877539 -22.72114639
-29.67874 46.28273539 37.91618261
-100.31942 -0.2204516136 -39.42814339
-2.899975698e-05 57.07729739 -29.72652939
-2.899975698e-05 106.9738214 -22.33519239
-14.83831 16.25272139 31.49990261
-61.728257 65.74068039 34.41980461
-66.807849 24.75858239 34.81957761
-2.899975698e-05 15.59079139 -0.4671463866
-2.899975698e-05 61.09017139 -14.89021939
-2.899975698e-05 17.76760739 -17.63649939
-25.68442 15.06704039 31.58308961
-46.170314 50.71687339 33.19536661
-214.490263 -2.461360646e-05 24.29937461
-35.249271 -2.461360646e-05 -28.55056839
-37.677825 58.90992339 38.54572261
-125.238394 -2.461360646e-05 -12.94742639
-2.899975698e-05 36.40626639 -18.15021439
-2.899975698e-05 136.6232614 -23.60620439
-82.027508 -2.461360646e-05 -19.97108339
-2.899975698e-05 90.08179339 -15.13149439
-221.946055 -2.461360646e-05 -18.95950639
-2.899975698e-05 45.98915439 -18.48939939
-26.154371 -2.461360646e-05 29.08704261
-213.237605 -2.461360646e-05 -19.67502539
-54.35962 -2.461360646e-05 31.70078261
-213.676919 -2.461360646e-05 33.49162061
-18.838347 59.54400739 37.49990261
1.945061 30.87506339 37.49990261
-23.200375 -2.461360646e-05 -1.537072387
-57.357402 -2.461360646e-05 -16.72667039
-43.968467 34.37557539 39.04080561
-234.099041 -2.461360646e-05 15.46250861
1.995079 50.90941839 37.49990261
-186.565637 -2.461360646e-05 33.84098561
-49.779566 -2.461360646e-05 -15.73509339
-159.585744 -2.461360646e-05 12.43808461
-26.83938 -2.461360646e-05 -3.841864387
-27.665582 67.99997539 32.46234761
-222.43966 -2.461360646e-05 -10.16096639
-241.960684 -2.461360646e-05 -16.06304339
-111.111136 29.45312539 38.30632561
-135.847405 -2.461360646e-05 26.80491461
-156.119167 -2.461360646e-05 29.04539461
-122.235477 -2.461360646e-05 -20.82652939
-2.808726 22.50549539 37.49990261
-1.860344 22.88654739 31.49990261
-106.124026 43.95592639 37.91383061
-2.899975698e-05 3.702575386 10.91776861
-90.13363 67.99997539 38.86605261
-182.741937 -2.461360646e-05 30.64918861
-173.886674 -2.461360646e-05 -32.24148039
-43.594698 -2.461360646e-05 26.27479561
-54.720016 63.25766539 33.86824361
-4.979378 26.14601339 37.49990261
-16.048241 62.52778439 31.49990261
-47.618543 3.236548386 33.30934461
-51.625098 3.750376386 33.62466761
-178.440749 -2.461360646e-05 5.862351613
-124.239507 -2.461360646e-05 17.71828961
-102.251885 -2.461360646e-05 29.15680661
-34.479842 -2.461360646e-05 28.59363761
-112.545026 47.07222839 38.41917461
-13.620261 43.14795539 37.49990261
-125.044648 46.77914839 39.40291761
-12.714464 31.30438539 31.49990261
-13.463284 -2.461360646e-05 -26.28338339
-114.39986 -2.461360646e-05 -24.24447439
-40.239509 42.17042539 32.72860161
-15.213945 -2.461360646e-05 -34.97140739
-112.384708 2.056031386 38.40655761
-144.193569 -2.461360646e-05 -32.45970539
-39.351261 67.99997539 36.03664461
-68.378052 -2.461360646e-05 31.66331461
-75.042547 39.02027139 35.46766261
-20.644381 6.852850386 37.49990261
-65.051913 -2.461360646e-05 -18.02012239
-230.471172 -2.461360646e-05 18.37623361
-57.020938 -2.461360646e-05 1.704413613
-74.348534 -2.461360646e-05 20.81875561
-8.776104 9.466919386 37.49990261
-246.26018 -2.461360646e-05 -34.84071339
-30.770594 16.29442439 31.98338061
-78.038428 -2.461360646e-05 2.979340613
-136.691364 -2.461360646e-05 -15.92557839
-32.719929 52.18563739 32.13679661
-120.778861 43.76665939 39.06719261
-152.542134 -2.461360646e-05 17.36207561
-46.412949 -1.523042614 33.21443761
-164.251584 -2.461360646e-05 -9.304552387
-20.293671 24.55395039 31.49990261
-175.403072 -2.461360646e-05 10.47724661
-107.750329 -2.461360646e-05 -30.49321739
-52.984399 67.99997539 36.95342761
-76.804046 48.15292339 35.60629561
-230.217158 -2.461360646e-05 30.93465761
-27.643988 39.58266139 37.75604461
-199.191581 -2.461360646e-05 15.44490061
-187.672437 -2.461360646e-05 18.77716361
-216.535456 -2.461360646e-05 -5.206599387
-9.146101 -2.070637614 31.49990261
-10.110198 20.29280739 37.49990261
-113.396454 -2.461360646e-05 18.28980661
-155.257847 -2.461360646e-05 8.008038613
-90.498525 -2.461360646e-05 13.34593661
-60.980916 23.85624039 34.36098761
-240.713017 -2.461360646e-05 20.29788461
-34.716753 23.71431639 38.31268261
-76.150578 25.29767339 35.55486661
-43.765551 -2.461360646e-05 -9.564143387
-234.718285 -2.461360646e-05 -38.18307339
-81.445167 -2.461360646e-05 30.21924861
-59.232617 44.19494539 34.22339261
-107.639422 -2.461360646e-05 -24.51136139
-18.080706 10.08186439 37.49990261
-4.105462 -2.461360646e-05 3.510468613
-12.113495 -2.461360646e-05 -11.88176339
-19.917134 28.22294839 31.49990261
-55.064622 38.52598839 33.89536461
-83.512051 -1.523168614 36.13420061
-39.070829 11.59478739 38.65535461
-150.61073 -2.461360646e-05 23.90946061
-34.683442 37.37781139 38.31006061
-244.83313 -2.461360646e-05 32.17107061
-170.045205 -2.461360646e-05 31.48117461
-180.885487 -2.461360646e-05 -4.128130387
-124.734422 -2.461360646e-05 -25.28520339
-65.188417 -2.461360646e-05 -1.678959387
-231.50292 -2.461360646e-05 4.761934613
-198.312527 -2.461360646e-05 -22.12837339
-186.710377 -2.461360646e-05 -18.36795339
-55.736059 -2.461360646e-05 -10.02310939
-120.750262 65.28112839 39.06494161
-171.857274 -2.461360646e-05 7.818268613
-213.36443 -2.461360646e-05 2.142511613
-46.481051 -2.461360646e-05 -34.07269539
-142.023403 -2.461360646e-05 -6.266875387
-36.436442 -2.461360646e-05 -1.588321387
-100.835644 -2.461360646e-05 13.78527561
-42.096675 7.738022386 32.87476361
-20.024738 62.14307539 31.49990261
-60.146235 -2.461360646e-05 -12.29120039
-31.550716 -2.461360646e-05 10.64652561
-210.931442 -2.461360646e-05 -24.75352139
-12.331368 -2.461360646e-05 18.24285761
-142.819234 -2.461360646e-05 -12.10704739
-77.05971 -2.461360646e-05 -3.356001387
-37.225954 16.83964639 38.51016061
-64.430302 -2.461360646e-05 -14.48699839
-28.752959 -2.461360646e-05 22.13080061
-73.00024 15.21854139 35.30692961
-170.81767 -2.461360646e-05 14.26047761
-42.46102 14.81536939 32.90343861
-49.445697 21.57557639 33.45314461
-159.321139 -2.461360646e-05 -17.54884139
-67.156289 8.108275386 34.84700061
-247.969474 -2.461360646e-05 -20.05358439
-100.424734 60.93812439 37.46528661
-103.048276 -2.461360646e-05 -5.736122387
-135.172202 -2.461360646e-05 -2.140968387
-61.044691 -2.461360646e-05 31.63468361
-184.758535 -2.461360646e-05 -29.10322139
-171.388644 -2.461360646e-05 21.59582461
-84.048905 55.35428839 36.17647961
-113.721914 66.55606539 38.51179861
-249.167984 -2.461360646e-05 1.345568613
-108.167952 15.99596139 38.07469161
-113.046165 -2.461360646e-05 5.017087613
-164.616153 -2.461360646e-05 35.81205761
-30.877648 36.31625239 31.99180661
-21.884893 12.96408839 37.49990261
-155.437809 -2.461360646e-05 -39.33517139
-48.763827 67.47899139 33.39948061
-202.183697 -2.461360646e-05 -28.29704339
-1.26256 33.88683439 37.49990261
-29.637781 3.328424386 37.91295961
-125.804248 3.339192386 39.46269961
-119.81126 -2.461360646e-05 36.06324361
-121.655212 7.708952386 39.13616261
-65.882072 62.94490139 34.74671661
-43.458518 37.33059739 39.00067261
-14.271304 67.99997539 36.69469861
-113.222401 59.56319039 38.47248561
-105.948471 19.44105439 37.90001461
-32.396713 67.99997539 36.61928761
-47.323604 11.06034739 33.28613261
-13.937298 46.05989439 37.49990261
-61.43369 -2.461360646e-05 -3.913790387
-42.832438 39.86765439 32.93266961
-227.685954 -2.461360646e-05 36.05891261
-137.404357 -2.461360646e-05 -22.73600139
-0.8708769998 -2.461360646e-05 15.05317661
-202.387252 -2.461360646e-05 -22.52635539
-229.591079 -2.461360646e-05 -0.8974483866
-75.332763 -2.461360646e-05 32.66554361
-52.177641 67.99997539 34.13092061
-10.305163 67.99997539 34.91915161
-1.183201 17.26259839 31.49990261
-123.135451 -2.461360646e-05 -16.21422039
-21.803424 58.82692139 31.49990261
-36.243477 67.99997539 36.08195161
-191.308987 -2.461360646e-05 -10.32224439
-153.569068 -2.461360646e-05 -20.34260039
-57.689527 -2.461360646e-05 -6.839997387
-42.789282 29.88994039 38.94800261
-163.013702 -2.461360646e-05 16.22399461
-3.582529 13.51469439 37.49990261
-100.411519 54.69804639 37.46424661
-44.202138 48.96259939 33.04046761
-0.6279579998 46.11533339 31.49990261
-226.616982 -2.461360646e-05 31.50118061
-245.311113 -2.461360646e-05 -2.348246387
-106.722364 24.38897539 37.96092161
-43.353276 19.32900339 32.97366061
-20.273097 -2.461360646e-05 -9.188413387
-106.714101 0.4891613864 37.96027061
-105.880512 -2.461360646e-05 -34.00781739
-104.654511 -2.461360646e-05 -36.51516739
-2.899975698e-05 1.774267386 -14.39110239
-104.247176 63.33302539 37.76611961
-77.194723 1.475589386 35.63704261
-38.946418 13.76587339 32.62683261
-46.302804 -2.461360646e-05 30.80549461
-67.324176 3.806493386 34.86021361
-48.100005 58.69901739 33.34723661
-2.104826 66.31086239 37.49990261
-184.696547 -2.461360646e-05 -12.83648539
-70.421821 58.34659539 35.10400361
-22.764777 -2.461360646e-05 -33.97415239
-15.068087 50.42833339 31.49990261
-91.40543 -2.461360646e-05 -10.09870039
-126.401345 -2.461360646e-05 33.74328361
-71.339371 24.56638439 35.17621661
-99.026637 50.14280539 37.35525361
-28.78557 -2.461360646e-05 -28.26997539
-62.174298 67.99997539 35.89567661
-139.78422 -2.461360646e-05 28.67702861
-224.384658 -2.461360646e-05 16.79779061
-30.38905 -2.461360646e-05 -31.79695139
-16.15538 44.33181339 31.49990261
-144.605308 -2.461360646e-05 -8.443291387
-18.531042 -2.461360646e-05 9.794042613
-19.970114 45.23416839 31.49990261
-6.091329 -2.461360646e-05 21.89155661
-36.732793 38.14224539 32.45261661
-185.132337 -2.461360646e-05 27.67460961
-242.940547 -2.461360646e-05 -3.728364387
-113.327313 -2.461360646e-05 -26.28130539
-87.139077 -2.461360646e-05 -20.59541539
-215.981825 -2.461360646e-05 26.00283461
-186.926811 -2.461360646e-05 16.64473061
-164.889485 -2.461360646e-05 -7.138196387
-149.528854 -2.461360646e-05 -33.49823939
-124.156885 -2.461360646e-05 28.53404761
-191.866099 -2.461360646e-05 21.57310461
0.1928190002 22.03263439 31.49990261
-163.90432 -2.461360646e-05 13.70086861
-108.923126 29.19410539 38.13412461
-235.861036 -2.461360646e-05 19.67520661
-224.497143 -2.461360646e-05 -2.063185387
-25.457193 -2.461360646e-05 -2.138406387
-105.095801 -2.461360646e-05 2.933020613
-7.017206 22.21587939 37.49990261
-197.279357 -2.461360646e-05 -17.64484939
-225.759439 -2.461360646e-05 1.913790613
-32.158302 22.00254039 32.09259561
-19.501835 -2.461360646e-05 -12.94858739
-25.477029 33.73588939 31.56676761
-140.630013 -2.461360646e-05 5.196061613
-113.702376 -2.461360646e-05 1.384896613
-247.470152 -2.461360646e-05 15.86117661
-42.829142 19.60421339 38.95113961
-16.619879 20.85912839 31.49990261
-29.709606 9.930972386 31.89987961
-40.582588 13.62687839 38.77433261
-77.352382 -2.461360646e-05 1.050726613
-8.657526 25.92295539 37.49990261
-149.709124 -2.461360646e-05 8.395094613
-27.67593 15.31518039 31.73982561
-69.053773 -2.461360646e-05 -10.86084239
-146.184709 -2.461360646e-05 -32.61212939
-116.89906 0.4068453864 38.76184561
-211.207491 -2.461360646e-05 -22.50816839
-122.820679 -2.461360646e-05 32.28298961
-132.932032 -2.461360646e-05 9.603434613
-152.341521 -2.461360646e-05 24.80851661
-11.05412 43.30937039 37.49990261
-156.314733 -2.461360646e-05 15.00180861
-110.805292 -2.461360646e-05 -38.00848039
-215.813906 -2.461360646e-05 -19.05793739
-17.301529 11.72904839 37.49990261
-7.028983 8.957882386 37.49990261
-46.875113 -1.531055614 39.26956361
-73.09202 -2.461360646e-05 -2.885803387
-11.223331 26.29698439 37.49990261
-157.756349 -2.461360646e-05 -21.61576339
-105.433925 40.93599739 37.85951861
-220.187227 -2.461360646e-05 -12.03253839
-31.066158 67.99997539 34.16365861
-197.196735 -2.461360646e-05 -19.39783539
-92.406073 -2.461360646e-05 -21.74868539
-63.175934 44.16974639 34.53373861
-217.165728 -2.461360646e-05 24.75437461
-172.010037 -2.461360646e-05 15.49719361
-153.912041 -2.461360646e-05 34.00043761
-228.746669 -2.461360646e-05 31.81655361
-7.803847 6.865680386 37.49990261
-104.792237 17.92275039 37.80901661
-251.029628 -0.1331876136 -34.66796139
-233.634732 -2.461360646e-05 -29.31953339
-28.445743 57.58594639 31.80041061
-229.817117 -2.461360646e-05 -35.52164639
-23.017903 67.91835339 31.49990261
-175.064048 -2.461360646e-05 -29.62831739
-237.514101 -2.461360646e-05 4.699515613
-34.580627 56.69068139 38.30196861
-47.00902 4.733472386 33.26137361
-5.987602 1.873252386 31.49990261
-197.775374 -2.461360646e-05 22.57927561
-217.939174 -2.461360646e-05 26.69480461
-78.113642 49.03741139 35.70936361
-72.262294 -2.461360646e-05 31.05194161
-62.358286 24.59339239 34.46938861
0.6499250002 53.72344839 37.49990261
-34.279793 67.99997539 33.33682861
-85.183786 -2.461360646e-05 34.16413761
-17.217963 51.37474039 31.49990261
-35.743497 -2.461360646e-05 -5.247153387
-151.926097 -2.461360646e-05 -36.42741639
-15.069105 64.96175339 31.49990261
-66.516543 -1.233338614 34.79662461
-28.255634 36.02236739 31.78544861
-52.223212 45.91817239 33.67174061
-247.776804 -2.461360646e-05 30.36906461
-71.099653 18.84022539 35.15734961
-35.291423 64.65803939 32.33917861
0.6443030002 46.96930639 31.49990261
-19.150587 18.56241239 31.49990261
-36.119127 -2.461360646e-05 -2.899791387
-153.551939 -2.461360646e-05 18.24152261
-57.906386 -2.461360646e-05 -17.94593939
-129.576331 -2.461360646e-05 30.86262461
-5.605456 -2.461360646e-05 -36.94270039
-29.079366 -2.461360646e-05 23.39203561
-30.834637 20.23198039 31.98842161
-19.448634 35.72338839 31.49990261
-190.723503 -2.461360646e-05 36.89063661
-48.367873 20.99203839 33.36831861
-55.628798 -2.461360646e-05 9.410634613
-132.51107 -2.461360646e-05 35.74905361
-196.259572 -2.461360646e-05 13.90502261
-154.197859 -2.461360646e-05 -21.90597639
-182.583465 -2.461360646e-05 -5.813218387
-126.515205 -2.461360646e-05 -8.326630387
-103.685341 -2.461360646e-05 -39.41145739
-176.787625 -2.461360646e-05 -3.075421387
-8.786117 -2.461360646e-05 -24.35566239
-28.766646 1.374853386 37.84439961
-8.464189 24.67024939 31.49990261
-202.61041 -2.461360646e-05 -24.72263239
-49.373445 8.058535386 33.44745861
-47.10649 -0.4739166136 39.28777261
-111.339366 63.57447939 38.32428761
-140.711606 -2.461360646e-05 2.569694613
-83.751845 -2.461360646e-05 -1.660384387
-235.909551 -2.461360646e-05 -13.28436539
-106.693912 -2.461360646e-05 -12.86202139
-71.885977 26.14089539 35.21923461
-119.151655 -2.461360646e-05 -19.92598939
-98.542666 -2.461360646e-05 32.76626061
-246.081739 -2.461360646e-05 13.20448961
-196.599228 -2.461360646e-05 -26.95063539
-61.748649 -2.461360646e-05 -16.97009639
-181.982222 -2.461360646e-05 30.22756461
-31.776716 44.65998339 32.06256461
-21.95141 -2.461360646e-05 -13.83518939
-80.038428 30.60939339 35.86084761
-105.565489 -2.461360646e-05 28.63608161
-122.202064 -2.461360646e-05 31.80385261
-28.134186 5.137112386 37.79462461
-28.985052 9.714898386 31.84285561
-208.495831 -2.461360646e-05 21.18412361
-30.728616 41.18946439 37.99880961
0.7977130002 -2.461360646e-05 -12.80390439
-177.696794 -2.461360646e-05 -4.637639387
-57.936458 -2.461360646e-05 -21.60279639
-27.42776 11.16095539 37.73902761
-92.936037 -2.461360646e-05 10.32924661
1.605814 51.40237039 37.49990261
-64.927355 -2.461360646e-05 -31.90541239
-90.42305 57.68516339 36.67813561
-109.640404 -2.461360646e-05 -17.31822539
-45.318588 24.07308439 39.14706261
-64.512346 -2.461360646e-05 -5.019726387
-43.534205 34.15560439 39.00662861
-234.658477 -2.461360646e-05 -22.63577139
-120.644677 44.20975639 39.05663161
-69.454858 -2.461360646e-05 4.690179613
-18.840299 37.06030239 31.49990261
-133.474388 -2.461360646e-05 -5.334941387
-54.486941 -2.461360646e-05 32.01114761
-71.898691 -2.461360646e-05 14.97180061
-10.149287 67.99997539 35.05616861
0.1640030002 162.1980074 -25.71831239
0.3858190002 152.7072934 -19.97118939
0.06628400024 139.8166764 -15.83613939
1.392751 107.8172374 -9.835479387
0.3289530002 98.54893739 -5.868106387
0.4207710002 89.63333739 -0.8457973866
0.9982720002 83.44298839 3.525900613
-2.899975698e-05 168.2586814 -32.44389139
-2.899975698e-05 169.8077784 -37.13516239
-2.899975698e-05 164.3668434 -35.02059639
-2.899975698e-05 158.1859294 -35.83533439
-2.899975698e-05 159.9465744 -31.42811539
-2.899975698e-05 153.5308444 -37.38502139
-2.899975698e-05 149.7621274 -34.07972339
-2.899975698e-05 155.4558374 -27.33020539
-2.899975698e-05 148.9900454 -23.93960039
-2.899975698e-05 148.4713454 -29.37784639
-2.899975698e-05 144.2350964 -25.84141739
-2.899975698e-05 145.3765544 -20.79644739
-2.899975698e-05 141.8402964 -34.15546739
-2.899975698e-05 139.5967964 -38.66666739
-2.899975698e-05 140.8805274 -20.58757739
-2.899975698e-05 138.4158554 -30.09713939
-2.899975698e-05 136.6232614 -23.60620439
-2.899975698e-05 132.5209454 -37.70287139
-2.899975698e-05 132.4963644 -25.15584739
-2.899975698e-05 131.8500084 -15.35741039
-2.899975698e-05 127.8308564 -25.84441739
-2.899975698e-05 130.3277014 -30.83843139
-2.899975698e-05 122.6045334 -36.96656739
-2.899975698e-05 40.69917239 -29.07058239
-2.899975698e-05 34.60998639 -31.03358739
-2.899975698e-05 44.27285639 -25.71616139
-2.899975698e-05 49.13294639 -23.33462839
-2.899975698e-05 61.09017139 -14.89021939
-2.899975698e-05 67.42700539 -8.976593387
-2.899975698e-05 76.22805839 -4.721475387
-2.899975698e-05 55.11752539 -18.24404439
-2.899975698e-05 80.91078339 -1.417920387
-2.899975698e-05 86.86778039 -12.12492239
-2.899975698e-05 66.13696539 -14.63986239
-2.899975698e-05 54.30658339 -24.10131639
-2.899975698e-05 65.74067039 -37.07682639
-2.899975698e-05 67.05375739 -31.87331339
-2.899975698e-05 73.13801439 -11.90589839
-2.899975698e-05 86.48818639 -20.72453239
-2.899975698e-05 81.85944239 -15.30042039
-2.899975698e-05 59.55434139 -33.62087539
-2.899975698e-05 75.01386239 -33.67348939
-2.899975698e-05 59.49838339 -19.54785139
-2.899975698e-05 70.79909939 -35.67011039
-2.899975698e-05 77.05497839 -9.623684387
-2.899975698e-05 88.91680539 -25.04503539
-2.899975698e-05 63.70877539 -22.72114639
-2.899975698e-05 67.34244139 -20.08070139
-2.899975698e-05 71.13220039 -29.87056339
-2.899975698e-05 49.56629439 -28.90304739
-2.899975698e-05 60.63337139 -26.99057739
-2.899975698e-05 84.68701339 -5.740768387
-2.899975698e-05 72.99525839 -22.73067039
-2.899975698e-05 92.08536139 -30.96726339
-2.899975698e-05 44.54331439 -34.58846739
-2.899975698e-05 46.35042739 -39.47786039
-2.899975698e-05 94.51406239 -35.83518539
-2.899975698e-05 89.49901739 -38.77039839
-2.899975698e-05 40.12781239 -38.22938939
-2.899975698e-05 82.55203339 -10.18612139
-2.899975698e-05 49.43466939 -33.76919639
-2.899975698e-05 82.06888539 -28.14202439
-2.899975698e-05 79.91915339 -19.55430239
-2.899975698e-05 76.85501639 -15.58004139
-2.899975698e-05 87.33303539 -30.67103139
-2.899975698e-05 57.07729739 -29.72652939
-2.899975698e-05 83.11535739 -34.30610539
-2.899975698e-05 34.70907139 -37.16100339
-2.899975698e-05 90.08179339 -15.13149439
-2.899975698e-05 89.90560739 -7.047564387
-2.899975698e-05 98.84781939 -37.75029139
-2.899975698e-05 93.63466639 -18.32081039
-2.899975698e-05 95.77139439 -23.78139939
-2.899975698e-05 101.7812984 -34.21286539
-2.899975698e-05 104.7786674 -38.65453339
-2.899975698e-05 97.35772639 -10.73685739
-2.899975698e-05 100.5151314 -25.94276439
-2.899975698e-05 99.40538739 -17.69208639
-2.899975698e-05 105.2305204 -28.11093039
-2.899975698e-05 106.9738214 -22.33519239
-2.899975698e-05 104.4441144 -18.44413439
-2.899975698e-05 102.5538294 -8.509288387
-2.899975698e-05 107.5508824 -33.88681739
-2.899975698e-05 112.4989274 -36.64984339
-2.899975698e-05 110.0966634 -25.54536439
-2.899975698e-05 112.4869334 -30.78753539
-2.899975698e-05 117.0243564 -36.02076339
-2.899975698e-05 115.3618664 -15.52459639
-2.899975698e-05 110.8830464 -13.40222139
-2.899975698e-05 115.1834134 -27.15524839
-2.899975698e-05 114.3335424 -20.06846839
-2.899975698e-05 118.8314734 -23.46866039
-2.899975698e-05 122.7246494 -15.17880439
-2.899975698e-05 122.2113274 -29.65089139
-2.899975698e-05 119.1038214 -18.14782739
-2.899975698e-05 55.37936039 -12.70667439
-2.899975698e-05 68.96701839 -1.531135387
-2.899975698e-05 63.21346039 -5.854311387
-2.899975698e-05 45.98915439 -18.48939939
-2.899975698e-05 69.12093539 4.839794613
-2.899975698e-05 76.49007239 9.361803613
-2.899975698e-05 59.85658739 -10.59292539
-2.899975698e-05 74.48988239 3.387238613
-2.899975698e-05 49.79933639 -14.01538139
-2.899975698e-05 37.24810839 -24.24013239
-2.899975698e-05 53.72716939 -7.973922387
-2.899975698e-05 28.32308639 -33.68065339
-2.899975698e-05 41.61063539 -18.63517039
-2.899975698e-05 64.35822039 7.322280613
-2.899975698e-05 62.59284239 2.027889613
-2.899975698e-05 57.23488939 -2.448781387
-2.899975698e-05 69.22752839 11.30231061
-2.899975698e-05 47.09275839 -7.731436387
-2.899975698e-05 30.28883439 -23.36826339
-2.899975698e-05 36.40626639 -18.15021439
-2.899975698e-05 28.55718639 -27.73356439
-2.899975698e-05 52.71953839 -0.3613873866
-2.899975698e-05 38.78518939 -11.07228039
-2.899975698e-05 35.17149739 -13.90234539
-2.899975698e-05 52.06882439 5.514132613
-2.899975698e-05 46.46064939 10.24273961
-2.899975698e-05 41.25215539 4.241081613
-2.899975698e-05 59.93944739 15.07982761
-2.899975698e-05 54.89385739 18.27487261
-2.899975698e-05 43.31102639 -3.445054387
-2.899975698e-05 64.73945639 13.56317361
-2.899975698e-05 47.92423439 1.773189613
-2.899975698e-05 49.71919839 19.43624161
-2.899975698e-05 38.42331439 -3.468264387
-2.899975698e-05 48.84473639 14.22462661
-2.899975698e-05 55.72196339 26.48880961
-2.899975698e-05 56.50304439 4.246883613
-2.899975698e-05 63.98651139 18.03168761
-2.899975698e-05 24.60915439 -25.30498039
-2.899975698e-05 33.80058239 -8.258702387
-2.899975698e-05 50.07268339 25.02839161
-2.899975698e-05 54.40188739 12.39017861
-2.899975698e-05 29.33066939 -15.07438739
-2.899975698e-05 41.94479139 9.369235613
-2.899975698e-05 34.06631839 16.31578061
-2.899975698e-05 15.72907339 11.44209361
-2.899975698e-05 29.39921239 14.62784261
-2.899975698e-05 45.13942639 22.65525361
-2.899975698e-05 26.38378339 20.59119161
-2.899975698e-05 23.00340239 -8.062301387
-2.899975698e-05 25.46572539 -2.582506387
-2.899975698e-05 45.94712239 27.34391261
-2.899975698e-05 31.52640239 20.53614061
-2.899975698e-05 23.13437339 -19.54615439
-2.899975698e-05 17.42722439 -5.012973387
-2.899975698e-05 21.50306839 -15.18970339
-2.899975698e-05 21.53149039 22.16788661
-2.899975698e-05 20.20237139 16.63830761
-2.899975698e-05 24.67252939 14.61184961
-2.899975698e-05 28.66446339 1.257056613
-2.899975698e-05 21.32786239 10.90509261
-2.899975698e-05 36.26199939 21.43806561
-2.899975698e-05 16.24592639 4.917160613
-2.899975698e-05 28.97799039 -8.210610387
-2.899975698e-05 20.06304639 -0.6056093866
-2.899975698e-05 25.25366239 7.678004613
-2.899975698e-05 34.27583139 2.538990613
-2.899975698e-05 31.12250939 5.756903613
-2.899975698e-05 39.16673639 16.53286461
-2.899975698e-05 45.16695739 17.62824661
-2.899975698e-05 17.76760739 -17.63649939
-2.899975698e-05 17.17165739 -23.77437739
-2.899975698e-05 15.59079139 -0.4671463866
-2.899975698e-05 15.39351439 -9.812811387
-2.899975698e-05 12.84744939 -4.856047387
-2.899975698e-05 11.08030339 4.536247613
-2.899975698e-05 11.81208939 14.71614261
-2.899975698e-05 11.07149739 -12.68225439
-2.899975698e-05 8.911576386 9.679747613
-2.899975698e-05 7.091058386 -8.991392387
-2.899975698e-05 7.554743386 -4.121124387
-2.899975698e-05 5.522356386 1.883392613
-2.899975698e-05 6.918839386 15.44914061
-2.899975698e-05 2.970481386 -6.481158387
-2.899975698e-05 1.774267386 -14.39110239
-2.899975698e-05 3.702575386 10.91776861
-2.899975698e-05 0.6873283864 2.543002613
-2.899975698e-05 22.64328539 26.77520261
-2.899975698e-05 30.88154539 25.86948261
-2.899975698e-05 36.16205239 27.02361361
-2.899975698e-05 18.81817239 29.48660761
-2.899975698e-05 64.98927239 22.49482161
0.1675070002 5.461322386 -18.04591239
1.243233 11.12359639 -19.97443039
1.860454 23.95829039 -33.87665339
1.892891 1.808241386 14.64736561
0.1775600002 12.24105639 20.16915861
0.6507040002 61.37865139 26.36327761
-10.149287 67.99997539 35.05616861
0.05014700024 67.99997539 34.62010161
-10.305163 67.99997539 34.91915161
-3.928512 67.99997539 37.23418261
-14.271304 67.99997539 36.69469861
-7.028983 8.957882386 37.49990261
2.392941 18.65212939 37.49990261
-15.504917 55.54915339 37.49990261
-8.381275 23.91856539 37.49990261
-22.803108 10.03253639 37.49990261
-1.26256 33.88683439 37.49990261
-14.847929 61.26467439 37.49990261
-17.22938 44.83171639 37.49990261
1.995079 50.90941839 37.49990261
-3.582529 13.51469439 37.49990261
-0.9264569998 13.60544039 37.49990261
-4.979378 26.14601339 37.49990261
-21.884893 12.96408839 37.49990261
0.2138560002 25.37997839 37.49990261
-11.223331 26.29698439 37.49990261
1.506268 35.16414139 37.49990261
2.363855 0.7845313864 37.49990261
-8.657526 25.92295539 37.49990261
-9.142572 43.12338639 37.49990261
1.605814 51.40237039 37.49990261
-11.05412 43.30937039 37.49990261
-2.808726 22.50549539 37.49990261
-8.28095 17.15595839 37.49990261
-10.142995 36.01640439 37.49990261
-15.965249 19.53380039 37.49990261
-14.747683 11.28009439 37.49990261
-8.776104 9.466919386 37.49990261
-13.937298 46.05989439 37.49990261
-18.266746 3.747298386 37.49990261
-10.110198 20.29280739 37.49990261
-21.806843 37.98888339 37.49990261
-18.080706 10.08186439 37.49990261
1.945061 30.87506339 37.49990261
0.6499250002 53.72344839 37.49990261
-12.934189 26.80901639 37.49990261
-1.777375 48.94755239 37.49990261
-16.913438 -1.334543614 37.49990261
-7.803847 6.865680386 37.49990261
-7.017206 22.21587939 37.49990261
-20.644381 6.852850386 37.49990261
-6.093304 6.782686386 37.49990261
1.371627 55.10574939 37.49990261
-21.320292 64.91990339 37.49990261
-13.620261 43.14795539 37.49990261
-15.985264 33.71654439 37.49990261
-17.301529 11.72904839 37.49990261
-18.838347 59.54400739 37.49990261
-2.104826 66.31086239 37.49990261
-11.408623 67.77113239 37.49990261
-18.840299 37.06030239 31.49990261
-13.279594 52.14516239 31.49990261
-19.448634 35.72338839 31.49990261
0.6443030002 46.96930639 31.49990261
-17.217963 51.37474039 31.49990261
-5.987602 1.873252386 31.49990261
-5.586159 21.06528539 31.49990261
-15.069105 64.96175339 31.49990261
-12.714464 31.30438539 31.49990261
-3.338405 32.90630639 31.49990261
-7.596745 25.38271539 31.49990261
-21.53287 67.16272939 31.49990261
-21.803424 58.82692139 31.49990261
-19.917134 28.22294839 31.49990261
-1.183201 17.26259839 31.49990261
0.7975240002 48.33196039 31.49990261
-19.970114 45.23416839 31.49990261
-18.661944 51.84356339 31.49990261
-23.017903 67.91835339 31.49990261
-16.619879 20.85912839 31.49990261
-20.293671 24.55395039 31.49990261
-20.626968 42.98249439 31.49990261
1.450005 53.14578139 31.49990261
-18.060657 19.36086839 31.49990261
-15.568596 34.03548339 31.49990261
-21.038044 9.586019386 31.49990261
-14.83831 16.25272139 31.49990261
-1.860344 22.88654739 31.49990261
-8.520274 65.23173439 31.49990261
-19.150587 18.56241239 31.49990261
0.1928190002 22.03263439 31.49990261
-23.172791 26.89980239 31.49990261
-7.829752 36.41580439 31.49990261
-19.228595 36.96216339 31.49990261
-9.146101 -2.070637614 31.49990261
-3.115699 12.16780139 31.49990261
-15.068087 50.42833339 31.49990261
-8.464189 24.67024939 31.49990261
-14.066698 66.07273839 31.49990261
-0.4703729998 4.009815386 31.49990261
-16.15538 44.33181339 31.49990261
-23.200807 61.21443739 31.49990261
-11.273045 59.88318739 31.49990261
-6.40497 0.3158653864 31.49990261
-16.048241 62.52778439 31.49990261
-5.083856 48.34535639 31.49990261
-0.6279579998 46.11533339 31.49990261
-16.817981 46.62946439 31.49990261
-20.024738 62.14307539 31.49990261
-80.840401 30.54618639 35.92396461
-66.505181 14.36633639 34.79575661
-78.947508 55.80483039 35.77499061
-76.804046 48.15292339 35.60629561
-94.487702 40.31139239 36.99803161
-106.722364 24.38897539 37.96092161
-47.00902 4.733472386 33.26137361
-95.098413 13.11492739 37.04609561
-109.938884 51.21269339 38.21406661
-49.147073 6.978462386 33.42964261
-35.216009 63.24803139 32.33324261
-106.124026 43.95592639 37.91383061
-28.985052 9.714898386 31.84285561
-71.099653 18.84022539 35.15734961
-120.644677 44.20975639 39.05663161
-108.167952 15.99596139 38.07469161
-90.925117 5.450332386 36.71764961
-80.038428 30.60939339 35.86084761
-45.472452 46.32254039 33.14044361
-38.946418 13.76587339 32.62683261
-67.156289 8.108275386 34.84700061
-30.93409 44.51879339 31.99624861
-75.262277 44.83355639 35.48495561
-45.90514 19.81103339 33.17449661
-44.202138 48.96259939 33.04046761
-55.904461 35.12633739 33.96146161
-78.882241 38.86523239 35.76985361
-26.976557 35.28072439 31.68478361
-117.099615 43.14041339 38.77762961
-105.948471 19.44105439 37.90001461
-86.391466 53.33546439 36.36084261
-48.367873 20.99203839 33.36831861
-82.296825 16.82446639 36.03858761
-53.490465 16.41570939 33.77147561
-32.719929 52.18563739 32.13679661
-43.353276 19.32900339 32.97366061
-62.58968 45.80749239 34.48759961
-27.872987 50.84781839 31.75533361
-96.549296 0.4943593864 37.16028261
-73.00024 15.21854139 35.30692961
-36.732793 38.14224539 32.45261661
-41.990697 34.21313039 32.86642261
-43.769869 1.112212386 33.00644661
-116.89906 0.4068453864 38.76184561
-72.348301 56.76597339 35.25562061
-115.092003 8.876139386 38.61962661
-30.877648 36.31625239 31.99180661
-52.735079 30.03396139 33.71202461
-118.867921 0.4080333864 38.91679861
-40.239509 42.17042539 32.72860161
-83.893332 23.20739939 36.16423561
-42.096675 7.738022386 32.87476361
-62.898418 26.91423339 34.51189761
-63.175934 44.16974639 34.53373861
-67.324176 3.806493386 34.86021361
-32.061417 19.83932539 32.08497061
-110.246055 43.81230439 38.23824161
-37.411774 58.29356939 32.50605361
-48.857739 24.70657739 33.40687161
-69.075712 5.595572386 34.99806261
-31.776716 44.65998339 32.06256461
-108.803461 25.95854339 38.12470761
-56.411217 26.95258039 34.00134361
-29.69532 0.7748393864 31.89875461
-52.223212 45.91817239 33.67174061
-30.770594 16.29442439 31.98338061
-125.044648 46.77914839 39.40291761
-71.153219 47.34939539 35.16156561
-51.625098 3.750376386 33.62466761
-71.885977 26.14089539 35.21923461
-104.792237 17.92275039 37.80901661
-72.453273 18.41470639 35.26388261
-33.562243 8.170111386 32.20308861
-105.817539 39.20250539 37.88970961
-101.257986 1.380833386 37.53086461
-28.445743 57.58594639 31.80041061
-101.356773 50.86367939 37.53863961
-58.128153 47.58878739 34.13646961
-75.042547 39.02027139 35.46766261
-65.205596 -1.932277614 34.69347661
-49.939241 38.28417439 33.49198761
-111.111136 29.45312539 38.30632561
-94.695708 49.63985039 37.01440161
-88.191032 1.264008386 36.50247161
-70.421821 58.34659539 35.10400361
-46.170314 50.71687339 33.19536661
-106.714101 0.4891613864 37.96027061
-49.445697 21.57557639 33.45314461
-27.784361 61.47420739 31.74835861
-29.709606 9.930972386 31.89987961
-28.255634 36.02236739 31.78544861
-60.980916 23.85624039 34.36098761
-59.232617 44.19494539 34.22339261
-64.426624 57.37466739 34.63217061
-103.15562 20.37217539 37.68021161
-40.531085 11.77580139 32.75154861
-71.339371 24.56638439 35.17621661
-112.384708 2.056031386 38.40655761
-114.218572 36.12518939 38.55088561
-25.477029 33.73588939 31.56676761
-77.194723 1.475589386 35.63704261
-55.064622 38.52598839 33.89536461
-108.923126 29.19410539 38.13412461
-120.778861 43.76665939 39.06719261
-105.109336 16.24669439 37.83397261
-52.17474 44.47751139 33.66792561
-67.350951 37.04884839 34.86232061
-28.418167 11.54923339 31.79824061
-72.78739 26.54876339 35.29017761
-58.790199 18.18150339 34.18857361
-62.358286 24.59339239 34.46938861
-49.373445 8.058535386 33.44745861
-45.057204 9.199372386 33.10776261
-125.804248 3.339192386 39.46269961
-66.807849 24.75858239 34.81957761
-25.93804 6.857503386 31.60305061
-84.048905 55.35428839 36.17647961
-126.224369 6.342948386 39.49576361
-40.393799 17.25684239 32.74074461
-27.67593 15.31518039 31.73982561
-32.158302 22.00254039 32.09259561
-99.026637 50.14280539 37.35525361
-112.545026 47.07222839 38.41917461
-76.150578 25.29767339 35.55486661
-26.361027 45.26204039 31.63633961
-47.618543 3.236548386 33.30934461
-46.432089 56.83405139 33.21596861
-28.853211 55.95556839 31.83247961
-39.045312 38.44616039 32.63461561
-121.549211 19.44303239 39.12782061
-42.832438 39.86765439 32.93266961
-35.291423 64.65803939 32.33917861
-121.302839 4.717656386 39.10843061
-86.868771 47.06080739 36.39840761
-33.166469 34.27425139 32.17194061
-33.648554 48.55542139 32.20988161
-71.170657 40.77911339 35.16293861
-25.68442 15.06704039 31.58308961
-81.384522 48.96489239 35.96678761
-52.950374 22.13602539 33.72896961
-121.655212 7.708952386 39.13616261
-105.433925 40.93599739 37.85951861
-45.20609 41.52217839 33.11948061
-47.702278 31.26562639 33.31593461
-55.643085 3.516080386 33.94089061
-52.656679 58.89975039 33.70585461
-70.998447 1.516566386 35.14938461
-125.25947 40.78796039 39.41982461
-40.844644 29.60447239 32.77622661
-78.113642 49.03741139 35.70936361
-123.80937 27.92718939 39.30569861
-42.46102 14.81536939 32.90343861
-47.323604 11.06034739 33.28613261
-48.100005 58.69901739 33.34723661
-105.253799 -1.642496614 37.84534261
-75.237653 -0.1584286136 35.48301761
-90.832091 37.16999439 36.71032861
-121.984394 49.27342739 39.16207061
-30.834637 20.23198039 31.98842161
-87.285935 66.32363639 36.43123961
-54.907305 67.32390639 33.88298361
-122.845594 60.62016339 39.22984861
-65.882072 62.94490139 34.74671661
-104.247176 63.33302539 37.76611961
-113.721914 66.55606539 38.51179861
-101.741213 63.80009939 37.56889561
-61.728257 65.74068039 34.41980461
-113.222401 59.56319039 38.47248561
-111.309485 64.64599239 38.32193561
-68.870139 62.80024439 34.98188361
-39.133427 65.68719539 32.64155061
-90.923535 57.97597839 36.71752461
-90.42305 57.68516339 36.67813561
-125.977297 66.56611539 39.47631861
-100.424734 60.93812439 37.46528661
-111.339366 63.57447939 38.32428761
-81.218526 67.99975139 35.95372361
-54.720016 63.25766539 33.86824361
-100.411519 54.69804639 37.46424661
-45.736596 67.79610939 33.16123161
-115.124098 57.27650539 38.62215261
-83.20392 61.15583939 36.10997761
-120.750262 65.28112839 39.06494161
-98.904503 56.86400539 37.34564161
-48.763827 67.47899139 33.39948061
-27.93431 0.6217493864 37.77889361
-40.268687 15.64998839 38.74962761
-49.152387 40.88242739 39.44878861
-39.070829 11.59478739 38.65535461
-43.504046 40.88649839 39.00425561
-43.337114 63.40434739 38.99111761
-47.10649 -0.4739166136 39.28777261
-29.494704 50.99395439 37.90169961
-37.677825 58.90992339 38.54572261
-33.393997 57.80171339 38.20857961
-33.632068 48.46724939 38.22731561
-43.968467 34.37557539 39.04080561
-26.744543 30.99802339 37.68525761
-29.67874 46.28273539 37.91618261
-40.328239 0.01731538639 38.75431461
-38.481636 47.46971339 38.60898461
-44.922267 19.49195839 39.11587161
-40.745006 31.61110239 38.78711461
-35.915545 3.192343386 38.40702861
-27.42776 11.16095539 37.73902761
-37.225954 16.83964639 38.51016061
-29.637781 3.328424386 37.91295961
-36.917303 8.850202386 38.48586861
-42.829142 19.60421339 38.95113961
-28.134186 5.137112386 37.79462461
-48.531004 -0.8416926136 39.39988461
-43.534205 34.15560439 39.00662861
-26.900473 20.52171439 37.69752961
-45.553162 24.59453239 39.16552361
-30.728616 41.18946439 37.99880961
-28.766646 1.374853386 37.84439961
-36.59509 66.73863639 38.46051061
-24.733502 43.43587739 37.52698561
-45.318588 24.07308439 39.14706261
-34.580627 56.69068139 38.30196861
-37.224094 41.12459039 38.51001361
-34.716753 23.71431639 38.31268261
-27.643988 39.58266139 37.75604461
-28.030994 5.902394386 37.78650261
-35.903576 27.14994539 38.40608661
-48.038571 31.61115239 39.36112961
-44.310004 10.05372139 39.06768561
-42.789282 29.88994039 38.94800261
-40.582588 13.62687839 38.77433261
-43.458518 37.33059739 39.00067261
-30.487654 41.86668839 37.97984561
-27.722396 11.73127139 37.76221561
-46.875113 -1.531055614 39.26956361
-31.359018 36.39814439 38.04842361
-37.554915 21.50616239 38.53604961
-34.683442 37.37781139 38.31006061
-45.105696 50.18696139 39.13030761
-29.88681 27.59058439 37.93255861
-31.066158 67.99997539 34.16365861
-62.174298 67.99997539 35.89567661
-90.13363 67.99997539 38.86605261
-32.766926 67.99997539 33.69332861
-52.177641 67.99997539 34.13092061
-36.243477 67.99997539 36.08195161
-52.984399 67.99997539 36.95342761
-27.665582 67.99997539 32.46234761
-34.279793 67.99997539 33.33682861
-118.733885 67.99997539 39.23959761
-39.351261 67.99997539 36.03664461
-26.526653 67.99997539 36.51214661
-32.396713 67.99997539 36.61928761
-63.829075 67.99997539 37.66237061
-58.257216 -2.352253614 -28.66948439
-92.08921 -0.7444656136 -31.18779039
-100.344426 -0.1446256136 -29.59278939
-227.685954 -2.461360646e-05 36.05891261
-244.83313 -2.461360646e-05 32.17107061
-220.487581 -2.461360646e-05 36.80983861
-162.778325 -2.461360646e-05 38.27587961
-68.378052 -2.461360646e-05 31.66331461
-211.532811 -2.461360646e-05 38.15204261
-190.723503 -2.461360646e-05 36.89063661
-153.820548 -2.461360646e-05 35.71314061
-161.393395 -2.461360646e-05 33.57222461
-249.14855 -2.461360646e-05 30.76541461
-75.332763 -2.461360646e-05 32.66554361
-84.135624 -2.461360646e-05 33.04826061
-132.51107 -2.461360646e-05 35.74905361
-189.48228 -2.461360646e-05 36.90148161
-54.35962 -2.461360646e-05 31.70078261
-88.837229 -2.461360646e-05 31.81840261
-79.762237 -2.461360646e-05 35.72105561
-61.044691 -2.461360646e-05 31.63468361
-122.820679 -2.461360646e-05 32.28298961
-205.421411 -2.461360646e-05 35.62703361
-230.217158 -2.461360646e-05 30.93465761
-172.809771 -2.461360646e-05 34.37973961
-213.676919 -2.461360646e-05 33.49162061
-120.873974 -2.461360646e-05 31.96911961
-226.616982 -2.461360646e-05 31.50118061
-125.283437 -2.461360646e-05 35.94448461
-98.542666 -2.461360646e-05 32.76626061
-186.565637 -2.461360646e-05 33.84098561
-126.401345 -2.461360646e-05 33.74328361
-122.202064 -2.461360646e-05 31.80385261
-198.312785 -2.461360646e-05 31.03868061
-246.664558 -2.461360646e-05 35.12436861
-54.486941 -2.461360646e-05 32.01114761
-164.616153 -2.461360646e-05 35.81205761
-228.746669 -2.461360646e-05 31.81655361
-229.466772 -2.461360646e-05 38.33558361
-133.248323 -2.461360646e-05 36.69960361
-209.820628 -2.461360646e-05 31.47875661
-85.183786 -2.461360646e-05 34.16413761
-168.325623 -2.461360646e-05 37.99302361
-170.045205 -2.461360646e-05 31.48117461
-153.912041 -2.461360646e-05 34.00043761
-119.81126 -2.461360646e-05 36.06324361
-97.703042 -2.461360646e-05 32.29847661
-247.776804 -2.461360646e-05 30.36906461
-182.741937 -2.461360646e-05 30.64918861
-129.576331 -2.461360646e-05 30.86262461
-181.982222 -2.461360646e-05 30.22756461
-72.262294 -2.461360646e-05 31.05194161
-106.27833 -2.461360646e-05 28.96138561
-173.076084 -2.461360646e-05 29.78927061
-217.939174 -2.461360646e-05 26.69480461
-186.656264 -2.461360646e-05 29.43661761
-124.156885 -2.461360646e-05 28.53404761
-156.119167 -2.461360646e-05 29.04539461
-129.888609 -2.461360646e-05 29.57678161
-227.153875 -2.461360646e-05 28.93916761
-215.981825 -2.461360646e-05 26.00283461
-139.78422 -2.461360646e-05 28.67702861
-185.132337 -2.461360646e-05 27.67460961
-203.846497 -2.461360646e-05 27.04336361
-179.465597 -2.461360646e-05 27.33754361
-145.846553 -2.461360646e-05 27.53993761
-152.022518 -2.461360646e-05 28.20884961
-208.967927 -2.461360646e-05 26.95009461
-218.806148 -2.461360646e-05 25.36390261
-46.302804 -2.461360646e-05 30.80549461
-81.445167 -2.461360646e-05 30.21924861
-102.251885 -2.461360646e-05 29.15680661
-132.932032 -2.461360646e-05 9.603434613
-92.836014 -2.461360646e-05 28.13004261
-239.735327 -2.461360646e-05 -5.215129387
-163.013702 -2.461360646e-05 16.22399461
-171.769204 -2.461360646e-05 11.19600861
-229.591079 -2.461360646e-05 -0.8974483866
-236.549843 -2.461360646e-05 0.7800216134
-224.497143 -2.461360646e-05 -2.063185387
-126.342938 -2.461360646e-05 13.12868361
-152.542134 -2.461360646e-05 17.36207561
-208.594907 -2.461360646e-05 20.45274661
-250.575553 -2.461360646e-05 4.087952613
-242.996082 -2.461360646e-05 -11.98992839
-113.708219 -2.461360646e-05 21.89593561
-126.607931 -2.461360646e-05 20.98150761
-80.135789 -2.461360646e-05 26.88518961
-214.490263 -2.461360646e-05 24.29937461
-197.775374 -2.461360646e-05 22.57927561
-230.471172 -2.461360646e-05 18.37623361
-149.105846 -2.461360646e-05 12.81079261
-135.847405 -2.461360646e-05 26.80491461
-100.01999 -2.461360646e-05 22.41714661
-208.495831 -2.461360646e-05 21.18412361
-150.61073 -2.461360646e-05 23.90946061
-135.331863 -2.461360646e-05 22.64684561
-220.303938 -2.461360646e-05 1.009846613
-142.010224 -2.461360646e-05 16.81978261
-159.585744 -2.461360646e-05 12.43808461
-113.396454 -2.461360646e-05 18.28980661
-171.388644 -2.461360646e-05 21.59582461
-157.760176 -2.461360646e-05 16.24162361
-244.65576 -2.461360646e-05 23.82880961
-231.410609 -2.461360646e-05 22.07556161
-175.403072 -2.461360646e-05 10.47724661
-228.115854 -2.461360646e-05 -8.413391387
-223.71493 -2.461360646e-05 14.48542461
-156.314733 -2.461360646e-05 15.00180861
-164.442867 -2.461360646e-05 11.55719361
-170.81767 -2.461360646e-05 14.26047761
-48.554041 -2.461360646e-05 29.68632761
-153.551939 -2.461360646e-05 18.24152261
-250.381346 -2.461360646e-05 -11.22235139
-242.940547 -2.461360646e-05 -3.728364387
-238.751263 -2.461360646e-05 5.784989613
-152.341521 -2.461360646e-05 24.80851661
-172.010037 -2.461360646e-05 15.49719361
-224.384658 -2.461360646e-05 16.79779061
-58.613801 -2.461360646e-05 26.47267961
-134.019535 -2.461360646e-05 11.24176361
-184.196888 -2.461360646e-05 17.68853161
-187.672437 -2.461360646e-05 18.77716361
-199.191581 -2.461360646e-05 15.44490061
-237.514101 -2.461360646e-05 4.699515613
-249.167984 -2.461360646e-05 1.345568613
-205.917223 -2.461360646e-05 2.616106613
-191.535521 -2.461360646e-05 0.5245226134
-210.587345 -2.461360646e-05 0.2226746134
-165.508172 -2.461360646e-05 17.15157861
-141.121354 -2.461360646e-05 26.66055761
-195.240721 -2.461360646e-05 13.30272561
-232.180199 -2.461360646e-05 8.120756613
-70.842723 -2.461360646e-05 22.27792861
-171.857274 -2.461360646e-05 7.818268613
-240.713017 -2.461360646e-05 20.29788461
-213.36443 -2.461360646e-05 2.142511613
-244.919041 -2.461360646e-05 -4.935655387
-124.539454 -2.461360646e-05 26.33617261
-230.122617 -2.461360646e-05 13.96136861
-246.077013 -2.461360646e-05 1.698246613
-149.709124 -2.461360646e-05 8.395094613
-198.305435 -2.461360646e-05 24.09890161
-235.861036 -2.461360646e-05 19.67520661
-216.535456 -2.461360646e-05 -5.206599387
-163.90432 -2.461360646e-05 13.70086861
-191.866099 -2.461360646e-05 21.57310461
-190.386712 -2.461360646e-05 23.23740461
-105.565489 -2.461360646e-05 28.63608161
-155.257847 -2.461360646e-05 8.008038613
-169.278622 -2.461360646e-05 23.86489461
-71.65231 -2.461360646e-05 29.59463961
-186.926811 -2.461360646e-05 16.64473061
-243.128008 -2.461360646e-05 9.532534613
-91.758846 -2.461360646e-05 20.02718061
-124.239507 -2.461360646e-05 17.71828961
-252.388694 -2.461360646e-05 18.22072561
-225.741302 -2.461360646e-05 -0.2524843866
-231.50292 -2.461360646e-05 4.761934613
-237.649271 -2.461360646e-05 18.38463361
-226.984798 -2.461360646e-05 5.389922613
-198.029137 -2.461360646e-05 8.670774613
-222.692052 -2.461360646e-05 21.94493661
-217.165728 -2.461360646e-05 24.75437461
-247.470152 -2.461360646e-05 15.86117661
-246.68053 -2.461360646e-05 13.90567461
-231.627331 -2.461360646e-05 -2.876972387
-152.661446 -2.461360646e-05 21.09898261
-145.787463 -2.461360646e-05 19.46269061
-196.259572 -2.461360646e-05 13.90502261
-143.815519 -2.461360646e-05 9.254694613
-170.817496 -2.461360646e-05 18.41034061
-246.081739 -2.461360646e-05 13.20448961
-198.118283 -2.461360646e-05 18.93188661
-151.645249 -2.461360646e-05 7.825321613
-234.099041 -2.461360646e-05 15.46250861
-245.311113 -2.461360646e-05 -2.348246387
