# .PCD v0.7 - Point Cloud Data file format
VERSION 0.7
FIELDS x y z
SIZE 4 4 4
TYPE F F F
COUNT 1 1 1
WIDTH 1233
HEIGHT 1
VIEWPOINT 0 0 0 1 0 0 0
POINTS 1233
DATA ascii
-0.6634112746 -2.460846804e-05 -228.0413114
-40.25016127 204.3411194 -60.04919339
26.06096473 96.14812639 -156.0000974
-40.25016127 134.6260304 -102.4775954
-40.25016127 53.10101039 -22.68448339
-40.25016127 83.97704039 -52.43168939
-40.25016127 32.76328739 -232.4814844
-40.25016127 174.6895314 -8.951988388
-40.25016127 73.23876739 -181.4253634
4.794809725 15.75602439 -244.0000974
-40.25016127 31.78390839 -70.23289439
-36.25016127 212.9134932 -134.2686154
-23.06425127 31.63217539 -9.738819108e-05
-36.25016127 145.9491464 -19.70909839
-38.43161327 223.1147206 -153.0388754
-40.25016127 176.0916034 -46.38219639
-10.47216427 -2.460846804e-05 -96.30745339
-15.13026027 -2.460846804e-05 -16.65669139
-22.85004127 39.87197439 -152.0000974
-15.08392127 -2.460846804e-05 -72.18447139
9.197815725 -2.460846804e-05 -87.61181539
30.96003473 -2.460846804e-05 -2.246253388
-40.25016127 28.42955039 -184.5609434
-40.25016127 213.2323187 -146.5909724
-16.01612527 36.71511539 -250.0000974
41.99532073 53.94374139 -250.0000974
6.150531725 168.1328294 -152.0000974
-36.25016127 120.3750044 -12.76522839
-40.25016127 63.56002539 -140.4241174
-40.25016127 74.58395539 0.9704206118
-36.25016127 82.42761639 -105.3961234
41.95554573 10.53518239 -244.0000974
-28.32314427 152.8324234 -152.0000974
-40.25016127 13.58419239 -230.5478904
32.10374273 56.04729739 -9.738819108e-05
17.28753773 -2.460846804e-05 -229.9806614
-40.71172327 154.8942854 -88.61256239
-36.25016127 140.2811794 -144.3732234
-33.80780027 60.66071539 -151.6787514
-28.35961127 57.73146839 -9.738819108e-05
-36.25016127 230.259675 -49.94274839
-36.25016127 94.68759639 -95.16242939
-17.93926527 -2.460846804e-05 -156.5226264
-22.85365427 111.6557904 -9.738819108e-05
-36.25016127 158.0089574 -141.1197864
19.61211673 61.59347439 -9.738819108e-05
17.74002273 6.712724392 -9.738819108e-05
-36.25016127 106.9260544 -61.57041539
-40.25016127 126.5389984 -137.4494134
-40.25016127 41.55917139 -165.0245294
-40.25016127 86.84997039 -159.3371294
-36.25016127 7.815774392 -54.60286839
25.95429173 48.71256939 -152.0000974
-36.25016127 196.9542914 -111.9152644
-32.70658727 -2.460846804e-05 -164.6031044
-18.82370727 95.29157739 -9.738819108e-05
-25.91185127 -2.460846804e-05 -20.70605939
-40.25016127 41.70326039 -35.67944939
-4.130048275 149.1652574 -156.0000974
43.15650073 -2.460846804e-05 -36.23466239
7.903590725 33.34426639 -156.0000974
-40.25016127 238.9201823 -31.51081539
-26.83462527 242.8646033 -9.738819108e-05
-40.25016127 238.6983539 -71.37685839
-8.283286275 -2.460846804e-05 -115.8550474
-38.49046427 231.0604254 -126.5000974
-25.99208427 -2.460846804e-05 -142.7184484
-5.604273275 160.6615234 -152.0000974
24.80237873 -2.460846804e-05 -146.8986844
-7.059755275 15.14941539 -250.0000974
0.1746757254 98.14464139 -152.0000974
-40.25016127 225.6015853 -88.24205439
-43.10406727 -2.460846804e-05 -10.31064739
-36.25016127 250.1244014 -60.45507339
-36.25016127 162.2996924 -124.3399214
-36.25016127 76.03753039 -31.60393339
-9.534845275 203.3849194 -152.0000974
3.779771725 200.0785144 -152.0000974
26.79174273 70.08250139 -152.0000974
-13.60323127 48.93241639 -9.738819108e-05
-19.97446427 210.1201664 -156.0000974
-18.61343127 8.033890392 -9.738819108e-05
-36.25016127 99.16874339 -8.734688388
-12.04151227 229.8216212 -152.0000974
-19.86059727 242.0162173 -156.0000974
-40.25016127 29.01534039 -50.74962239
-40.25016127 241.4532476 -42.95220539
39.40045073 -2.460846804e-05 -47.96921739
4.741856725 178.3919564 -156.0000974
-40.25016127 35.55800739 -124.2288364
25.67997173 -2.460846804e-05 -174.9566094
-40.25016127 25.09589239 -166.5031944
20.67239373 -2.460846804e-05 -193.6428654
-36.25016127 80.26893139 -20.32629439
-36.25016127 227.6039042 -27.11230539
30.65282573 17.86683839 -250.0000974
-18.57795127 134.9663704 -9.738819108e-05
-40.25016127 46.35607839 -154.1934424
-15.46813927 185.0606054 -156.0000974
-1.726526275 124.8844514 -9.738819108e-05
27.08416973 230.1234806 -9.738819108e-05
-36.25016127 40.72848339 -92.16738339
-40.25016127 147.2188584 -68.48738739
-40.94169427 -2.460846804e-05 -118.2748294
-40.25016127 41.63221639 -240.5423854
-40.25016127 96.77139439 -62.00614539
-40.09989927 198.2522914 -149.3268734
25.65139973 165.9512444 -9.738819108e-05
-36.25016127 141.8836844 -122.7327154
-40.25016127 197.6663814 -33.62324239
-36.25016127 204.2304724 -119.9759314
-36.25016127 236.3290292 -104.2664714
-16.31609727 142.4814024 -152.0000974
-1.680940275 37.88252839 -9.738819108e-05
2.061783725 -2.460846804e-05 -36.98215439
-40.25016127 102.4153074 -146.6941724
37.74983873 165.2800174 2.085655612
-36.25016127 185.9430314 -4.891229388
-27.28160827 7.821270392 -244.0000974
-36.25016127 81.98142839 -7.322735388
-40.25016127 228.7784402 -11.89844139
-36.25016127 52.52038439 -132.3464794
-40.25016127 212.110265 -47.17521439
-40.25016127 66.10941939 -189.4071744
-2.600949275 14.30730339 -156.0000974
-23.94961627 -2.460846804e-05 -197.0744694
3.352347725 -2.460846804e-05 -205.5656794
26.81544573 160.8646964 -152.0000974
-40.25016127 114.0878804 -71.30251239
8.773998725 67.99997539 -246.8613034
-36.25016127 148.7660484 -58.39130739
-36.25016127 35.34782739 -8.883705388
28.33513973 -2.460846804e-05 -93.61579239
-40.25016127 29.62064639 -28.20039339
-15.48795927 185.9509704 -9.738819108e-05
-12.27871427 -2.235237608 -244.0000974
-36.25016127 142.6203484 -9.657221388
-40.25016127 53.73944539 -78.09013239
-40.25016127 10.44964139 -150.1444324
17.69623973 -2.460846804e-05 -214.1081694
-11.04288427 -2.460846804e-05 -214.3497864
-40.25016127 205.4386394 -94.87480239
34.63183673 33.19537039 -250.0000974
36.87757273 108.6371824 -152.0000974
-28.49671327 -2.460846804e-05 -221.8281764
5.581830725 42.30914539 -244.0000974
23.22739873 74.80244339 -9.738819108e-05
-28.89557527 -2.460846804e-05 -108.4971304
-7.199631275 247.332817 -156.0000974
12.52758373 108.2479854 -9.738819108e-05
-40.25016127 140.3403984 -82.91706239
7.906261725 47.10302939 -9.738819108e-05
-36.25016127 80.47691939 -147.9366914
-12.54087327 -2.460846804e-05 -82.34113939
14.86093673 -2.460846804e-05 -154.3192224
14.04580973 201.9064634 -152.0000974
-20.33110927 226.0488564 -9.738819108e-05
-36.25016127 175.3579264 -29.64701939
-36.25016127 25.57831539 -90.34915939
28.45404873 42.94485039 -250.0000974
2.990817725 114.7333824 -152.0000974
-36.25016127 192.9902074 -139.0269444
-27.43430527 222.1867181 -152.0000974
-36.25016127 115.2960484 -96.20018239
-2.522027275 32.55301139 -250.0000974
-29.98395427 16.78604439 -9.738819108e-05
36.28560773 60.04185939 -152.0000974
-6.287049275 -2.460846804e-05 -162.0779854
-40.25016127 125.9871184 -113.4961754
-40.25016127 161.7764394 -56.05731539
-36.25016127 54.36690639 -65.58181539
25.11527673 21.68882539 -152.0000974
-40.25016127 190.4272444 -102.5769654
21.95622273 126.1973294 -9.738819108e-05
-36.25016127 28.97065639 -130.9400364
-36.25016127 144.3608714 -30.57615639
-36.25016127 184.1520034 -52.71470739
-20.65301627 -2.460846804e-05 -97.12309539
-36.25016127 42.89324839 -145.1660844
-37.18744027 173.2414744 -154.2501474
9.194275725 128.8987074 -152.0000974
-40.25016127 9.964289392 -23.37561139
-40.25016127 77.55777839 -41.52748339
-40.25016127 54.99297739 -97.77672139
-36.25016127 190.8066494 -80.53503839
-40.25016127 124.4294304 -23.58439539
19.62088473 238.9499587 -9.738819108e-05
-36.25016127 137.8489564 -44.53453239
-27.40533127 204.3396244 -152.0000974
-36.25016127 211.8918384 -78.93701539
-40.25016127 19.56853839 -238.6496904
-36.25016127 37.99709739 -45.78977939
43.37860973 34.38817739 -244.0000974
-27.08958027 129.5917414 -9.738819108e-05
6.415930725 -2.460846804e-05 -178.7509494
-40.25016127 156.4896044 -4.167680388
-40.25016127 39.62642039 -76.82655939
-15.80679227 22.22247339 -244.0000974
15.20005173 156.7952084 -152.0000974
-40.25016127 201.5141804 -48.89485039
35.04711173 -2.460846804e-05 -171.4045814
-8.615290275 8.630149392 -9.738819108e-05
4.145020725 55.63436639 -244.0000974
18.61758673 99.84013739 -9.738819108e-05
3.018813725 -2.460846804e-05 -128.0776154
28.23018973 -2.460846804e-05 -76.26188639
2.884697725 14.61582639 -9.738819108e-05
-16.94614227 49.58632239 -152.0000974
-39.98211127 245.3554158 -150.0037224
-36.25016127 200.9940144 -69.75603339
7.859550725 20.69039039 -152.0000974
-40.75783527 157.9965594 -75.95887239
37.74983873 236.8997145 -152.6022034
-36.25016127 219.9251833 -65.83973539
-0.1137852746 39.28777039 -156.0000974
-36.25016127 161.4728194 -114.0047684
22.46704373 194.1425264 -152.0000974
-36.25016127 244.5062725 -83.54442539
-32.36626427 24.67516639 -244.0000974
29.17570073 67.90852739 -244.0000974
14.30107073 -2.460846804e-05 -41.34941839
-10.13971027 46.41214739 -244.0000974
-40.25016127 186.9271684 -88.47966939
-40.25016127 52.26657739 -206.0459544
-36.25016127 135.4565924 -56.55361839
-38.60980027 113.7044854 0.8023636118
-36.25016127 87.08426939 -113.8908974
-3.537838275 102.7953604 -9.738819108e-05
-29.66931127 -2.460846804e-05 -55.90334939
-36.25016127 213.819369 -100.3475604
-23.74804327 93.16897239 -156.0000974
-40.25016127 96.32378139 -76.25728539
11.91441973 146.8138724 -152.0000974
38.60232173 -2.460846804e-05 -8.104191388
-36.25016127 139.8361704 -74.17801439
-40.25016127 186.1077624 -63.76615339
-0.04637127463 -2.460846804e-05 -110.8453134
24.55625573 250.0323671 -9.738819108e-05
-36.25016127 87.58721839 -75.12496339
10.81013873 -2.460846804e-05 -55.50001739
-40.25016127 107.6557394 -129.3024904
-40.25016127 89.89037439 -170.3345654
-9.891369275 24.55400839 -152.0000974
-40.25016127 55.41555939 -188.9670374
42.70266173 -2.460846804e-05 -188.1019004
-26.69135027 -2.460846804e-05 -179.8273074
-30.53660727 45.76897439 -244.0000974
-10.43376827 67.99997539 -247.8309084
37.74983873 148.4941844 1.636908612
27.45812673 119.2181074 -156.0000974
-40.25016127 249.5661661 -47.91182539
-40.25016127 20.92120239 -68.19379939
-40.25016127 85.76378239 -139.2181384
41.49386273 -2.460846804e-05 -203.4374144
31.65465973 229.2241047 -156.0000974
-16.02947227 111.8945804 -156.0000974
-36.25016127 115.5910844 -85.95833839
17.46274273 33.36744839 -244.0000974
-36.25016127 155.3933174 -21.80610339
-40.25016127 104.5055424 -114.1424384
-1.281098275 54.00422039 -156.0000974
-40.25016127 70.69495239 -20.83059739
-36.25016127 224.0825202 -114.2740994
15.57994973 29.70070839 -9.738819108e-05
-36.25016127 6.451065392 -101.0228844
-41.08303527 120.7192454 -50.38164239
-4.930888275 -2.460846804e-05 -10.22194939
-36.25016127 61.62594939 -49.26591839
-36.25016127 200.3348534 -7.526720388
-40.25016127 15.90193039 -117.3325324
25.95702973 25.98473039 -9.738819108e-05
-36.25016127 240.1163675 -143.1977594
-40.25016127 115.3581154 -114.4950504
-40.22293627 -2.460846804e-05 -210.8671844
30.89432773 -2.460846804e-05 -61.00293639
-9.625834275 154.8770334 -9.738819108e-05
37.74983873 96.04160339 2.442755612
-36.25016127 27.63981039 -78.27609939
-40.24767027 28.11104239 -148.0235324
-22.57877427 -2.460846804e-05 -2.478028388
18.58203273 67.16218639 -156.0000974
-36.25016127 176.1056104 -106.0160924
-9.022875275 -2.460846804e-05 -144.9876134
-40.25016127 26.50969039 -116.3605664
-36.25016127 247.0077605 -102.7279794
-33.73642127 241.8290898 -155.8497774
-36.25016127 237.7538607 -61.37490439
-36.25016127 195.1273124 -23.65937439
34.19837073 -2.460846804e-05 -160.4500144
-39.05571527 175.3460464 0.1626296118
19.17723673 35.81500439 -156.0000974
-39.41555427 56.27331139 -250.0000974
13.44937573 181.3562164 -9.738819108e-05
34.08223373 -2.460846804e-05 -37.68779039
-40.25016127 44.75539339 -215.2249804
17.22817273 239.2892749 -152.0000974
-40.25016127 14.27865639 -131.9527224
27.33090673 246.0883204 -152.0000974
-36.25016127 12.44601539 -86.33846739
35.40276773 -2.460846804e-05 -220.8091034
-36.25016127 5.866525392 -38.27798239
21.88963873 5.627671392 -156.0000974
37.74983873 162.2037374 -153.1064234
24.71653873 -2.460846804e-05 -185.0421754
-36.25016127 90.26678539 -45.32998839
36.87920773 49.31946139 -244.0000974
-36.25016127 132.5805434 -26.09246339
-32.37066227 23.46445639 -155.9882054
-9.499797275 -2.460846804e-05 -129.7215064
-29.78018327 140.4980434 -9.738819108e-05
-42.90363627 0.4999753915 -185.5490044
8.518546725 -2.460846804e-05 0.1893116118
4.564343725 232.3434036 -152.0000974
-40.25016127 252.0725174 -80.47271239
-35.14156627 5.838914392 -250.0000974
-20.89724527 209.1896614 -9.738819108e-05
-6.766249275 129.5881874 -152.0000974
-32.04642127 39.05817939 -156.0000974
20.91897073 203.9959964 -9.738819108e-05
-36.25016127 243.2648873 -111.1377944
-20.43599327 -2.460846804e-05 -236.1555054
-17.78299327 -2.460846804e-05 -47.26008539
31.42401573 210.8908844 -152.0000974
-36.25016127 131.4609864 -90.90482939
-36.25016127 40.47621539 -16.36761539
-2.297587275 206.8951334 -156.0000974
-30.01317727 232.937495 -152.0000974
31.75430973 -2.460846804e-05 -28.68160639
-36.25016127 72.46996039 -108.3247444
-36.25016127 44.54323139 -112.4913724
-36.25016127 19.65336939 -39.25091939
17.09078873 228.2123736 -9.738819108e-05
-36.25016127 170.1459204 -52.85765939
29.73603773 112.3663814 -9.738819108e-05
-40.25016127 126.2295534 -99.38651539
-40.25016127 23.71388939 -176.7975644
-7.590413275 100.0642884 -156.0000974
-9.144894275 120.9703804 -152.0000974
-3.146157275 183.5329004 -156.0000974
-36.25016127 20.51464339 -6.477826388
37.24781173 78.24578139 -9.738819108e-05
-36.25016127 174.2946314 -38.62241739
14.85808473 215.3814828 -152.0000974
18.31702573 83.45176939 -152.0000974
20.98162173 49.21105339 -250.0000974
-36.25016127 5.883797392 -74.09422339
27.07667173 144.6678204 -152.0000974
-36.25016127 19.50381039 -100.4085724
-4.244449275 79.30169839 -9.738819108e-05
-40.25016127 229.9760914 -99.52266939
-27.55317627 251.7114208 -9.738819108e-05
-36.25016127 108.8768714 -19.18147939
11.27485973 -2.460846804e-05 -17.89760539
-35.22695527 62.23616439 -244.0000974
-40.25016127 172.6770184 -122.9419294
-30.56731727 -2.460846804e-05 -120.8584354
-40.25016127 95.18339939 -156.3830224
21.31220673 135.5420454 -9.738819108e-05
-33.60745027 146.3085444 -155.8661544
28.77485473 127.0627914 -152.0000974
17.78257773 99.13585739 -156.0000974
-36.25016127 215.2530034 -113.2927144
-40.25016127 51.91444539 0.7834696118
-40.25016127 73.78781739 -86.65200039
8.530387725 -2.460846804e-05 -225.4109524
-40.25016127 249.8573487 -132.7120564
-40.25016127 233.6070197 -138.9166594
1.753557725 91.90432239 -9.738819108e-05
-39.15553927 -2.460846804e-05 -106.8610864
-40.25016127 172.3587844 -83.21273939
-10.83152827 -2.460846804e-05 -56.29536139
-40.25016127 16.83278739 -201.3269354
-40.25016127 134.2131614 -123.6743544
-32.28378627 223.191022 -0.004007388191
-43.20150427 0.4999753915 -131.5355144
-40.25016127 224.3477699 -44.98117839
-40.25016127 50.30990139 -240.2277084
8.861529725 81.35936739 -156.0000974
12.91126873 178.6487774 -152.0000974
-23.20113827 31.72968639 -244.0000974
-33.78675827 31.43506339 -250.0000974
-36.25016127 73.92054839 -128.2645754
-30.54799127 -2.460846804e-05 -32.01678639
-35.08991627 240.5855004 -1.189300388
34.02469173 -2.460846804e-05 -125.5394134
-36.25016127 202.6535824 -128.4714994
-40.25016127 189.5366414 -30.73579439
-40.25016127 43.89214939 -132.0479134
-11.49078527 20.93938239 -9.738819108e-05
22.66477373 -2.460846804e-05 -12.69143539
-36.25016127 194.4930914 -45.95420639
6.307111725 49.63362839 -156.0000974
-40.25016127 5.931150392 -226.6823984
-39.74984227 145.8867044 -1.288498388
-40.25016127 105.7787724 -54.00183039
12.47719473 198.5341024 -9.738819108e-05
-36.25016127 179.2219434 -90.39972739
-42.66384027 168.8042944 -40.15506239
-41.58663827 -2.460846804e-05 -63.51469039
-19.56398627 17.28962139 -250.0000974
-17.30806127 234.0626964 -9.738819108e-05
-8.497653275 115.4291654 -9.738819108e-05
-15.97888727 8.837223392 -152.0000974
-36.25016127 72.81712939 -143.2017714
10.17182273 116.9421594 -156.0000974
-36.25016127 215.9645268 -28.46169939
37.74983873 240.4385743 0.6907726118
-7.054081275 178.6639454 -9.738819108e-05
-9.456890275 95.59787539 -9.738819108e-05
-40.25016127 99.59608439 -89.49989739
-31.42286827 169.6091964 -9.738819108e-05
-17.22494027 -2.460846804e-05 -139.9634124
-12.48775327 87.47281439 -152.0000974
-40.25016127 109.8863224 -37.64715939
21.54646673 129.4289544 -156.0000974
-40.25016127 190.0643804 -132.1427004
13.96294773 170.4017234 -9.738819108e-05
-0.9203822746 215.2631083 -156.0000974
24.18023273 184.3161214 -9.738819108e-05
-9.475638275 6.848765392 -244.0000974
9.121413725 124.2011324 -9.738819108e-05
-35.48002327 159.9681154 -155.3045134
26.06816673 93.80982139 -9.738819108e-05
37.74983873 81.48122039 -155.9925444
-40.25016127 128.6471584 -7.264770388
16.48291073 -2.460846804e-05 -115.6018224
-36.25016127 46.37826939 -29.35360339
-28.53350827 -2.460846804e-05 -134.6662334
19.64105173 -2.170835608 -135.1901904
-36.25016127 60.06112339 -82.99405839
17.33339773 5.774765392 -244.0000974
-36.25016127 248.0089275 -24.11017939
-40.25016127 188.2726824 -117.2012354
-28.95162527 -2.460846804e-05 -88.59832539
-40.25016127 2.164564392 -161.4034254
16.32820273 41.88262939 -9.738819108e-05
11.10243473 54.87226239 -9.738819108e-05
20.58797973 -2.460846804e-05 -47.85017339
35.24936173 126.0308574 -9.738819108e-05
-36.25016127 211.7111134 -59.98568239
-36.25016127 170.5536304 -98.49812739
-36.25016127 66.94325439 -121.4991994
-40.25016127 62.75665839 -64.62383439
-20.77755827 119.7512014 -9.738819108e-05
-14.01648127 66.05642039 -156.0000974
3.005605725 4.532987392 -244.0000974
5.343103725 61.73923039 -9.738819108e-05
-40.25016127 156.4336874 -48.37670039
-40.25016127 94.21699739 -37.62213839
18.22903073 208.9101524 -156.0000974
-40.25016127 92.70127139 -23.05797639
19.43055173 140.3327014 -152.0000974
-11.89211727 32.70322739 -244.0000974
-31.62788327 109.2667774 -9.738819108e-05
-36.25016127 100.2934834 -43.11089239
-23.41972127 122.5449204 -156.0000974
-40.25016127 65.00812839 -211.3982634
-8.509441275 28.93614139 -9.738819108e-05
11.71660373 -2.460846804e-05 -73.44428939
-25.18161127 248.3516339 -156.0000974
-10.34631827 52.10455139 -250.0000974
-40.25016127 87.24432539 -90.55137739
35.66917873 -2.460846804e-05 -210.3357314
-40.25016127 149.7419944 -10.91839139
-32.29870927 -2.460846804e-05 -201.6679534
-40.25016127 133.0733094 -144.9001144
-36.25016127 63.35637139 -6.547133388
-21.27710727 -2.460846804e-05 -11.16839639
-40.25016127 128.1890404 -82.00374939
-40.25016127 13.42538939 -141.0090704
-42.88708927 158.2729074 -120.4621654
11.35952773 11.89502439 -9.738819108e-05
-40.25016127 59.10481939 -32.62563439
-36.25016127 185.7203524 -97.15929639
-40.25016127 66.55298939 -96.76517939
-40.25016127 73.92587239 -194.3395614
-40.25016127 184.3229524 -11.85604639
-40.25016127 76.28993239 -67.67687539
35.93318173 2.948581392 -244.0000974
34.60267873 175.8712494 -152.0000974
18.00994273 12.72775239 -152.0000974
-40.25016127 60.10115239 -223.5976534
7.343683725 92.85769639 -156.0000974
-40.25016127 54.41879539 -46.04070839
-16.59705227 -2.460846804e-05 -89.37592839
-36.25016127 146.3409934 -110.4552804
-40.25016127 165.2411214 -23.06487439
-40.25016127 5.974776392 -195.3152664
19.48332673 57.17227639 -250.0000974
-36.25016127 83.88244839 -27.98740139
-36.25016127 117.0787634 -127.7903674
-36.25016127 166.0107964 -139.9126384
-40.25016127 28.77758839 -62.71986739
-34.90347427 205.1436324 -155.5183004
-29.09876527 -2.460846804e-05 -171.8343874
-40.25016127 203.8939194 -15.10366339
32.91491473 197.0490914 -9.738819108e-05
2.023138725 245.0961458 -156.0000974
-36.25016127 43.51357539 -99.73098739
-20.58500527 52.92461039 -250.0000974
-41.06052627 0.4999753915 -234.9086424
-2.111311275 -2.460846804e-05 -178.7691214
-36.25016127 78.97069339 -60.09098839
-40.25016127 68.71330639 -32.33582439
-7.681173275 194.7030144 -9.738819108e-05
-0.7070622746 107.3355824 -156.0000974
-40.25016127 16.14079739 -56.28122539
-36.60556227 -2.460846804e-05 -84.35956539
-36.25016127 149.8031774 -92.87604139
21.93993773 152.8362744 -9.738819108e-05
-25.34710427 -2.460846804e-05 -66.62606839
-27.20240827 18.57949239 -244.0000974
-43.14256727 104.7078224 -159.8478644
-36.25016127 221.375013 -145.5313514
-36.25016127 91.42377439 -135.2740654
-11.94756427 240.1669544 -152.0000974
-36.25016127 96.77082639 -128.1922124
4.979859725 47.50550839 -250.0000974
-40.25016127 174.3225934 -69.12593439
28.73791573 180.2071484 -156.0000974
-40.25016127 21.22802439 -49.20469239
34.87291873 20.89892639 -244.0000974
-20.40795327 -2.460846804e-05 -26.41985139
-36.25016127 249.1653651 -7.095476388
-31.97551227 67.99997539 -249.0052344
-8.726754275 237.9084111 -9.738819108e-05
-36.25016127 78.87500339 -122.1017624
11.84856373 233.6088715 -156.0000974
-40.25016127 36.27963239 -146.7894894
-36.25016127 168.0916724 -10.63432139
-8.139646275 132.0485964 -9.738819108e-05
23.73782873 53.52341439 -244.0000974
-40.25016127 61.49714739 -172.0784744
-40.25016127 169.9482554 -62.20417639
-21.89072627 136.2153434 -152.0000974
2.037450725 130.3238474 -156.0000974
23.62738673 107.4044524 -9.738819108e-05
-16.86918227 -2.460846804e-05 -225.9930944
-40.25016127 131.8643104 -40.79502039
16.27744373 69.13409039 -9.738819108e-05
37.74983873 36.62666239 1.008080612
17.83684973 111.9170654 -156.0000974
-36.25016127 229.4197276 -147.8026454
-40.25016127 13.59363239 -181.8873474
-40.25016127 219.6243045 -11.17929739
-40.25016127 12.87866439 -103.0581744
-36.25016127 109.3500484 -142.8834244
-40.25016127 40.76163839 -186.2713904
27.76585073 29.37224139 -152.0000974
13.86876873 78.64841339 -9.738819108e-05
-1.066697275 48.50948539 -244.0000974
-40.25016127 192.3717974 -8.357504388
3.160548725 76.01973839 -156.0000974
-36.25016127 160.1266554 -28.63806739
28.73535273 42.89514239 -9.738819108e-05
-36.25016127 58.28874439 -104.8728124
-36.25016127 221.1546437 -93.22005239
-36.25016127 48.20868339 -17.23604439
-36.25016127 131.6797374 -132.4418804
8.665500725 26.14420839 -9.738819108e-05
-21.33569527 77.98655139 -156.0000974
-30.30213627 128.6328384 -152.0000974
0.4259957254 139.4984014 -156.0000974
41.67668873 -2.460846804e-05 -156.6638124
-40.25016127 142.0195924 -55.52899439
-40.25016127 9.507048392 -157.8387574
-36.13298527 -2.460846804e-05 -43.34151339
-36.25016127 4.323976392 -19.88873539
-40.25016127 69.75226139 -56.10762239
32.04254373 252.2233844 -152.0000974
-25.48547227 59.71202739 -156.0000974
-40.25016127 89.49315739 -57.84759139
-35.71579927 0.3611413915 -244.0000974
25.37404973 231.2527906 -152.0000974
-40.25016127 25.82774339 -194.6353764
-7.999448275 -2.460846804e-05 -106.3269974
23.79085073 14.36351039 -250.0000974
-22.74374427 -2.460846804e-05 -35.05407839
34.28775373 232.8443031 -9.738819108e-05
17.03108973 13.46887539 -244.0000974
-36.25016127 43.09930539 -58.98000839
-40.25016127 11.45465139 -77.58564439
-36.25016127 120.6860514 -142.8483764
-40.25016127 32.74285239 -165.8845664
10.51599773 -2.295077608 -244.0000974
32.26019773 -1.625778608 -133.0290914
1.568101725 149.6888594 -9.738819108e-05
21.84924373 42.23537739 -152.0000974
-36.25016127 221.9239447 -80.16520039
15.03994873 44.37223839 -250.0000974
-2.094439275 -2.460846804e-05 -122.3705534
-40.25016127 47.17702939 -41.08465839
-1.656862275 66.95623839 -244.0000974
7.404599725 -2.460846804e-05 -136.0736334
-36.25016127 65.97251439 -132.5862734
-40.25016127 212.5050553 -38.12924539
-13.90311227 42.58807139 -152.0000974
-40.25016127 139.9729274 -107.9174514
-36.25016127 82.75370639 -81.25596639
-11.92545227 191.6026904 -152.0000974
-0.4691732746 11.35598339 -250.0000974
-40.25016127 101.3718484 -100.2949054
-40.25016127 165.0489654 -81.10891239
-19.35509727 8.759272392 -250.0000974
-40.25016127 149.8980954 -122.2830444
-36.25016127 151.6998534 -136.6470564
-40.25016127 116.5706364 -79.60932439
-36.25016127 20.76564039 -84.51245839
21.00728873 187.8897454 -156.0000974
-36.25016127 31.64719239 -21.08905939
-40.25016127 17.48129239 -22.55246339
15.30044073 -2.460846804e-05 -221.2790424
-36.25016127 245.2093535 -32.77765739
-40.25016127 25.60392039 -34.60524239
12.81536073 162.7458674 -156.0000974
-17.02021727 101.6418134 -156.0000974
-36.22789727 164.7972804 -148.1914264
-40.25016127 153.9592214 -107.7837114
-15.88793427 87.09635139 -9.738819108e-05
-30.39376127 106.7994894 -152.0000974
40.99277973 -2.460846804e-05 -94.93409439
-40.25016127 80.36314439 -154.2955244
37.72722273 102.3410384 -156.0000974
-40.25016127 129.3661984 -66.48341439
-40.25016127 60.79216139 -147.8472194
37.72713173 33.31251439 -153.4386544
-40.25016127 40.64884539 -85.83246539
-36.25016127 100.1002374 -70.71270539
-40.25016127 21.71381639 -229.9964994
-6.166992275 34.72942839 -152.0000974
-36.25016127 144.5265944 -129.9179014
-33.34758027 206.8355824 -0.1667793882
-40.25016127 112.5150164 -107.5839634
-36.25016127 236.4388558 -77.26363639
25.48550273 20.19047639 -244.0000974
-40.25016127 85.02249639 -98.12125439
-40.25016127 143.7508144 -116.7327974
4.838619725 103.9454884 -152.0000974
-40.25016127 80.86765339 -113.1575564
30.47303373 44.39497939 -156.0000974
2.249818725 19.30289539 -250.0000974
15.67435273 63.97041839 -250.0000974
-15.35207927 -2.460846804e-05 -164.2582994
25.89752973 65.05225839 -250.0000974
-36.25016127 9.983604392 -119.2775674
-36.25016127 122.9285444 -43.38075339
-40.25016127 175.2012524 -114.3139914
23.69858073 174.7334304 -156.0000974
28.02759073 82.99186739 -9.738819108e-05
-40.25016127 211.4070714 -125.0033904
-13.30109627 179.2302564 -152.0000974
-37.75539027 182.4351654 1.789786612
-40.25016127 58.02392839 -135.1907954
-6.441206275 1.593104392 -9.738819108e-05
-19.80584727 38.78629839 -9.738819108e-05
19.39740373 -2.460846804e-05 -2.526949388
21.86815973 38.66829339 -250.0000974
21.70743073 -2.460846804e-05 -90.45528439
-40.25016127 46.81947639 -75.37395839
-40.25016127 147.9353684 -86.33098039
-10.63703627 57.18804939 -156.0000974
-36.25016127 188.3877874 -144.9652154
-12.59177527 -2.460846804e-05 -63.40187439
-36.25016127 5.471359392 -134.2522954
-5.296378275 219.5508932 -152.0000974
24.49669773 -2.460846804e-05 -101.8770974
-40.25016127 27.95527539 -136.9690644
-30.79531127 -0.03055660847 -250.0000974
-36.25016127 240.5675269 -126.1610384
1.840989725 147.9128374 -152.0000974
-32.34005727 49.61333339 -0.01055238819
-40.25016127 36.45947039 -53.37620639
-36.25016127 71.04858339 -80.10457639
-8.975270275 168.2846764 -152.0000974
-35.10902527 114.4947414 -150.7875644
-39.16981027 220.8446999 -0.04827938819
-36.25016127 119.8861984 -120.4691204
-17.42551027 201.9650714 -152.0000974
40.49362873 27.11500539 -244.0000974
-40.25016127 127.7959624 -106.4870674
-40.25016127 104.9541224 -26.94548439
15.09468273 48.40609839 -244.0000974
2.881270725 166.9883944 -9.738819108e-05
-27.49756827 185.0803554 -156.0000974
2.713082725 37.48815839 -250.0000974
-40.25016127 27.99641139 -5.233989388
-43.05025727 105.9599384 -63.71964239
-40.12924627 232.4836706 -2.771110388
-38.81475627 126.9182934 -152.5626134
-40.25016127 39.33725439 -226.2590254
-36.25016127 53.96013139 -28.57766939
-40.25016127 161.4249774 -41.22844239
-40.25016127 55.39082539 -230.7435454
-40.25016127 27.95039039 -105.1996044
-39.83892627 107.0735614 -1.584953388
-19.62521627 -2.308421608 -244.0000974
-36.25016127 29.12994139 -12.40251739
-13.66623527 172.2929384 -156.0000974
-36.25016127 124.4569014 -56.30402239
7.581851725 63.07676139 -156.0000974
-9.948859275 -2.460846804e-05 -186.8271674
-20.78909527 219.600304 -152.0000974
-40.25016127 54.17593339 -121.9218214
20.14991273 3.150437392 -250.0000974
-40.25016127 41.00914939 -107.7806984
-36.25016127 51.90369939 -72.42057639
-5.714373275 -1.156057608 -51.49497039
-28.40976027 36.31854439 -9.738819108e-05
-32.46208927 -2.460846804e-05 -24.04986239
-36.25016127 162.5444614 -72.66202239
-36.25016127 83.15988239 -39.74457039
15.91852673 133.7319634 -156.0000974
-40.25016127 244.1577719 -137.3225734
-33.58536127 39.37886139 -244.0000974
29.48428673 103.6377994 -152.0000974
35.78853173 -2.460846804e-05 -89.70380339
7.272075725 204.7469474 -156.0000974
-0.3476882746 -2.460846804e-05 -148.0488124
-40.25016127 32.14952039 -211.9226684
-40.25016127 68.18321539 -3.293717388
-36.25016127 198.0174554 -39.43206739
-36.25016127 178.9206664 -142.0714534
-40.25016127 6.242715392 -8.685960388
-40.25016127 232.1969074 -108.3501574
5.579665725 35.13700839 -244.0000974
28.21131373 75.71075339 -156.0000974
-40.25016127 128.4097044 -34.65608639
-36.25016127 204.6534294 -32.39455239
-31.17605027 162.5727494 -9.738819108e-05
27.23315273 188.9653574 -152.0000974
27.59343273 86.95356139 -156.0000974
-30.48651827 45.61123239 -152.0000974
-17.72096827 29.76180739 -250.0000974
-40.25016127 110.4031974 -99.96165639
20.58241473 -2.460846804e-05 -32.43371739
-5.399543275 20.75101239 -156.0000974
-36.25016127 155.5680444 -121.1968584
-40.25016127 21.87546739 -215.5098494
-40.25016127 120.1164654 -4.039641388
-40.25016127 90.82404939 -120.1758894
-30.33723627 -2.460846804e-05 -48.93344239
37.74983873 53.71855739 -154.6120534
-36.25016127 191.8100754 -64.41482439
1.556413725 -2.460846804e-05 -91.35608339
-39.62782127 16.93256539 -250.0000974
-24.52867027 32.61870539 -156.0000974
-40.25016127 252.0728436 -65.83108839
-31.97590827 52.59453039 -244.0000974
-40.25016127 176.1814594 -56.52966039
-40.10530627 144.7480004 -149.2702054
-40.25016127 81.97777239 -132.9102874
11.63130473 -2.460846804e-05 -186.5754304
-40.25016127 137.8736774 -23.96711639
-26.49928527 160.5623464 -156.0000974
-40.25016127 69.84955839 -70.31558139
-40.25016127 127.0950634 -17.15595739
16.67137373 187.5215554 -9.738819108e-05
-20.85066727 161.8124374 -152.0000974
10.59943873 58.21414739 -244.0000974
-19.28673927 157.5032154 -9.738819108e-05
-40.25016127 184.5648864 -127.8983004
-43.38863827 120.4139664 -101.5134974
-36.25016127 104.9108224 -87.51734939
13.27459873 40.73280539 -244.0000974
0.6565897254 -2.460846804e-05 -160.7465474
4.003048725 190.9358164 -152.0000974
24.13216773 -2.460846804e-05 -211.5412764
7.617362725 216.4653711 -156.0000974
-12.37471127 21.90018539 -250.0000974
34.09818773 87.61340739 -152.0000974
32.70142173 -2.460846804e-05 -82.24923339
-37.77159527 -2.460846804e-05 -192.8622854
-40.25016127 1.175570392 -70.19796539
-21.19245727 249.0070586 -9.738819108e-05
-40.03424727 241.1772203 -116.5220884
-35.78181727 12.66510139 -244.0000974
-28.28354927 58.60338439 -244.0000974
-40.97220227 24.03553839 -42.61097539
-43.35872027 31.58673439 -250.0000974
-30.86141627 174.7984414 -152.0000974
-3.909604275 58.79581139 -244.0000974
-36.25016127 229.4832112 -66.94541739
-36.25016127 70.12970039 -101.0789754
-13.08030027 77.46277239 -152.0000974
33.72110573 50.41168539 -250.0000974
-36.25016127 162.9877924 -17.96088939
-13.54729127 208.9403524 -152.0000974
-40.25016127 18.38654139 -165.1306184
13.95261073 184.0921284 -156.0000974
-40.25016127 39.50838839 -114.7963814
-36.25016127 188.5465154 -57.93932539
-8.350414275 139.7831314 -9.738819108e-05
-25.07673127 170.2351094 -152.0000974
7.641105725 5.873813392 -152.0000974
18.47527373 -2.460846804e-05 -25.23003739
-36.25016127 131.6775084 -139.4596624
-3.052864275 234.1366765 -9.738819108e-05
-36.25016127 144.1390324 -138.7587564
-36.25016127 182.6179854 -28.48404039
-36.02655427 52.06505939 -149.2545204
-40.25016127 118.0423614 -133.2101064
-40.25016127 92.67879039 -9.531863388
29.31994073 188.7615164 -9.738819108e-05
-40.25016127 81.40971439 -179.2044544
-40.25016127 97.20089939 -17.96911639
-40.25016127 48.65629739 -127.2016734
-40.25016127 199.9024444 -89.06306539
-40.25016127 49.41085939 -115.0160074
30.36944773 53.86574439 -152.0000974
-35.42789427 21.30972539 -150.3332164
-40.25016127 95.27699139 -140.2826184
-40.25016127 68.05533739 -201.8879284
-40.25016127 114.3344214 -64.54417439
-36.25016127 64.68892339 -110.9555804
-30.56350627 86.97685939 -152.0000974
-40.25016127 28.97152839 -122.6471544
-36.25016127 13.19989839 -72.25898039
4.965113725 -2.460846804e-05 -191.1298554
-40.25016127 8.428747392 -16.33314839
-40.25016127 108.8148274 -136.9829714
-12.97701427 132.2099854 -152.0000974
16.91139073 246.1179238 -152.0000974
37.74983873 117.1212604 -153.9785044
-36.25016127 106.9965184 -73.74320239
-7.111503275 -2.460846804e-05 -154.9823794
-23.90560927 53.50090839 -244.0000974
32.90268973 135.5086514 -152.0000974
-40.25016127 57.82562139 -87.89876539
-40.25016127 26.22977039 -237.8342994
-36.25016127 167.8804134 -112.0289494
-24.66220127 101.7061644 -156.0000974
-19.37187527 22.39707239 -152.0000974
-36.25016127 243.9180937 -68.74877939
-13.65045427 225.4944542 -9.738819108e-05
12.87716373 86.33804739 -9.738819108e-05
-36.25016127 4.101966392 -49.03532239
-43.10616827 25.49997539 -72.15027339
37.74983873 146.6326514 -155.4766484
-36.25016127 146.5046214 -36.91336739
29.45844873 -2.460846804e-05 -53.90023639
-36.25016127 36.52466439 -37.02052539
-15.26248827 -2.460846804e-05 -173.3729844
0.7602137254 191.6742954 -9.738819108e-05
-3.404319275 40.99388939 -244.0000974
16.38234073 128.1102454 -152.0000974
2.617079725 13.23699139 -152.0000974
-5.379892275 21.83716939 -250.0000974
-40.25016127 66.05906339 -12.51212139
2.185437725 173.4825914 -152.0000974
-36.25016127 14.75986439 -108.5655134
-40.25016127 158.9706034 -33.97172839
-36.25016127 116.8107814 -40.75841839
-40.25016127 56.42425039 -9.272619388
32.29060173 113.4544624 -152.0000974
-17.89367727 5.762291392 -244.0000974
-3.024775275 117.5565634 -152.0000974
-36.25016127 251.1862879 -52.95818039
-40.67512127 34.96238139 -241.0000974
-30.92328227 -2.460846804e-05 -238.4281694
11.69973773 102.8107804 -152.0000974
-1.470573275 80.75796539 -156.0000974
-20.32043727 126.3556484 -9.738819108e-05
-36.25016127 219.3883975 -132.8971154
0.07403072538 -2.460846804e-05 -54.48835539
-7.137831275 211.4035344 -156.0000974
32.45668273 156.6922174 -156.0000974
-36.25016127 23.06603339 -133.9119794
-17.09452427 40.95563939 -244.0000974
-36.25016127 125.3792384 -94.20002439
-40.25016127 102.5573724 -82.63172039
-40.25016127 16.24187439 -212.0761314
-36.25016127 11.80534839 -33.84755539
30.21843973 204.5653104 -156.0000974
36.32630073 212.7367024 -156.0000974
-36.22925527 66.00169639 -148.1797594
-36.25016127 130.3115374 -60.66861639
-40.25016127 170.5577324 -27.56615239
-13.38907627 -2.460846804e-05 -23.33028139
-36.26975127 104.8058584 -154.8803284
-40.25016127 59.56632239 -23.84408639
31.85697073 -2.460846804e-05 -226.3378124
8.920330725 140.0704264 -9.738819108e-05
8.011657725 247.7042593 -152.0000974
-42.28544527 11.24482339 -244.0000974
-40.25016127 26.71397939 2.182616612
-40.25016127 77.93787539 -48.57800639
-40.25016127 53.16247739 -52.47015039
-40.25016127 225.3042128 -70.01108339
1.422980725 68.12144539 -156.0000974
-36.25016127 59.53646139 -95.29200439
-36.25016127 242.5189543 -94.64524639
-3.170235275 17.76503939 -244.0000974
-40.25016127 34.19105139 -202.1274974
34.16820873 74.87127939 -152.0000974
2.369286725 247.1183448 -9.738819108e-05
18.63869073 29.80316639 -152.0000974
-3.867862275 209.1816474 -9.738819108e-05
24.54223073 154.7434614 -152.0000974
-40.25016127 56.61497439 -210.9131004
14.26339973 16.27025239 -156.0000974
-40.25016127 154.7873184 -95.11828339
43.25885073 8.336781392 -250.0000974
-40.25016127 116.3887474 -9.390702388
-28.08276527 238.5921506 -156.0000974
-36.25016127 187.8883444 -123.2715344
-23.20157527 117.4098484 -152.0000974
-40.25016127 248.5419554 -97.82633139
-36.25016127 100.4506984 -106.6193624
-40.25016127 74.20837939 -158.6008474
-40.25016127 38.37404739 -70.44869139
-40.25016127 35.76546539 -14.37493139
-40.15339827 244.707393 -3.016596388
-40.25016127 37.05146139 -99.77777439
10.01942873 86.52672039 -152.0000974
-40.25016127 197.8561204 -97.46045639
-40.25016127 41.85050339 -176.0911414
-36.25016127 35.48307939 -141.7467114
35.95389273 63.34244639 -250.0000974
-40.25016127 19.98493239 -11.97695739
-36.25016127 96.78753639 -56.91636739
-40.25016127 175.3238054 -75.51561039
-40.25016127 230.0532759 -132.6415194
-24.81379727 -2.460846804e-05 -209.3728124
-36.25016127 208.6195224 -111.9108464
-40.25016127 138.9366394 -49.48288539
17.95012073 -2.460846804e-05 -107.3900334
-18.88762027 43.46563939 -156.0000974
-36.25016127 86.67403039 -21.06494639
-36.25016127 7.077071392 -61.00702239
-34.37542927 -2.460846804e-05 -219.1851374
-0.8733032746 176.8361394 -9.738819108e-05
-36.25016127 230.6283932 -87.76411739
26.18149073 44.24432339 -244.0000974
6.431738725 27.42973739 -244.0000974
28.29242873 34.32001939 -250.0000974
0.3837997254 -2.460846804e-05 -237.2652374
-36.25016127 198.9081854 -75.84140239
-40.25016127 18.13897439 -187.2250214
-25.39546827 -2.460846804e-05 -124.6764034
-40.25016127 185.6470134 -71.31390139
-22.43878727 144.5427954 -152.0000974
-27.88791227 76.92053339 -152.0000974
-43.07239727 21.72697439 -244.0000974
-36.25016127 242.1769088 -49.05595339
-1.308436275 30.65173839 -244.0000974
-40.25016127 46.81149539 -202.6856734
38.69746173 -2.460846804e-05 -19.03034039
-40.25016127 15.84973339 -223.0498274
5.146225725 211.4419244 -9.738819108e-05
-40.25016127 1.780374392 -27.46096139
-35.63119227 193.9602824 -155.2244654
13.63598273 246.0257357 -9.738819108e-05
-37.95906827 -2.460846804e-05 -227.2352384
-36.25016127 231.8366169 -15.81856939
-7.638541275 121.7976434 -9.738819108e-05
-27.82013227 61.54325239 -250.0000974
-36.25016127 135.1885674 -97.55946239
-7.517555275 50.78945039 -9.738819108e-05
-40.25016127 232.32567 -70.98816339
-3.065323275 -2.460846804e-05 -30.88382139
-36.25016127 108.3473114 -43.81364139
0.9381067254 -2.460846804e-05 -7.785912388
22.33448073 101.0371404 -152.0000974
14.94780373 224.7111344 -155.1243044
-40.25016127 165.3916474 -120.5045154
-36.25016127 159.6811124 -7.920007388
-36.25016127 161.9316984 -107.6784334
32.87369873 129.7866944 -156.0000974
-3.273875275 73.03475539 -9.738819108e-05
20.89165773 -2.460846804e-05 -141.9064714
-40.25016127 192.0733184 -111.3150424
-25.84722827 196.9880054 -156.0000974
33.43405373 -2.460846804e-05 -200.9167474
16.68368873 -2.460846804e-05 -57.87149239
17.37642473 174.3719824 -156.0000974
-36.25016127 54.78971239 -14.69463039
-40.25016127 150.8015864 -18.98786139
-40.25016127 79.59219739 -126.9528024
5.834843725 123.5365654 -152.0000974
-19.13988127 167.7358294 -9.738819108e-05
-36.25016127 47.99547339 -82.40417839
-40.25016127 211.3021224 -138.8920874
-10.65262527 26.50595639 -244.0000974
-32.63222727 65.15426439 -155.9623934
-25.59660627 67.99997539 -249.1103984
-40.25016127 45.30342439 -93.89297939
-40.25016127 65.93032239 -157.0829654
11.10775573 196.3874874 -156.0000974
10.68131873 4.667935392 -244.0000974
-40.25016127 24.07911039 -154.8771024
36.81872773 207.3672064 -9.738819108e-05
-36.25016127 33.91890739 -77.66655339
32.53354973 222.8972802 -9.738819108e-05
-40.25016127 135.0188174 -74.93508239
-20.16821627 -2.460846804e-05 -113.2132814
-40.25016127 112.1640094 -147.9890194
-0.6974292746 59.61102239 -9.738819108e-05
-35.98973227 86.21804639 -2.668919388
-40.25016127 172.4380454 -89.51092439
-28.25587527 215.9452899 -152.0000974
-40.25016127 154.2196724 -61.09909839
-18.64965027 63.82113239 -244.0000974
-43.06448727 111.6589574 -21.64759139
-40.25016127 175.2626564 -23.11476639
-36.25016127 93.33294739 -114.5468294
32.27647573 190.8133884 -156.0000974
-36.25016127 150.7577554 -142.8574554
-36.25016127 210.4246414 -92.02348639
-38.01578227 140.0305664 -153.5375594
30.16178973 224.6272191 -152.0000974
-36.25016127 34.43408539 -119.5335114
5.577974725 140.0826164 -152.0000974
-21.68798027 -2.460846804e-05 -161.5416054
18.13725773 20.97299039 -152.0000974
-22.43666427 51.95206139 -156.0000974
-40.25016127 43.09624239 -53.80455639
-20.26970727 170.1556504 -156.0000974
-40.25016127 47.28285839 -160.3783804
-3.291861275 5.925518392 -244.0000974
-36.10712527 193.1347864 -149.0289294
6.551724725 106.4275764 -9.738819108e-05
-40.25016127 10.87461939 0.9495826118
-40.25016127 126.8638994 -75.15909339
-35.23512727 217.8878797 -150.6072644
-40.25016127 182.7478974 -76.83975839
-14.72962927 -2.460846804e-05 -29.58829739
9.992277725 26.73459039 -156.0000974
-40.25016127 91.83671239 -99.00518839
11.36998773 114.3747924 -9.738819108e-05
37.70429373 213.6890324 -9.738819108e-05
-36.25016127 10.23655539 -129.4087384
-36.25016127 216.0036373 -44.40988839
-32.70672827 -2.460846804e-05 -178.2130144
-40.25016127 45.05487839 -20.81183139
32.70236473 -2.460846804e-05 -113.0232374
-40.25016127 52.47823539 -58.65093839
-0.9031702746 -2.460846804e-05 -172.6702754
-36.25016127 104.4424794 -139.0676894
-23.02851527 13.97357139 -244.0000974
-40.25016127 117.0314124 -91.77417439
-36.25016127 223.1531888 -40.38031739
-11.82855027 152.5421664 -152.0000974
-36.25016127 208.0586314 -7.626349388
12.73994773 124.4620324 -156.0000974
-40.25016127 3.588858392 -180.8652324
-40.25016127 80.13497439 -15.58282339
18.73905073 160.8966994 -156.0000974
-36.25016127 29.97245939 -56.39958439
-9.403256275 58.52025139 -250.0000974
-36.25016127 207.6850624 -99.44858639
-36.25016127 210.2585554 -51.53272439
29.79307473 144.0639544 -9.738819108e-05
-36.25016127 246.9174263 -145.3261424
-37.22680127 -2.460846804e-05 -12.22460339
-36.25016127 179.8819564 -22.21950339
29.42809473 -2.460846804e-05 -208.3729234
-21.67569727 10.15681539 -153.9595094
2.328073725 160.2317974 -156.0000974
-36.25016127 88.01168939 -9.090692388
-36.25016127 175.8347504 -119.2555164
-15.17024227 32.27578539 -9.738819108e-05
-40.25016127 235.7583219 -55.60908239
-26.80430127 42.72736939 -156.0000974
-36.25016127 88.22890139 -143.3909754
-40.25016127 34.05494539 -32.45958239
-40.25016127 234.9884205 -36.67017039
-3.946761275 43.59207739 -9.738819108e-05
-40.25016127 164.9826524 -65.81715939
-36.25016127 154.5924364 -82.76326239
9.695915725 -2.460846804e-05 -151.0062044
-36.25016127 117.8685794 -47.89805639
-26.18865927 -2.460846804e-05 -166.3736804
-3.095738275 -2.460846804e-05 -192.5150334
-36.25016127 73.10606739 -43.52074839
-36.25016127 77.36084539 -99.58756839
-36.25016127 80.86549939 -68.48085539
-36.25016127 232.4694281 -23.38290439
-40.25016127 46.83210739 -140.9650114
-40.25016127 22.83096039 -202.5790004
24.23999273 -2.460846804e-05 -155.4458774
-40.25016127 243.1891242 -105.3534364
0.2972247254 48.69623839 -152.0000974
-7.508184275 -2.460846804e-05 -203.3667484
-40.25016127 145.1965754 -62.71254639
30.40181373 -2.460846804e-05 -194.7171114
-36.25016127 138.0244884 -138.6349714
20.13842973 -2.460846804e-05 -172.3743974
-40.25016127 212.0870077 -30.97729439
-40.25016127 216.7264545 -58.92769139
-36.25016127 49.92044139 -44.79728739
-41.74535927 -2.460846804e-05 -40.77098439
9.823425725 67.09570039 -152.0000974
-36.25016127 42.26294839 -73.05767239
-12.11058627 3.985839392 -156.0000974
-36.25016127 64.64243239 -78.99163239
-30.24826927 -2.460846804e-05 -15.78744139
-41.14098827 13.30798739 -29.56513339
11.29564573 49.04725539 -152.0000974
-40.25016127 123.3681064 -29.56971939
-40.25016127 205.5663634 -69.67281839
-40.25016127 141.5901354 -41.90731339
-40.25016127 75.30029539 -104.7402894
-36.25016127 170.3913884 -33.98279639
-36.25016127 118.6304424 -71.62586039
11.57896873 57.27190939 -156.0000974
-38.90975527 212.1760783 -152.4022754
-40.25016127 64.86550339 -85.20669939
-40.25016127 54.47141339 -180.9623634
-40.25016127 84.48700639 -121.7117064
37.48664673 5.391183392 -250.0000974
12.28151973 168.6604614 -152.0000974
-40.25016127 146.3745044 -95.82989739
-21.53990127 -2.460846804e-05 -182.9755764
2.262805725 220.2516496 -152.0000974
-33.14035627 135.5090534 -0.1083083882
-40.72665827 62.56567539 -232.3980234
-5.844428275 -2.301190608 -230.0367184
27.23396573 48.82939639 -250.0000974
-40.25016127 23.98380939 -100.2004564
-0.05041927462 -2.460846804e-05 -62.28634339
-34.78121927 233.7636872 -155.5558984
3.730812725 67.71435139 -9.738819108e-05
29.56609073 -2.460846804e-05 -150.5505224
-40.25016127 246.3071067 -57.91620139
-26.28544527 96.85047039 -152.0000974
-35.01688527 158.1052744 -1.126527388
35.00524673 66.50113439 -244.0000974
22.18650273 31.72255839 -9.738819108e-05
-40.25016127 168.2742394 -48.80898139
3.558857725 239.0085625 -9.738819108e-05
-36.25016127 252.4298997 -136.3454664
-36.25016127 18.08475839 -138.7272634
-36.25016127 214.4271033 -14.13055539
-3.609139275 247.3960904 -9.738819108e-05
33.84383673 37.61867139 -152.0000974
-40.25016127 210.2468744 -24.50354339
-40.25016127 43.35018639 -221.0313254
-36.19270927 186.2000454 -154.9236704
-40.45309127 26.36904939 -250.0000974
-40.25016127 55.32015839 -199.7057684
12.21327273 153.5246584 -156.0000974
-12.93501127 61.76445139 -152.0000974
-20.14717127 235.7874824 -156.0000974
-36.25016127 197.5703774 -135.2152774
-40.25016127 41.39796739 -42.98545939
-36.25016127 89.17671439 -66.35120039
-40.25016127 227.7004187 -79.24726339
-40.25016127 4.382000392 -57.52584839
-27.17071427 27.33023139 -9.738819108e-05
-31.84520827 115.2070994 -9.738819108e-05
7.525965725 179.2828734 -9.738819108e-05
-33.73112027 125.4769784 -155.8529594
-30.28158727 143.2337694 -152.0000974
-38.35397627 140.6427444 1.113819612
-9.347761275 101.6095744 -9.738819108e-05
-40.25016127 98.95764239 -151.8176554
-40.25016127 152.5232374 -52.82440439
23.61402673 82.56877939 -156.0000974
-6.807691275 160.0826044 -9.738819108e-05
19.23005873 60.32640439 -152.0000974
-40.25016127 188.7942144 -140.2022864
23.75804473 -2.460846804e-05 -240.9864854
-40.25016127 230.2436644 -44.60565939
-36.25016127 0.6810083915 -122.3225954
-36.05033727 35.62591839 -2.989163388
-40.25016127 68.52790539 -49.57968239
-40.25016127 142.1395494 -101.2256964
-40.25016127 167.7364044 -106.7493194
-40.25016127 180.2025584 -68.93411539
-40.25016127 194.9580864 -79.33908239
-40.25016127 162.5940964 -87.99352539
-36.25016127 121.0784584 -98.21038139
-36.25016127 41.43483639 -135.5887614
-40.25016127 239.6073403 -89.23161739
-40.25016127 21.58414439 -30.31857739
-40.25016127 67.82357139 -179.1450624
-36.25016127 212.0590254 -120.6919374
-36.25016127 12.73006839 -16.22193439
-36.25016127 130.8205444 -14.74257939
-40.25016127 12.69147639 -162.7737864
1.060001725 -2.460846804e-05 -222.4273624
37.61821073 -2.460846804e-05 -236.6954624
-6.890602275 52.25746239 -152.0000974
-40.25016127 68.19861139 -136.8323864
-33.75572027 37.59611539 -250.0000974
38.61604573 -2.460846804e-05 -121.8932734
-40.25016127 166.8705164 -94.62005039
27.44512973 -2.460846804e-05 -34.26924939
-36.25016127 66.15440039 -53.78123639
-40.25016127 5.806235392 -220.5853904
-24.47997127 48.55157139 -250.0000974
-36.25016127 179.5933204 -111.9074234
-40.25016127 63.09137539 -114.9213134
-40.25016127 61.52206939 -195.8876504
-24.30727427 37.47105239 -244.0000974
-40.25016127 125.2113084 -60.49653339
-40.25016127 50.72414539 -234.3990254
1.398277725 92.43095639 -152.0000974
5.798903725 -2.460846804e-05 -211.3836564
-40.25016127 152.3932854 -32.98097839
-15.73152227 124.4722554 -156.0000974
-38.95290527 121.0892294 -152.3261274
4.822025725 195.9681254 -156.0000974
-40.25016127 48.73963039 -135.2843354
-40.25016127 91.07165139 -28.65296739
-36.25016127 32.32627539 -135.7035754
-37.13582527 47.14842139 -244.0000974
-36.25016127 122.0202264 -115.0518534
-40.25016127 86.50914939 -84.56826039
-40.25016127 33.46325439 -90.39578039
-36.25016127 168.2651244 -84.23663539
-36.25016127 55.68296939 -141.5349084
35.28850273 -2.460846804e-05 -57.20821639
29.00023373 88.76190939 -9.738819108e-05
-7.233031275 9.347005392 -250.0000974
-19.17459827 59.36685239 -250.0000974
-36.25016127 62.60559739 -34.94346839
0.5067867254 19.19643439 -156.0000974
-42.94964927 157.4315094 -81.29041539
-0.1868572746 10.81460639 -244.0000974
-40.25016127 77.18594839 -35.63193039
-4.599228275 134.7458204 -156.0000974
-24.01471727 -2.460846804e-05 -101.8360524
-34.62991727 156.0587784 -151.1310104
-40.25016127 10.23064139 -90.31962939
-8.144290275 228.3722604 -156.0000974
-36.25016127 0.8583903915 -32.02791139
-36.25016127 110.8611144 -66.82125239
-40.25016127 47.46887239 -35.32683439
-36.25016127 41.46629439 -65.26216439
-36.25016127 204.6713484 -44.89704739
-40.25016127 47.85210639 -147.6887454
20.43226573 212.4143691 -152.0000974
