# .PCD v0.7 - Point Cloud Data file format
VERSION 0.7
FIELDS x y z
SIZE 4 4 4
TYPE F F F
COUNT 1 1 1
WIDTH 1232
HEIGHT 1
VIEWPOINT 0 0 0 1 0 0 0
POINTS 1232
DATA ascii
122.9522236 -2.461302529e-05 120.0909206
155.9147786 -2.461302529e-05 108.0941726
96.00026364 18.93994939 142.2908636
96.00026364 11.61590939 -134.2999404
26.93496864 42.52550739 148.7499026
100.0002636 73.40670139 2.891897614
180.4365416 57.98789739 -139.2500974
13.69237064 116.2170874 154.1972886
218.4805216 15.64628939 148.7499026
228.8485686 -2.461302529e-05 -25.86593139
208.8618126 10.55516039 -145.2500974
0.0002636414119 10.15817439 -35.74891139
233.6049686 -2.461302529e-05 39.46798261
0.0002636414119 43.05888339 38.42659161
171.3380726 -2.461302529e-05 -50.79691639
100.0002636 49.71275539 25.18593161
249.9150746 22.35656439 148.7499026
0.0002636414119 51.34505439 68.07773561
166.8667706 -2.461302529e-05 16.66059661
0.0002636414119 32.01501739 -109.7418614
0.0002636414119 16.53728439 24.31380061
40.09632864 -2.461302529e-05 22.32025761
67.69054064 -2.461302529e-05 -34.43470339
119.3988546 116.9866854 148.7499026
195.6708516 -2.461302529e-05 48.23553461
100.0002636 54.31026739 3.444379614
165.4100346 -2.461302529e-05 -95.80368039
168.9584166 10.69509739 -145.2500974
213.1306916 -2.461302529e-05 -88.28327939
22.87688264 -2.461302529e-05 -35.52694639
90.16656364 -2.461302529e-05 85.38981261
149.7231896 -2.461302529e-05 -109.5651294
115.0920826 -0.343315613 148.7499026
0.0002636414119 55.48092239 120.2382716
78.63760564 69.44725739 148.7499026
211.2047456 -2.461302529e-05 -9.850565386
100.0002636 41.21190039 -90.56436039
140.9142446 36.09275739 -139.2500974
188.2171286 19.80465839 148.7499026
14.58362664 -2.461302529e-05 12.54200461
94.83714364 33.40749239 -139.2500974
45.99327864 -2.461302529e-05 36.14252461
100.0002636 43.12366839 78.80070261
226.9476556 -2.461302529e-05 -101.3992804
97.32554164 -2.461302529e-05 -121.4636504
51.92256864 -2.461302529e-05 106.2559536
62.48056464 35.79057539 -145.2500974
167.7120486 110.5034464 148.7499026
210.7576696 79.93124039 148.7499026
193.5690176 51.69489939 -145.2500974
0.0002636414119 14.59256339 90.97592361
234.8132426 31.05113639 -145.2500974
163.8094516 -2.461302529e-05 1.538980614
100.0002636 47.38607539 -53.52760039
133.5499196 56.65805639 148.7499026
195.9740746 -2.461302529e-05 105.9490706
0.0002636414119 47.58151539 107.8043836
100.0002636 11.09827039 -82.53067639
104.2810566 -2.461302529e-05 120.3271916
99.09121664 -2.461302529e-05 38.09266961
206.6120586 67.61311239 -145.2500974
0.0002636414119 78.38119439 65.61510061
41.81987264 -2.461302529e-05 67.37163761
-0.1245263586 -2.461302529e-05 107.6976326
0.0002636414119 14.03295639 42.40193261
34.44603264 -2.461302529e-05 137.0767526
72.24698964 -0.914553613 148.7499026
18.76874564 -2.461302529e-05 -83.54448439
60.63917164 -2.461302529e-05 -65.02941339
96.07412264 119.9999754 140.1412706
100.0002636 104.6811874 116.1061576
96.00026364 31.13194339 -123.8338554
100.0002636 27.79649739 91.33946161
101.4840686 59.25239639 148.7499026
3.135832641 -2.461302529e-05 22.32355261
96.00026364 5.304566387 -32.24264339
0.0002636414119 22.04772739 78.57573061
193.1430736 -2.461302529e-05 9.192464614
188.9984756 51.32660439 148.7499026
95.50124064 -1.263369613 -61.62485339
232.9554006 -2.461302529e-05 6.989493614
96.00026364 6.166437387 109.3583036
87.48209164 109.6141924 148.7499026
30.00964964 -2.461302529e-05 -5.576335386
250.5305116 53.84224539 148.7499026
8.532336641 -2.461302529e-05 -30.73294839
241.9487806 18.30140639 -145.2500974
63.69889764 -2.461302529e-05 85.79283661
42.14550764 11.01870339 -145.2500974
14.58205464 60.54646039 148.7499026
211.3340586 -2.461302529e-05 79.28200461
155.3742036 -2.461302529e-05 80.65368761
96.00026364 12.80543139 86.09033461
213.7946726 -2.461302529e-05 -120.4393144
165.9959666 -2.461302529e-05 37.06036461
227.7824286 37.15700539 148.7499026
167.0626246 129.7160094 148.7499026
139.5459576 -0.561055613 -139.2500974
100.0002636 21.44363039 -44.09684039
149.5605566 46.22173339 148.7499026
211.5404716 33.58761639 -145.2500974
62.27146364 -2.461302529e-05 -108.2726744
43.61870764 -2.461302529e-05 -87.73744739
81.44550364 -2.461302529e-05 41.18807361
235.7763556 -2.461302529e-05 75.98227461
109.1493036 -2.461302529e-05 -81.93189939
96.34603064 63.68919639 -48.86040839
134.1822576 -2.461302529e-05 4.828452614
111.6760146 -2.461302529e-05 -49.78005239
154.3304916 57.93997239 -139.2500974
96.00026364 69.05667739 30.32443961
229.9356816 14.01839939 -139.2500974
173.5437506 -2.461302529e-05 -27.89026239
178.2386246 5.561679387 148.7499026
70.32153364 90.62715639 149.3360166
132.8940576 -2.461302529e-05 -84.75156539
100.0002636 36.63900339 -21.00558839
237.4209056 -2.461302529e-05 -41.33359539
33.65503464 78.74391339 150.8757156
134.5546406 58.76360439 -139.2500974
168.8088286 -2.461302529e-05 121.6397206
0.0002636414119 86.16324739 125.4605416
105.3361016 39.79252339 148.7499026
232.5946816 68.20985139 148.7499026
224.0477196 -2.461302529e-05 100.9414316
220.4870216 2.336100387 -145.2500974
116.5025036 -2.461302529e-05 -132.3213274
231.7223096 61.59597839 -139.2500974
115.9788046 7.177779387 -145.2500974
135.2566946 10.84611939 -145.2500974
114.2091776 48.43098139 -139.2500974
173.3427896 86.36475739 148.7499026
96.00026364 85.56184039 128.2006826
25.33910564 67.84710639 -145.2500974
84.62795764 -2.461302529e-05 -4.523722386
183.0529166 -2.461302529e-05 -132.8850194
225.4527186 -2.461302529e-05 -127.1722194
184.7592686 -2.461302529e-05 95.50707561
209.3224006 2.632561387 148.7499026
100.0002636 22.17820439 -58.51006939
0.0002636414119 17.75583139 -111.0375604
42.59005764 -2.120794613 148.7499026
120.5363976 -2.461302529e-05 -103.7124434
96.00026364 28.90039039 62.47910961
91.48866864 -1.594941613 -139.2500974
110.9176196 -2.461302529e-05 71.91452661
72.29023864 9.843986387 -145.2500974
0.0002636414119 57.69271439 134.3664546
3.580641641 -2.461302529e-05 -7.237253386
221.1297056 -2.461302529e-05 67.95849261
106.8801586 82.76751139 148.7499026
96.00026364 63.59475239 114.0475376
217.5188176 56.91055339 -139.2500974
194.6405186 36.79357339 -145.2500974
100.0002636 30.50992839 19.24211861
53.68848364 17.42157239 -139.2500974
96.00026364 12.38074139 59.14816461
100.0002636 13.81314739 -20.00550039
77.76439764 46.39155539 148.7499026
74.94847264 58.74996839 -139.2500974
129.6756216 -2.461302529e-05 90.41880561
157.7022616 19.30011839 -145.2500974
99.05907964 47.15157539 -145.2500974
162.4934006 98.53300439 148.7499026
40.89966164 56.07252739 -139.2500974
174.6651216 33.43163139 -139.2500974
244.3285456 56.44439539 -139.2500974
26.22577964 27.12176539 -145.2500974
189.0400936 -2.461302529e-05 37.09589061
85.30403564 -2.461302529e-05 -126.7593834
197.7835696 30.02867939 148.7499026
100.0002636 57.37158839 92.13790661
213.6907266 -2.461302529e-05 23.12409961
143.9724586 -2.461302529e-05 22.70877961
-0.1133703586 41.14554239 148.7499026
44.95945164 -2.461302529e-05 9.502504614
0.0002636414119 54.42765739 -38.10462539
96.00026364 15.08898439 -106.0156174
0.0002636414119 14.07724739 -23.46412839
113.1554666 68.08152939 148.7499026
64.06137864 -1.998616613 -139.2500974
100.0002636 53.99656239 104.8587546
0.0002636414119 69.27698939 10.80493361
76.37185364 -2.461302529e-05 83.57578061
0.0002636414119 38.55037139 81.74667961
16.54446964 -2.461302529e-05 82.26732261
116.0530616 14.29519439 148.7499026
100.0002636 55.67024539 53.26103861
128.8062126 -2.461302529e-05 37.92882061
17.22409264 -2.461302529e-05 -70.82490339
177.2743896 -2.461302529e-05 -118.3262374
100.0002636 49.79723739 -110.0010214
96.00026364 79.27967839 62.55169661
96.00026364 78.67566639 110.0329056
100.0002636 63.60030339 136.8542286
76.75929064 -2.461302529e-05 -101.9787954
47.38799864 -2.461302529e-05 -116.1203444
44.09896764 -2.461302529e-05 79.86633861
72.61239464 58.30145939 148.7499026
0.0002636414119 9.748303387 0.01345161373
124.1343756 -2.461302529e-05 -40.88270239
96.00026364 63.04822139 -21.94762739
93.87351664 -2.461302529e-05 130.8830576
21.18124364 -2.461302529e-05 -114.7709164
80.61352964 -2.461302529e-05 57.61477061
96.00026364 76.42171039 88.99135361
13.21100464 47.39365639 -139.2500974
145.1479546 131.6365104 148.7499026
100.0002636 36.32581839 -61.20918039
57.27745164 67.68545439 148.7499026
100.0002636 45.93171639 38.08388761
96.00026364 27.52706639 3.671319614
75.50150864 -2.461302529e-05 19.81015861
121.4685336 -2.461302529e-05 -60.07940839
38.08906164 21.63493939 148.7499026
129.7063746 5.986474387 148.7499026
127.1350686 -2.461302529e-05 69.41927761
0.0002636414119 35.45929839 104.8599386
188.5200436 -2.461302529e-05 20.84200961
156.3654066 -2.461302529e-05 45.47179761
155.2776806 -2.461302529e-05 132.1509526
47.60055864 -2.461302529e-05 -51.06592139
14.41883264 59.74021839 -139.2500974
106.1031906 -2.461302529e-05 -6.150904386
17.22957164 90.86489439 148.7499026
89.20980364 -2.461302529e-05 148.3472096
137.7788506 -2.461302529e-05 59.68309361
108.0248946 -2.461302529e-05 132.0915926
174.2002986 -2.461302529e-05 66.27860861
151.4939086 8.690191387 -139.2500974
143.0924926 -2.461302529e-05 -43.18562239
98.07776264 -2.461302529e-05 63.70388761
0.0002636414119 53.94070739 -57.92959739
186.1112076 -2.461302529e-05 82.89676361
0.0002636414119 78.30209239 136.8281976
194.3599606 -2.461302529e-05 -29.59445239
11.31238364 -2.461302529e-05 123.9325536
96.00026364 1.213854387 18.77271961
185.9844826 76.35431939 148.7499026
20.46082964 -2.461302529e-05 -48.16577339
96.00026364 49.53566539 -65.76368439
-0.3430233586 55.65430739 -94.60756039
216.2957666 -2.461302529e-05 -40.61966339
-0.1677623586 70.48398339 -17.36279539
244.3196576 -2.461302529e-05 -78.60449239
96.00026364 87.02964039 79.01051761
112.4745086 67.99997539 -141.5673304
0.0002636414119 57.93049939 -10.51006839
104.1744226 11.72895639 148.7499026
217.7048236 -2.461302529e-05 115.9773556
156.6061646 108.3099414 153.0430196
237.8704496 -2.461302529e-05 -92.95806239
139.2081336 -2.461302529e-05 134.4250226
0.0002636414119 21.31177639 -42.98166539
12.87891564 17.41877039 148.7499026
82.64348364 11.02804039 -139.2500974
76.14079264 103.1066014 153.3119676
0.0002636414119 70.32966839 30.06057761
0.0002636414119 46.97649939 -80.81728839
199.7226266 -2.461302529e-05 -112.1314884
0.0002636414119 73.46460539 112.0781736
0.0002636414119 10.98814739 -123.8063904
171.8335056 -2.461302529e-05 -67.16761539
0.0002636414119 11.93039839 121.9476536
126.0991596 88.60266539 150.3124656
241.7474496 -2.461302529e-05 108.7115066
200.0588456 -2.461302529e-05 117.1783186
96.00026364 57.71860139 125.0788676
-1.198755359 -2.461302529e-05 139.3103376
192.1951526 -2.461302529e-05 -51.58845639
0.0002636414119 77.76013739 78.56600561
20.80192464 -2.461302529e-05 61.17200361
0.0002636414119 26.44787839 -83.81113039
198.6183856 -2.461302529e-05 140.2750126
68.99064364 -2.461302529e-05 -80.85469739
0.0002636414119 54.50431039 41.52027861
153.1377866 -2.461302529e-05 67.83377961
59.14073264 59.14728239 -139.2500974
141.9802496 -2.461302529e-05 -59.82823339
0.0002636414119 91.45316339 98.76685961
208.3564696 -2.461302529e-05 92.44680561
0.0002636414119 39.64875739 -20.67331439
0.0002636414119 41.00527539 2.827330614
40.66692764 42.47993239 148.7499026
179.5544396 5.640210387 -145.2500974
58.42416464 -2.461302529e-05 148.2100236
91.76980364 -2.461302529e-05 -109.1066524
100.0002636 28.85434639 -76.51242439
86.61483164 57.08169839 -139.2500974
94.60377964 87.81801539 148.7499026
176.4809426 58.22126739 148.7499026
100.0002636 50.41828239 -23.36483139
23.25679064 -2.461302529e-05 145.6329346
226.5204536 36.97958439 -139.2500974
96.00026364 42.04242539 125.7954096
252.0325676 20.62084439 -139.2500974
120.7997286 25.04919539 148.7499026
167.1791786 39.88169639 -145.2500974
100.0002636 93.84490539 105.3114166
194.4403626 -2.461302529e-05 -76.85690339
174.4009586 67.90295739 -139.2500974
2.737456641 55.03460839 148.7499026
0.0002636414119 63.60705239 93.18737861
0.0002636414119 110.3961544 117.1208186
100.0002636 6.463644387 -68.86298139
122.4306606 -2.461302529e-05 99.34525261
0.0002636414119 62.46515739 64.45894761
34.64166164 -2.461302529e-05 54.04096661
211.8860646 -2.461302529e-05 137.8313676
96.00026364 19.50226639 114.5495396
100.0002636 23.88302439 39.12260861
118.7123556 -2.461302529e-05 24.01801361
96.10854864 -2.461302529e-05 -88.65894639
156.3601466 -2.461302529e-05 -7.152918386
41.45258164 -2.461302529e-05 -18.63738439
69.72711164 -2.461302529e-05 110.4370836
71.71574864 38.87244739 -139.2500974
95.95106864 129.8565424 149.8931976
201.0692626 -2.461302529e-05 -19.13162939
96.00026364 45.51574839 -2.620942386
87.01787964 22.91735939 148.7499026
248.8100466 -2.461302529e-05 138.7347386
73.34562064 -2.461302529e-05 33.21659261
48.66608664 51.52308539 148.7499026
239.6956326 41.29326639 -145.2500974
240.9500666 67.91836639 -145.2500974
69.68846364 -2.461302529e-05 -129.6121014
8.852749641 102.8243224 148.7499026
96.00026364 23.93658139 -132.5855104
107.1243606 -2.461302529e-05 28.46395861
205.9740866 69.56159039 148.7499026
0.0002636414119 97.10527839 139.4504626
196.1072966 -2.461302529e-05 59.54491361
96.00026364 59.69217739 63.04741661
83.40674764 31.68681339 -139.2500974
200.2393076 -2.461302529e-05 35.51688161
196.1434256 15.44441239 -139.2500974
218.3276436 12.06529939 -139.2500974
195.0084966 -1.763593613 -139.2500974
143.6588676 30.31902839 148.7499026
0.0002636414119 10.99015639 76.47316961
7.349759641 -2.461302529e-05 -121.6721984
124.8540086 103.9674944 148.7499026
82.83657964 79.87711939 148.7499026
116.5998736 82.68888039 154.3622996
66.91953864 -2.461302529e-05 12.57951561
104.2289226 -2.461302529e-05 81.85698861
100.0002636 48.73562139 -40.63113439
155.9745266 45.76703539 -145.2500974
96.00026364 39.41028239 107.2842356
221.9659886 27.57118339 148.7499026
27.79260964 -1.466682613 -139.2500974
110.0551346 -2.461302529e-05 -99.63153939
223.4533406 -2.461302529e-05 50.80811261
0.0002636414119 14.12915139 13.44006261
0.0002636414119 44.85946239 97.02631161
34.77481564 46.14146339 -145.2500974
21.74196964 43.57450939 -145.2500974
0.0002636414119 28.17613239 -67.63247539
203.5271026 56.59132539 -145.2500974
100.9393506 99.92321939 148.7499026
96.00026364 11.74176039 -95.47423939
16.13592464 36.68867839 148.7499026
195.7182526 -2.461302529e-05 75.41139461
100.0002636 70.98744039 41.99542461
126.6627196 -2.461302529e-05 -72.44361539
96.31666964 67.99997539 -144.4957284
100.0002636 68.84804839 68.43101261
4.799104641 10.03924739 -139.2500974
104.8817606 -2.461302529e-05 -109.3207054
96.00026364 45.92989039 144.9341066
127.5418686 -2.461302529e-05 -113.4634574
0.0002636414119 16.04990939 -88.90714439
239.2601816 -2.461302529e-05 -22.40229039
0.0002636414119 25.09912539 63.49702861
23.41127564 -2.461302529e-05 -93.42127939
100.0002636 42.23774139 -135.4971314
215.6430676 56.03946539 148.7499026
246.1746686 -1.908872613 -139.2500974
96.00026364 21.80118239 -12.11308439
0.0002636414119 99.97658739 113.9873106
28.63672264 -2.461302529e-05 121.7099406
103.0306306 8.114737387 -145.2500974
169.1672826 36.35869239 148.7499026
0.0002636414119 42.43395439 -103.3969924
175.4334306 26.36802539 148.7499026
15.54745664 -2.461302529e-05 38.02012561
124.8014996 8.972073387 -139.2500974
144.9011426 -2.461302529e-05 105.7006006
133.6362786 -2.461302529e-05 121.6400736
32.09854964 20.33666839 -139.2500974
0.0002636414119 27.45485439 -14.00913439
139.6890256 -2.461302529e-05 -20.27916939
0.0002636414119 9.668069387 -103.3025254
100.0002636 38.08175939 138.7679426
222.1443396 46.31096339 148.7499026
135.6639926 28.88907439 -145.2500974
181.1514976 -2.461302529e-05 12.73793761
239.1339156 -2.461302529e-05 52.32110361
29.44883464 -2.461302529e-05 101.5087486
100.0002636 98.52846539 94.10099761
100.0002636 14.20453739 43.65795161
0.0002636414119 48.32858139 -116.1095314
72.81108464 -2.461302529e-05 -58.49064139
65.78375664 -2.461302529e-05 74.55773461
100.0002636 28.97810039 -99.83749439
118.3558956 34.52615439 -145.2500974
204.5137676 0.840396387 -145.2500974
28.02087064 -2.461302529e-05 -127.2232304
76.03867764 26.66476739 -145.2500974
100.0002636 81.46805339 139.3219946
115.6144606 -2.461302529e-05 49.55762761
239.2622346 11.28383439 148.7499026
171.3624176 57.21267639 -145.2500974
153.8739016 -2.461302529e-05 18.94553161
200.3098166 95.65766639 148.7499026
238.2567116 -2.461302529e-05 16.99382861
-2.032080359 -2.461302529e-05 -49.84643139
56.07955764 -2.461302529e-05 -39.45695239
122.7996006 -2.461302529e-05 -7.601362386
152.9482156 33.76979339 -145.2500974
219.7428756 -2.461302529e-05 -110.7261604
158.2951956 -2.461302529e-05 121.5466266
148.9083356 -2.461302529e-05 -79.45382439
96.00026364 76.53594339 15.66421661
236.3971446 30.40865039 148.7499026
143.9934306 112.6792404 148.7499026
23.72803664 65.67401839 148.7499026
170.6047916 0.177703387 -145.2500974
74.62800664 49.94232839 -145.2500974
209.8604996 -2.461302529e-05 56.33069461
221.0067276 -2.461302529e-05 -61.61445139
183.7022256 14.46427139 -139.2500974
55.62886564 25.75930539 -145.2500974
183.0589736 -2.461302529e-05 -8.910534386
137.1038996 123.6786614 148.7499026
0.0002636414119 48.37656439 -67.72586139
139.0060836 10.72142239 148.7499026
60.79484964 6.283194387 -145.2500974
0.0002636414119 102.6293934 96.89066561
167.2807546 23.35579239 -145.2500974
96.00026364 49.03075239 -83.12765339
183.9952886 -2.461302529e-05 -85.43682339
100.0002636 12.67556239 -38.52314239
19.64694564 8.742458387 -139.2500974
96.00026364 95.79549639 126.4391616
164.5542226 -2.461302529e-05 -77.85245639
10.55052064 -2.461302529e-05 62.71590761
223.5406156 -2.461302529e-05 -0.3021163863
117.6829026 17.58327039 -145.2500974
100.0002636 31.39778039 -87.27676439
0.0002636414119 20.15372839 0.6881936137
0.0002636414119 10.85635639 55.38627661
81.94974964 -2.461302529e-05 -79.99729039
96.00026364 39.38862139 -117.6266804
0.0002636414119 46.57972139 125.4681546
50.10344064 -2.461302529e-05 117.4704766
96.00026364 28.69718339 100.7855036
145.5031366 -2.461302529e-05 -0.4464803863
9.025358641 -2.461302529e-05 138.3557476
0.0002636414119 31.88243439 -41.03994539
51.73707664 34.92870139 -139.2500974
247.3687296 -2.461302529e-05 93.75789561
152.4968096 72.57467539 148.7499026
-0.5654783586 40.82425439 -145.2500974
100.0002636 89.15058239 54.27273161
100.0002636 67.01154439 88.67358661
0.0002636414119 34.80732139 56.11247061
161.2074786 43.99879039 148.7499026
134.4474946 -2.461302529e-05 15.04069161
-0.4267883586 12.88244339 135.4947456
96.00026364 102.9070594 140.3518716
100.0002636 9.875903387 -8.839610386
97.99176764 11.74281239 134.3573466
30.49290864 29.78598039 148.7499026
243.7830006 8.850749387 -139.2500974
143.0951426 -2.461302529e-05 35.05917661
96.35274964 95.96740839 72.62946161
0.0002636414119 9.674848387 -52.21513239
0.0002636414119 59.33752739 14.42413861
68.66367564 -2.461302529e-05 -24.32458839
145.2546156 -2.461302529e-05 81.49544161
75.15124064 18.52632939 -139.2500974
147.0103186 81.90652639 148.7499026
84.34218764 -2.461302529e-05 -23.02720239
0.0002636414119 55.56120539 78.63715661
96.00026364 58.36091239 -4.980434386
117.9335396 132.9999754 152.7240226
126.1370586 124.5383904 148.7499026
-0.2223813586 -2.461302529e-05 66.61684661
158.9472246 14.69022639 148.7499026
215.1892946 43.38304939 -145.2500974
31.82543464 -2.461302529e-05 -86.61465039
134.9413656 66.87607939 -145.2500974
54.18135164 -2.461302529e-05 -0.2977723863
40.48585664 -2.461302529e-05 105.1417056
169.2211716 -2.461302529e-05 111.5619796
111.8360656 -2.461302529e-05 -24.54587439
158.0436906 -2.461302529e-05 -116.3289384
185.9074776 -2.461302529e-05 106.2129326
99.65273264 -2.461302529e-05 102.2864826
7.399250641 26.09240139 -145.2500974
100.0002636 6.305836387 49.88181561
45.16834864 -2.461302529e-05 -41.11689939
229.9026746 -2.461302529e-05 126.1629496
100.0002636 32.37336739 -35.92216439
90.32459264 8.630139387 -145.2500974
0.0002636414119 45.83658839 -28.64823639
220.8213916 -2.461302529e-05 -18.63231339
238.4776996 -2.461302529e-05 -106.7833214
-1.620805359 119.9999754 143.0416906
233.6188056 -2.461302529e-05 -52.61504839
100.3473946 -2.461302529e-05 -44.33910339
129.4021196 47.78216839 150.7123896
0.0002636414119 43.20819239 61.67331161
148.4879766 1.313610387 -145.2500974
158.6866036 132.9999754 153.0233116
184.5803346 -2.461302529e-05 -27.76681839
0.0002636414119 30.83317939 126.8581566
98.41461064 67.50163439 -30.49214339
8.857325641 -2.461302529e-05 -84.17519639
25.38346964 -2.461302529e-05 -105.5845874
152.5012276 -2.461302529e-05 -40.06947339
115.5154886 107.2567704 148.7499026
156.5517566 -2.461302529e-05 -61.93074939
35.05537964 -2.461302529e-05 91.69103961
96.00026364 31.06489439 46.24352261
100.0002636 35.58239539 119.4506336
8.800005641 -2.461302529e-05 -15.60656339
180.0038036 -2.461302529e-05 129.8926866
100.0002636 89.94898139 87.87345861
87.94095964 -2.461302529e-05 -67.82148739
195.8261386 76.13763639 148.7499026
187.4198666 96.26664239 148.7499026
209.8277896 -2.461302529e-05 32.16578461
96.00026364 39.36792739 20.67177161
0.0002636414119 26.22465639 22.69000161
225.5600936 60.94834839 148.7499026
100.0002636 8.192844387 -58.12086739
133.8058646 45.88012239 -139.2500974
200.9671676 -2.461302529e-05 -127.4476554
100.0002636 36.96645739 0.006050613727
30.31449364 -2.461302529e-05 21.92064961
12.51616264 70.09941439 148.7499026
147.8475776 27.98245439 -139.2500974
198.3896246 -2.461302529e-05 -97.77128339
202.1229526 -2.461302529e-05 -6.295970386
100.0002636 19.80217439 76.45502361
142.4623806 59.23562139 -145.2500974
0.0002636414119 50.60965039 18.72626061
96.00026364 39.92892739 88.42137961
100.0002636 27.60987139 140.4816986
205.6590946 -2.461302529e-05 44.58862061
97.12859764 2.247394387 -131.9975164
0.0002636414119 36.28923939 -49.73503539
11.57197964 -2.461302529e-05 -134.6032314
164.4816786 -2.461302529e-05 -137.5795334
100.0002636 9.914943387 25.85622861
0.0002636414119 74.95177639 46.54068761
192.1801546 -2.461302529e-05 122.7892516
118.3027856 -1.750569613 65.93976161
184.7155856 -2.461302529e-05 140.9900596
108.0717496 27.47050839 -145.2500974
30.24950064 -2.461302529e-05 63.07628761
52.85978864 -2.461302529e-05 -12.46583239
238.4836996 -2.461302529e-05 66.74459361
5.940860641 114.5139764 148.7499026
0.0002636414119 7.414073387 97.37071361
175.8271656 46.83559339 -139.2500974
34.36361364 2.119868387 -145.2500974
178.9770156 -2.461302529e-05 37.58210961
117.1152086 -2.461302529e-05 91.09438761
34.26310164 -2.461302529e-05 -36.53492939
32.16595864 -1.428158613 148.7499026
96.00026364 55.56339239 14.59292461
207.1203536 -2.461302529e-05 -80.87812639
81.42270164 -2.461302529e-05 112.8685996
181.7919936 67.35379839 -145.2500974
0.0002636414119 89.26558039 89.35807461
100.0002636 47.10205539 -100.6759794
201.6260306 7.657415387 -139.2500974
75.75644864 -2.461302529e-05 -1.065560386
187.7906266 30.18678439 -145.2500974
100.0002636 31.59985039 -113.9244334
19.04615564 7.931133387 148.7499026
39.75270364 -2.461302529e-05 118.1294146
16.58559064 -2.461302529e-05 72.77963061
171.2807356 -2.461302529e-05 -41.30978839
100.0002636 77.14913439 118.4724946
74.81726164 67.99997539 -141.2363914
51.71406164 53.28860639 -139.2500974
0.0002636414119 28.05452739 138.5838516
136.0449696 -2.461302529e-05 79.34374861
150.3492476 -2.461302529e-05 52.76786861
50.47129164 -2.461302529e-05 143.1012406
96.00026364 59.64137039 31.14821061
70.73787264 -2.461302529e-05 -118.9737064
0.0002636414119 32.65226539 -2.971230386
96.00026364 10.67277939 -114.3543544
240.9119426 -2.461302529e-05 -58.58264239
26.31458964 -2.461302529e-05 87.48301961
218.0380896 -2.461302529e-05 -134.2270674
100.0002636 22.65376239 -83.59661339
96.00026364 47.86018439 47.69319361
233.2691076 7.579043387 -145.2500974
135.0022676 75.58571939 148.7499026
186.4112196 63.40083239 148.7499026
207.8731706 -2.461302529e-05 15.74894561
0.0002636414119 17.89965639 33.60511961
138.7478016 94.98957939 148.7499026
100.0002636 25.10832539 123.4648476
191.3331386 58.55662539 -139.2500974
24.63371764 17.77110939 148.7499026
96.00026364 67.74914939 -5.180626386
100.0002636 38.21925039 61.71542461
163.4114166 119.4471884 148.7499026
0.0002636414119 3.215523387 81.69819461
251.1972056 -2.461302529e-05 -22.97704439
177.0001226 109.2906264 148.7499026
53.70002764 63.81118439 -145.2500974
100.0002636 64.73828239 6.345883614
239.4272036 25.60704939 -139.2500974
73.64833264 9.535242387 148.7499026
176.1043856 -2.461302529e-05 86.80830861
123.6633896 65.53828739 148.7499026
166.4820996 4.779117387 148.7499026
225.0244666 -2.461302529e-05 35.92482461
17.08851364 -2.461302529e-05 -25.86899739
199.4911596 3.667534387 148.7499026
100.0002636 24.20727239 26.01434661
100.0002636 27.47914339 -19.76804039
0.0002636414119 62.86892539 37.60450861
53.38729764 -2.461302529e-05 -59.31795639
0.0002636414119 55.82640639 -83.42943539
90.86113564 -2.461302529e-05 -40.71509339
234.7964616 -2.461302529e-05 -76.68802939
96.00026364 20.34151539 65.90724161
47.09861364 19.78349139 -145.2500974
96.00026364 8.591187387 -124.5305154
0.0002636414119 111.3803154 126.2853916
123.0034606 -2.461302529e-05 -31.74070639
148.6494856 43.10346439 -139.2500974
83.37124964 33.44083739 148.7499026
222.7387966 7.483652387 148.7499026
100.0002636 49.09890739 85.79961261
102.9589456 119.9643874 148.7499026
92.88204464 13.21793939 148.7499026
0.0002636414119 8.217219387 -79.23566339
114.3934366 55.35998639 -145.2500974
0.0002636414119 23.35526839 103.2659216
58.02809764 -2.461302529e-05 26.08577361
124.1709476 -2.461302529e-05 45.79981661
201.3402986 63.18248039 -139.2500974
164.9106256 75.21574239 148.7499026
64.47059264 25.03902139 148.7499026
113.8322756 -2.461302529e-05 120.0949416
0.0002636414119 55.82798739 100.8147836
96.00026364 54.77507739 142.7785296
45.85536764 5.264124387 -139.2500974
96.00026364 42.55773339 -12.65093539
6.213976641 40.25763639 -139.2500974
0.0002636414119 74.87992239 3.055626614
121.9761596 56.90052339 -139.2500974
192.9298206 42.40259939 148.7499026
22.05866264 -2.461302529e-05 45.66083861
100.0002636 85.33293039 67.97086561
75.04402964 -2.461302529e-05 -47.66127039
14.90391064 28.36806239 -139.2500974
0.0002636414119 65.77545139 2.090076614
-0.3549233586 -2.461302529e-05 -32.34607139
96.00026364 40.99803439 -43.00616739
241.9710776 -2.461302529e-05 -3.726365386
96.22745064 28.40674039 148.7499026
96.00026364 21.22728639 133.5866496
25.74686364 61.02972139 -139.2500974
0.0002636414119 36.66299839 -122.2113904
199.8045466 -2.461302529e-05 3.156590614
159.7310636 -2.461302529e-05 9.547903614
41.56883264 9.121263387 148.7499026
100.0002636 56.74769739 -54.40642039
60.49762264 -2.461302529e-05 128.2520206
22.38600664 19.00486539 -145.2500974
102.6930306 69.76183439 148.7499026
220.2517076 48.37540639 -139.2500974
35.17397064 -2.461302529e-05 127.8396416
124.9699646 35.23737239 -139.2500974
100.0002636 72.41657339 135.2692756
159.9954726 54.47436039 -145.2500974
100.5012406 -0.889509613 73.76969261
99.14083264 -2.461302529e-05 -22.63753339
162.7918816 -2.461302529e-05 -53.45014339
175.4859436 118.1091594 148.7499026
91.27179864 68.10283039 148.7499026
-0.1224753586 79.26997839 147.2499026
82.84357864 39.12291239 -145.2500974
39.18102364 -2.461302529e-05 -111.3492144
53.46487264 -2.461302529e-05 81.97500561
103.5213886 -2.461302529e-05 -53.38951139
0.0002636414119 7.340710387 32.55458361
200.8218786 46.46147039 -145.2500974
172.0670856 -2.461302529e-05 4.871893614
100.0002636 70.69798039 110.4993166
185.9170026 -2.461302529e-05 -115.2150674
89.25751364 -2.461302529e-05 62.63291361
96.00026364 23.13531339 -109.7803714
96.00026364 32.62775839 11.59823561
59.08839264 -2.461302529e-05 48.78270261
100.0002636 77.06371239 99.04046861
101.6768406 26.05973639 -139.2500974
42.95350864 36.18672539 -139.2500974
245.5568916 -2.461302529e-05 -116.8787864
144.3615336 -2.461302529e-05 -34.41152239
0.0002636414119 28.86399039 117.8577646
220.1693926 85.83150339 153.4882216
59.94108164 51.25429539 -145.2500974
0.0002636414119 43.60414639 11.28416661
233.4415726 20.72174839 -145.2500974
135.2068096 27.72770839 148.7499026
62.94184464 -2.461302529e-05 -87.29969339
100.0002636 48.91031239 71.22862061
0.0002636414119 5.493075387 44.64052061
87.87419764 -2.461302529e-05 15.57440061
181.0905426 51.59668239 -145.2500974
41.79715764 45.51199539 -139.2500974
93.24372964 -2.461302529e-05 -2.564622386
239.4720786 -2.461302529e-05 83.94217761
64.72690064 38.87133439 148.7499026
223.3522316 -2.461302529e-05 -92.94173739
96.00026364 30.03473339 -65.82464139
66.94586064 -2.461302529e-05 -100.8616324
0.0002636414119 33.46447639 41.71442461
104.2417536 50.85502339 -139.2500974
21.24812564 -2.461302529e-05 4.441472614
34.82746764 -2.461302529e-05 -12.93975339
0.5012406414 -2.273736613 -62.84451639
74.49608964 19.99550639 148.7499026
156.7098726 -2.461302529e-05 -95.10785639
0.0002636414119 86.94039339 80.95395561
236.9438756 -2.461302529e-05 31.42249061
96.00026364 23.72296339 12.78308061
54.00543264 44.86547239 -139.2500974
203.3457956 58.49745039 148.7499026
47.04096664 -2.461302529e-05 -70.31398039
109.0230556 -2.461302529e-05 2.713499614
0.0002636414119 46.00062139 77.26907961
0.0002636414119 18.99821939 -136.6853814
0.0002636414119 91.02936839 118.2614416
242.2987246 47.00515139 -139.2500974
100.0002636 58.19316639 23.32367061
-0.5252363586 -2.461302529e-05 -41.01822839
217.3043326 -2.461302529e-05 89.09445561
100.0002636 6.823906387 13.52012561
12.01044964 82.63427339 148.7499026
187.3576736 109.9993314 148.7499026
100.0002636 77.64139039 48.14910761
51.93218164 60.88734139 148.7499026
0.0002636414119 49.83969739 -137.0338464
34.29336864 -2.461302529e-05 -62.70418739
149.4584116 15.16806639 -145.2500974
105.7706956 -2.461302529e-05 -123.9970644
0.0002636414119 31.71635539 15.70109861
50.33778864 24.66521739 148.7499026
0.0002636414119 40.23875939 -112.2791004
236.0283676 39.61458539 148.7499026
135.9222316 52.75327939 -145.2500974
7.384332641 -2.461302529e-05 -72.15741839
155.7330266 65.24374539 -145.2500974
98.74637364 0.313509387 -145.2500974
223.1301016 59.43085139 -145.2500974
210.6117476 -2.461302529e-05 -97.71775039
96.00026364 12.50690739 6.618118614
203.3797576 23.43191339 148.7499026
0.0002636414119 57.45094339 -28.88864439
99.85040364 112.7379744 118.9980466
7.316403641 -2.461302529e-05 -112.5500144
114.7906976 39.89446139 -139.2500974
24.24338364 -2.461302529e-05 111.9563886
0.0002636414119 30.52158439 77.44225861
162.5352396 -2.461302529e-05 85.31685061
167.7387236 -2.461302529e-05 28.70290161
143.8697366 -2.461302529e-05 -127.6316914
147.8525766 -2.461302529e-05 -117.8878774
100.0002636 20.18671339 5.327573614
73.91262364 -2.461302529e-05 100.6242236
17.16700264 108.8843274 149.9651956
109.0447176 8.637957387 -139.2500974
94.45921964 119.6081124 148.7499026
157.1484016 10.77861139 -145.2500974
100.0002636 39.75556139 70.99323161
96.00026364 9.320972387 96.83857361
0.0002636414119 10.18208239 -15.90662939
96.00026364 48.64319739 -117.8603754
85.83229864 -2.461302529e-05 -90.01941839
10.05563864 17.38781139 -145.2500974
100.0002636 13.24274539 106.9476896
74.83137264 82.66927639 148.7499026
92.03833264 -2.461302529e-05 140.3625086
118.4409286 -0.305104613 -112.5516724
90.56590964 52.60711139 -145.2500974
17.75183964 -2.461302529e-05 -15.12096839
250.7561446 38.58570239 -145.2500974
136.0975786 40.37550139 -145.2500974
245.7613196 -2.461302529e-05 32.94206461
167.7903456 61.91202339 148.7499026
5.205655641 -2.461302529e-05 30.51681861
0.0002636414119 49.15986639 27.05022661
0.0002636414119 35.72866439 135.0561056
59.63414164 -2.461302529e-05 7.920135614
100.0002636 84.90305839 105.1474906
15.29266364 -2.461302529e-05 101.5153526
165.1540846 60.88097239 -139.2500974
189.0361926 -2.461302529e-05 0.7347066137
100.0002636 33.04582939 54.81698661
217.6571426 38.00519539 -139.2500974
25.63995164 -2.461302529e-05 -70.41512539
158.2422136 -2.461302529e-05 140.8620086
231.6497546 -2.461302529e-05 -3.734721386
-0.006546358588 98.04183039 78.74755561
96.00026364 22.45277939 83.36742061
-1.654260359 61.07634039 -62.07010639
194.7000396 25.05705539 -145.2500974
96.00026364 0.590439387 122.6619456
192.0072896 -2.461302529e-05 -68.81031439
110.0619316 -2.461302529e-05 -91.22828839
146.4145396 121.8200974 148.7499026
3.184125641 -2.461302529e-05 99.98013761
233.6845996 -2.461302529e-05 -125.5205374
8.309091641 -2.461302529e-05 90.06348961
0.0002636414119 36.92838439 -28.59977739
0.0002636414119 25.12429439 43.92623561
90.28147164 -2.461302529e-05 -28.92870539
42.79300964 -2.461302529e-05 136.4317376
0.0002636414119 104.6905434 134.9902956
181.9351556 -2.461302529e-05 62.12369761
142.1618996 -2.461302529e-05 11.79937761
0.0002636414119 86.16187139 62.56502161
96.33355464 87.68837939 46.72094861
60.13897564 29.40613339 -139.2500974
48.49740764 -2.461302529e-05 -107.8536974
96.00026364 107.3046134 109.2848506
231.1313706 -2.461302529e-05 90.28617661
27.31212764 -2.461302529e-05 -28.48181439
0.0002636414119 69.65642139 59.23672361
99.60354864 65.71015439 -38.76032639
96.00026364 16.83281539 -125.6217514
100.0002636 58.21334139 -27.39599339
213.2021046 5.529477387 -139.2500974
96.00026364 43.25215339 28.53486461
250.7466056 -2.461302529e-05 16.99579161
208.3218426 88.56030839 148.7499026
100.0002636 48.54840539 -75.87893339
0.0002636414119 39.73374939 -133.7893994
159.8742506 -2.461302529e-05 73.70297661
115.3346126 76.73725539 148.7499026
54.10622964 -2.461302529e-05 34.52746161
100.0002636 47.27399839 56.55783061
91.45023564 -2.461302529e-05 -96.07529539
102.8790206 16.37084839 -145.2500974
143.8019766 52.13346839 148.7499026
137.7309746 -2.461302529e-05 28.08996961
100.0002636 9.687498387 115.6432916
7.737878641 -2.461302529e-05 5.457546614
0.0002636414119 17.21112139 -99.25390439
96.00026364 17.54875839 23.28500461
19.56304064 -1.487926613 -139.2500974
102.2738226 -2.461302529e-05 -32.54820239
0.0002636414119 49.51747739 -1.103367386
105.6943896 63.91819139 -145.2500974
226.1680816 -2.461302529e-05 -71.40838839
179.4246956 -2.461302529e-05 -101.9746774
37.48059364 37.39811239 -145.2500974
40.24518364 19.34736539 -139.2500974
52.28934164 -2.461302529e-05 -32.18687739
0.0002636414119 75.46279439 100.8373196
53.03287664 -2.461302529e-05 92.27530361
237.7324596 -2.461302529e-05 116.5605876
12.74567464 25.64079239 148.7499026
0.1522816414 100.0424574 148.7499026
229.5977076 -2.461302529e-05 -43.69881939
96.00026364 37.77648739 41.58055361
89.05248264 -2.461302529e-05 77.29553961
185.2997486 -2.461302529e-05 46.68458561
38.61709564 62.21673439 -145.2500974
88.55609764 -2.461302529e-05 37.17924961
0.0002636414119 49.43328639 -51.12796539
129.8623746 20.65157339 -139.2500974
189.3871496 -2.461302529e-05 -93.45585539
5.953156641 -2.461302529e-05 43.89462761
96.87083264 -2.461302529e-05 89.98762361
100.0002636 18.13797639 93.22447461
62.67359864 41.71505739 -139.2500974
139.3823316 -2.461302529e-05 -112.2556314
0.0002636414119 46.63693339 -16.49978239
100.0002636 9.053608387 0.09642961373
210.9122996 28.15898739 -139.2500974
163.6326956 -2.461302529e-05 -65.86299639
96.00026364 66.81196939 75.17114061
173.7810696 -2.461302529e-05 56.89890861
112.9210606 57.31541239 148.7499026
100.0002636 37.17229039 -81.60611139
150.3245066 -2.461302529e-05 117.6396806
0.0002636414119 58.65391239 86.79580861
234.7957756 51.64697139 -145.2500974
125.4769006 -2.386711613 -121.7772534
0.0002636414119 6.452459387 15.96709361
0.0002636414119 96.55233639 105.0352386
15.65300764 54.47078239 -145.2500974
96.00026364 5.586127387 -76.97931339
157.7072856 -2.461302529e-05 -47.17541539
36.11267564 7.217145387 -139.2500974
35.82192664 30.67075039 -139.2500974
100.0002636 55.28874639 -46.48365939
96.00026364 43.99966639 5.290016614
0.0002636414119 11.27563039 108.6119126
9.190183641 122.8792984 154.4050666
100.0002636 113.1179544 141.5204366
96.00026364 20.52083439 -51.73294439
81.84743164 115.3445314 148.8194136
141.2484496 53.18419039 -139.2500974
132.7938876 33.39009239 -139.2500974
100.0002636 26.67312739 69.55068761
69.67584664 17.42900939 -145.2500974
125.4803806 -0.825567613 148.7499026
143.4624616 -2.461302529e-05 -86.54727039
156.4753356 -2.461302529e-05 -137.2760484
225.4207346 7.400542387 -139.2500974
202.0001496 81.24228139 148.7499026
0.0002636414119 59.29343939 -2.616051386
0.0002636414119 37.82791939 -66.63117439
70.34345864 -2.461302529e-05 90.26402861
29.15902764 50.21796539 148.7499026
97.23547264 17.78610339 -139.2500974
173.1193196 -2.461302529e-05 -89.60224339
175.2253736 -2.461302529e-05 48.53462761
96.00026364 49.43432139 93.80867961
100.0002636 20.78976639 -99.12688839
95.67888564 -2.461302529e-05 -51.89168639
100.0002636 35.24534739 94.20680361
96.56700864 -2.461302529e-05 114.3930486
96.00026364 6.348194387 -106.7764994
123.1984356 96.16969539 148.7499026
240.4344806 -2.461302529e-05 4.253282614
73.26281464 -2.461302529e-05 60.67482861
88.02328264 46.96830339 148.7499026
222.9102716 73.97578539 148.7499026
175.8521026 15.75301739 -139.2500974
109.4743496 5.802675387 148.7499026
116.0904696 23.03604039 -139.2500974
205.2813896 -2.461302529e-05 74.12954061
157.5738436 40.80534239 -139.2500974
86.01109264 -2.461302529e-05 3.407532614
149.3064316 -2.044315613 -23.87280039
59.30197164 18.71998139 -145.2500974
114.2152786 -2.461302529e-05 98.48203161
96.00026364 57.81193239 71.53845861
247.1865626 67.63338139 -139.2500974
155.3396826 -2.461302529e-05 1.986852614
240.5174096 69.73317239 152.7426556
47.55388664 -2.461302529e-05 19.53313661
212.9105726 -2.461302529e-05 -18.10453639
184.2800586 -2.461302529e-05 -51.12993239
249.7444376 -2.461302529e-05 -38.51447839
0.0002636414119 9.156230387 -133.0067284
100.0002636 55.92829839 114.8451836
73.18646764 31.09215839 -139.2500974
19.52255664 61.37873239 -145.2500974
226.0934786 -2.461302529e-05 28.08501361
96.00026364 47.47089239 -93.87246039
100.0002636 50.71178639 -32.98913139
51.10373064 -2.461302529e-05 -136.5998474
78.24890464 90.80920939 148.7499026
90.20314064 -2.461302529e-05 -82.74760139
109.8095076 60.47239639 -139.2500974
0.0002636414119 91.29461639 134.1212656
237.2663456 36.79279939 -139.2500974
24.04525564 84.54101739 148.7499026
231.7441726 -2.461302529e-05 102.6468726
14.48271764 -2.461302529e-05 -35.89216839
0.0002636414119 30.41510839 98.81250361
0.0002636414119 5.620536387 -25.10809339
172.0624806 -2.461302529e-05 -105.4244554
220.0845306 -2.461302529e-05 75.74134161
96.00026364 98.24452939 133.8970456
96.45505164 57.79474839 -145.2500974
202.8673056 -2.461302529e-05 98.05308261
183.2931176 11.54950639 148.7499026
122.7441506 9.569854387 148.7499026
0.0002636414119 64.67226139 137.8972236
0.0002636414119 63.58718139 114.5507666
0.0002636414119 32.48207539 -88.77136339
137.1895486 21.23072939 -145.2500974
33.75756564 52.92528139 -139.2500974
248.5837896 -2.461302529e-05 65.24861761
8.325957641 -2.461302529e-05 115.1937286
108.3559806 -2.461302529e-05 43.14415761
227.7018906 29.28014539 -139.2500974
170.1298416 -2.461302529e-05 -3.012044386
162.1425056 17.08276939 -139.2500974
183.6264836 117.8516674 148.7499026
151.6203276 9.614710387 148.7499026
130.8041616 -2.461302529e-05 101.8080836
215.0016306 8.170713387 148.7499026
187.9336176 16.97812739 -145.2500974
96.00026364 106.4912494 122.5014516
248.4458576 59.32472739 -145.2500974
96.00026364 76.78561439 30.97105561
96.00026364 35.28319239 82.21352061
191.4353136 114.5657294 153.4972256
133.1095776 -2.461302529e-05 -97.90528539
150.9602366 -2.461302529e-05 145.5255656
139.8028636 -2.461302529e-05 116.9710486
5.112379641 -0.981882613 -145.2500974
0.0002636414119 83.66683039 46.51765861
100.0002636 14.55357239 -47.57519939
190.8710686 -2.461302529e-05 -61.17957839
76.27487364 -2.461302529e-05 -125.5981434
0.0002636414119 68.17298439 86.97139461
150.5466216 50.57918439 -139.2500974
227.4513286 67.99997539 -139.5899604
191.3057496 21.62029239 -139.2500974
38.57845964 -2.461302529e-05 -53.24463739
82.23378264 -2.461302529e-05 -44.90922239
89.33135064 29.20923739 -145.2500974
188.4371946 -2.461302529e-05 -44.65367839
100.0002636 40.14008739 -50.93336939
0.0002636414119 80.89302739 119.8633956
77.09320264 -2.461302529e-05 -8.632601386
96.00026364 47.73867239 102.9029766
0.0002636414119 28.30138539 -116.4597104
133.6232186 -2.461302529e-05 53.22973361
229.0077976 -2.461302529e-05 -63.79974939
119.6994806 0.760484387 -139.2500974
213.4855576 -2.461302529e-05 63.08652861
6.959600641 -2.461302529e-05 13.34550961
108.9196156 33.15716639 -139.2500974
100.0002636 39.29184539 -128.2121134
-0.4464603586 33.64370639 147.2499026
135.8864246 -2.461302529e-05 141.3226456
0.0002636414119 13.65939539 -43.06419339
21.65687364 38.82976039 -139.2500974
174.0969406 -2.461302529e-05 19.15825261
100.0002636 114.3328344 133.3207006
183.4575616 37.98881339 -139.2500974
96.00026364 79.03372239 132.1751486
191.2393816 12.78632239 148.7499026
210.3859236 54.19361939 -139.2500974
17.82017864 -2.461302529e-05 119.9443846
48.14175464 39.32602839 -145.2500974
47.32355764 -2.461302529e-05 -23.51051739
96.00026364 99.83829939 110.8542746
100.0002636 28.57348339 -54.35690939
122.3712796 -2.461302529e-05 30.70318361
6.701847641 -2.461302529e-05 56.15315761
-2.129937359 0.231105387 129.7726786
195.5083056 -2.461302529e-05 17.61923261
46.32110064 -2.461302529e-05 46.10115261
152.4253136 -2.461302529e-05 89.37085161
80.40985864 -2.461302529e-05 -60.69654739
242.9820566 46.66881639 148.7499026
251.2233006 53.27622039 -139.2500974
109.8432816 -2.461302529e-05 -12.75076339
94.54634564 48.21787539 -139.2500974
149.4383556 -2.461302529e-05 -100.8260114
79.98850564 56.54855039 148.7499026
150.4706216 -2.461302529e-05 -66.77172039
96.00026364 1.873176387 80.94065761
96.00026364 6.806213387 -21.58007039
96.00026364 10.17551539 66.38691961
103.4731276 -2.461302529e-05 -70.70849039
32.00735864 -2.461302529e-05 2.273317614
0.0002636414119 84.15354039 94.93400861
82.41586464 -2.461302529e-05 88.12455261
100.0002636 96.70975839 120.0873646
35.84123364 -2.461302529e-05 -129.1819864
68.08258564 64.34986839 148.7499026
128.7743326 -2.461302529e-05 81.39354461
214.7145466 -2.461302529e-05 96.52320761
0.0002636414119 36.25662639 34.69778661
98.31255964 54.38768439 -103.2382344
191.4152906 103.6333534 148.7499026
100.0002636 49.54747039 12.40334461
0.0002636414119 23.63946839 -106.3186934
231.0913536 -2.461302529e-05 -18.66510139
83.10566264 53.70244039 -145.2500974
224.0718266 -0.487744613 -139.2500974
0.0002636414119 0.117275387 -120.0037524
33.52660264 24.66639639 -145.2500974
243.2482016 52.02211839 -145.2500974
54.25768164 -2.461302529e-05 136.5923916
117.4656296 -0.149005613 -124.8641804
158.2737166 -2.085495613 -27.25026239
36.81993464 -2.461302529e-05 29.08869961
56.18779664 75.10960439 149.1414706
168.4441886 93.95574039 148.7499026
68.62679464 62.78501839 -139.2500974
100.0002636 21.43360639 -4.480841386
164.0117956 -2.461302529e-05 -124.7817104
129.4021196 81.90573439 150.8705766
198.7747936 11.82448839 -145.2500974
0.0002636414119 28.81660939 -49.52187839
149.6251886 65.67525439 148.7499026
79.70263964 -2.461302529e-05 29.30052061
226.1783516 20.05526839 148.7499026
26.96377164 37.40410739 -145.2500974
22.78321664 -2.461302529e-05 68.36408561
76.38384764 -2.461302529e-05 -23.95611639
227.3803176 50.90568139 -145.2500974
96.00026364 14.23580039 -88.45177239
-0.7039513586 -2.461302529e-05 -88.57135539
100.0002636 61.07797339 107.1529786
215.3758426 17.29294939 -145.2500974
100.0002636 44.41696439 111.0629876
252.2395166 -2.461302529e-05 28.82864861
96.00026364 79.47692939 70.20792061
100.0002636 63.80659139 129.4235246
56.43594664 5.906672387 -139.2500974
0.0002636414119 60.30573339 -54.05197439
154.0383496 21.68781539 -139.2500974
202.5205816 22.80264839 -145.2500974
81.83707264 5.061096387 148.7499026
205.8169916 100.1839784 150.7917646
30.02810564 60.24117539 -145.2500974
156.4784816 89.44507339 148.7499026
206.6696306 -2.461302529e-05 -118.4440754
38.08012164 -2.461302529e-05 60.58692161
100.0002636 1.960882387 28.22018261
98.78848664 29.26966439 -145.2500974
0.0002636414119 77.71470239 29.74108961
88.47879864 74.94116839 148.7499026
96.00026364 57.79453039 134.6561536
34.28197764 15.31332439 148.7499026
100.0002636 10.14891339 -28.38649339
74.98942964 2.342173387 -145.2500974
18.30899264 -2.461302529e-05 18.89495561
113.4993746 86.30672439 148.7499026
96.00026364 38.73619139 -96.21690939
118.4060926 47.76537739 -145.2500974
103.5838126 29.88328839 148.7499026
0.0002636414119 52.24931539 113.4806226
0.9235416414 -2.489023613 -139.2500974
166.9204746 6.977245387 -139.2500974
100.0002636 62.64739339 120.1343826
151.5062456 65.03028239 -139.2500974
215.0382756 67.99997539 -141.4374914
37.05351564 -2.461302529e-05 81.92074861
111.7729326 1.540225387 -139.2500974
96.00026364 48.94420139 -46.77427639
49.63200964 64.91656439 -139.2500974
107.8899716 -1.719434613 148.7499026
132.6996286 7.497306387 -139.2500974
186.1475126 67.99997539 -139.3904044
69.74951064 -2.461302529e-05 -70.38158539
153.7203226 115.7311014 148.7499026
250.8450796 -2.461302529e-05 -61.27347239
136.2319546 -2.461302529e-05 -40.66042239
96.00026364 27.40766039 -39.49547739
167.8497466 27.48772039 -139.2500974
21.70437964 -2.461302529e-05 34.03862461
41.74742464 -2.461302529e-05 -122.1916724
144.7954186 41.58303639 -145.2500974
232.4469306 42.07506639 -145.2500974
140.5587636 28.14142839 -139.2500974
166.2045906 -2.461302529e-05 143.2529886
-1.757858359 24.75909139 -145.2500974
207.8882316 44.20738039 148.7499026
96.00026364 4.830500387 42.58246361
80.77821964 -2.461302529e-05 -95.71158739
73.00022464 -2.461302529e-05 141.5684036
61.98102064 10.58789739 148.7499026
146.5717336 -2.461302529e-05 -7.645607386
100.0002636 10.90801039 -101.6055404
0.0002636414119 20.28277539 -32.02232339
100.0002636 23.45872039 -123.1906454
117.6626596 -2.461302529e-05 -44.19833139
197.8517266 55.34390339 -139.2500974
150.1449036 38.98408739 148.7499026
96.00026364 14.05731139 -55.03492439
130.3471116 -2.461302529e-05 -6.489122386
-0.6379043586 77.71205739 11.79148861
96.00026364 30.57642839 -29.87684639
71.08179164 0.919705387 -139.2500974
222.0434936 10.47450639 -145.2500974
126.6847486 28.10304039 -139.2500974
174.0199606 -2.461302529e-05 146.8971436
40.42084464 -2.461302529e-05 -97.49927839
0.0002636414119 17.00411939 141.4007916
129.9742076 -2.461302529e-05 -130.3897274
71.07252664 -2.461302529e-05 -41.65583839
129.2447596 -2.461302529e-05 -57.71121639
0.5222676414 -2.461302529e-05 115.2129096
0.0002636414119 39.34106839 45.86718961
140.9015446 23.33111539 148.7499026
0.0002636414119 42.45130439 71.01291161
189.2873056 -2.461302529e-05 115.6906966
0.0002636414119 7.973506387 130.2703006
239.0855316 -2.461302529e-05 -137.4339094
27.38100564 -2.461302529e-05 138.3519386
130.5307926 -2.461302529e-05 62.25015861
93.18980664 36.96193939 -145.2500974
0.0002636414119 22.29558039 91.59915061
120.0843276 65.94381639 -139.2500974
184.6942326 0.657219387 -145.2500974
79.94741564 107.0894714 148.7499026
0.0002636414119 51.58259139 -124.1065974
145.9602876 32.28203539 -145.2500974
100.0002636 62.07133839 -16.10913939
138.8943526 12.18931439 -139.2500974
206.5736466 -2.461302529e-05 -71.58614839
10.23272264 5.408269387 -139.2500974
78.23542964 13.76993639 -145.2500974
96.00026364 26.87972839 116.5784856
1.501452641 -2.461302529e-05 -96.77578439
65.51220964 -2.461302529e-05 -6.173428386
0.0002636414119 69.23822139 42.30090961
228.7971516 -2.461302529e-05 148.3497336
100.0002636 60.81793139 48.35801261
35.17884764 12.43020739 -145.2500974
59.05088064 42.88294939 -145.2500974
0.0002636414119 57.04924839 52.39782761
11.96646464 -2.461302529e-05 -77.79513239
161.5919476 -2.461302529e-05 127.8301096
224.8450576 -2.461302529e-05 107.9890656
100.0002636 21.88238039 -34.26871739
13.99259364 -2.461302529e-05 -109.5676264
66.29136264 29.82233339 -145.2500974
103.6969806 -2.461302529e-05 -94.62902239
109.8837586 -2.461302529e-05 -42.94880139
101.1268916 -2.461302529e-05 12.10535161
187.3376176 83.27808039 148.7499026
6.426458641 6.705424387 -145.2500974
0.0002636414119 31.51594139 27.34941561
96.00026364 17.90174839 -80.26452839
