# .PCD v0.7 - Point Cloud Data file format
VERSION 0.7
FIELDS x y z
SIZE 4 4 4
TYPE F F F
COUNT 1 1 1
WIDTH 1206
HEIGHT 1
VIEWPOINT 0 0 0 1 0 0 0
POINTS 1206
DATA ascii
-3.999784999 31.25393539 45.33190261
0.0002150013524 108.8148274 -60.98297139
-243.715656 -2.460843348e-05 51.42391461
-157.165323 -2.460843348e-05 -69.62705839
0.0002150013524 107.1552074 -30.50926039
0.0002150013524 163.5039044 -29.62305239
0.0002150013524 147.5749514 6.332144614
0.0002150013524 10.23064139 -14.31962939
0.0002150013524 84.48700639 -45.71170639
-0.1888269986 80.03378939 72.03954061
-5.006998999 -2.460843348e-05 2.639146614
0.0002150013524 162.0575474 18.04187561
-234.240428 -2.460843348e-05 -48.69111339
0.0002150013524 152.0197654 43.60979161
0.0002150013524 132.0310804 -31.00905339
-3.999784999 78.77956239 24.60066761
-20.88971 -2.460843348e-05 29.98440561
0.0002150013524 247.1267904 -14.05329139
-3.999784999 31.85374339 67.76083561
-189.184497 -2.460843348e-05 -64.54217539
0.0002150013524 69.91458739 -12.88485839
0.0002150013524 56.03410939 55.39498961
-53.96651 -2.460843348e-05 -62.95492339
0.0002150013524 37.78193439 47.79513661
-3.999784999 89.63587939 25.12381661
0.0002150013524 46.89542039 63.71376661
-72.019786 -2.460843348e-05 -18.16413539
-3.999784999 0.8740623916 -50.73763339
0.0002150013524 22.51442739 40.17223861
0.0002150013524 141.5901354 34.09268661
-39.524487 -2.460843348e-05 -8.151718386
0.0002150013524 236.2067734 56.35631561
-3.999784999 81.54471039 -33.15659139
-57.97789 -2.460843348e-05 -28.09368239
0.0002150013524 126.8638994 0.8409066138
-178.170148 -2.460843348e-05 -39.14807239
-232.239848 -2.460843348e-05 -10.54843339
-3.999784999 45.46964639 -26.15824939
0.0002150013524 108.2133544 -73.75727439
0.0002150013524 136.2957154 17.65387561
0.0002150013524 124.4294304 52.41560461
0.0002150013524 184.5648864 -51.89830039
-198.978534 -2.460843348e-05 -55.94476739
-195.782606 -2.460843348e-05 67.76659861
-3.999784999 156.1755654 15.59670561
-107.27 -2.460843348e-05 59.63321561
-92.110057 -2.460843348e-05 37.09405061
0.0002150013524 122.8300994 -67.62179139
-173.795335 -2.460843348e-05 -61.09379439
-3.999784999 132.4136544 -59.60744439
-189.836165 -2.460843348e-05 56.83338261
0.0002150013524 12.87866439 -27.05817439
-219.266339 -2.460843348e-05 52.37937561
-212.297943 -2.460843348e-05 66.27907961
-43.333428 -2.460843348e-05 -54.85111239
0.0002150013524 190.7721254 67.87870961
0.0002150013524 132.2552664 28.72050861
0.0002150013524 36.63139039 -51.61337239
-3.999784999 41.33755739 -64.66894639
-171.931931 -2.460843348e-05 -50.13420039
-3.999784999 36.22105839 -35.25519239
-29.724432 -2.460843348e-05 69.69959661
-3.999784999 54.11616139 67.18879461
-39.923424 -2.460843348e-05 -26.35223039
-4.347720999 -2.460843348e-05 61.19196861
0.0002150013524 56.72618139 -66.43633239
-3.857635999 114.0939434 -21.95966439
0.0002150013524 5.776839392 3.798450614
0.0002150013524 156.2557974 33.04726461
0.0002150013524 63.39316539 2.245945614
-195.144259 -2.460843348e-05 -22.64371039
0.0002150013524 24.16321439 63.41877061
0.0002150013524 140.6772494 -14.07965539
-153.2108 -2.460843348e-05 47.14548861
-3.999784999 43.35464939 -49.96186139
0.0002150013524 239.908221 71.40770261
-3.999784999 78.41365739 -65.58933439
0.0002150013524 232.1969074 -32.35015739
-126.978773 -2.460843348e-05 34.11365061
0.0002150013524 212.0870077 45.02270561
-209.497517 -2.460843348e-05 15.69425161
-195.039841 -2.460843348e-05 50.56793261
-208.773323 -2.460843348e-05 -6.043234386
-3.999784999 34.66116639 3.422032614
-3.999784999 37.60237039 12.73174461
0.0002150013524 211.0879214 -35.97159439
0.0002150013524 52.56688139 -32.87059239
0.0002150013524 98.13708139 -66.43118639
-28.601863 -2.460843348e-05 31.75743361
0.0002150013524 239.878707 26.56083961
-3.999784999 146.1916884 -35.98444239
-3.999784999 115.4661394 -32.90330239
0.0002150013524 244.7462649 19.27379161
0.0002150013524 10.89147639 -42.61971539
-0.2356259986 103.8239694 -6.299147386
-3.999784999 162.8174284 -5.027621386
-3.999784999 118.9772054 -57.26018839
0.0002150013524 206.0596134 -40.71754439
-248.131458 -2.460843348e-05 56.35883461
-108.372659 -2.460843348e-05 11.02179561
-95.458741 -2.460843348e-05 61.67314761
-3.999784999 20.31221739 53.70865561
0.0002150013524 99.18405839 30.52231061
-231.621251 -2.460843348e-05 -25.07488439
0.0002150013524 19.69596539 -16.78630439
0.0002150013524 164.6660574 63.91956161
0.0002150013524 245.0893753 40.16843461
0.0002150013524 3.010984392 -30.13114239
0.0002150013524 55.44274039 -9.344402386
-3.999784999 154.9789754 38.66938561
-201.639291 -2.460843348e-05 -7.598735386
0.0002150013524 249.8727882 -47.45753339
0.0002150013524 128.5889534 -41.41945339
-234.524502 -2.460843348e-05 10.31813261
-203.293124 -2.460843348e-05 -19.54891439
-6.247349999 -2.460843348e-05 -60.75972439
-6.194049999 -2.460843348e-05 21.05313861
0.0002150013524 116.3887474 66.60929761
0.0002150013524 89.49315739 18.15240861
0.0002150013524 7.932643392 -57.41499639
-3.999784999 45.08969639 -41.79244639
0.0002150013524 188.7942144 -64.20228639
0.0002150013524 151.6771474 -3.570979386
-141.070843 -2.460843348e-05 -36.69493739
-251.774139 -2.460843348e-05 32.61395961
0.0002150013524 196.2992484 16.36399661
0.0002150013524 175.2626564 52.88523361
-56.839319 -2.460843348e-05 -39.55374439
0.0002150013524 230.0532759 -56.64151939
0.0002150013524 25.92682039 -56.76540339
0.0002150013524 183.9818054 14.31279161
-157.271376 -2.460843348e-05 -59.53727039
-3.999784999 127.6427134 -50.92058739
0.0002150013524 175.7045774 22.52794861
-242.379365 -2.460843348e-05 -67.48025839
-24.78432 -2.460843348e-05 -38.81316739
0.0002150013524 77.18594839 40.36806961
-75.370596 -2.460843348e-05 65.49560161
-175.571711 -2.460843348e-05 42.89436661
0.0002150013524 88.62312639 52.53972761
0.0002150013524 229.9862671 23.56782461
0.0002150013524 197.3819734 -6.943164386
0.0002150013524 210.6511424 14.92247761
0.2778850014 -2.234188608 53.49990261
0.0002150013524 232.32567 5.011836614
0.0002150013524 142.0195924 20.47100561
-3.999784999 118.6646014 -43.06935139
-3.999784999 102.2710614 -18.78273839
0.0002150013524 214.0928963 -12.99326339
0.0002150013524 57.01858039 -37.73034339
-20.892867 -2.460843348e-05 -20.34883439
-185.745061 -2.460843348e-05 22.40978761
-3.999784999 92.67130539 -57.32896139
-3.999784999 176.0442994 -25.79401639
0.0002150013524 189.8975864 -29.80569139
-180.533103 -2.460843348e-05 -16.25645239
-3.999784999 44.96325839 68.23566561
0.0002150013524 205.9491644 66.94759161
-238.404406 -2.460843348e-05 25.27026461
0.0002150013524 29.01534039 25.25037761
-225.339549 -2.460843348e-05 3.942295614
-100.344984 -2.460843348e-05 9.152751614
0.0002150013524 53.16247739 23.52984961
0.0002150013524 39.50838839 -38.79638139
0.0002150013524 128.3635504 -56.43880439
-131.306447 -2.460843348e-05 -33.95722739
-242.755477 -2.460843348e-05 2.838174614
-70.127043 -2.460843348e-05 -9.948108386
-204.566928 -2.460843348e-05 46.89096161
-5.438411999 -2.460843348e-05 -5.535731386
-3.999784999 38.49183639 65.57341461
-160.333934 -2.460843348e-05 68.57003361
0.0002150013524 108.8968654 -17.67184439
-222.96946 -2.460843348e-05 10.60039161
0.0002150013524 93.13150639 29.02505361
-3.999784999 139.8222534 -34.87772539
-201.350423 -2.460843348e-05 64.96751561
0.3232290014 151.6623314 -74.16171639
0.0002150013524 69.44102439 14.16239961
0.0002150013524 54.17593339 -45.92182139
-3.999784999 57.65282939 -17.17115339
-172.405426 -2.460843348e-05 -0.5413713862
0.0002150013524 99.69513739 14.86706161
0.0002150013524 168.2001594 1.807259614
0.0002150013524 71.52621439 56.21043561
0.0002150013524 12.36198139 32.64619061
0.0002150013524 105.2812284 39.84336661
-80.904247 -2.460843348e-05 34.20085561
-3.999784999 56.88795039 13.86165161
-3.999784999 99.39546539 7.622359614
0.0002150013524 58.02392839 -59.19079539
0.0002150013524 225.5754481 -30.24164039
0.0002150013524 68.85118339 48.73170361
-3.999784999 66.02690339 21.33203261
-3.999784999 83.85517739 -17.77792839
0.0002150013524 158.8124234 62.04896261
-3.976068999 20.37002139 -40.04302439
-3.999784999 59.52329339 52.31753161
-3.999784999 74.95441439 -47.42367339
-3.136460999 157.6676934 4.010640614
0.0002150013524 68.18321539 72.70628261
-3.999784999 75.55656839 -12.97641039
0.0002150013524 111.0615754 -42.84123939
-0.7930039986 166.0938844 -38.48589539
-3.999784999 143.6870294 -25.47241639
-69.462537 -2.460843348e-05 56.18569661
-91.621059 -2.460843348e-05 18.54209061
0.0002150013524 41.39796739 33.01454061
-118.56923 -2.460843348e-05 59.15287561
0.0002150013524 154.7873184 -19.11828339
-7.964387999 -2.460843348e-05 34.81044661
0.0002150013524 30.67639139 -22.57400839
-3.999784999 179.1914274 2.900392614
0.0002150013524 90.14517039 -67.99043539
-2.814110999 111.6589574 54.35240861
0.0002150013524 86.34122439 -51.47522139
0.0002150013524 75.23245239 1.977883614
0.0002150013524 117.8303474 -48.67494139
0.0002150013524 91.18745839 -27.58025639
0.0002150013524 17.54834339 48.74655461
-42.039086 -2.460843348e-05 72.26273361
0.0002150013524 181.1228074 -12.23568839
-3.999784999 7.466474392 54.33074861
-197.818478 -2.460843348e-05 5.819381614
0.0002150013524 119.4480214 44.20464861
-3.999784999 63.93720039 -41.54187139
-3.999784999 67.65035339 67.66642161
-3.999784999 70.53199439 -0.9132853862
0.0002150013524 40.15140139 -11.00443639
-155.912823 -2.460843348e-05 -30.07543939
0.0002150013524 118.1220914 0.9631706138
-33.345823 -2.460843348e-05 -25.69124039
0.0002150013524 3.706273392 -40.64513539
-131.150362 -2.460843348e-05 18.49680861
-211.417568 -2.460843348e-05 -17.79127239
-57.283171 -2.460843348e-05 42.84316261
-3.999784999 18.51973139 -71.55233139
-121.056069 -2.460843348e-05 -12.93665939
0.0002150013524 52.21085239 4.482713614
0.0002150013524 100.9946264 -54.03665539
0.0002150013524 64.34516539 -53.11019539
-3.999784999 25.20308239 -48.66321639
-3.999784999 163.5145444 22.41909961
-59.051629 -2.460843348e-05 9.376969614
0.0002150013524 116.0614624 -69.34489239
-3.999784999 117.8095574 27.30639761
-231.043603 -2.460843348e-05 -69.59432339
-84.976534 -2.460843348e-05 21.82109161
-152.830272 -2.460843348e-05 17.34206261
-238.132613 -2.460843348e-05 70.87204561
-3.999784999 37.12946539 21.89887361
0.0002150013524 189.1495794 -38.04253139
0.0002150013524 109.7302844 29.72529261
0.0002150013524 91.62087339 40.15709361
-37.736116 -2.460843348e-05 54.51761561
-82.62628 -2.460843348e-05 -48.17234039
0.0002150013524 100.8879214 23.59793861
-3.999784999 120.6571984 49.57288161
0.0002150013524 205.2287394 -25.53033739
0.0002150013524 27.10404839 44.40294961
-3.999784999 91.85202239 49.77734061
0.0002150013524 42.48697839 -68.85802739
-90.296513 -2.460843348e-05 -69.06795139
0.0002150013524 102.7184244 48.41318061
-184.141959 -2.460843348e-05 -47.76612139
-3.999784999 77.87687039 31.08230361
0.0002150013524 59.10481939 43.37436561
0.0002150013524 33.46325439 -14.39578039
0.2105950014 72.43260639 -73.82008439
0.0002150013524 186.9271684 -12.47966939
0.0002150013524 114.3344214 11.45582561
-91.381416 -2.460843348e-05 -35.41334539
0.0002150013524 144.5212954 -54.27446539
-3.999784999 29.85925139 7.964813614
0.0002150013524 98.35377339 -27.53905839
-195.36057 -2.460843348e-05 -10.41435839
0.0002150013524 89.48377139 6.796469614
-65.846421 -2.460843348e-05 1.098910614
-3.999784999 65.51754239 44.82559761
-3.999784999 55.18690739 -24.16745239
0.0002150013524 111.8972294 -12.12004339
-221.927617 -2.460843348e-05 -49.78063639
-3.999784999 98.52228439 55.57403761
-235.248179 -2.460843348e-05 17.18886861
0.0002150013524 71.15008539 -52.70622739
-3.999784999 145.6659504 23.12528461
-208.273369 -2.460843348e-05 9.787101614
-3.999784999 160.2086454 -15.37668739
-54.117349 -2.460843348e-05 53.13994461
0.0002150013524 57.58390239 -27.94672839
0.0002150013524 105.3432564 -36.49118139
-3.999784999 141.9766884 -44.44489139
0.0002150013524 33.38090439 -42.86206339
-3.999784999 87.54130339 -9.664912386
-225.006287 -2.460843348e-05 -14.11556539
-117.994737 -2.460843348e-05 -2.644888386
0.0002150013524 172.6770184 -46.94192939
0.0002150013524 81.31136639 -28.69866539
0.0002150013524 124.2297694 41.08004961
-3.999784999 143.8954134 40.40133061
-3.999784999 165.9917114 13.15116861
0.0002150013524 48.73963039 -59.28433539
0.0002150013524 148.6761054 57.69976161
-22.856044 -2.460843348e-05 -31.85925639
-3.999784999 127.9020584 35.23405261
-3.999784999 109.3210684 41.41358561
0.0002150013524 74.40643239 9.788046614
-3.999784999 159.0812884 -29.20362539
0.0002150013524 203.8939194 60.89633661
-237.977962 -2.460843348e-05 31.52783861
0.1235480014 66.34314339 -73.07019939
0.0002150013524 47.92106239 21.35123761
0.0002150013524 80.74198839 17.47653361
-3.999784999 44.64064139 18.68854961
-109.722724 -2.460843348e-05 -57.72283339
0.0002150013524 238.1892523 -55.88492139
-37.199588 -2.460843348e-05 -43.57199839
0.0002150013524 99.05085639 -21.57451639
-3.999784999 137.5519514 -50.63680839
-3.999784999 113.3260234 46.07666861
-52.086471 -2.460843348e-05 17.60163161
-130.453888 -2.460843348e-05 29.65968761
0.0002150013524 46.99883739 -45.97917139
-136.686852 -2.460843348e-05 -23.66314839
0.0002150013524 175.9468514 8.228717614
-3.999784999 69.01669439 -9.009732386
-162.236288 -2.460843348e-05 53.90917061
-3.699551999 0.4999753916 -67.36742939
0.0002150013524 63.80388039 -25.67739339
0.0002150013524 39.51494839 57.13231761
-131.40873 -2.460843348e-05 -56.29956239
0.0002150013524 112.5380024 -54.90242039
0.0002150013524 39.62642039 -0.8265593862
-3.999784999 62.66872039 -68.25177839
-237.513704 -2.460843348e-05 -25.18291139
-26.470537 -2.460843348e-05 -24.68168539
-87.820047 -2.460843348e-05 -54.74041639
0.0002150013524 85.24084139 58.42962661
0.0002150013524 51.64745439 71.68947461
0.0002150013524 50.45754139 47.39753961
-137.43985 -2.460843348e-05 -3.981013386
-212.804566 -2.460843348e-05 34.62729461
-46.024419 -2.460843348e-05 -26.32917939
0.4114500014 107.0735614 74.41504661
-169.166283 -2.460843348e-05 -65.31378839
0.0002150013524 200.4772224 7.431341614
-105.827155 -2.460843348e-05 -66.91024739
0.0002150013524 201.9969024 38.88541161
-139.4797 -2.460843348e-05 -53.54070039
-3.999784999 103.1168044 19.19532561
-3.999784999 168.6525534 -14.18770039
0.0002150013524 58.78674839 18.75063461
0.0002150013524 246.4451445 1.408064614
-3.547924999 127.8252264 -27.33870939
0.0002150013524 193.3420894 21.30166561
-3.999784999 1.389171392 52.34720761
-51.748563 -2.460843348e-05 6.068731614
-3.999784999 91.63743239 1.555262614
-3.999784999 110.6490314 -28.96185539
-1.239565999 129.8178334 52.45059361
0.0002150013524 70.57392139 -65.78116239
0.0002150013524 64.11834639 -47.59004339
0.0002150013524 43.14625939 50.00936761
0.0002150013524 16.14079739 19.71877461
0.0002150013524 31.47798139 58.12572961
-15.934564 -2.460843348e-05 32.39716661
-3.999784999 149.6272644 -31.40425539
0.0002150013524 215.0660133 -70.27544139
-3.999784999 85.72816739 30.76370261
-50.175797 -2.460843348e-05 -33.17924339
0.0002150013524 114.0878804 4.697487614
0.0002150013524 95.13800239 -33.22324239
-3.999784999 79.60628939 12.88328661
-104.597067 -2.460843348e-05 31.93156061
-3.999784999 62.42867739 64.44657861
-3.999784999 65.77897339 -58.13767939
-3.999784999 26.12691539 -68.16038839
-3.138261999 120.4139664 -25.51349739
-206.648856 -2.460843348e-05 -11.42583439
0.0002150013524 8.428747392 59.66685161
0.0002150013524 171.3455714 -41.63954139
-3.999784999 49.56538139 -30.66378039
-3.999784999 112.0392764 -63.44108039
-3.999784999 117.0994214 36.57495861
-3.999784999 78.77894039 55.92997061
0.0002150013524 165.4945824 43.35272661
-3.999784999 78.81146139 62.55862561
-3.999784999 30.04695839 -60.55769539
-63.954121 -2.460843348e-05 59.83901061
-3.999784999 95.49321739 -63.83417339
-66.997512 -2.460843348e-05 -48.52689639
0.0002150013524 38.37404739 5.551308614
0.0002150013524 161.4249774 34.77155761
-3.999784999 122.1073854 -32.95821139
-3.999784999 20.19506239 43.64328961
-3.999784999 25.56838839 -4.522212386
0.0002150013524 75.46312439 -56.02680439
0.0002150013524 172.3587844 -7.212739386
-228.434047 -2.460843348e-05 36.03254461
0.0002150013524 41.70326039 40.32055061
-3.999784999 70.40473539 35.82680661
-228.947938 -2.460843348e-05 26.25883661
-3.999784999 134.1505684 39.40000861
0.0002150013524 159.7241664 25.99496661
0.0002150013524 21.78028439 -65.20962139
-3.999784999 143.6084934 -30.99267239
0.0002150013524 130.7960044 62.80618161
-3.999784999 86.03552439 49.62148461
0.0002150013524 74.51050039 20.52853261
-3.999784999 135.4031774 -43.56622839
-188.325186 -2.460843348e-05 -33.60837139
-1.616330999 -2.460843348e-05 -1.700644386
0.0002150013524 79.99049439 -4.630364386
-3.999784999 111.7341874 -37.98295639
-3.392473999 25.01743139 -29.72472739
-113.663026 -2.460843348e-05 42.05174661
-3.999784999 72.62364539 -60.13661139
-3.999784999 33.69760039 -49.48461939
0.0002150013524 30.44770839 -3.970984386
-240.066658 -2.460843348e-05 -35.87968639
0.0002150013524 121.3328754 -40.63763539
0.0002150013524 90.56285139 -39.09267339
-201.053241 -2.460843348e-05 53.96919461
0.0002150013524 93.48678939 -53.81668339
0.0002150013524 47.46887239 40.67316561
-3.999784999 81.77318239 -10.13027839
-96.149202 -2.460843348e-05 5.798491614
-3.999784999 67.47578839 -63.98457439
-3.999784999 34.83049739 72.22343461
-3.999784999 51.34200039 0.5780616138
-3.999784999 62.15234639 40.65357161
-145.386694 -2.460843348e-05 -33.52472139
0.0002150013524 36.27963239 -70.78948939
-3.999784999 14.23002139 -48.33776739
-228.756153 -2.460843348e-05 -59.44501039
-3.999784999 63.67793539 -17.26532139
-3.999784999 151.9350084 -42.67051639
-3.999784999 50.57584439 35.91222061
-3.999784999 4.859000392 63.38388461
-3.999784999 50.60504039 -43.34519239
-96.843309 -2.460843348e-05 -4.099190386
0.0002150013524 81.83048839 -58.46974139
-3.999784999 57.35290739 -69.89908339
-3.999784999 25.03611139 37.71995461
0.0002150013524 168.1141014 -65.60496039
-194.502875 -2.460843348e-05 29.63662661
0.0002150013524 106.4591014 58.84730661
-3.999784999 99.30232939 26.72232261
-39.327119 -2.460843348e-05 48.56490861
0.0002150013524 166.9614204 -51.31825539
0.0002150013524 105.3625314 26.46058561
-186.057751 -2.460843348e-05 36.06725661
0.0002150013524 171.4401454 18.41572961
-3.999784999 56.65502739 59.70956861
0.0002150013524 29.87777439 -49.11527139
0.0002150013524 234.9884205 39.32982961
-53.731333 -2.460843348e-05 70.48255461
-3.999784999 69.73549739 -38.78206139
-3.999784999 101.9845994 -67.61446639
-3.999784999 13.55807939 65.03108961
0.0002150013524 54.17730539 16.15663861
-9.443821999 -2.460843348e-05 -25.00069239
-111.90188 -2.460843348e-05 21.54509461
0.0002150013524 110.4031974 -23.96165639
-3.999784999 105.7797224 49.98945861
-45.731612 -2.460843348e-05 18.03015361
0.0002150013524 51.50734239 11.29231761
0.0002150013524 189.6359374 11.73894161
-3.999784999 34.69070139 49.32545961
-3.999784999 152.5669554 -23.88782839
0.0002150013524 13.42538939 -65.00907039
-103.922252 -2.460843348e-05 -10.63683039
-130.847438 -2.460843348e-05 -63.75781139
-3.999784999 59.17995839 3.687558614
0.0002150013524 77.55777839 34.47251661
-219.482075 -2.460843348e-05 -67.40176539
-71.711768 -2.460843348e-05 -62.62042339
0.0002150013524 136.6666224 36.09142461
-3.999784999 105.7184344 -27.19558639
-166.680894 -2.460843348e-05 -16.42221139
-2.861364999 151.4734244 48.02317161
0.0002150013524 56.66635339 10.07305461
-3.999784999 20.93061739 -45.65654339
-3.999784999 38.31979639 30.23406861
0.0002150013524 134.6260304 -26.47759539
0.0002150013524 32.15146039 -34.33585539
-3.999784999 43.21619639 -59.80043839
-3.999784999 46.69363639 -53.96275839
-3.999784999 36.66464739 -40.54628739
-132.415341 -2.460843348e-05 49.34803361
0.0002150013524 93.43783139 -43.43326139
-3.999784999 174.1767914 -2.728935386
-17.874172 -2.460843348e-05 46.18146961
0.0002150013524 60.76110739 -2.235582386
-3.999784999 178.7461864 -14.57201839
-3.999784999 70.93150839 9.784471614
-3.999784999 175.2845014 12.92886061
-123.395768 -2.460843348e-05 37.87029161
0.0002150013524 112.1597974 -33.01854539
-3.999784999 29.64054839 -13.65883939
0.0002150013524 165.5166204 -23.73086939
0.0002150013524 62.63316939 22.91687161
0.0002150013524 62.87046639 -30.78047439
0.0002150013524 138.9128194 -43.21732139
0.0002150013524 146.3745044 -19.82989739
0.0002150013524 40.82508539 63.25129361
0.0002150013524 178.8465454 13.65930561
0.0002150013524 181.6855474 -56.19728339
-3.999784999 65.88669439 14.16196061
-115.394066 -2.460843348e-05 -30.93031239
0.0002150013524 57.39065339 -49.97524839
-3.999784999 101.7321664 -41.04314039
0.0002150013524 225.2913824 -14.23816039
-3.999784999 40.98010939 -23.02315639
0.0002150013524 17.68385539 38.34575061
-3.999784999 172.3437114 -18.31278939
-23.522681 -2.460843348e-05 -71.38616939
0.0002150013524 14.70814239 61.98486561
-3.999784999 51.47489039 28.58215961
0.0002150013524 211.3068084 3.356430614
0.0002150013524 50.00214839 -20.68527739
0.0002150013524 64.93239839 10.16066861
-3.999784999 99.01031439 42.18852361
-3.999784999 24.35421439 72.55099561
-3.999784999 84.02123339 25.28650561
0.0002150013524 44.39477039 -37.20559339
0.0002150013524 107.6557394 -53.30249039
-3.999784999 133.8666554 44.97228061
0.0002150013524 150.7333694 30.90098361
-197.311459 -2.460843348e-05 17.31399161
0.0002150013524 58.46467439 33.11503461
-3.999784999 93.73161739 -3.122522386
0.0002150013524 52.78408639 -69.70933739
-234.140483 -2.460843348e-05 -0.007629386163
0.0002150013524 69.93472339 38.99072661
0.0002150013524 80.37322639 -40.09326439
0.0002150013524 101.9120784 56.50062461
-3.999784999 14.64706339 51.52211561
0.0002150013524 88.36635939 33.22665161
-3.999784999 100.6551684 -9.625007386
-3.999784999 104.9931604 36.38391961
-128.892157 -2.460843348e-05 -29.46281539
-3.999784999 25.40719739 52.72507361
-133.897243 -2.460843348e-05 35.09833061
0.0002150013524 252.0728436 10.16891161
-3.999784999 144.5047954 -49.69906039
0.0002150013524 187.4846294 31.37771061
-3.999784999 157.9736524 -10.65036739
-78.939462 -2.460843348e-05 13.75822161
-3.999784999 74.67780839 -20.91317239
-3.999784999 98.58709739 2.164720614
0.0002150013524 165.2411214 52.93512561
-10.896794 -2.460843348e-05 -33.34303539
-3.999784999 84.68686239 1.661552614
0.0002150013524 34.05494539 43.54041761
-141.892143 -2.460843348e-05 72.10296161
-2.636712999 158.2729074 -44.46216539
0.0002150013524 92.67879039 66.46813661
-3.999784999 77.69329939 19.65466861
-158.175581 -2.460843348e-05 4.056869614
0.0002150013524 7.581424392 -70.55573739
-179.009091 -2.460843348e-05 3.499264614
-3.999784999 88.30813239 -2.246789386
-3.999784999 54.10304739 73.54695661
0.0002150013524 22.89002439 55.36368361
-34.893232 -2.460843348e-05 22.13492261
0.0002150013524 104.5605884 16.49504661
-240.293259 -2.460843348e-05 64.09406761
0.0002150013524 178.8990704 -4.085222386
0.0002150013524 43.11169039 22.83006661
0.0002150013524 75.69914839 -68.72429839
-3.999784999 46.45238839 -20.54685039
0.0002150013524 31.37069839 -73.99015839
-3.999784999 85.49397739 -64.28896339
-3.999784999 45.06796739 37.11168461
-3.999784999 36.36275039 -63.95921739
-3.999784999 153.0369014 19.64461861
-74.385654 -2.460843348e-05 57.13503961
0.0002150013524 64.86550339 -9.206699386
-50.66982 -2.460843348e-05 -16.55508039
0.0002150013524 99.59608439 -13.49989739
-163.073184 -2.460843348e-05 17.98795461
0.0002150013524 138.8701024 55.53259761
0.4226150014 -2.460843348e-05 62.71763761
0.0002150013524 1.743418392 -47.86213739
-3.999784999 6.978219392 -61.43125539
-3.536516999 109.7165164 17.88782861
0.0002150013524 46.16951039 -50.99071039
-3.999784999 60.98877739 28.74297361
-3.999784999 3.861538392 58.04296661
-3.999784999 27.24937739 12.22353761
0.3683350014 152.1547144 74.27570961
-3.999784999 64.79218139 -5.650452386
-1.336261999 -2.460843348e-05 12.48530961
-3.999784999 38.51726639 59.93680461
-3.999784999 68.40204539 -43.74464239
0.0002150013524 139.9729274 -31.91745139
0.0002150013524 74.15620339 -10.28314339
-101.002007 -2.460843348e-05 -71.30719939
0.0002150013524 158.0577474 9.912254614
-190.048669 -2.460843348e-05 -16.30810339
-3.999784999 35.67925239 -10.24443539
-206.287343 -2.460843348e-05 -23.51308339
0.0002150013524 77.93787539 27.42199361
-3.999784999 86.58816339 -31.53510939
0.0002150013524 27.18018039 -35.34632839
-3.999784999 77.76776239 -36.37615239
-3.999784999 157.4285154 -21.32370039
0.0002150013524 4.690272392 53.40299461
-3.999784999 118.6643394 -63.83489239
0.0002150013524 17.86216939 -60.73638039
0.0002150013524 61.14170539 -18.71901939
0.0002150013524 192.0751864 4.698311614
0.0002150013524 46.34065239 72.12400361
0.0002150013524 84.82271739 10.32961661
-14.097777 -2.460843348e-05 24.38181961
-3.999784999 37.24472039 -26.50951739
0.0002150013524 145.2657284 43.39292661
0.0002150013524 29.18333939 62.49453661
-3.999784999 26.58435439 -53.40054539
0.0002150013524 184.3229524 64.14395361
0.0002150013524 114.2545024 36.10203861
0.0002150013524 247.8729259 -26.71147539
-3.999784999 56.18714939 -43.85784439
-3.999784999 34.64146839 36.35190961
-172.038716 -2.460843348e-05 66.19401661
0.0002150013524 81.95264139 41.61297161
0.0002150013524 178.5321424 63.96667961
-2.951127999 0.4999753916 -55.53551439
-32.187836 -2.460843348e-05 -49.77671339
-3.999784999 47.97430239 48.83117561
-171.429146 -2.460843348e-05 48.28497061
-3.999784999 82.73391139 -38.12695139
-57.854724 -2.460843348e-05 -45.65346439
-3.999784999 83.67913339 61.84965061
-3.999784999 41.13079639 -55.29215839
0.0002150013524 233.8831162 -20.54128339
-27.868683 -2.460843348e-05 -9.459581386
-3.999784999 41.84680539 -2.601084386
0.0002150013524 53.30299239 64.10818061
-3.999784999 29.27422439 -26.62350239
-92.595521 -2.460843348e-05 -53.63206939
0.0002150013524 78.73345439 65.54810161
-3.999784999 58.88666639 68.30865961
0.0002150013524 22.51821039 -43.09478039
-0.1363979986 174.5502974 -28.40348239
-3.999784999 93.52526839 -36.66352239
-186.383632 -2.460843348e-05 -38.09296039
-3.999784999 65.55665339 0.4572426138
-3.911333999 173.2793714 30.41771861
-3.999784999 19.36275239 69.63063461
-3.999784999 118.2462274 41.32010961
-3.999784999 91.34474939 -21.81730539
0.0002150013524 92.23975539 -61.25890639
-3.999784999 111.7463104 -45.71767239
-3.999784999 171.0761984 -9.957479386
0.0002150013524 -1.879574608 45.31943061
-89.28502 -2.460843348e-05 59.24308961
-113.283442 -2.460843348e-05 -50.96668539
-3.999784999 50.51539839 44.62404861
-3.999784999 85.66681139 66.54011161
-3.999784999 86.52326339 -54.23402539
-3.999784999 83.90573839 -27.13554939
-120.559111 -2.460843348e-05 13.44095161
-206.87875 -2.460843348e-05 -64.42393139
0.0002150013524 139.7039974 -38.04889039
-3.999784999 162.6697714 -32.47398639
-3.999784999 67.54687739 40.35711361
0.0002150013524 37.85698239 -6.731770386
-3.999784999 3.421248392 -72.76027039
0.0002150013524 43.47878139 2.518585614
0.0002150013524 45.17422039 -12.98524239
0.0002150013524 53.01271539 34.66243661
-3.999784999 165.1035044 -27.33340839
0.0002150013524 34.90447239 0.2514056138
-3.999784999 36.79307239 7.777019614
-187.09914 -2.460843348e-05 27.40462261
-3.999784999 69.21168739 -31.51495039
-3.999784999 133.7904304 52.25548261
0.0002150013524 70.19233539 60.97352461
-76.779928 -2.460843348e-05 23.26098061
0.0002150013524 156.4993494 -36.41147339
-3.999784999 72.70224139 18.42000261
-3.999784999 61.14144939 17.02295161
0.0002150013524 68.71330639 43.66417561
-85.18465 -2.460843348e-05 67.10874661
0.0002150013524 149.0326214 -34.04577039
-3.999784999 54.49820839 -13.51426139
0.0002150013524 152.2747364 38.76280061
-225.206039 -2.460843348e-05 21.53105861
-3.999784999 13.32268739 -53.07981039
0.0002150013524 94.25409839 -12.33206439
-3.999784999 50.33401139 -17.68092439
-3.999784999 49.46878639 64.51594661
0.0002150013524 213.8373608 -27.24046439
0.0002150013524 123.3122594 -58.37971339
0.0002150013524 63.09137539 -38.92131339
0.0002150013524 44.84607839 27.34665261
0.0002150013524 60.59468339 38.46497161
0.0002150013524 136.7787184 -47.53382639
0.0002150013524 242.6383967 66.83422961
-3.999784999 76.60841939 -53.60775639
-139.027539 -2.460843348e-05 -70.16418439
-3.999784999 123.6613344 -37.69741739
0.0002150013524 250.6984345 43.59009361
0.0002150013524 104.5810754 -41.70523139
0.0002150013524 75.30029539 -28.74028939
0.0002150013524 200.5036414 -22.86017539
-3.999784999 42.12940139 -8.083752386
-3.999784999 55.11866939 32.51127861
-108.53699 -2.460843348e-05 72.24655261
-3.999784999 29.88936639 2.950790614
0.0002150013524 120.1504554 30.82749161
-3.999784999 77.74493439 5.719849614
0.0002150013524 45.93417539 12.74102961
0.0002150013524 130.1821974 -60.99343839
-3.999784999 166.5952294 28.02032261
-164.354563 -2.460843348e-05 36.54114761
-3.999784999 48.81133839 -12.77440439
0.0002150013524 218.1071656 69.35096361
0.0002150013524 61.67405239 70.60342061
-3.999784999 111.9331474 31.12375261
-3.999784999 31.08129539 15.07128161
0.0002150013524 148.0534464 -15.36253539
0.0002150013524 76.03397239 -43.89839139
-130.036051 -2.460843348e-05 70.61807461
-3.999784999 71.03413239 26.09025161
-3.999784999 153.5142194 -28.64163439
0.0002150013524 76.25500839 56.82220361
-3.999784999 71.60971739 3.789224614
0.0002150013524 109.8863224 38.35284061
0.0002150013524 89.83179039 -48.23530939
-3.999784999 101.1797434 51.62361461
0.0002150013524 170.1825564 65.52013261
0.0002150013524 15.79781239 -51.44337439
-3.999784999 13.08484539 -72.74340039
-3.999784999 63.24599139 33.62505661
0.0002150013524 81.84820639 49.67549461
0.0002150013524 3.090446392 23.04873061
-173.5284 -2.460843348e-05 27.82554661
-3.999784999 89.60309539 38.57923761
0.0002150013524 80.52132139 -15.75314139
0.0002150013524 160.2141494 -26.07547839
-3.999784999 33.10547939 63.18281161
0.0002150013524 37.05146139 -23.77777439
-3.999784999 65.99255539 29.37609561
-3.999784999 164.3138274 32.95498761
-3.999784999 108.5420054 -22.23452439
0.0002150013524 80.76903239 54.35326261
0.0002150013524 247.3132924 23.92266261
0.0002150013524 90.20332639 -5.862111386
0.0002150013524 212.1254067 65.32016961
-3.999784999 67.79073739 -14.92699439
0.0002150013524 131.8643104 35.20497961
-12.040376 -2.460843348e-05 51.35170461
-3.999784999 141.2302134 31.59897461
0.0002150013524 176.1634854 -10.01733539
0.0002150013524 80.13497439 60.41717661
0.0002150013524 141.3967764 47.18954761
-3.999784999 29.72752139 37.18225561
-3.999784999 165.6551154 -8.800969386
-184.135474 -2.460843348e-05 -24.73461839
-3.999784999 77.42039939 44.67874661
-3.999784999 8.863810392 67.05417261
-3.999784999 89.84853539 45.18642061
-3.999784999 105.7056494 -70.51601539
-3.999784999 50.66920139 23.72400761
-3.999784999 102.1699004 -3.987712386
-3.999784999 70.31565539 -73.96679339
-3.999784999 55.27986939 -28.89241839
-3.999784999 59.68458139 -39.51908939
0.0002150013524 97.20790039 -49.44101339
0.0002150013524 17.48129239 53.44753661
0.0002150013524 21.58414439 45.68142261
0.0002150013524 94.36878239 43.96611561
-3.999784999 79.35001639 -19.10561739
0.0002150013524 28.37582739 -69.15959439
-64.709538 -2.460843348e-05 28.36065261
-3.999784999 61.00722839 -12.21744139
0.0002150013524 164.9817464 5.388461614
-3.999784999 7.620318392 -51.80965439
-3.999784999 69.17957939 53.70009061
-3.999784999 79.25737139 51.26891761
-3.999784999 85.88893439 17.55735361
0.0002150013524 149.8980954 -46.28304439
0.0002150013524 95.51458139 2.248493614
0.0002150013524 145.1965754 13.28745361
-3.999784999 98.37458639 19.07113161
-3.204561999 169.1595944 -35.48656339
-3.999784999 47.48319039 14.61492161
-3.999784999 87.09694339 8.293122614
-3.999784999 61.86572339 -45.73410539
0.0002150013524 231.2418076 47.62915661
0.08252500135 92.24159639 -72.72226339
0.0002150013524 90.29718139 -34.42808139
-3.999784999 147.3242354 -40.51709639
-3.999784999 89.62954639 54.72055361
-3.999784999 154.1364544 -46.78369039
0.0002150013524 54.99297739 -21.77672139
0.0002150013524 26.56548839 -20.31637639
-3.999784999 30.99123439 -43.06022439
0.0002150013524 73.47040039 45.47932261
-3.999784999 67.81305239 61.58945561
-3.999784999 9.765479392 62.02448661
0.0002150013524 245.1264941 -18.26013739
0.0002150013524 91.91543339 -0.9686243862
0.0002150013524 72.14159639 -2.666361386
-3.999784999 93.51882739 -17.03535139
-3.940191999 134.1802264 27.17082161
-3.999784999 132.0095704 -54.97419539
0.0002150013524 227.7004187 -3.247263386
0.0002150013524 39.73430039 9.996358614
-3.999784999 38.12301039 -18.38463839
0.0002150013524 34.28288239 -55.77166839
-3.999784999 173.4976964 19.56672661
-3.999784999 110.6099004 -71.31598439
0.0002150013524 148.6769774 23.15323661
0.0002150013524 176.4426324 35.40442361
-3.999784999 57.70249039 -64.29162339
0.0002150013524 29.18693139 29.88890561
-3.848184999 25.49997539 -17.19254139
-3.999784999 50.26040639 69.79218861
-3.999784999 83.15991739 43.62196061
-3.999784999 27.85838939 65.41227561
0.0002150013524 177.8945644 -21.84909239
0.0002150013524 118.4164444 -59.52605339
-3.999784999 138.8091674 36.97285461
-0.8326589986 120.7192454 25.61835761
-198.130919 -2.460843348e-05 -60.48478939
0.0002150013524 141.5075714 -26.23405739
0.0002150013524 224.6594458 16.78712861
0.0002150013524 97.32937239 -5.275063386
0.0002150013524 21.65892539 -48.72115539
0.0002150013524 78.89094839 22.29920061
0.0002150013524 144.4389804 -34.47471839
-3.999784999 31.50256139 -6.009222386
-3.999784999 90.42946039 -51.48011439
-3.999784999 88.49537039 -16.46695539
-3.999784999 100.6349384 -27.48536139
0.0002150013524 89.32962639 60.54761061
-3.999784999 41.27397739 25.60363161
0.0002150013524 236.9783221 34.11701961
-3.999784999 96.23387339 -42.06289539
-3.999784999 34.50499939 -68.24981539
-2.799880999 105.9599384 12.28035761
0.0002150013524 22.48495539 -59.80919839
0.0002150013524 185.6470134 4.686098614
0.0002150013524 128.3500084 31.13515061
-3.999784999 77.02882639 -31.16705339
-3.999784999 79.53899339 -47.53824539
-3.999784999 36.09663839 17.43082861
0.0002150013524 165.0489654 -5.108912386
-145.142598 -2.460843348e-05 -27.38234839
-3.999784999 81.08961139 -23.51404239
-11.838234 -2.460843348e-05 19.33335661
-3.999784999 36.51059839 -55.74152239
-3.999784999 51.59808439 -34.87615039
-3.999784999 86.92676939 -59.92414939
-3.999784999 46.15183039 9.787288614
-25.905874 -2.460843348e-05 -0.6653213862
-3.999784999 54.83966839 42.49210961
-118.076887 -2.460843348e-05 -72.65837239
0.0002150013524 83.38867639 -21.09300039
0.0002150013524 114.6897004 49.61292161
0.0002150013524 5.211639392 -64.37609539
-3.999784999 109.2841514 -58.81905139
-193.338178 -2.460843348e-05 -72.50199039
-3.999784999 17.19863639 60.24389961
-3.999784999 81.93580339 33.88575361
-163.2165 -2.460843348e-05 -51.00830639
0.0002150013524 82.54129539 26.92213761
-3.982457999 25.49997539 -22.55649839
-3.999784999 82.32422839 20.74479661
-3.999784999 73.41283639 -68.59816139
0.0002150013524 46.32868739 -2.303757386
-167.434255 -2.460843348e-05 -69.56876739
-3.714136999 25.49997539 -11.76406639
0.0002150013524 65.58753939 19.18426761
0.0002150013524 6.242715392 67.31403961
-232.879753 -2.460843348e-05 -29.45799439
-3.999784999 142.3410864 -39.05758439
0.0002150013524 119.2430954 37.00122861
0.1854720014 102.3862934 -73.60967739
0.0002150013524 109.1941114 20.71125561
-159.465954 -2.460843348e-05 -65.40926439
0.0002150013524 198.2257984 -71.48413139
-154.187076 -2.460843348e-05 -54.14602039
-3.999784999 92.86476039 12.31244961
-3.999784999 26.16238039 17.87962161
-3.465723999 129.6178554 27.40590861
0.0002150013524 33.55024039 25.61103161
-3.999784999 148.6613714 31.96382661
-3.999784999 90.95851039 19.74504361
0.0002150013524 182.9265344 -42.96788239
0.0002150013524 32.84524339 50.70333461
0.0002150013524 160.7545364 -33.45985439
-91.002314 -2.460843348e-05 -10.31997939
0.0002150013524 86.12845439 15.10324361
0.0002150013524 10.44964139 -74.14443239
-3.999784999 152.2964134 24.17955861
-3.999784999 149.7861204 40.65374561
-85.764128 -2.460843348e-05 -69.15315439
-100.407628 -2.460843348e-05 -61.41527839
0.0002150013524 166.6610234 22.91753261
-2.413463999 168.8042944 35.84493761
-3.999784999 169.8177504 0.4231806138
-3.999784999 29.82323739 71.80951061
-3.999784999 120.8256444 -47.21205839
-3.999784999 75.93878739 38.65259961
0.0002150013524 192.7182004 -43.41812839
0.0002150013524 65.23210639 40.02414561
-3.999784999 32.05037039 -37.00878139
0.0002150013524 59.40492339 58.41275961
-80.042463 -2.460843348e-05 71.00548261
0.0002150013524 91.07165139 47.34703261
-5.512033999 -2.460843348e-05 44.38178761
-3.999784999 40.67507939 -45.71156739
-3.999784999 103.0818524 -14.31172239
0.0002150013524 156.0390234 45.67249261
0.0002150013524 34.59030039 69.20102061
-3.999784999 77.45542139 67.21188861
0.0002150013524 27.95039039 -29.19960439
0.0002150013524 127.8314244 47.95252061
0.0002150013524 72.14950439 28.02403961
0.0002150013524 148.0504114 1.842870614
0.0002150013524 162.4367834 -41.00981239
-221.236699 -2.460843348e-05 -72.58039739
-3.999784999 131.8985434 -49.38758639
-3.999784999 95.15330139 6.084165614
-3.999784999 131.1366894 -42.10228639
-3.999784999 35.93076639 -45.56617339
-3.999784999 50.25584339 5.618762614
-1.494982999 -2.460843348e-05 35.22901561
0.0002150013524 123.3681064 46.43028061
0.0002150013524 51.89446839 -6.564787386
-3.999784999 25.35332139 -58.76161939
-3.999784999 147.0733064 -45.69014939
-3.999784999 71.46270439 58.28325861
-3.904511999 140.5547414 -54.60501139
-3.999784999 47.84026839 32.33575561
-2.699272999 157.4315094 -5.290415386
-115.001806 -2.460843348e-05 -65.93634639
-3.999784999 91.59973739 -66.53565939
-3.999784999 70.79179539 49.50295561
0.0002150013524 106.2848924 45.68006761
0.0002150013524 117.4988954 -33.11076039
-72.45779 -2.460843348e-05 40.21389761
0.0002150013524 68.43696339 -28.50807039
-3.999784999 114.6415724 -56.10021339
-4.182252999 -2.460843348e-05 65.67549061
-3.999784999 61.50038039 11.96445261
0.0002150013524 116.0592874 -44.55346339
-40.013534 -2.460843348e-05 -32.44089839
-2.855791999 25.49997539 3.849726614
0.0002150013524 135.2637364 -40.62283339
-3.999784999 66.42239139 5.211403614
-3.999784999 52.76051639 55.75095261
-3.999784999 103.8938654 -60.33974039
-3.999784999 97.82877339 -34.89233039
0.0002150013524 245.5927778 30.13171561
0.0002150013524 99.42494439 -31.97224539
0.0002150013524 66.50667539 -43.15797139
-128.911735 -2.460843348e-05 -8.873837386
0.0002150013524 201.5141804 27.10514961
0.0002150013524 89.38758339 23.17721461
-3.999784999 80.94861239 -52.36935239
-149.066756 -2.460843348e-05 26.93096861
0.0002150013524 26.21166439 58.32672061
0.9779570014 -2.460843348e-05 1.916269614
-105.522898 -2.460843348e-05 51.48431061
-3.999784999 56.14336639 27.01001261
-3.999784999 51.65273639 -66.08323139
-3.999784999 56.97168239 -35.79028539
0.0002150013524 48.16205939 -29.32611039
-3.999784999 158.0732254 -34.26414439
-3.999784999 84.52258939 -43.77963439
-3.999784999 158.8045854 24.29843661
-3.999784999 161.0473314 36.66299061
-3.999784999 117.2067444 -70.89548939
-3.999784999 166.2548134 -21.95201339
-135.182107 -2.460843348e-05 25.65719561
-3.999784999 94.85747939 59.01543761
-3.999784999 13.62287739 -68.34174039
0.0002150013524 136.2906544 51.63294261
0.0002150013524 123.6392264 -49.23849239
-203.294149 -2.460843348e-05 57.92724761
-3.999784999 104.4047904 -51.13439239
0.0002150013524 58.39450139 1.962706614
-3.999784999 55.81632339 47.06598561
-182.571375 -2.460843348e-05 69.41955061
-3.999784999 57.10022239 -1.607096386
-14.646876 -2.460843348e-05 3.022674614
-3.999784999 174.9292014 -7.071559386
-3.999784999 14.43819139 -60.43468239
-48.97954 -2.460843348e-05 -10.02377439
-213.900887 -2.460843348e-05 56.77087061
0.0002150013524 22.52692139 72.78907161
-239.559383 -2.460843348e-05 37.92879061
0.0002150013524 131.8491714 -51.75607839
-147.156221 -2.460843348e-05 -52.06562639
-3.999784999 117.1735424 -38.23813539
-31.952117 -2.460843348e-05 48.61005961
0.0002150013524 237.4296348 -12.77743239
0.0002150013524 59.70022339 6.891252614
0.0002150013524 24.35242439 49.54726361
-3.999784999 45.01940939 57.00637661
-3.999784999 157.2831294 42.69886261
0.0002150013524 68.04156439 0.5595966138
-163.056394 -2.460843348e-05 -5.192790386
-3.999784999 97.48467739 47.07484761
-1.230315999 146.7955624 49.84082461
0.0002150013524 167.7364044 -30.74931939
0.0002150013524 146.3346424 -24.20840939
0.0002150013524 171.0803574 56.28511661
0.0002150013524 26.58965639 21.60569261
0.0002150013524 86.13141039 -70.72448539
0.0002150013524 210.2451064 -1.291225386
-3.999784999 122.2533324 -51.89647439
0.0002150013524 231.1783564 27.77494661
0.0002150013524 40.66373739 -63.03783439
-3.999784999 99.26159339 -53.73990439
0.0002150013524 174.0777054 -18.05415539
-127.223948 -2.460843348e-05 -47.13215239
-134.017219 -2.460843348e-05 39.45536961
0.0002150013524 161.0680644 3.485548614
0.0002150013524 177.0396994 -14.55561539
0.0002150013524 72.44468539 70.72634261
-74.054275 -2.460843348e-05 -2.568914386
0.0002150013524 135.7179334 -33.30723139
0.0002150013524 194.9580864 -3.339082386
0.0002150013524 104.7553424 -62.52493839
0.0002150013524 71.87795739 -46.21553639
-131.915314 -2.460843348e-05 -21.06490939
-3.999784999 122.8740954 -60.99929239
0.0002150013524 18.60467639 -56.16261039
-3.999784999 126.7328844 -56.13780139
0.0002150013524 112.1640094 -71.98901939
0.0002150013524 146.4429634 -50.39915939
0.0002150013524 143.3360064 7.180463614
0.0002150013524 45.25091039 44.38353061
-3.999784999 4.680066392 69.76360661
0.0002150013524 215.6827792 -49.59079639
-3.999784999 26.39347539 42.94734261
-182.909248 -2.460843348e-05 9.908661614
0.0002150013524 58.42635639 47.72826661
-0.3790669986 182.4227334 -7.404210386
-3.999784999 154.8762124 33.84522661
-3.999784999 163.8629694 8.328259614
-92.505423 -2.460843348e-05 -30.72036839
-75.111407 -2.460843348e-05 -36.28257839
-3.999784999 53.39438639 -52.55474439
-205.020004 -2.460843348e-05 -34.86547039
-86.668014 -2.460843348e-05 -7.086626386
-246.212497 -2.460843348e-05 39.82649461
0.0002150013524 196.6439074 -15.85119339
-70.596038 -2.460843348e-05 1.042715614
-3.999784999 64.30150639 -30.24550539
-0.8906119986 13.30798739 46.43486661
-3.999784999 22.74628139 62.87045361
-154.686253 -2.460843348e-05 42.22437361
0.0002150013524 36.10350539 12.85984761
0.0002150013524 30.66418939 -17.62485839
-230.865933 -2.460843348e-05 -35.90268639
-229.939115 -2.460843348e-05 -48.17038539
0.0002150013524 127.7959624 -30.48706739
-3.999784999 73.69327839 62.71221361
-207.190732 -2.460843348e-05 35.77185661
-3.999784999 161.0723844 16.94235861
-189.472632 -2.460843348e-05 -26.82807939
-3.999784999 39.71098439 69.70703261
-3.999784999 85.91901439 -69.29955039
-195.305556 -2.460843348e-05 -45.24181539
-54.439048 -2.460843348e-05 -43.13324939
0.0002150013524 93.55974939 33.24394561
0.0002150013524 171.4793484 22.84472661
0.0002150013524 207.7523314 11.83948761
0.0002150013524 26.50969039 -40.36056639
0.0002150013524 29.62064639 47.79960661
-143.919514 -2.460843348e-05 62.43389561
0.0002150013524 238.2989517 48.66726361
0.0002150013524 182.5464004 34.09354261
-45.574369 -2.460843348e-05 38.77051161
-19.568718 -2.460843348e-05 41.23070461
0.0002150013524 46.25052139 -23.94655239
0.0002150013524 30.25456239 18.50664361
0.0002150013524 91.83671239 -23.00518839
-3.999784999 41.43949539 -30.57137839
0.0002150013524 154.2196724 14.90090161
-147.022484 -2.460843348e-05 -47.44214839
-3.896371999 -2.460843348e-05 -45.56203939
-21.163902 -2.460843348e-05 69.49857461
-230.712414 -2.460843348e-05 65.47240161
0.0002150013524 13.29747639 -46.48683539
-62.877342 -2.460843348e-05 38.86784361
-79.99756 -2.460843348e-05 38.26293061
-214.322003 -2.460843348e-05 38.50082361
0.0002150013524 102.2595914 33.32364761
-87.280742 -2.460843348e-05 -59.66481039
0.0002150013524 248.5697617 66.89511061
0.0002150013524 151.2962024 -7.885290386
0.0002150013524 103.7790684 -26.62875339
-67.97265 -2.460843348e-05 -26.50233939
0.0002150013524 233.4791068 18.05871261
-103.804461 -2.460843348e-05 -38.44016439
-3.999784999 96.86938039 36.71048761
-3.999784999 131.5983964 -30.03454039
0.0002150013524 137.5644854 30.42210861
0.0002150013524 5.276244392 -50.01073139
-166.377858 -2.460843348e-05 -8.345481386
-126.840896 -2.460843348e-05 -53.78274539
0.0002150013524 249.4779044 32.21781361
0.0002150013524 116.5706364 -3.609324386
0.0002150013524 36.45947039 22.62379361
0.0002150013524 85.76378239 -63.21813839
0.0002150013524 100.2047344 -43.99474439
0.0002150013524 175.3956704 17.29580761
-122.56356 -2.460843348e-05 -70.04521439
0.0002150013524 54.51078539 59.20633261
0.9991780014 17.13294239 70.80623461
0.0002150013524 196.5094924 4.833121614
0.0002150013524 92.70127139 52.94202361
-198.452511 -2.460843348e-05 -50.68033639
-196.618216 -2.460843348e-05 -29.01469439
-244.908631 -2.460843348e-05 10.98073861
-249.525549 -2.460843348e-05 -60.48797039
0.0002150013524 54.21288039 -60.65132639
0.0002150013524 80.44286339 -32.68325739
0.0002150013524 65.32823039 -68.09229239
-3.999784999 97.28440939 -59.21635239
0.0002150013524 165.5002634 48.88237161
-3.999784999 176.6192644 8.405335614
0.2161290014 241.1772203 -40.52208839
-43.264213 -2.460843348e-05 -6.602414386
-3.999784999 124.5745504 41.53643861
0.0002150013524 241.7154429 21.94592561
0.0002150013524 95.25923739 -69.26471239
-224.709995 -2.460843348e-05 26.45746061
0.0002150013524 129.5473094 68.61315161
-75.140678 -2.460843348e-05 61.48183061
-99.383348 -2.460843348e-05 -12.90530339
-3.999784999 29.21668239 25.55936261
-3.999784999 57.65768539 -59.22640439
-40.251424 -2.460843348e-05 66.97447361
0.0002150013524 21.77930739 -53.30332039
0.0002150013524 84.85239939 3.952301614
-150.804634 -2.460843348e-05 0.6875166138
-187.378477 -2.460843348e-05 -54.19010539
0.0002150013524 59.56632239 52.15591361
-2.902286999 16.38121039 -44.28295339
-3.999784999 91.24859339 -27.56732939
-120.88551 -2.460843348e-05 20.35390161
-107.12096 -2.460843348e-05 -72.48761739
0.0002150013524 70.27529739 -19.32704939
0.0002150013524 73.87979239 38.13741661
0.0002150013524 130.3493784 -34.62497339
-0.7327139986 25.30288239 27.25300961
0.0002150013524 198.3007444 63.40372661
0.0002150013524 74.61691239 -59.90577139
0.0002150013524 149.7419944 65.08160861
-79.520436 -2.460843348e-05 -22.00427039
-15.031059 -2.460843348e-05 -29.31635039
0.0002150013524 66.25646639 -61.54217039
0.0002150013524 37.20613639 -30.75754639
-64.237668 -2.460843348e-05 65.59372761
0.0002150013524 32.42507239 65.92175461
0.0002150013524 221.5187312 -27.94910439
-177.865482 -2.460843348e-05 -13.38386439
-238.529881 -2.460843348e-05 -40.22157939
0.0002150013524 84.98173939 -1.441589386
-99.374574 -2.460843348e-05 61.52884261
0.0002150013524 97.22749739 26.28734461
-161.678608 -2.460843348e-05 39.40325761
0.0002150013524 159.0949154 65.95619361
-91.044347 -2.460843348e-05 22.41351461
0.0002150013524 164.7830964 -0.08698338616
0.0002150013524 90.99999139 -15.62511839
-73.403828 -2.460843348e-05 -28.06741539
-168.3376 -2.460843348e-05 69.99612661
0.0002150013524 190.9485024 -67.45189639
0.0002150013524 110.5867944 10.38219261
0.0002150013524 72.62927739 65.25556861
0.0002150013524 172.5681184 31.24154961
0.0002150013524 135.4506624 42.20886661
-106.6803 -2.460843348e-05 7.535048614
0.0002150013524 114.2014474 45.71772761
-225.729005 -2.460843348e-05 -50.51848439
-197.431098 -2.460843348e-05 45.98286661
-135.69995 -2.460843348e-05 47.30670861
0.0002150013524 15.24609239 9.612651614
0.0002150013524 161.4758114 21.84424961
0.0002150013524 58.83261739 14.54064561
-1.927773999 -2.460843348e-05 70.59832161
-71.012148 -2.460843348e-05 -21.86361139
-99.573694 -2.460843348e-05 -18.32177639
-1.346360999 0.4999753916 55.63532461
0.0002150013524 106.7165324 55.02554861
-193.079037 -2.460843348e-05 14.61555061
-215.724345 -2.460843348e-05 -68.11653139
-56.712835 -2.460843348e-05 38.61240261
-222.203734 -2.460843348e-05 -21.10732539
-203.499738 -2.460843348e-05 -15.35069439
0.0002150013524 142.3198674 28.26965261
0.0002150013524 38.16445239 51.57534861
0.0002150013524 98.16747539 52.14978561
0.0002150013524 37.72608639 42.59108261
0.0002150013524 69.75226139 19.89237761
