# .PCD v0.7 - Point Cloud Data file format
VERSION 0.7
FIELDS x y z
SIZE 4 4 4
TYPE F F F
COUNT 1 1 1
WIDTH 1212
HEIGHT 1
VIEWPOINT 0 0 0 1 0 0 0
POINTS 1212
DATA ascii
-51.99973636 87.27196439 -45.40005739
6.272361641 -2.460840051e-05 -228.9211604
-27.93666836 -2.460840051e-05 -160.1720254
67.39213564 -2.460840051e-05 -161.5550664
-45.11080036 -2.460840051e-05 -145.4043944
3.021779641 -2.460840051e-05 -80.97865139
48.00026364 11.82549539 -72.61650739
-51.99973636 16.60794739 -216.1020704
48.00026364 19.58877139 -185.3780684
52.00026364 76.48134439 -42.30443939
-67.16890136 -2.460840051e-05 -110.9634504
52.00026364 3.123377392 -32.86493039
-26.59101536 -2.460840051e-05 -197.6514264
-51.99973636 52.07192939 -161.3980464
-48.37436936 62.56449539 -203.2312894
-12.57641736 -2.225156608 -9.738824838e-05
-65.95899536 -2.460840051e-05 -154.3123734
-18.33472436 -2.460840051e-05 -235.8524794
-47.99973636 62.72477139 -97.74569239
52.00026364 47.91423839 -219.6204224
52.00026364 36.19495739 -139.4189254
48.00026364 78.20757939 -15.41485739
48.00026364 47.55594639 -76.59634739
-51.99973636 21.65337239 -195.7018894
-40.24867536 39.02866839 -9.738824838e-05
-42.31404536 -2.460840051e-05 -177.9059054
12.99985764 25.71811639 -9.738824838e-05
-47.99973636 44.30029039 -81.51879139
68.76897864 -2.460840051e-05 -75.37110539
9.698339641 -2.460840051e-05 -25.21263739
-51.99973636 8.861281392 -52.67922039
24.44723664 -2.460840051e-05 -178.0025924
-51.99973636 110.2751844 -9.612532388
50.16265464 129.2821914 -9.738824838e-05
48.00026364 40.99962339 -252.2662004
48.00026364 82.90157039 -100.1715844
67.39057164 -0.8234266084 -9.738824838e-05
52.00026364 18.10724139 -45.63421839
-51.99973636 25.35492139 -148.4170574
52.00026364 14.92888739 -137.6378244
-51.99973636 67.14226139 -57.68168039
57.44544264 -2.460840051e-05 -109.7906504
72.94177064 39.92882039 -9.738824838e-05
52.00026364 21.91346039 -5.156129388
-46.98598036 -2.460840051e-05 -125.4247554
23.77477164 -2.460840051e-05 -54.26352039
48.00026364 48.32837239 -157.1306564
55.78587364 -2.460840051e-05 -239.7694944
-6.394831359 -2.460840051e-05 -146.3037914
-48.06780736 -2.460840051e-05 -239.3615044
4.588279641 -2.371874608 -171.9634764
48.00026364 40.77630239 -34.62173439
33.32300164 95.93095839 -9.738824838e-05
70.19263564 100.2084634 -9.738824838e-05
29.62205464 -2.460840051e-05 -227.5198944
48.00026364 66.79901039 -111.0556244
13.93016164 -2.460840051e-05 -100.3106444
-51.99973636 19.41453839 -17.57724139
-15.33846636 -2.460840051e-05 -45.41871039
52.00026364 57.43765139 -45.85735439
-54.41207636 -2.460840051e-05 -3.058029388
-51.99973636 13.29128639 -109.2183694
-51.99973636 63.01041139 -11.97831139
-28.50386136 -2.460840051e-05 -18.60863939
-51.99973636 41.55382239 -229.8596564
-10.11383536 -2.460840051e-05 -68.51242639
-51.99973636 13.50308739 -81.43333539
-26.03503536 27.86224839 -9.738824838e-05
-59.54085236 89.41993239 -9.738824838e-05
52.00026364 9.036625392 -157.3180704
52.00026364 61.95340339 -1.702903388
8.250590641 -2.460840051e-05 -210.6634044
-47.99973636 105.1798514 -48.00540039
-47.99973636 41.45763539 -36.27105039
48.00026364 86.71997639 -64.48372039
53.15085664 109.4014324 -9.738824838e-05
48.00026364 12.79422339 -250.9434244
52.00026364 13.38039539 -99.75881939
52.00026364 61.00828839 -127.7331254
16.49093064 -2.460840051e-05 -242.7437264
27.68397664 -2.460840051e-05 -0.9493833882
52.00026364 15.25135739 -202.8807164
52.00026364 38.62649839 -18.12810539
-51.99973636 37.53716639 -116.4319664
-51.99973636 69.10154939 -160.9033304
48.00026364 30.43892439 -106.2922424
-47.99973636 82.89040539 -65.29253539
-65.78051536 -2.460840051e-05 -87.07279439
-0.6263223589 42.03149539 -9.738824838e-05
1.832130641 66.27751439 -9.738824838e-05
52.00026364 71.26063339 -79.30197839
39.15897064 -2.460840051e-05 -61.86515439
-66.64059936 -2.460840051e-05 -54.83822739
-51.99973636 48.23182439 -195.1547484
52.00026364 43.64014339 -96.63424739
-51.99973636 60.32104639 -133.9555094
-29.43652336 -2.460840051e-05 -35.33297039
-33.72300336 -2.460840051e-05 -96.17071439
34.16324864 40.57575139 -9.738824838e-05
67.24813364 -2.460840051e-05 -43.62468839
51.42893064 77.57054439 -137.5144524
-9.289275359 -2.460840051e-05 -199.1727164
-63.34700636 -2.460840051e-05 -192.5421114
48.00026364 27.76951939 -68.80398739
-60.29904736 -2.460840051e-05 -18.76007939
41.62131864 -2.460840051e-05 -124.3713574
-51.99973636 12.42864539 -251.3767484
-47.99973636 77.22576339 -125.4582684
47.50124064 -0.6037296084 -223.9850594
24.25678164 -2.460840051e-05 -135.8527914
-49.17574336 76.93862139 -9.738824838e-05
-51.99973636 35.14353539 -161.3094284
52.00026364 32.52498439 -224.3247644
-24.50789636 86.69001439 -9.738824838e-05
-71.13833536 29.98328039 -9.738824838e-05
72.34259764 -2.460840051e-05 -199.8880844
-49.56713136 51.96979039 -9.738824838e-05
70.49753464 -2.460840051e-05 -59.23638539
31.67216464 -2.460840051e-05 -16.25902839
31.17633064 -2.460840051e-05 -192.2549544
-67.32130636 12.48173439 -9.738824838e-05
48.00026364 102.0010174 -12.80713939
-7.111479359 -2.460840051e-05 -124.4486384
-12.44851836 -2.460840051e-05 -161.9338764
48.26140564 71.93998139 -159.7029844
-51.99973636 36.15304039 -248.9026904
52.00026364 107.6506594 -42.83755139
-55.14793136 -2.460840051e-05 -214.8934214
60.28368664 -2.460840051e-05 -16.73713439
53.88234664 -2.460840051e-05 -84.39710939
11.57299864 -2.460840051e-05 -116.3943254
-47.99973636 32.08606239 -54.48827139
-51.99973636 52.69104539 -177.3046014
-47.99973636 19.60096139 -95.53546139
-25.32104336 -2.460840051e-05 -64.33678339
-71.28353936 -2.460840051e-05 -235.5459034
52.00026364 31.43050839 -172.4699484
52.00026364 16.16812239 -171.3713964
48.00026364 49.58960339 -196.2091454
52.00026364 30.73738439 -125.2489074
-21.99458536 9.325662392 -9.738824838e-05
-47.99973636 98.47188639 -19.43042939
48.00026364 11.30190739 -20.14529139
-51.99973636 23.10011639 -178.9952704
55.49841264 -2.460840051e-05 -145.3576204
48.00026364 51.00778139 -10.77662439
36.06923364 78.31544239 -9.738824838e-05
-53.20688536 -2.460840051e-05 -38.20846339
-69.54275636 -2.460840051e-05 -205.8401464
19.05550464 -2.460840051e-05 -86.56916339
-56.52610236 38.76892139 -9.738824838e-05
-15.32747936 -2.460840051e-05 -100.4294004
10.77485164 -2.460840051e-05 -41.00407039
52.00026364 89.11739239 -50.83072439
51.67969264 -0.7894246084 -210.0000974
-34.99751236 -2.460840051e-05 -76.28532639
52.00026364 77.14438639 -1.620033388
48.00026364 52.84687139 -107.5793874
-35.14239736 105.1735444 -9.738824838e-05
48.00026364 39.71000439 -237.9917414
42.15617664 -2.460840051e-05 -110.0513574
-47.99973636 60.84528039 -147.6984774
-51.99973636 35.52107739 -130.5968874
-51.99973636 10.37006739 -230.4329144
-47.99973636 46.78266939 -96.15771139
52.00026364 52.49372039 -63.89744139
-66.06250136 60.78095139 -9.738824838e-05
52.00026364 16.66958839 -59.95277239
52.00026364 35.37485739 -190.0975304
63.37331864 52.32173939 -9.738824838e-05
69.32214364 -2.460840051e-05 -120.2971504
48.00026364 61.30992239 -188.4640554
-47.99973636 11.27149939 -65.89691239
-48.22852036 89.13555639 -97.36765539
-49.99975136 -2.460840051e-05 -160.2911534
-47.99973636 54.63420839 -67.30794339
22.65564564 15.07701539 -9.738824838e-05
-51.99973636 73.76132539 -90.00862639
-51.99973636 11.73026139 -30.84925439
52.00026364 74.49314639 -28.10579539
39.11195764 -2.460840051e-05 -48.07264539
-55.52468636 -2.460840051e-05 -174.0603234
48.00026364 10.95987239 -236.8452664
48.00026364 56.47269939 -169.0907334
52.00026364 49.90246439 -135.6827524
-49.13773136 -2.460840051e-05 -110.2345504
48.00026364 111.9872614 -30.58087039
-51.99973636 31.52821839 -83.84113439
-51.99973636 13.62439239 -141.5767404
62.41459164 31.42442039 -9.738824838e-05
-51.99973636 41.56316839 -66.74474139
-47.99973636 69.07043739 -114.7059014
57.84659664 10.91496039 -9.738824838e-05
-51.99973636 51.07960339 -209.2868534
-13.63639136 -2.460840051e-05 -252.3095464
-31.09790336 -2.460840051e-05 -211.6380264
-16.33141736 57.74891439 -9.738824838e-05
-47.99973636 25.37485739 -225.3812354
-33.31546836 -2.460840051e-05 -126.1559424
-47.99973636 55.49734239 -43.97677439
48.45569064 60.19906239 -215.8822824
-70.52947936 127.8196174 -9.738824838e-05
53.32932164 -2.460840051e-05 -69.86029439
-27.11093136 -2.460840051e-05 -144.3013524
4.795623641 -2.460840051e-05 -157.8891044
-49.00492936 -2.460840051e-05 -83.53905939
-51.99973636 51.49307639 -28.72537939
-15.37426736 -2.460840051e-05 -14.36087639
52.00026364 0.1117253916 -182.2673974
-29.23001636 74.41663239 -9.738824838e-05
48.00026364 11.51111539 -87.41485739
3.246345641 -2.460840051e-05 -10.70003639
-4.232956359 -2.460840051e-05 -93.45224539
28.27027864 -2.460840051e-05 -163.7268174
-47.99973636 7.844495392 -186.6744284
-47.99973636 30.84412939 -27.69468539
19.98533264 36.70398839 -9.738824838e-05
-3.179732359 6.768456392 -9.738824838e-05
-35.40046636 18.86161939 -9.738824838e-05
-22.91603836 -2.460840051e-05 -223.7067174
-31.39653836 -2.460840051e-05 -185.5971924
42.40427664 -2.460840051e-05 -23.55046939
-0.8727423589 -2.460840051e-05 -33.26618039
-61.57784736 110.9925754 -9.738824838e-05
52.00026364 73.74790239 -91.96810039
-47.99973636 78.51845439 -32.26791239
-47.99973636 86.80301939 -9.327977388
52.00026364 30.79804439 -43.74786539
-28.86366736 -2.460840051e-05 -173.0292274
-47.99973636 51.97891339 -236.0611274
54.27947964 -2.460840051e-05 -125.5608054
-60.31514136 -2.460840051e-05 -68.44656539
39.29270064 -2.460840051e-05 -207.3822854
-47.99973636 78.20492339 -53.31911939
52.00026364 89.76753239 -18.17747339
-51.03979636 100.7934064 -1.500097388
59.44362064 -2.460840051e-05 -251.6540824
-51.99973636 -1.559703608 -226.9400624
20.45410264 61.02859239 -9.738824838e-05
26.33406664 -2.460840051e-05 -96.61503239
55.48973464 -2.460840051e-05 -167.6735304
55.10508964 -2.440906608 -9.738824838e-05
-72.30273136 -2.460840051e-05 -26.17440639
58.62402064 -2.460840051e-05 -96.56470239
-37.08765536 50.94527039 -9.738824838e-05
39.68220364 2.570552392 -9.738824838e-05
72.74037364 -2.460840051e-05 -228.9097614
48.00026364 21.43740539 -147.1707494
-51.99973636 36.16344939 -196.4873424
69.51148664 -2.460840051e-05 -108.1780184
-51.99973636 53.70454539 -105.9343084
48.00026364 27.65781539 -14.99951039
48.00026364 53.31205839 -250.4067064
-51.99973636 27.66230839 -207.0337214
52.00026364 47.86754039 -207.4118904
-51.99973636 32.85633139 -9.413471388
-49.64120836 118.7831204 -1.500097388
-47.99973636 65.48589139 -22.99881039
-2.527358359 -2.460840051e-05 -185.4816114
26.18611364 49.50391939 -9.738824838e-05
-47.99973636 93.24915739 -30.20367939
-4.760354359 30.24056839 -9.738824838e-05
71.50831964 88.37488939 1.132037612
52.00026364 36.04283039 -76.45304239
48.00026364 75.40572739 -53.50492739
-51.99973636 90.91256039 -56.76024239
69.07648164 -2.460840051e-05 -146.2700374
22.63183664 91.29260539 2.279897612
-47.99973636 11.07522239 -121.4130964
-49.96425636 13.80299339 -9.738824838e-05
52.00026364 44.90348439 -167.6908544
-58.63773536 -2.460840051e-05 -119.1127024
48.00026364 60.31110239 -157.7481324
-47.99973636 77.47725439 -77.54792439
48.00026364 117.7196634 -6.568787388
52.00026364 62.12314939 -13.48420339
24.96319764 -2.460840051e-05 -250.8632664
52.00026364 49.29241339 -27.15504039
-47.99973636 9.455272392 -207.8139384
-1.326857359 -2.460840051e-05 -218.5855494
21.08885464 -2.460840051e-05 -219.6032494
10.10005464 -2.460840051e-05 -71.75387539
-37.79499936 -2.460840051e-05 -62.51762239
48.00026364 97.13954939 -72.34387839
52.00026364 43.33832339 -45.16667139
-47.99973636 11.92933839 -174.8951974
-51.99973636 57.39511639 -188.1556044
49.95317564 -2.460840051e-05 -44.21789039
59.99999464 -2.460840051e-05 -190.5336214
-47.99973636 24.66788239 -105.8603614
65.64183164 -2.460840051e-05 -173.4666354
-29.67984336 -2.460840051e-05 -237.1828644
-15.70468136 34.68795939 -9.738824838e-05
48.00026364 58.87943739 -75.85014539
-10.32764236 -2.460840051e-05 -227.8116934
52.00026364 29.96188839 -250.7279284
-55.81085936 -2.460840051e-05 -149.0958244
-52.43998936 -0.6616706084 -58.78045839
52.00026364 103.6060844 -23.26159739
52.00026364 23.15448339 -210.9605104
19.52455864 -2.460840051e-05 -19.63747339
-25.27914736 -2.460840051e-05 -7.790474388
-47.99973636 1.841409392 -250.4894804
48.00026364 4.599646392 -133.7142064
48.00026364 15.59947539 -33.29224839
48.00026364 41.09992539 -85.83071139
-51.99973636 71.62113139 -103.3763144
27.38090164 -2.460840051e-05 -238.5399954
48.00026364 57.56558039 -117.8096564
52.00026364 23.30069239 -79.79730139
-47.99973636 50.52929539 -127.2227254
52.00026364 73.14857039 -149.2399014
48.00026364 39.92479439 -65.65810639
-51.99973636 21.90628739 -56.75356939
-54.29609336 62.07530839 -9.738824838e-05
-47.99973636 44.16583639 -171.3536974
-51.99973636 5.024117392 -134.5312174
-47.99973636 93.49924239 -73.70495539
-47.99973636 28.48557339 -170.1840104
48.00026364 6.804368392 -118.4186314
25.49673164 74.30204839 -9.738824838e-05
52.00026364 26.45968639 -54.82762339
-47.99973636 114.4227354 -20.95622839
52.00026364 39.78860739 -149.8575304
-11.49334136 -2.460840051e-05 -57.59256139
12.12506164 11.87901039 -9.738824838e-05
8.954346641 -2.460840051e-05 -60.80951939
5.557191641 -2.460840051e-05 -241.5486634
58.00948464 -2.460840051e-05 -229.0361564
13.54390064 -2.460840051e-05 -178.9893074
-61.89563336 -2.460840051e-05 -241.1044044
52.00026364 53.58707439 -85.65017539
-51.99973636 57.82327739 -85.98498139
-23.10693636 -2.460840051e-05 -122.4518304
-38.74125436 -2.460840051e-05 -135.5147734
52.00026364 23.92340339 -194.4075614
37.16523064 -2.460840051e-05 -183.2933244
45.32092364 -2.460840051e-05 -237.2419114
48.00026364 49.90390639 -54.25301339
48.00026364 66.60238939 -40.88798239
-40.84802536 -2.460840051e-05 -8.999073388
-47.99973636 15.14587439 -151.4150444
48.57495164 32.68766139 -9.738824838e-05
51.27417264 58.02798639 -228.4100904
-51.99973636 23.09676539 -250.7939054
24.26208564 -2.460840051e-05 -147.2608154
-4.049201359 -2.460840051e-05 -20.43524839
-51.99973636 38.15415639 -45.58062639
48.00026364 9.278770392 -188.0749304
52.00026364 69.31363539 -120.6046694
-51.99973636 62.49129039 -169.2512124
-47.99973636 29.36110439 -139.4118254
48.00026364 9.484533392 -145.8359924
34.41486764 -2.460840051e-05 -152.9380634
-51.99973636 73.18557539 -66.53689339
-62.32627336 100.4558444 -9.738824838e-05
-47.99973636 96.01125439 -41.06721539
-51.99973636 53.46895439 -16.45370739
29.33931064 105.6768324 0.2011336118
-51.99973636 27.04318239 -117.1263584
-2.268867359 -2.460840051e-05 -206.9949434
-51.99973636 10.49783739 -92.18209539
48.00026364 14.56601039 -127.9651584
63.69792664 -2.460840051e-05 -32.07553039
-47.99973636 12.16655739 -197.6071734
-51.99973636 43.53032539 -240.7320754
52.00026364 39.29230539 -110.1195994
48.00026364 80.09284339 -75.45915339
42.86737264 46.31886539 -9.738824838e-05
-51.99973636 9.575308392 -42.10275039
-51.99973636 35.70453439 -220.5643764
-63.97567236 2.650200392 -9.738824838e-05
-51.99973636 64.67419039 -46.50361339
52.00026364 82.67898239 -109.6833254
-22.12972836 -2.460840051e-05 -108.1799694
6.116757641 56.71109639 -9.738824838e-05
36.18905664 12.25124039 -9.738824838e-05
-47.15407536 28.24869639 -9.738824838e-05
52.00026364 23.31993239 -228.8901364
-51.99973636 42.97926639 -151.2876094
-47.99973636 56.22681239 -55.09560439
52.00026364 73.09513339 -102.1879794
65.41019264 -2.460840051e-05 -236.0987304
34.88807664 -2.460840051e-05 -87.78996939
48.00026364 66.17952739 -135.5650114
-47.99973636 119.3827464 -11.79585139
-51.99973636 73.33086439 -151.5923934
-47.99973636 43.24980539 -105.6897104
40.36991764 -2.460840051e-05 -38.00333439
18.43182064 -2.460840051e-05 -30.68529639
48.00026364 18.23732439 -107.6668784
29.18860264 -2.460840051e-05 -107.6253854
48.00026364 26.29518839 -133.3611614
-51.99973636 45.85670839 -7.625391388
-51.99973636 10.08275339 -240.4956284
19.18595164 -2.460840051e-05 -123.9699014
-54.26595336 -2.460840051e-05 -186.1272004
-47.99973636 9.918434392 -21.81129239
-51.99973636 23.67379639 -158.3022064
-47.99973636 20.84876539 -28.40361339
-47.99973636 45.20789839 -221.4321334
52.00026364 23.39118939 -100.0728224
-20.51272936 -2.460840051e-05 -153.4643664
-51.99973636 75.67523839 -9.514664388
-45.32543736 -2.460840051e-05 -209.6056264
-47.99973636 5.814252392 -221.5351524
48.00026364 82.63675739 -32.22068839
48.00026364 36.07844739 -215.9287814
42.22832464 100.3338054 -9.738824838e-05
45.01162564 -2.460840051e-05 -250.7867404
4.490423641 20.73826639 -9.738824838e-05
-51.99973636 31.52751439 -231.9568224
-47.99973636 29.33301639 -188.1894064
48.00026364 27.58645839 -116.8184574
-18.02842036 -2.460840051e-05 -186.7144484
-71.03611036 -2.460840051e-05 -101.9303384
-47.99973636 74.71219339 -19.63249639
48.00026364 35.53129139 -164.4984024
52.00026364 60.23702839 -102.5377354
52.00026364 10.03664239 -51.16190239
48.00026364 34.16224839 -96.42773739
52.00026364 94.08520239 -42.41784939
48.00026364 33.42963139 -181.4382174
-51.99973636 65.42224839 -125.6745694
-51.99973636 70.01414339 -134.3305654
-47.99973636 23.17351439 -81.09254939
13.83383264 -2.460840051e-05 -169.3386684
70.72875464 111.5553184 -9.738824838e-05
59.75314164 116.4192494 -9.738824838e-05
40.92140664 90.01451239 -9.738824838e-05
48.00026364 54.17733539 -147.2363564
48.00026364 4.727102392 -101.0554124
48.00026364 40.93746839 -132.0791824
30.59315964 -2.460840051e-05 -25.80785639
-51.99973636 18.49306139 -73.16486039
60.73056964 85.18308839 -9.738824838e-05
-47.99973636 36.71567939 -90.82499439
60.30615564 97.98992739 -9.738824838e-05
19.39449264 -2.460840051e-05 -5.723695388
34.91020364 54.13083439 -9.738824838e-05
-46.69017536 4.709846392 -9.738824838e-05
52.00026364 70.98323739 -9.947040388
-47.99973636 51.32911139 -148.0867144
-10.17508536 -2.460840051e-05 -78.03446439
69.09707664 -2.460840051e-05 -208.8069514
-44.21096736 -2.460840051e-05 -35.20075139
-51.99973636 63.37700039 -108.0619994
72.59583364 54.00277639 1.358340612
-36.17921436 -2.460840051e-05 -28.00963139
-47.99973636 4.009051392 -168.6091894
-2.102438359 -2.460840051e-05 -233.2765744
48.00026364 83.04803139 -87.61590239
-49.05410536 109.3711604 -38.42861039
52.00026364 8.164031392 -214.6069524
-59.48023336 123.6581504 -9.738824838e-05
44.41830064 56.73494239 -9.738824838e-05
52.00026364 46.91609139 -233.6091924
-47.99973636 35.52452439 -76.41567639
72.61812364 -2.460840051e-05 -7.666398388
52.00026364 110.0986294 -10.10731439
48.00026364 24.92363139 -202.7486444
-67.85797036 -2.460840051e-05 -120.2963404
52.00026364 73.71115039 -67.70579839
-6.978367359 -2.460840051e-05 -41.41346539
-4.535518359 -2.460840051e-05 -166.6832244
-58.15030836 -2.460840051e-05 -108.2771524
42.64333264 -2.460840051e-05 -162.8167894
-47.99973636 0.4482073916 -45.77911239
-49.99489236 15.74437339 -8.989114388
19.39049764 -2.460840051e-05 -62.34595339
5.476517641 -2.460840051e-05 -96.71566039
-57.85972036 80.39046639 -9.738824838e-05
52.00026364 8.849593392 -179.4571114
-65.29328036 21.53410539 -9.738824838e-05
48.00026364 4.162266392 -63.66980639
-15.80808736 -2.460840051e-05 -206.7945594
-60.16946236 -2.460840051e-05 -44.13369739
-51.99973636 78.91524339 -97.86514139
48.00026364 53.19707439 -179.4678804
-47.99973636 42.10238639 -123.2576154
-32.84356636 82.78519739 -9.738824838e-05
45.17939864 -2.460840051e-05 -73.93942839
42.54321764 23.85155739 -9.738824838e-05
52.00026364 22.57282539 -37.51071939
-47.99973636 16.76099839 -50.43460739
-47.99973636 48.82433239 -113.0261274
-58.08848136 -2.460840051e-05 -82.28019639
-60.25382736 -2.460840051e-05 -141.2055644
-47.99973636 32.82903339 -17.53220839
52.00026364 16.95991539 -14.33752939
-3.128896359 -2.460840051e-05 -137.8852634
52.00026364 94.83445439 -60.65068639
52.00026364 32.87471439 -26.20193439
48.00026364 48.45136039 -187.2719544
-36.14160936 -2.460840051e-05 -146.2433424
-62.55194836 -2.460840051e-05 -226.2923074
51.35684964 -2.460840051e-05 -22.67293039
52.00026364 58.73948639 -54.73509039
48.00026364 14.58604639 -163.1231674
48.00026364 23.27316339 -167.6339534
-47.99973636 7.841234392 -99.95059439
12.14211364 -2.460840051e-05 -219.1666624
-47.99973636 109.9783954 -1.543182388
-36.83131536 -2.460840051e-05 -161.2014134
-51.99973636 96.80003839 -50.01432639
48.00026364 32.10418039 -146.3036254
-47.99973636 33.35042639 -148.2025394
-50.75745736 1.634753392 -18.83900439
48.00026364 46.55102439 -19.20603939
-51.99973636 87.46451639 -35.72429639
-40.97122036 -2.460840051e-05 -18.03029039
57.17774464 -2.460840051e-05 -158.9301484
-47.99973636 31.97076339 -37.57695039
-63.71725036 -2.460840051e-05 -28.48209639
52.00026364 18.20574639 -155.9470344
-47.99973636 12.68666739 -132.5550374
52.00026364 23.81799439 -178.6898094
-51.99973636 7.109083392 -72.62317839
48.00026364 20.18854239 -89.52879239
-51.99973636 85.60072539 -73.37871239
-21.01280636 -2.460840051e-05 -28.84964739
37.53276064 -2.460840051e-05 -233.0428874
-47.99973636 28.89625339 -125.6930884
-51.99973636 99.10490339 -11.58844939
-14.24518936 -2.460840051e-05 -142.2917364
17.89514864 69.84105839 -9.738824838e-05
-51.99973636 35.11765639 -174.3827124
-67.98073936 83.22805939 -9.738824838e-05
-47.99973636 52.78315139 -139.4244294
-6.684524359 64.16839339 -9.738824838e-05
62.17607464 124.8504484 -9.738824838e-05
-47.99973636 26.81982939 -90.55342839
-29.17702336 -0.9003986084 -9.738824838e-05
9.445437641 -2.460840051e-05 -150.4919044
48.00026364 42.86584139 -6.609888388
-29.07610536 -0.3053206084 -82.69248039
35.55111564 -2.460840051e-05 -8.444375388
-40.78879636 -2.460840051e-05 -86.43710539
61.19087464 62.44418539 -9.738824838e-05
-25.07780136 -2.460840051e-05 -97.18873739
-65.20915636 38.18282339 -9.738824838e-05
-51.99973636 51.52792539 -74.37730439
52.00026364 6.128499392 -92.94899139
38.95715964 123.0440234 -9.738824838e-05
-47.99973636 61.49051339 -159.6529934
-12.49408836 48.43363439 -9.738824838e-05
32.14235064 -2.460840051e-05 -143.4366914
28.34257164 -2.460840051e-05 -128.2066184
-47.99973636 18.39793839 -230.5230354
-48.49999736 68.43093739 -1.500097388
19.45149264 -2.460840051e-05 -70.98172839
-13.40730736 10.18089239 -9.738824838e-05
48.00026364 1.932909392 -154.4989374
-63.48965936 -2.460840051e-05 -212.7522324
-47.99973636 45.71676639 -44.73554739
-64.02100836 -2.460840051e-05 -8.178145388
-40.03575036 -2.460840051e-05 -196.0666884
-51.99973636 76.84031839 -39.67094939
-49.14938036 65.07691739 -190.6750374
-3.884450359 -2.460840051e-05 -5.151281388
48.00026364 23.82379939 -218.4666554
-41.00690336 -2.460840051e-05 -244.1421464
52.00026364 40.37571439 -228.1435874
43.32036664 73.83599739 -9.738824838e-05
48.00026364 52.30864839 -95.78888339
59.88042264 -2.460840051e-05 -6.612448388
52.00026364 7.335456392 -223.0699084
26.92809464 31.79913639 -9.738824838e-05
48.00026364 104.7819134 -35.07024639
-51.99973636 8.112912392 -153.9231434
48.00026364 41.40083039 -26.17828439
-60.55948336 -2.460840051e-05 -93.73160939
-48.06390036 92.41637639 -1.500097388
52.00026364 7.612064392 -197.2447044
72.52601664 73.82144239 -9.738824838e-05
-47.99973636 72.07423339 -45.37339839
-44.98601136 -2.460840051e-05 -54.87753539
48.00026364 87.87427039 -11.00206939
48.00026364 57.81637939 -134.7148814
-51.99973636 46.20640139 -186.9989964
1.841613641 -2.460840051e-05 -70.24800739
-51.99973636 15.68490239 -182.8944284
-37.51290936 31.11115539 -9.738824838e-05
64.60303764 -2.460840051e-05 -65.18560939
20.50073664 -2.460840051e-05 -105.4851004
-15.98638336 21.72413939 -9.738824838e-05
52.00026364 35.92445139 -10.24642539
-47.99973636 40.10073639 -2.835923388
52.00026364 63.51334239 -82.33841939
46.22748864 7.698909392 -9.738824838e-05
34.88064664 -2.460840051e-05 -168.7360354
48.00026364 61.07494439 -175.9971524
48.00026364 14.10892639 -210.4504364
11.63660764 -2.460840051e-05 -17.11038639
-71.10798436 -2.460840051e-05 -189.6559894
52.00026364 8.724816392 -111.4358984
-51.99973636 31.38499939 -241.3430504
6.896698641 -2.460840051e-05 -88.58617139
-47.99973636 17.58627939 -246.1464244
-47.99973636 32.17530039 -109.2629254
52.00026364 63.23483339 -164.3313584
52.00026364 96.83947139 -5.999341388
-47.99973636 60.52600539 -211.2043794
-51.99973636 43.82867239 -159.4722334
49.89750564 79.67205439 -129.7229904
16.65131464 -2.460840051e-05 -50.18123339
-32.99017436 -2.460840051e-05 -104.6327514
52.00026364 89.06839839 -35.34144739
-68.62792836 -2.460840051e-05 -78.65616739
52.00026364 4.245340392 -251.2748124
-42.33349436 57.80730039 -9.738824838e-05
48.00026364 32.62509239 -33.97130839
52.00026364 39.81061439 -208.7869004
17.64947064 -2.460840051e-05 -186.0382334
-51.99973636 33.42546839 -61.46828339
28.72271264 -2.460840051e-05 -82.45624739
34.43369664 -2.460840051e-05 -120.5327134
58.09420064 23.53426039 -9.738824838e-05
52.00026364 10.37739139 -80.41169939
-2.387107359 -2.460840051e-05 -243.3030204
12.52863464 63.73946339 -9.738824838e-05
48.00026364 100.6588344 -45.01743839
52.00026364 68.07287539 -47.79197139
-51.99973636 66.52027939 -84.60114339
-59.68371836 15.12135239 -9.738824838e-05
52.00026364 86.43757839 -94.11276339
-54.30241336 -2.460840051e-05 -204.1297454
-51.99973636 19.11975239 -167.5720404
-57.81753636 -2.460840051e-05 -52.80761639
-47.99973636 59.21577939 -31.96185739
52.00026364 20.43282039 -67.07143239
-52.38294536 -2.460840051e-05 -29.73251439
-37.64562336 -2.460840051e-05 -118.9043694
48.00026364 82.69434239 -22.09181839
53.14790464 121.0097224 -9.738824838e-05
-43.64227136 -2.460840051e-05 -153.3036204
48.00026364 69.90626039 -16.82058239
-63.20292836 53.28337539 -9.738824838e-05
-51.99973636 17.74688939 -102.5519564
-51.99973636 5.695611392 -178.4669624
52.00026364 10.59032739 -42.85743739
52.00026364 95.24701339 -25.59140939
52.00026364 22.52241939 -140.3177544
-20.19252436 -2.460840051e-05 -163.8882644
-51.99973636 72.10479539 -26.03329239
64.16682264 -2.460840051e-05 -90.82706039
-47.99973636 36.30963739 -203.3863684
-41.23639336 83.75899739 -9.738824838e-05
52.00026364 49.79215639 -244.4823214
40.58365864 -2.460840051e-05 -195.6674294
48.00026364 43.48779739 -103.5223054
52.00026364 66.08030339 -97.03900739
52.00026364 62.69875539 -34.46269439
61.69612164 -2.460840051e-05 -122.6849504
25.52841564 -2.460840051e-05 -200.6917064
-47.99973636 69.30327139 -170.0216084
-47.99973636 79.36073039 -116.7520404
-47.99973636 7.997293392 -85.49497939
32.41827164 -2.460840051e-05 -212.8788034
-47.99973636 55.02610239 -200.8231534
48.00026364 79.38914039 -60.35284039
52.00026364 48.32079339 -143.4443204
13.73844964 41.57103539 -9.738824838e-05
30.60966264 -2.460840051e-05 -42.55054439
-51.99973636 57.50401439 -23.22684839
31.28720864 -2.460840051e-05 -62.17651539
48.00026364 4.639464392 -231.4687564
-40.02983936 -2.460840051e-05 -100.8799454
48.00026364 23.83612039 -247.8456994
-17.56595136 -2.460840051e-05 -71.01930039
-47.99973636 57.40345039 -8.194752388
48.00026364 46.99253339 -39.41618939
-51.99973636 25.10393939 -133.3141334
51.88114464 -2.460840051e-05 -117.9982404
-24.23609436 35.49708339 -9.738824838e-05
52.00026364 70.91502639 -130.7684564
-51.99973636 99.94732139 -30.95141639
-51.99973636 48.19302939 -87.01354839
-51.71326236 86.91459239 -104.5214414
1.176186641 -2.460840051e-05 -199.9693884
52.00026364 16.15212439 -232.5997524
56.05889064 -2.460840051e-05 -198.0895684
-47.49875936 -0.7845616084 -217.0608504
-44.29362236 -2.460840051e-05 -185.4515694
-51.99973636 13.28880439 -59.51155539
52.00026364 48.85716739 -112.9565914
-36.33698236 -2.460840051e-05 -230.1822174
-5.591627359 -2.460840051e-05 -177.0690584
48.00026364 71.00442139 -34.45032739
5.294895641 28.49093839 -9.738824838e-05
-65.68514336 -2.460840051e-05 -62.82047939
63.62885064 -2.460840051e-05 -81.19152739
-47.99973636 27.63421839 -48.13256739
52.00026364 36.75612539 -102.5463044
48.00026364 74.50291039 -111.9399854
-20.18485236 -2.460840051e-05 -51.45649439
52.00026364 6.298735392 -164.8602054
-51.99973636 81.80133139 -90.38002839
-56.22284836 48.06701839 -9.738824838e-05
-51.99973636 46.43329739 -203.1303194
48.00026364 31.69940839 -244.3910564
-18.85671336 -2.460840051e-05 -59.79947039
-47.99973636 108.4659344 -16.11022739
-47.99973636 38.39725239 -29.00785439
-54.75657236 -2.460840051e-05 -12.50587639
-51.99973636 64.11508339 -64.72480139
48.00026364 5.235178392 -207.0267044
52.00026364 38.86939039 -246.0908764
48.00026364 98.01794239 -19.34731539
72.25651664 -2.460840051e-05 -191.4160314
-24.19099536 20.44034039 -9.738824838e-05
48.00026364 7.866595392 -243.8381864
48.00026364 28.51006239 -234.3303864
-47.99973636 4.052176392 -116.6081884
-7.433495359 -2.460840051e-05 -100.3868654
-52.61730836 -2.460840051e-05 -141.2909594
-51.99973636 68.39799639 -141.7895534
48.00026364 55.71933039 -21.92087639
23.82622964 6.498001392 -9.738824838e-05
-8.651553359 -2.460840051e-05 -33.84043639
3.124878641 -2.460840051e-05 -127.8529344
72.33603264 -2.460840051e-05 -239.2191414
60.17350264 -2.460840051e-05 -49.22715639
-51.99973636 56.68312239 -231.6507984
-12.13874636 -2.460840051e-05 -86.53742639
-47.99973636 47.62966139 -245.6856314
-47.99973636 6.604651392 -143.1024964
52.00026364 79.32076339 -9.091295388
48.00026364 42.53083639 -202.9712794
48.00026364 17.48144539 -25.98416939
48.00026364 36.84322239 -41.65116639
-51.99973636 25.98081639 -99.60330339
-35.76557336 -2.460840051e-05 -39.41909139
-47.99973636 51.01078939 -168.2114474
-51.99973636 21.86111939 -64.93483439
52.00026364 23.37532139 -111.4310104
52.00026364 29.75205539 -215.2264724
33.87614064 -2.460840051e-05 -53.45960339
39.50318764 -2.460840051e-05 -137.0515934
-51.99973636 52.65747039 -93.79527739
48.00026364 56.99941839 -195.1277714
48.00026364 34.26228039 -60.77207239
48.00026364 69.99717339 -166.9163424
-51.99973636 48.38537639 -39.01297039
27.19354564 -2.460840051e-05 -154.8553014
48.00026364 82.82475339 -52.67410539
8.144412641 -2.460840051e-05 -105.0270154
-51.99973636 37.70230039 -143.5524444
64.03881764 71.58119839 -9.738824838e-05
-51.99973636 62.46783639 -115.4619284
48.00026364 87.13556539 -73.03525739
23.40320564 -2.460840051e-05 -231.6132184
48.00026364 70.61037539 -85.53602139
36.83006464 -2.460840051e-05 -99.51890639
0.6978896411 73.55656939 0.9888416118
-35.18874636 -2.460840051e-05 -169.1287094
-51.99973636 60.72529739 -181.5141694
65.54140264 40.41386439 -9.738824838e-05
65.74948964 92.89854939 -9.738824838e-05
-51.99973636 35.80958539 -23.33932739
-25.15771336 -2.460840051e-05 -189.5819704
-47.99973636 39.41539439 -135.8903374
48.00026364 1.868065392 -54.35900839
-32.76256836 -2.460840051e-05 -154.5649214
-0.3292063589 -2.460840051e-05 -121.3141264
48.00026364 47.21923839 -89.97958339
-34.00975836 -2.460840051e-05 -6.210914388
-47.99973636 15.68110139 -223.6598714
52.00026364 39.43399339 -121.8489734
-47.99973636 16.72937639 -206.5803364
-71.69523736 -2.460840051e-05 -126.5883254
52.00026364 58.26376239 -151.9100504
52.00026364 60.37703539 -64.71062039
48.00026364 41.80710239 -160.4974714
-22.85617636 -2.460840051e-05 -216.3684704
52.00026364 50.30061739 -128.3792874
-51.99973636 45.09938739 -130.0320894
69.66499264 -2.460840051e-05 -51.97977539
-51.99973636 5.243280392 -126.2634334
52.00026364 68.74570439 -23.60027939
34.94178564 -2.460840051e-05 -73.72897139
-47.99973636 22.63085339 -215.0822304
-47.99973636 42.29880339 -73.71300239
72.40110164 -2.460840051e-05 -176.1982754
46.75693564 -2.460840051e-05 -85.91750239
-47.99973636 22.64991139 -10.16100039
48.00026364 68.68834039 -71.12600639
-47.99973636 92.38683139 -85.07917739
24.64469664 -2.460840051e-05 -188.0170984
-51.91604336 56.05444039 -240.6310834
-66.72627336 -2.460840051e-05 -15.37168339
52.00026364 2.149936392 -77.72797939
-36.98343936 112.1877524 -9.738824838e-05
-65.44537236 93.61780139 -9.738824838e-05
52.00026364 8.149259392 -171.8636954
48.00026364 88.09140539 -43.11780439
-51.99973636 43.73882839 -24.89898339
-47.99973636 60.09571139 -122.9446304
52.00026364 29.45432739 -186.0036204
49.18613964 103.5898384 -1.500097388
53.32521964 70.26490939 -9.738824838e-05
52.00026364 76.18251239 -21.11751839
-47.99973636 15.24564939 -40.23883239
-51.99973636 51.83616239 -223.9241314
48.70472764 -2.460840051e-05 -143.0632274
54.22838364 -2.460840051e-05 -12.90336639
-51.99973636 55.80482739 -38.04376439
-47.99973636 39.37061539 -165.4810044
48.00026364 73.89600239 -125.6350214
52.00026364 28.99916139 -75.18778339
-47.99973636 52.48204639 -82.91340039
68.59987364 47.44791739 0.1927516118
-20.86573836 -2.460840051e-05 -21.70930039
48.00026364 53.16761739 -222.3382924
48.00026364 32.41719539 -85.87944539
-51.99973636 45.86061639 -179.8759084
-51.99973636 11.25057439 -191.4961294
39.61114464 108.2317764 -9.738824838e-05
-51.99973636 23.16748339 -44.07283339
-51.99973636 21.71464639 -142.3259274
19.69795264 45.41833339 -9.738824838e-05
48.00026364 8.256291392 -35.67875039
13.57138964 -2.460840051e-05 -109.6056724
52.00026364 8.170412392 -59.43472639
-51.99973636 75.03361639 -82.83917539
2.079054641 -2.460840051e-05 -23.95696439
-51.99973636 69.81344539 -16.48020339
-47.99973636 38.96425539 -56.05529139
-52.88362036 -2.460840051e-05 -193.0378674
-12.44721836 27.81542839 -9.738824838e-05
-63.67063336 67.40361839 -9.738824838e-05
18.47809964 20.74048039 -9.738824838e-05
-47.99973636 67.87391439 -149.6777584
60.93949764 2.142473392 -9.738824838e-05
-21.55401336 80.31598239 -9.738824838e-05
49.96386164 -2.105645608 -231.4900804
44.35757264 -2.460840051e-05 -30.29656239
-27.76587536 -2.460840051e-05 -26.92459739
48.00026364 95.41347239 -54.91409239
-47.99973636 34.12514139 -155.1630634
-71.89032536 -2.460840051e-05 -150.6072024
17.27503764 -2.460840051e-05 -147.5406354
48.00026364 67.30720639 -56.59926239
52.00026364 39.44332339 -184.0456374
-41.53857236 -2.460840051e-05 -48.37426439
-29.35734436 -2.460840051e-05 -204.0545054
-60.18906036 29.56548539 -9.738824838e-05
48.00026364 36.24909139 -195.7405974
28.40658364 56.63506639 -9.738824838e-05
-44.64268936 47.04149139 -9.738824838e-05
39.65758764 -2.460840051e-05 -14.06461839
52.00026364 93.36508839 -68.07814839
48.00026364 88.77600139 -28.95353839
48.00026364 21.14699739 -122.6509454
25.27963564 -2.460840051e-05 -67.20747139
-51.99973636 93.53452439 -64.87571239
48.00026364 31.34846239 -154.8507834
-48.01231836 83.66942439 -1.500097388
-47.99973636 81.90539739 -43.57463139
52.00026364 62.91554539 -115.9449284
-17.59920036 -2.460840051e-05 -242.7478954
1.819133641 1.968871392 -9.738824838e-05
-63.60083936 -2.460840051e-05 -177.6424524
48.00026364 16.90682039 -191.7644264
48.00026364 50.72724939 -33.59083939
52.73633164 83.83032039 -9.738824838e-05
35.46187364 -2.460840051e-05 -30.70398439
52.00026364 5.101606392 -237.0785644
-30.95641836 -2.460840051e-05 -57.99619839
48.00026364 6.408028392 -125.2945934
35.39601764 -2.460840051e-05 -111.3664324
60.02504464 108.9912434 -9.738824838e-05
-51.99973636 92.77084839 -8.892527388
48.00026364 89.96658739 -89.76316939
48.00026364 16.95621039 -179.0235394
-51.99973636 16.95432539 -240.2702974
-51.99973636 65.42459339 -92.85259839
48.00026364 106.7108104 -17.80477839
-56.97233836 -2.460840051e-05 -245.8855344
52.00026364 53.52178839 -211.2937324
49.12886864 66.41160339 -184.0408394
52.00026364 28.78872139 -207.0740934
58.68221064 -2.460840051e-05 -116.5222364
48.00026364 38.57904539 -49.98730739
52.50124064 -1.366123608 -63.21215839
-51.99973636 59.51423639 -197.5668824
-51.99973636 8.417551392 -202.3673344
-51.99973636 9.896759392 -214.8133234
52.01769064 4.070059392 -9.738824838e-05
-47.99973636 70.74611639 -76.41125239
56.54816064 52.21998839 -9.738824838e-05
58.75399964 -2.460840051e-05 -181.2909894
48.00026364 28.06416139 -8.191204388
-51.99973636 61.00267939 -52.24977239
6.281278641 -2.460840051e-05 -112.0993714
-47.99973636 88.77857039 -24.51589139
34.52430164 84.94809639 -9.738824838e-05
-47.99973636 41.95857639 -199.5925264
52.00026364 44.50084539 -62.60724839
52.00026364 14.97683839 -146.0124874
-47.99973636 26.49709239 -19.97151839
48.00026364 37.82290139 -222.9430434
52.00026364 52.59254539 -165.2296854
29.56103864 -2.460840051e-05 -244.9570744
48.00026364 35.11227639 -128.5296044
-47.99973636 74.17816039 -110.2627614
-47.99973636 30.70361239 -196.4149194
-47.99973636 105.0212474 -25.54767439
48.00026364 80.54855839 -114.9755904
-47.99973636 32.84617339 -66.89122739
21.76324864 -2.460840051e-05 -161.8881314
52.00026364 46.97783139 -84.22936739
-34.62848436 -1.924150608 -88.43403939
51.98451564 119.9568444 -11.60849939
33.41390864 70.33828039 -9.738824838e-05
-51.99973636 39.50426439 -187.8010304
43.21817964 -2.460840051e-05 -201.8751704
52.00026364 55.62559339 -4.032326388
52.00026364 87.69180539 -59.14303639
52.00026364 101.4199874 -39.32935539
30.91213564 -2.460840051e-05 -180.7808994
-16.66979036 -2.460840051e-05 -220.6527284
-47.99973636 29.89892539 -162.6338764
-47.99973636 38.75615639 -98.10044839
-47.99973636 4.825899392 -234.6944234
-51.99973636 43.40804739 -209.9355994
51.99154464 114.3351994 -25.73758939
44.09150664 -2.460840051e-05 -118.1444664
-47.99973636 48.29851239 -215.4893714
-25.18206836 -2.460840051e-05 -232.2263724
-47.99973636 79.70180839 -13.05145439
-51.99973636 36.93899339 -235.8821394
52.00026364 32.49783039 -133.8503534
-48.26801936 -2.460840051e-05 -174.8691444
52.50124064 -2.303766608 -219.8990794
-47.99973636 23.23605339 -112.3752464
-20.15322836 52.28362439 -9.738824838e-05
-51.99973636 70.61064139 -50.49645939
52.00026364 44.29913139 -195.6020734
53.97311464 -2.460840051e-05 -91.26406339
-2.923159359 -2.460840051e-05 -46.68605139
52.00026364 61.87142439 -71.46158439
52.00026364 81.58385239 -47.51030039
-40.44342736 -2.460840051e-05 -129.0987544
5.170016641 -2.460840051e-05 -217.2515834
70.25663964 -2.460840051e-05 -68.64343339
48.00026364 51.21571839 -230.5523154
-51.99973636 12.81085839 -169.6973054
52.00026364 13.46325939 -184.8705754
52.00026364 17.89210539 -76.01019239
-51.99973636 15.86067239 -201.3411504
-47.99973636 59.70243739 -16.05633239
-47.99973636 49.91658039 -154.5343664
52.00026364 18.33949139 -223.6421214
52.00026364 56.35943839 -203.4692934
-51.99973636 47.76245139 -122.7685714
-51.99973636 17.53113839 -189.4943274
48.00026364 59.62342339 -8.880055388
59.57118664 -2.460840051e-05 -71.97210739
52.00026364 22.17575539 -130.1319864
13.37048864 74.62485739 -9.738824838e-05
-33.80616836 37.69404639 -9.738824838e-05
-51.99973636 85.64893639 -52.81923139
62.49494864 -2.460840051e-05 -165.9296474
-28.81004736 -2.460840051e-05 -220.8157814
-47.99973636 44.00852139 -192.1265304
-51.99973636 21.92960239 -220.2312234
-51.99973636 5.377245392 -33.46003439
52.00026364 34.57757339 -237.2204584
-57.49343136 -2.460840051e-05 -230.4528484
48.00026364 26.57488839 -22.35251939
12.71681664 -2.460840051e-05 -34.74992439
60.61345464 17.48982839 -9.738824838e-05
-47.99973636 26.38375039 -32.53178339
-47.99973636 28.67786439 -77.56519339
49.15155364 -2.460840051e-05 -175.7549734
-47.99973636 68.13139339 -11.32048539
-20.16348536 -2.460840051e-05 -252.4084724
-30.00705336 101.1437744 -9.738824838e-05
25.37506364 97.17547439 1.602289612
48.00026364 45.38113039 -226.9660154
-47.99973636 56.45070639 -152.5048734
-47.99973636 63.31171839 -71.84092139
-49.54907636 79.18370339 -131.4529004
49.08400464 115.9447154 -9.738824838e-05
17.55482764 2.452386392 -9.738824838e-05
-10.49578036 -2.460840051e-05 -172.2306504
-47.99973636 57.72938839 -109.0832994
48.00026364 91.82946539 -5.006450388
52.00026364 67.28621439 -157.1774054
55.30689164 -2.460840051e-05 -152.7361124
-25.58986736 -2.460840051e-05 -129.4266504
-47.99973636 6.143271392 -160.5174604
-11.73534236 -2.460840051e-05 -92.98400339
-31.81605136 -2.460840051e-05 -12.28289839
-51.99973636 82.72290039 -60.22800139
57.12847864 -2.460840051e-05 -35.23460839
-65.23615536 -2.460840051e-05 -126.6705214
64.47822964 24.48023739 -9.738824838e-05
-5.652525359 -2.460840051e-05 -82.63633639
52.00026364 4.221089392 -187.9458134
-51.99973636 22.02329039 -235.3521514
-51.99973636 46.91430339 -233.4379674
52.00026364 12.83045639 -242.9017104
58.98073964 45.76044939 -9.738824838e-05
-47.99973636 22.90584539 -184.0403024
-10.08783736 -2.460840051e-05 -221.3118344
48.00026364 68.22049739 -141.6696884
-22.88174936 73.37650439 -9.738824838e-05
-17.58496636 -2.460840051e-05 -3.366848388
-47.99973636 49.09971039 -11.47727439
-51.99973636 24.74210639 -5.581596388
48.00026364 16.88363839 -245.9812814
-47.99973636 21.87140539 -137.1582994
-47.99973636 69.58193739 -70.03232839
-47.99973636 6.376051392 -57.03997039
-47.99973636 28.02842339 -249.8775834
-51.99973636 46.85156139 -137.9290944
-51.99973636 63.43864339 -27.56492439
52.00026364 56.84041439 -39.48051739
-71.70763936 -2.460840051e-05 -84.26771239
46.52183664 95.52649639 -9.738824838e-05
-70.21544836 -2.460840051e-05 -226.8908794
48.00026364 66.07125439 -9.079351388
20.50081464 54.63633239 -9.738824838e-05
-50.42933336 9.904523392 -15.90126239
-51.99973636 65.69049239 -6.087385388
52.00026364 30.59150239 -163.9526244
24.89291564 -2.460840051e-05 -171.6395144
-47.99973636 56.67580339 -193.4976154
49.86576164 -2.460840051e-05 -164.6792234
48.00026364 61.19959939 -206.8865564
52.00026364 9.736001392 -232.0421354
5.966348641 -2.460840051e-05 -120.3534084
-51.99973636 103.2739324 -18.20952739
-47.99973636 40.15416139 -9.203591388
52.00026364 51.74832939 -174.7314484
-7.938054359 -2.460840051e-05 -15.39828939
8.901259641 6.399017392 -9.738824838e-05
46.53384164 -2.460840051e-05 -3.630101388
12.68541364 -2.460840051e-05 -5.816809388
-57.39731836 106.2053984 -9.738824838e-05
-51.99973636 81.72850939 -121.0828774
34.53146864 -2.460840051e-05 -239.1034774
52.00026364 81.35396639 -80.22062839
-51.99973636 31.31035039 -32.58787539
-47.99973636 101.3976304 -7.017728388
-10.08788936 -2.460840051e-05 -106.1301154
-71.69075636 110.9029174 -9.738824838e-05
48.00026364 98.94361939 -63.30065439
-50.64848936 -2.460840051e-05 -130.5706304
-22.94899236 0.1070983916 -9.738824838e-05
-17.62979036 63.92095839 -9.738824838e-05
-47.99973636 68.52826139 -120.9864694
51.60064964 -2.460840051e-05 -131.2623074
-51.99973636 5.073652392 -227.0409874
20.42857964 -2.460840051e-05 -140.8418544
52.00026364 0.1264373916 -106.6478494
52.00026364 5.225067392 -39.58782739
48.00026364 31.76462339 -79.16320139
24.79676164 -2.460840051e-05 -194.2912044
-47.99973636 92.81201339 -47.28532339
48.45090864 21.56700839 -9.738824838e-05
36.77611364 -2.460840051e-05 -226.8224234
-47.99973636 48.79242239 -22.48408639
-51.99973636 50.13207839 -59.61202639
48.00026364 82.93565939 -38.45475239
-47.99973636 30.02102339 -95.90486039
-47.99973636 71.43812139 -129.7687474
48.00026364 9.205603392 -26.01406739
-51.99973636 14.62132839 -22.63657539
-55.54623536 112.5349344 -9.738824838e-05
48.00026364 52.78646039 -44.83940539
52.00026364 48.39484539 -1.819631388
-29.26546636 -2.460840051e-05 -73.88358539
52.00026364 20.39629539 -53.51230339
48.00026364 75.19669539 -5.937604388
48.00026364 41.54559839 -171.0301824
-71.48567636 21.67837539 -9.738824838e-05
48.00026364 22.47965139 -235.6995394
-47.99973636 59.81511039 -173.1241324
-51.99973636 20.22202139 -33.06793139
-11.07872736 54.49970139 -9.738824838e-05
56.50261464 33.19859639 -9.738824838e-05
-47.99973636 11.67729839 -104.8043954
-47.99973636 56.24155039 -183.5997344
-47.99973636 56.73072639 -99.21267439
-47.99973636 69.15966839 -99.37681539
52.00026364 34.02052639 -91.73435939
48.00026364 65.45888639 -89.61792839
51.59170264 88.32781839 -99.96940039
-47.99973636 40.55783439 -250.4935534
-34.10261736 -2.460840051e-05 -241.4661714
-47.99973636 73.35503139 -35.61633439
-51.99973636 24.21048839 -75.43200339
-47.99973636 69.19533739 -89.02173439
-3.594753359 -2.460840051e-05 -129.4856474
48.00026364 19.08419439 -98.28837239
-52.89119236 -2.460840051e-05 -78.78412039
48.00026364 43.08156039 -191.1183074
34.12908264 -2.460840051e-05 -67.60799639
-4.090384359 -2.460840051e-05 -71.79279039
-40.30921836 124.4412884 0.6575546118
-21.29186336 -2.460840051e-05 -102.0023174
-47.99973636 10.23851239 -78.14582239
-39.02050136 13.92717639 -9.738824838e-05
-51.99973636 6.682700392 -196.5027404
52.00026364 50.59570839 -73.11287939
-51.99973636 7.925023392 -112.1445354
-51.99973636 26.62398339 -245.1657124
-66.14652136 -2.460840051e-05 -70.23229239
52.00026364 14.00528039 -123.2185454
-47.99973636 100.7984674 -52.28241239
-47.99973636 104.7538544 -31.83240739
52.00026364 25.74485839 -145.4866024
-47.99973636 18.48739439 -172.1199984
-47.99973636 4.392858392 -50.41738839
-47.99973636 87.24475639 -40.30544339
48.00026364 38.07630739 -154.1068104
30.70328864 -2.460840051e-05 -92.38712839
-51.99973636 17.34892939 -113.7395444
68.65920864 -2.460840051e-05 -155.6163324
-37.93285336 44.63962739 -9.738824838e-05
48.00026364 52.35158939 -139.5354394
3.450197641 -2.460840051e-05 -186.5168834
52.00026364 75.16318339 -48.22156139
48.00026364 46.18108439 -138.2954334
11.84108464 -2.460840051e-05 -226.5469954
-51.99973636 37.23039939 -34.61089539
48.00026364 26.94835339 -38.72114239
52.00026364 56.03210039 -110.8080364
-16.06401036 -2.460840051e-05 -107.0532084
48.00026364 67.07647739 -76.94950439
-51.99973636 32.02915239 -201.9088614
-8.899218359 -2.460840051e-05 -47.52497139
-47.99973636 62.05126339 -129.7875744
52.00026364 12.93019939 -93.75222639
-47.99973636 22.63208239 -122.3612054
52.00026364 22.77933639 -59.58928139
-51.99973636 82.67735639 -79.41757939
48.60184864 105.8488724 -47.99490539
48.00026364 71.78458839 -97.90369239
-55.56234636 -2.460840051e-05 -63.86690039
48.00026364 18.50568039 -199.8105794
7.724770641 -2.460840051e-05 -53.47451139
-51.99973636 34.96886139 -208.1835384
-37.37483736 -2.460840051e-05 -181.3083794
-47.99973636 43.27444339 -87.42026039
48.00026364 44.08766739 -52.33947939
48.65047764 59.17715939 -221.7789904
48.00026364 76.54397239 -88.50548539
52.00026364 8.954620392 -203.0751194
-51.99973636 3.341542392 -246.3007144
48.00026364 18.85907239 -71.22890439
-47.99973636 49.71085439 -49.18479739
-47.99973636 57.73327939 -80.05662939
-51.99973636 34.15704739 -72.18926439
-51.99973636 75.98904139 -47.90450739
52.00026364 42.41993739 -142.5600944
48.00026364 22.38777139 -46.75345139
-51.99973636 104.3861854 -39.84316439
48.00026364 49.71540239 -168.5762354
-51.99973636 53.99800039 -48.13855739
-51.99973636 0.0308773916 -209.6184874
48.00026364 33.53163339 -117.1069974
52.00026364 85.63571939 -68.74903039
-47.99973636 14.56728439 -34.20857339
-22.27483936 -2.460840051e-05 -138.5671514
-36.12563836 -2.460840051e-05 -68.21385239
-51.99973636 22.49990439 -204.1084224
48.00026364 92.03225739 -22.61746339
-47.99973636 15.87198739 -117.8622304
27.00316064 25.87097339 -9.738824838e-05
-12.35410436 -2.460840051e-05 -245.5112504
-47.99973636 67.38150039 -106.3003894
25.11929964 -2.460840051e-05 -28.07872439
48.00026364 20.76432439 -162.2698454
48.00026364 63.88451739 -124.4567204
-47.99973636 21.10991839 -89.01076539
-34.17176636 -2.460840051e-05 -196.8182254
20.30916564 -2.460840051e-05 -213.7431334
-57.17977336 74.52141739 -9.738824838e-05
48.00026364 64.57334239 -102.8173674
48.00026364 23.57008639 -94.44784039
-51.99973636 16.91269439 -46.09741039
-51.99973636 50.48743039 -132.4333354
48.00026364 60.24269639 -85.17614339
48.00026364 24.07662939 -75.54005639
-34.44641736 9.649283392 -9.738824838e-05
48.00026364 60.96323639 -51.02682239
64.62164564 -2.460840051e-05 -96.69925839
-47.99973636 33.39281439 -214.7007324
-49.52317236 72.63925939 -156.8873724
-51.99973636 26.52599339 -192.3998454
-43.64088836 -2.460840051e-05 -96.23488839
17.96832064 -2.460840051e-05 -56.63758339
52.00026364 37.61330339 -31.69008639
52.00026364 13.74887339 -23.69034939
-47.99973636 38.41851139 -226.9077664
-51.99973636 40.06750339 -169.7298034
-47.99973636 6.194856392 -150.0746234
52.00026364 68.83198339 -106.2271074
-47.99973636 74.75883839 -96.77194239
48.00026364 94.72399139 -38.17021839
48.00026364 27.31334439 -181.1811444
-47.99973636 41.25137239 -244.6721094
-47.99973636 51.98890839 -89.00241539
-47.99973636 59.19139239 -63.62537439
-47.99973636 37.83357339 -41.31352939
48.00026364 55.45869739 -188.3373134
-47.99973636 31.22491839 -225.2951354
-17.06153236 -2.460840051e-05 -89.69329839
