# .PCD v0.7 - Point Cloud Data file format
VERSION 0.7
FIELDS x y z
SIZE 4 4 4
TYPE F F F
COUNT 1 1 1
WIDTH 1178
HEIGHT 1
VIEWPOINT 0 0 0 1 0 0 0
POINTS 1178
DATA ascii
-4.000272997 -88.26481749 -23.81064339
-0.0002729969583 -39.70211048 -0.1800573869
-0.0002729969583 -74.68469422 -24.28473139
-4.000272997 -166.339137 37.97994661
-0.0002729969583 -113.9311408 -39.86438939
-4.000272997 -41.3209721 26.83828761
-0.0002729969583 -137.3129551 32.02933261
-131.468614 -2.49890671e-05 -15.83922739
-4.000272997 -163.0448093 26.39655261
-4.000272997 -77.55864123 -63.44676239
-4.000272997 -47.6213947 -4.339361387
-0.0002729969583 -47.96417708 10.07750561
-4.000272997 -98.01849027 -69.01600039
-0.0002729969583 -63.95690067 -28.92157039
-4.000272997 -139.9271468 -34.20241839
-0.0002729969583 -176.8396501 -43.30925839
-174.756904 -2.49890671e-05 72.17141861
-68.335348 -2.49890671e-05 4.998051613
-185.90889 -2.49890671e-05 -47.51849039
-0.0002729969583 -24.83387396 4.169074613
-0.0002729969583 -213.6261969 -25.09333739
-0.0002729969583 -172.8602003 19.19099361
-19.507739 -2.49890671e-05 48.13683361
-123.391748 -2.49890671e-05 58.74326461
-31.980329 -2.49890671e-05 33.80201361
-0.0002729969583 -11.59418576 11.15666361
-4.000272997 -65.36454443 63.83318061
-139.756595 -2.49890671e-05 -25.72096639
-4.000272997 -20.9306508 -61.51289739
-4.000272997 -46.42344502 -17.66398439
-0.0002729969583 -101.7803334 -43.79965239
-4.000272997 -100.2726703 -21.26138539
-0.0002729969583 -243.8445169 -57.53744539
-0.0002729969583 -139.7876108 56.23271961
-0.0002729969583 -117.4261308 -49.59419639
-4.000272997 -133.738804 -33.20233839
-0.0002729969583 -64.56194576 -71.33105139
-0.0002729969583 -103.719524 -57.08103239
-168.958217 -2.49890671e-05 -26.72631739
-0.0002729969583 -175.1743497 0.8860076131
-0.0002729969583 -10.71536056 2.167088613
-4.000272997 -157.4953311 34.73239961
-4.000272997 -15.85664786 71.74777161
-4.000272997 -94.50745434 -3.319975387
-0.0002729969583 -190.1822768 -14.73589139
-0.0002729969583 -57.54876561 -41.80712839
-4.000272997 -87.24785714 -35.74716639
-4.000272997 -167.5175886 -32.96814239
-171.71491 -2.49890671e-05 62.70813261
-208.658288 -2.49890671e-05 49.69889161
-4.000272997 -80.08680385 -40.59702439
-0.0002729969583 -59.16417002 -54.93437339
-0.0002729969583 -48.96369421 58.62078961
-0.0002729969583 -143.5993886 -41.88500739
-0.0002729969583 -89.80570178 37.22625661
-101.187333 -2.49890671e-05 -16.25663739
-0.0002729969583 -138.4130107 11.99116061
-4.000272997 -125.9565976 -61.56072139
-0.0002729969583 -55.09221587 -48.65464539
-0.0002729969583 -42.64726009 -72.59953039
-222.837368 -2.49890671e-05 46.79049561
-0.0002729969583 -39.95919452 20.37658461
-0.0002729969583 -56.10999247 25.42838861
-0.0002729969583 -88.68949445 51.22487961
-129.986686 -2.49890671e-05 48.76754861
-0.0002729969583 -6.670169129 51.07275361
-0.0002729969583 -89.73936774 -16.41577039
-0.0002729969583 -226.4013279 -27.33074639
-0.0002729969583 -129.0448788 70.35640061
-0.0002729969583 -222.039417 63.85281861
-0.0002729969583 -154.8466868 -27.85887439
-0.0002729969583 -3.640624709 70.02279461
-129.466352 -2.49890671e-05 -27.18623439
-88.457228 -2.49890671e-05 -1.016286387
-218.123059 -2.49890671e-05 -15.36972539
-0.0002729969583 -48.65899099 2.187833613
-0.0002729969583 -217.0715752 -0.07882838694
-0.0002729969583 -122.2312464 -55.06692139
-0.0002729969583 -35.00741578 8.948333613
-230.244574 -2.49890671e-05 52.66624361
-4.000272997 -150.2648741 25.06102561
-0.0002729969583 -15.75218848 -65.91873139
-4.000272997 -69.83646441 17.23303561
-0.0002729969583 -146.3129418 52.76848261
-0.0002729969583 -79.71888061 36.37357361
-0.0002729969583 -143.822586 -27.81802839
-0.0002729969583 -165.3089212 60.06371061
-0.0002729969583 -67.12232171 -19.01847239
-4.000272997 -133.2549359 43.79283161
-0.588998997 -0.5000249891 -68.72857739
-0.0002729969583 -80.93515803 -13.05911339
-0.0002729969583 -214.7645286 9.063168613
-252.052146 -2.49890671e-05 -23.21945439
-25.058618 -2.49890671e-05 53.67771961
0.458409003 -15.43556604 67.02452261
-4.000272997 -108.0896456 -55.08424139
-183.736791 -2.49890671e-05 -8.986050387
-4.000272997 -35.59469774 63.54600561
-156.439673 -2.49890671e-05 -20.87421139
-0.0002729969583 -45.65365156 21.57533761
-4.000272997 -117.3861487 -58.48632639
-0.0002729969583 -216.555357 -13.70383439
-0.0002729969583 -67.1238533 -10.98249939
-0.0002729969583 -51.62090372 73.04770361
-244.66592 -2.49890671e-05 -56.18745639
-4.000272997 -93.58578804 9.618909613
-3.727150997 -23.96436945 -33.61033939
-0.0002729969583 -7.790085819 -5.805920387
-198.950185 -2.49890671e-05 -9.898774387
-0.0002729969583 -159.7677415 7.064898613
-0.0002729969583 -130.1320477 62.82036961
-4.000272997 -29.86471461 63.54254661
-0.0002729969583 -129.4061718 -6.181174387
-4.000272997 -27.85814087 -28.95110439
-4.000272997 -94.18872189 -31.22342039
-0.0002729969583 -148.7078871 1.388900613
-0.0002729969583 -120.7628939 47.23539561
-169.920022 -2.49890671e-05 -48.81187739
-0.0002729969583 -165.0902929 -38.89676339
-0.0002729969583 -65.61850561 -3.522667387
-4.000272997 -43.1431998 -39.69345539
-0.0002729969583 -245.7787606 -27.84459739
-3.011874997 -85.22236931 67.36400461
-163.665305 -2.49890671e-05 66.97051861
-4.000272997 -121.6233464 -65.26566639
-186.546683 -2.49890671e-05 -40.94703039
-4.000272997 -171.0441358 -10.13435239
-0.0002729969583 -150.3797124 40.32745161
-4.000272997 -101.0579529 4.140370613
-0.0002729969583 -211.9473027 68.40372961
-0.0002729969583 -158.6059294 -59.84724339
-49.112798 -2.49890671e-05 -25.60792239
-0.0002729969583 -139.2446817 47.88417861
-86.484289 -2.49890671e-05 70.92226061
-152.295928 1.767292541 50.63617761
0.07277300304 -141.2931021 -72.73772739
-216.222561 -2.49890671e-05 -51.50345339
-114.957364 -2.49890671e-05 11.35513661
-0.0002729969583 -111.5059638 42.87247861
-0.0002729969583 -152.3204198 71.21803761
-0.0002729969583 -108.4001011 28.03915461
-0.0002729969583 -131.3079019 -47.21640739
-109.005229 -2.49890671e-05 -13.02820839
-0.0002729969583 -62.4546353 4.634497613
-4.000272997 -62.56666165 15.27125861
-4.000272997 -59.76683433 45.45076961
-245.917459 -2.49890671e-05 52.07753261
-247.539998 -2.49890671e-05 39.00317061
-51.396431 -2.49890671e-05 23.79578661
-0.0002729969583 -67.92201737 -24.59946939
-4.000272997 -88.72963776 56.10601961
-0.0002729969583 -149.7492121 65.05947861
-4.000272997 -131.469419 49.28085161
-4.000272997 -73.16685144 -53.24077939
-4.000272997 -53.92769778 -72.42487039
-0.0002729969583 -16.34424303 1.108340613
-56.703039 -2.49890671e-05 34.51634361
-174.31865 -2.49890671e-05 51.94360161
-4.000272997 -74.86236393 -73.26607639
-210.728 -2.49890671e-05 -35.14357639
-159.969184 -2.49890671e-05 30.74596161
-4.000272997 -24.0736961 44.55207961
-0.0002729969583 -86.79515526 8.172391613
-29.691239 -2.49890671e-05 -23.35482439
-4.000272997 -80.36923854 71.27213061
-4.000272997 -148.303374 -25.75062139
-4.000272997 -92.06174585 -70.23365139
-0.0002729969583 -144.5185736 27.11299361
-108.350476 -2.49890671e-05 55.57841761
-0.0002729969583 -98.54502068 10.17221961
-0.0002729969583 -135.2171746 -67.98004939
-164.449081 -2.49890671e-05 -47.79642939
-4.000272997 -67.74517509 -73.52374539
-0.0002729969583 -118.1826144 9.280268613
-0.0002729969583 -137.6918117 -8.021483387
-0.531956997 -157.837094 -44.71712539
-191.245516 -2.49890671e-05 38.94739161
-0.0002729969583 -39.45607097 32.77888961
-0.0002729969583 -163.3469999 31.13848361
-0.0002729969583 -8.395853739 61.90540461
-4.000272997 -0.8679916391 50.22486861
-4.000272997 -36.7784599 58.12755061
-137.856553 -2.49890671e-05 51.08673461
-4.000272997 -31.42963242 -39.10897539
-45.262685 -2.49890671e-05 66.41097761
-80.970824 -2.49890671e-05 14.81601961
-42.345619 -2.49890671e-05 -23.22540939
-0.0002729969583 -65.1799851 11.99313161
-4.000272997 -105.7345939 -22.04691339
-4.000272997 -27.24345227 -44.69090139
-4.000272997 -158.0517618 -3.007375387
-0.0002729969583 -43.88809213 -7.668820387
-0.0002729969583 -100.1097944 -64.50782039
-4.000272997 -90.32633147 45.18048061
-4.000272997 -140.9132641 30.90049761
-0.0002729969583 -70.63067471 12.96371261
-0.0002729969583 -112.2481819 -30.82440839
-4.000272997 -115.1476751 -46.39481839
-4.000272997 -156.9800404 23.18787661
-4.000272997 -48.92714126 -10.00819139
-98.250952 -2.49890671e-05 -30.35386939
-3.410512997 -19.81494121 -40.83572839
-0.0002729969583 -168.2162761 70.69913561
-105.874393 -2.49890671e-05 5.361100613
-4.000272997 -40.95821201 -17.63033939
-4.000272997 -59.51953399 58.74248961
-0.0002729969583 -225.3778505 -65.62266739
-0.0002729969583 -53.18436979 -56.99231639
-0.0002729969583 -18.28693769 13.28043361
-0.0002729969583 -84.0128934 26.76578161
-107.422856 -2.49890671e-05 -48.47419639
-4.000272997 -74.98296999 -42.50999539
-0.0002729969583 -20.53852654 50.91193961
-0.0002729969583 -148.0255319 -55.01315639
-141.555028 -2.49890671e-05 13.69572561
-14.787327 -2.49890671e-05 -34.39460639
-148.584065 -2.49890671e-05 15.58765161
-0.0002729969583 -55.89058579 -18.79914939
-205.654203 -2.49890671e-05 31.23531661
-0.0002729969583 -28.13661097 51.35671461
-71.374699 -2.49890671e-05 11.18072661
-0.0002729969583 -137.6298393 -54.80770639
-0.0002729969583 -194.8475587 0.9981736131
-3.925194997 -124.5214564 26.78743061
-4.000272997 -16.456382 50.43801661
-37.7628 -2.49890671e-05 58.60085261
-0.0002729969583 -77.67623793 -19.77135839
-0.0002729969583 -5.136643089 -72.87988539
-4.000272997 -61.83263102 -5.375449387
-0.0002729969583 -170.4263169 -53.19444639
-20.606179 -2.49890671e-05 -68.21167339
-181.030035 -2.49890671e-05 37.49033361
-0.0002729969583 -152.4317877 21.59432061
-0.0002729969583 -116.7226517 -35.03112139
-0.0002729969583 -179.7084166 16.68183561
-4.000272997 -104.5069291 -34.24106239
-2.991929997 -25.50002499 18.17144261
-4.000272997 -58.56021263 -25.17089539
-198.942349 -2.49890671e-05 23.76851261
-0.0002729969583 -249.5921153 -59.42391139
-0.0002729969583 -223.8514517 55.40805761
-4.000272997 -33.27326158 13.01520161
-161.43793 -2.49890671e-05 -30.06116739
-4.000272997 -68.2650726 30.29812861
-0.0002729969583 -113.3622234 -59.69718339
-31.755229 -2.49890671e-05 -6.198611387
-4.000272997 -88.92079132 63.60144061
-0.0002729969583 -87.94891839 -48.62845939
-83.104421 -2.49890671e-05 -14.49719839
-4.000272997 -104.0289641 30.47836761
-0.0002729969583 -34.56901434 -3.018866387
-4.000272997 -71.64757863 -14.52104939
-178.252394 -2.49890671e-05 3.667823613
-0.0002729969583 -77.13723492 -56.24412639
-0.0002729969583 -92.41604626 -0.4284613869
-0.0002729969583 -106.4387919 -51.92190039
-4.000272997 -65.75877037 3.295362613
-0.0002729969583 -74.37686083 68.99180061
-0.0002729969583 -74.93637422 -8.417587387
1.473162003 -225.0202983 -39.50009739
-4.000272997 -13.93252969 -56.70175539
-4.000272997 -46.14843739 -73.16529139
-87.617682 -2.49890671e-05 -40.90771239
-175.260475 -2.49890671e-05 29.94692561
-4.000272997 -104.4201071 -66.18928739
-0.0002729969583 -65.07186158 -45.81016239
-4.000272997 -82.92645299 57.23564461
-4.000272997 -28.83876475 -4.529160387
-4.000272997 -46.06965398 56.60159061
-0.0002729969583 -234.4815331 67.00752561
-0.0002729969583 -193.9640239 22.41270961
-4.000272997 -124.805707 47.57376361
-0.0002729969583 -130.5637745 -25.42279939
-3.597000997 -152.1776287 16.91651461
-4.000272997 -146.604563 -44.53208339
-111.695373 -2.49890671e-05 -60.94435639
-4.000272997 -50.5401186 29.60513661
-26.367637 -2.49890671e-05 10.48848661
-4.000272997 -92.2599054 -48.04467239
-4.000272997 -164.5688926 -12.10599839
-0.0002729969583 -70.59244983 6.044405613
-0.0002729969583 -65.4899428 46.21272061
-0.0002729969583 -55.9255453 3.919555613
-0.0002729969583 -204.4634292 -64.22572039
-4.000272997 -30.55644828 -10.82926739
-0.0002729969583 -26.24432902 65.02895461
-4.000272997 -116.7121988 33.29386861
-0.0002729969583 -25.69153257 -65.31260839
-219.364442 -2.49890671e-05 56.80521861
-0.0002729969583 -61.58065597 22.86754561
-4.000272997 -126.2962275 -46.56036639
-4.000272997 -75.66385757 6.443637613
-4.000272997 -112.9106775 -65.01034839
-194.53116 -2.49890671e-05 -53.07526439
-4.000272997 -85.58376993 -46.05051739
-5.760378997 -2.49890671e-05 58.85738761
-0.0002729969583 -12.27873313 -69.88467739
-236.032879 -2.49890671e-05 -38.07078739
-0.0002729969583 -166.5211847 -27.16936539
-4.000272997 -47.86585085 -22.72267339
-106.203726 -2.49890671e-05 34.95003461
-0.0002729969583 -158.1272521 56.84033461
-63.806836 -2.49890671e-05 -5.932386387
-4.000272997 -108.4615729 -41.06681039
-0.0002729969583 -1.998374479 -63.55159339
-19.559384 -2.49890671e-05 65.51073461
-4.000272997 -73.01173013 -4.161130387
-4.000272997 -32.97556552 -26.29666239
-0.0002729969583 -153.2837081 26.75384561
-0.0002729969583 -35.96749471 -38.75568939
-239.089391 -2.49890671e-05 73.97514461
-0.0002729969583 -98.64353139 50.77166661
-16.675644 -2.49890671e-05 -47.17482339
-0.0002729969583 -56.28623698 68.49847661
-0.0002729969583 -79.71412452 12.39147261
-0.0002729969583 -57.06428853 42.70587561
-4.000272997 -89.12011023 -56.41864839
-0.0002729969583 -214.8645968 -48.76690139
-0.0002729969583 -44.39604099 46.97153661
-4.000272997 -89.29177654 -63.64585839
-4.000272997 -98.29573361 33.40202961
-0.0002729969583 -168.4147573 45.23418961
-4.000272997 -86.85511812 -70.26119539
-0.0002729969583 -179.9971076 -14.81167839
-4.000272997 -21.19458483 -47.47128539
-0.0002729969583 -46.42999843 40.58617861
-0.0002729969583 -31.52442919 -21.36612239
-0.0002729969583 -76.46333066 23.89038461
-0.0002729969583 -191.340741 38.95806661
-0.0002729969583 -27.83456308 -54.49754239
-37.96138 -2.49890671e-05 35.17234461
-0.0002729969583 -201.2823849 18.28699161
-97.646169 -2.49890671e-05 69.00996561
-243.184944 -2.49890671e-05 -27.55121239
-4.000272997 -98.03651755 -27.74574639
-0.0002729969583 -32.16616048 -15.48107839
-0.0002729969583 -177.5774276 38.00024561
0.182066003 -170.1617267 -73.66068339
-117.473968 -2.49890671e-05 4.542680613
-0.0002729969583 -234.4416292 58.10427561
-234.182248 -2.49890671e-05 -64.29349639
-4.000272997 -101.8215164 9.911323613
-3.849127997 -172.325475 31.60514261
-4.000272997 -76.93553271 55.62739761
-36.337574 -2.49890671e-05 -62.25312439
-0.0002729969583 -152.7497818 52.25909061
-0.0002729969583 -19.74304548 -3.408016387
-4.000272997 -64.33574883 54.44732161
-4.000272997 -42.43605815 71.48030161
-143.764994 -2.49890671e-05 -8.215457387
-0.0002729969583 -87.08728782 -38.99734539
-0.0002729969583 -161.275238 42.37087961
-79.260777 -2.49890671e-05 -62.79413739
-4.000272997 -29.76147928 72.32007361
-211.93166 -2.49890671e-05 45.71721061
-0.0002729969583 -32.11946088 -60.45469939
-4.000272997 -29.07675111 48.03862061
-4.000272997 -128.0501757 31.86828461
-4.000272997 -48.46456472 -42.43456439
-0.0002729969583 -56.6673567 34.43383461
-4.000272997 -35.58928419 70.81273661
-4.000272997 -49.6912133 -27.53051639
-196.517922 -2.49890671e-05 56.19823461
-0.0002729969583 -176.6693471 46.23401261
-125.343202 -2.49890671e-05 18.14955261
-0.0002729969583 -175.4884673 -64.43676439
-4.000272997 -51.76978662 14.83373361
-0.0002729969583 -86.38162412 -12.02217739
-0.0002729969583 -33.33104289 -52.15106439
-4.000272997 -24.9474841 -56.65557139
-0.0002729969583 -251.2115787 17.91822761
-4.000272997 -69.25034156 45.45020361
-4.000272997 -168.0540746 3.864625613
-4.000272997 -124.9410332 38.18821561
-52.006526 -2.49890671e-05 -20.53124839
-0.0002729969583 -67.10932926 23.16043661
-207.952621 -2.49890671e-05 -46.63367839
-4.000272997 -107.6561871 51.36168161
-0.0002729969583 -78.11722789 -37.51339539
-61.502229 -2.49890671e-05 27.66598261
-0.0002729969583 -97.92528596 -23.39341639
-0.0002729969583 -205.9966456 -38.95918439
-4.000272997 -104.8155122 -28.55655939
-4.000272997 -90.72219665 23.05045961
-4.000272997 -86.2949882 41.84948361
-4.000272997 -138.5617797 44.61928261
-252.208725 -2.49890671e-05 44.39346261
-4.000272997 -92.07841408 -40.27613539
-228.151617 -2.49890671e-05 44.01629561
-4.000272997 -159.6313886 18.85068961
-14.843241 -2.49890671e-05 -23.21600339
-0.0002729969583 -232.8318095 33.39636261
-4.000272997 -93.68651241 -52.92173839
-0.0002729969583 -41.2781947 63.21423461
-4.000272997 -142.1085267 49.13805061
-0.0002729969583 -179.5315631 11.61060061
-0.0002729969583 -109.4131155 -23.69739539
-4.000272997 -46.6954147 -64.21949539
-0.0002729969583 -136.0321493 -44.89740839
-4.000272997 -159.9017937 -18.61421739
-0.0002729969583 -75.2934625 2.733333613
-0.0002729969583 -111.6696341 9.278910613
-0.0002729969583 -68.34978635 51.12917961
-4.000272997 -135.102168 38.99079061
-0.0002729969583 -35.37387014 -67.78577139
-0.0002729969583 -142.9604444 -65.74652939
-0.0002729969583 -27.91912232 -38.18708339
-0.0002729969583 -232.6863133 -11.76499839
-0.0002729969583 -156.7097889 -39.62998039
-4.000272997 -55.75161808 -39.32405539
-4.000272997 -36.65039279 24.07693861
-0.0002729969583 -26.72043324 24.20586861
-154.852828 -2.49890671e-05 34.04972261
-4.000272997 -153.9264566 45.89310961
-4.000272997 -54.78545123 44.74358461
-4.000272997 -58.22314734 -68.15626339
-4.000272997 -28.57880171 -60.68916639
-165.176972 -2.49890671e-05 23.41041261
-0.0002729969583 -222.0192172 68.88201261
-4.000272997 -38.616746 -25.54073939
-3.052549997 -2.49890671e-05 -11.59239739
-4.000272997 -52.06681121 63.83930161
-0.0002729969583 -150.8022448 -34.98894839
-4.000272997 -99.63784567 40.47769161
-167.208378 -2.49890671e-05 55.13465761
-0.0002729969583 -12.07625109 70.71308661
-148.031946 -2.49890671e-05 -69.37826639
-0.0002729969583 -156.7082964 37.63861961
-4.000272997 -19.68429 59.98009461
-10.311524 -2.49890671e-05 55.75218461
-3.588258997 -25.50002499 -19.45981239
-5.066084997 -2.49890671e-05 -2.023168387
-0.0002729969583 -75.28488811 -29.43340139
-0.0002729969583 -21.01057591 -13.75153939
-4.000272997 -118.2184396 -37.62560639
-0.0002729969583 -35.55490776 38.24762961
-0.0002729969583 -104.0832578 -18.52217939
-4.000272997 -146.7785677 -35.95061439
-0.0002729969583 -178.9494252 -29.75510439
-0.0002729969583 -99.19634805 -4.141147387
-0.0002729969583 -26.04854649 46.77718861
-89.73838 -2.49890671e-05 19.58164061
-4.000272997 -63.52621138 -40.92960739
-4.000272997 -97.44562717 -74.22315339
-0.0002729969583 -52.76612685 8.756090613
-0.0002729969583 -43.73254259 67.89300861
-4.000272997 -28.90653649 -49.39232239
-4.000272997 -50.68345485 -48.06485239
-0.0002729969583 -162.0974759 -1.684053387
-0.0002729969583 -39.91845593 -65.60393839
-4.000272997 -134.7613159 -54.10236239
-4.000272997 -154.6292734 -20.18321239
-0.0002729969583 -70.76131226 28.72965061
-0.0002729969583 -145.9556598 46.13170961
-4.000272997 -166.0434926 -24.20402239
-0.0002729969583 -82.82879983 -48.36163439
-0.0002729969583 -7.733020059 -35.85354339
-4.000272997 -27.55971341 30.61793161
-0.0002729969583 -98.70980737 -34.34730039
0.01781100304 -163.485025 72.18220461
-0.0002729969583 -55.43610197 -62.45670839
-0.0002729969583 -180.082913 -50.73296839
-229.478614 -2.49890671e-05 -12.96602639
-4.000272997 -65.6381843 -48.82267939
-191.29033 -2.49890671e-05 -34.55591739
-4.000272997 -150.4078028 30.00576461
-218.517472 -2.49890671e-05 -66.58495539
-4.000272997 -54.30006687 -21.82749839
-0.0002729969583 -205.3893 36.09879961
-0.0002729969583 -167.6978295 33.80726361
-231.460077 -2.49890671e-05 40.24586761
-4.000272997 -84.65691315 -50.89967639
-0.0002729969583 -160.0657431 -52.84061239
-147.820238 -2.49890671e-05 -51.23160139
-4.000272997 -101.3054852 18.33032561
-0.0002729969583 -71.20496956 -56.30796339
-0.0002729969583 -49.88250584 24.10783361
-186.044899 -2.49890671e-05 -17.91909139
-66.705181 -2.49890671e-05 15.41968561
-90.882889 -2.49890671e-05 32.93638061
-4.000272997 -94.97239375 47.79668561
-198.072032 -2.49890671e-05 46.83711761
-0.0002729969583 -83.52153569 -5.290630387
-0.0002729969583 -93.50651488 -13.24726839
-4.000272997 -60.31563254 2.726836613
-0.0002729969583 -103.4464246 38.65624961
-4.000272997 -7.212300599 53.88418361
-4.000272997 -76.75628808 -10.62191639
-4.000272997 -73.26903141 -37.90267739
-47.754507 -2.49890671e-05 -63.87995039
-0.0002729969583 -109.9259608 34.51948661
-4.000272997 -45.88995484 7.868801613
-101.50397 -2.49890671e-05 28.46419161
-4.000272997 -122.2630247 -57.97301939
-4.000272997 -62.82606898 -20.60886939
-0.0002729969583 -15.31067633 56.89859961
-0.0002729969583 -125.4082293 50.33483261
-4.000272997 -32.24471122 27.29392061
-4.000272997 -23.8834684 69.07812461
-1.149158997 -0.5000249891 60.41476961
-4.000272997 -82.09359939 -61.20402439
-97.534325 -2.49890671e-05 -36.18965639
-0.0002729969583 -119.332769 36.99827161
-4.000272997 -36.87299806 17.54532861
-4.000272997 -13.63692458 66.14481461
-4.000272997 -61.54722734 -36.19884939
-4.000272997 -40.95870289 4.707087613
-240.750392 -2.49890671e-05 -0.8855963869
-4.000272997 -80.37897009 -55.28714039
-154.404859 -2.49890671e-05 4.163489613
-4.000272997 -61.17494581 -60.88230739
-0.0002729969583 -51.12841354 -19.83820139
-4.000272997 -33.46039707 -72.52022239
-4.000272997 -61.79848077 7.368136613
-0.0002729969583 -87.50136293 16.25186161
-0.0002729969583 -122.2667673 -32.17841839
-0.0002729969583 -85.13704555 -66.97067739
-0.0002729969583 -163.7763559 49.26725861
-4.000272997 -87.20587052 19.69409261
-0.0002729969583 -45.42900218 -27.63365539
-4.000272997 -75.06674809 21.25025761
-0.0002729969583 -185.717044 62.57552361
-4.000272997 -62.03411439 28.99065261
-132.109695 -2.49890671e-05 29.32227061
-0.0002729969583 -103.9340829 49.09834961
-0.0002729969583 -77.35441897 -51.40167039
-0.0002729969583 -46.2682381 52.62454761
-4.000272997 -97.21708064 -38.31478639
-4.000272997 -148.1792084 35.08301461
-0.0002729969583 -103.7431781 -71.59473539
-0.0002729969583 -25.60300764 -25.85491939
-0.609193997 -151.1669427 -48.49901439
-202.961374 -2.49890671e-05 -55.22941739
-0.0002729969583 -3.728265219 -50.13198639
-4.000272997 -136.9620748 -49.35918839
-215.972163 -2.49890671e-05 -1.116819387
-3.811912997 -178.4709326 -21.10169039
-4.000272997 -34.21674199 -21.48761339
-4.000272997 -97.86581365 12.77947961
-0.0002729969583 -173.1877314 -25.26007339
-0.0002729969583 -35.57084566 43.06965861
-0.0002729969583 -152.247744 8.803877613
-4.000272997 -97.06289833 23.43372361
-0.0002729969583 -19.73258487 -59.10231939
-4.000272997 -77.90469253 34.38735061
-0.0002729969583 -82.77223298 -30.28847539
-4.000272997 -79.23418509 -21.96125639
-4.000272997 -88.7998761 10.16365661
-0.0002729969583 -104.8730485 -62.37186039
-3.896157997 -143.844364 -23.94027039
0.197348003 -19.16994018 -73.70140039
-0.0002729969583 -131.3595928 -34.59085039
-130.831473 -2.49890671e-05 15.16628461
-0.0002729969583 -50.58232385 -50.73400439
-4.000272997 -84.69234133 15.38077161
-0.0002729969583 -81.77597283 43.85867461
-0.0002729969583 -225.4543341 49.00694661
-4.000272997 -41.30326975 10.08055761
-3.714336997 -111.3925694 19.70856261
-90.807373 -2.49890671e-05 59.42560761
-4.000272997 -55.7503756 39.94797761
-21.095603 -2.49890671e-05 19.01002761
-0.0002729969583 -111.660815 -50.71319039
-4.000272997 -110.3606728 -48.34613139
-0.0002729969583 -220.7888253 -56.69520239
-203.709841 -2.49890671e-05 35.61385061
-0.0002729969583 -33.10225423 2.014104613
-0.0002729969583 -80.9383669 7.767695613
-4.000272997 -92.69573367 34.54228561
-0.0002729969583 -31.17908365 -70.58384039
-0.0002729969583 -24.26677359 41.93961361
-0.0002729969583 -22.82518116 -55.12034639
-0.0002729969583 -146.4514558 -32.29120939
-0.877639997 -2.49890671e-05 -34.88203539
-168.415639 -2.49890671e-05 66.54764561
-118.823615 -2.49890671e-05 39.17761461
-0.0002729969583 -166.5554002 9.879109613
-4.000272997 -39.94938531 -60.14976339
-3.899877997 -157.0557583 6.773962613
-0.0002729969583 -121.8231217 -67.83412739
-4.000272997 -164.0378246 21.61004461
-0.0002729969583 -51.26294944 33.18704961
-4.000272997 -12.72099465 -65.87077639
-147.901929 -2.49890671e-05 -60.25319439
-4.000272997 -20.50690419 65.37577261
-0.0002729969583 -108.9991119 69.79857961
-4.000272997 -74.29156399 60.36815561
-0.0002729969583 -8.250965259 -52.70820639
-23.138566 -2.49890671e-05 -55.10078539
-0.0002729969583 -174.9587101 50.65811761
-0.0002729969583 -125.0847465 -27.62535839
-26.157302 -2.49890671e-05 -65.54433839
-4.000272997 -107.5278487 25.64924261
-4.000272997 -106.7523725 -59.63198339
-4.000272997 -31.87643417 17.73160061
-4.000272997 -175.46948 10.78980461
-0.0002729969583 -160.4111648 -36.58758239
-173.912895 -2.49890671e-05 -42.34783139
-4.000272997 -0.5768390391 -72.00925739
-0.0002729969583 -83.2932486 -17.46274039
-4.000272997 -84.69021192 6.012604613
-4.000272997 -4.668568389 -55.61533039
-0.0002729969583 -43.15469425 3.279676613
-0.0002729969583 -92.40149725 41.84384661
-211.618586 -2.49890671e-05 34.86548561
-4.000272997 -65.69968285 21.09131461
-3.870163997 -25.50002499 0.7304116131
-4.000272997 -109.7209145 -31.57714339
-0.0002729969583 -59.60733228 -47.29661539
-0.0002729969583 -74.54361786 41.58326061
-0.0002729969583 -170.6260869 -32.31394839
-4.000272997 -68.04666999 57.97140661
-0.0002729969583 -29.04513768 7.949119613
-2.028332997 -113.6020383 53.87053661
-0.0002729969583 -121.3597205 62.58163261
-0.0002729969583 -216.0972089 -57.09372439
-4.000272997 -6.832109519 -68.89423039
-44.664053 -2.49890671e-05 23.79956861
-4.000272997 -107.7234478 38.83030661
-4.000272997 -80.9645167 48.86019361
-4.000272997 -48.69827664 -56.01611239
-0.0002729969583 -183.3264402 -32.30079939
-4.000272997 -56.45003772 11.53602761
-4.000272997 -168.0911057 -6.464393387
-0.0002729969583 -117.2905833 -56.03576339
-0.0002729969583 -150.4512834 -29.52759239
-0.0002729969583 -47.37327103 -40.21634039
-0.0002729969583 -153.6219428 -14.83175739
-4.000272997 -96.93504621 -48.20064439
-4.000272997 -26.04878047 -12.24978939
-0.0002729969583 -107.7312086 -29.61441239
-190.817329 -2.49890671e-05 6.573968613
-4.000272997 -127.3331264 -32.01507839
-4.000272997 -41.73266102 33.58981861
-3.800788997 -140.5892299 25.51243761
-0.0002729969583 -72.5356662 -34.42962239
-4.000272997 -182.4701365 -0.9951683869
-0.0002729969583 -124.5111848 -22.99358439
-4.000272997 -135.5807199 -27.31682239
-4.000272997 -154.3447367 -25.50937139
-4.000272997 -37.3235679 -66.38291039
-4.000272997 -80.38139825 -35.67044439
-0.0002729969583 -132.0092619 -39.20661039
-0.0002729969583 -40.09526992 -19.92682739
-4.000272997 -128.6512538 -36.88916739
-4.000272997 -112.8559657 -22.20769439
-93.153915 -2.49890671e-05 -24.08709339
-0.0002729969583 -28.80349581 19.78042661
-0.0002729969583 -9.900965919 -61.95722639
-196.561954 -2.49890671e-05 -34.48766639
-4.000272997 -103.503402 -12.38386339
-4.000272997 -88.19702771 2.924748613
-0.0002729969583 -46.33250292 14.43017561
-0.0002729969583 -251.4907718 46.17648061
-4.000272997 -164.1293692 -29.78949639
-0.0002729969583 -217.242022 28.87010161
-19.815492 -2.49890671e-05 -17.75353239
-0.0002729969583 -107.661357 -67.83245339
-0.0002729969583 -41.68011874 51.93084461
-0.0002729969583 -243.1653156 -24.01529539
-4.000272997 -79.26473675 -14.69607739
-0.0002729969583 -76.87487088 28.57996661
-4.000272997 -126.725005 -56.72481039
-0.0002729969583 -232.3948829 4.901268613
-4.000272997 -42.85453136 -12.05029039
-4.000272997 -26.99440356 53.78544561
-4.000272997 -72.31682768 40.91314761
-4.000272997 -95.70255236 -22.72191339
-4.000272997 -58.95444874 18.15899361
-3.657166997 -182.1351474 8.949994613
-224.773461 -2.49890671e-05 -61.32235739
-0.213606997 -21.72314064 -38.11059539
-4.000272997 -102.225581 56.76039961
-4.000272997 -63.65799753 -66.34933739
-0.0002729969583 -4.683519439 -40.72406739
-4.000272997 -36.91704978 -8.728948387
-3.979529997 -148.7347607 20.53625361
-0.0002729969583 -113.5416281 31.44245161
-4.000272997 -77.50149822 -5.192859387
-0.0002729969583 -48.80025697 68.80414261
-0.0002729969583 -77.48535374 47.69762461
-0.0002729969583 -97.87018477 -59.42985239
-0.0002729969583 -90.92197109 20.41880861
-0.0002729969583 -87.00967018 -0.1970023869
-4.000272997 -151.6677189 -43.34366339
-0.0002729969583 -46.52868342 -47.81218539
-0.0002729969583 -30.25687604 -25.77732539
-4.000272997 -24.01549788 57.49567861
-58.44987 -2.49890671e-05 -55.93567039
-4.000272997 -76.05209374 45.50978561
-0.0002729969583 -152.5928935 -21.12090139
-4.000272997 -170.7586203 18.42148261
-1.562772997 -107.5850934 -15.03345239
-4.000272997 -180.7056185 13.51282961
-4.000272997 -121.9115396 -42.34706239
-211.942047 -2.49890671e-05 8.310955613
-4.000272997 -123.1925712 -30.00704039
-0.0002729969583 -63.85271823 32.90968161
-0.0002729969583 -66.88463008 -54.20351739
-0.0002729969583 -105.5476619 23.76589061
-4.000272997 -111.9917671 35.31572161
-0.0002729969583 -65.78462292 -62.12338039
-0.0002729969583 -80.88303714 59.54682061
-0.0002729969583 -154.7707874 -0.5786073869
-17.075791 -2.49890671e-05 -57.35333839
-0.0002729969583 -137.942112 -31.95044239
-0.0002729969583 -233.3045327 -22.94274639
-4.000272997 -79.03387715 -69.22502139
-210.33162 -2.49890671e-05 -7.069690387
-0.0002729969583 -53.45868538 29.19104661
-4.000272997 -9.872490319 72.50723561
-4.000272997 -53.91342204 49.21426561
-0.0002729969583 -85.31518894 22.03765961
-0.0002729969583 -53.91261823 14.49595561
-65.457784 -2.49890671e-05 -22.09039539
-0.0002729969583 -8.819069779 -66.46711439
-0.0002729969583 -99.1051673 22.71262561
-0.0002729969583 -37.0599042 -61.61805439
-4.000272997 -19.10772187 -71.96115139
-0.0002729969583 -98.1363014 5.646652613
-30.641618 -2.49890671e-05 47.07359361
-0.0002729969583 -22.87933313 -68.87655339
-0.0002729969583 -28.53059565 61.10759161
-4.000272997 -16.32037327 -60.70013339
-0.0002729969583 -150.8091832 46.83081861
-4.000272997 -115.4599047 -30.84805739
-0.0002729969583 -130.4917187 36.81592461
-4.000272997 -171.7025437 13.97172761
-4.000272997 -90.81054123 -20.05974139
-4.000272997 -119.5512316 -49.67866139
-0.0002729969583 -21.19289799 -63.62216639
-0.0002729969583 -127.9565774 -55.00043339
-4.000272997 -68.73816319 53.20153661
-0.0002729969583 -115.3355662 -70.02429639
-0.0002729969583 -100.3758895 33.65156561
-49.205893 -2.49890671e-05 -40.37508639
-4.000272997 -50.225162 46.14791261
-4.000272997 -134.3590701 -39.83393239
-0.0002729969583 -52.21137837 55.49410461
-0.0002729969583 -98.11981523 -46.49280839
-4.000272997 -8.432685709 -58.21479439
-0.298480997 -127.9919621 -63.12613439
-0.0002729969583 -66.03348022 68.65004461
-4.000272997 -87.81587587 27.26450661
-4.000272997 -66.28840758 -33.53095239
-4.000272997 -83.10980373 31.18389461
-4.000272997 -128.1334656 52.30320861
-4.000272997 -69.28842736 -40.32612139
-0.0002729969583 -135.2004417 35.99976261
-0.0002729969583 -80.23491189 -8.618272387
-4.000272997 -30.99471876 33.50660461
-0.0002729969583 -97.65572048 29.64043861
-4.000272997 -160.7063018 30.80882261
-194.551526 -2.49890671e-05 62.59012461
-4.000272997 -94.1087077 56.88264061
-4.000272997 -68.67260432 -0.8602393869
0.09503300304 -149.17931 -72.96250939
-4.000272997 -7.444848409 59.22975061
-179.295558 -2.49890671e-05 -8.388068387
-0.0002729969583 -168.9465663 21.58496661
-4.000272997 -89.73263949 -30.79360239
-219.924189 -2.49890671e-05 -31.48318439
-4.000272997 -141.4145432 -49.87636639
-0.0002729969583 -172.9650147 11.16901461
-45.165726 -2.49890671e-05 32.30146561
-0.0002729969583 -14.28594202 5.069618613
-0.0002729969583 -131.619277 42.67639361
-4.000272997 -94.89289127 -62.71297339
-22.176742 -2.49890671e-05 -5.225043387
-62.633903 -2.49890671e-05 13.59922261
-4.000272997 -95.03089488 1.107138613
-0.0002729969583 -53.34920004 21.30668161
-4.000272997 -57.27492065 27.22126661
-228.482338 -2.49890671e-05 -0.2029083869
-0.0002729969583 -54.07705784 -14.73471839
-2.992414997 -2.49890671e-05 -46.05231139
-4.000272997 -71.02250528 -70.51578139
-0.0002729969583 -53.279801 51.17590261
-0.0002729969583 -102.5716334 -36.55291839
-0.0002729969583 -123.804056 30.68218561
-0.0002729969583 -115.7671099 44.14290661
-4.000272997 -88.16015574 36.19895861
-0.0002729969583 -158.6956629 28.50430961
-0.0002729969583 -153.1106036 -64.19415939
-4.000272997 -69.43317877 35.46467961
-4.000272997 -96.90967572 17.40840861
-0.0002729969583 -52.24902762 -2.597201387
-251.25746 -2.49890671e-05 -9.997791387
-0.0002729969583 -145.0716264 -48.31561239
-4.000272997 -128.1310971 44.05291461
-4.000272997 -106.665028 18.24040761
-4.000272997 -105.6722575 13.89326761
-114.147291 -2.49890671e-05 -51.74629839
-0.142937997 -25.50002499 10.60170561
-4.000272997 -81.42311012 37.21099861
-48.140828 -2.49890671e-05 45.03953661
-199.378282 -2.49890671e-05 62.97491961
-4.000272997 -72.05284152 -32.59776139
-0.0002729969583 -38.71992092 -51.10732939
-4.000272997 -144.951137 24.80097961
-0.0002729969583 -56.4454206 -25.04535939
-0.0002729969583 -29.76680351 56.46008061
-0.0002729969583 -200.9017556 69.86550861
-236.525761 -2.49890671e-05 20.08819661
-4.000272997 -99.17022124 -58.07483339
-4.000272997 -58.59874844 73.01358361
-10.596444 -2.49890671e-05 -52.62555939
-0.0002729969583 -54.59502514 -37.86327039
-35.582568 -2.49890671e-05 -68.30495239
-4.000272997 -98.74872162 -52.78930939
-47.212674 -2.49890671e-05 51.12869361
-4.000272997 -41.0624213 48.10149061
-4.000272997 -111.3097276 48.80923161
-0.0002729969583 -161.6755571 22.26661461
-4.000272997 -41.43137759 57.07295361
-4.000272997 -154.8954084 -39.91497139
-56.459039 -2.49890671e-05 39.87740161
-4.000272997 -42.19070686 -31.88323839
-4.000272997 -35.26528254 4.269290613
-77.213259 -2.49890671e-05 19.39860761
-4.000272997 -91.8934259 -10.14576239
-244.484939 -2.49890671e-05 43.71446661
-0.0002729969583 -81.87570603 70.13101861
-0.0002729969583 -60.85761538 46.86846261
-4.000272997 -57.4585172 -6.628519387
-150.946974 -2.49890671e-05 21.50427961
-4.000272997 -170.982446 -17.55149339
-4.000272997 -75.29359476 -16.93939039
-0.0002729969583 -231.1429617 -17.98540639
-0.0002729969583 -143.5137057 37.66103161
-0.0002729969583 -207.9173842 53.25154561
-3.713653997 -159.4565161 43.78481161
-0.0002729969583 -133.6501203 49.79795561
-4.000272997 -137.270563 33.77905561
-0.0002729969583 -201.4176024 -7.728483387
-4.000272997 -59.50562861 -53.22330039
-4.000272997 -45.65965131 42.14569961
-4.000272997 -45.54832825 -59.03026639
-0.0002729969583 -187.0677099 -1.934665387
-0.0002729969583 -127.1401616 -48.46080539
-4.000272997 -31.83872159 -33.20261739
-138.838861 -2.49890671e-05 -35.97387639
-7.841653997 -2.49890671e-05 -48.53252239
-4.000272997 -72.87125606 -61.83063239
-4.000272997 -38.25666723 -1.006069387
-206.659384 -2.49890671e-05 45.83149761
-4.000272997 -112.7054699 41.71957761
-4.000272997 -110.3717044 -69.55263139
-0.0002729969583 -64.54201414 -37.78435739
-76.966025 -2.49890671e-05 46.33694661
-163.269287 -2.49890671e-05 -7.749349387
-0.0002729969583 -94.79961402 12.52460661
-4.000272997 -175.005076 2.523629613
-0.0002729969583 -133.2600087 29.12987661
-4.000272997 -142.2924922 -44.81215439
-0.0002729969583 -82.19712748 55.43397161
-0.0002729969583 -37.61204262 -6.079657387
-0.0002729969583 -211.3179796 -66.23480739
-239.272443 -2.49890671e-05 -48.45387139
-0.0002729969583 -42.639489 -36.71804939
-4.000272997 -154.2124073 -34.36238339
-39.372706 -2.49890671e-05 -11.72816539
-4.000272997 -56.15173938 -47.48431539
-4.000272997 -51.8427548 53.97097861
-0.0002729969583 -91.36097375 47.86166361
-0.0002729969583 -77.73444518 16.68871361
-0.0002729969583 -188.4469456 -60.64827439
-4.000272997 -3.239834599 -64.44916339
-190.200714 -2.49890671e-05 -9.768666387
-0.0002729969583 -16.59963117 -31.44131939
-0.0002729969583 -44.48013281 -17.70793539
-0.0002729969583 -156.1160993 15.61808261
-4.000272997 -90.70029995 -15.23102639
-193.081545 -2.49890671e-05 -62.37714839
-0.0002729969583 -47.66580554 -1.974474387
-179.463828 -2.49890671e-05 -60.61398339
-0.0002729969583 -72.56801743 51.84044461
-55.680497 -2.49890671e-05 -34.78792039
-115.798265 -2.49890671e-05 -8.446069387
-128.687934 -2.49890671e-05 -19.08515139
-0.0002729969583 -129.6519708 -15.73542839
-0.0002729969583 -19.82735696 -48.78324939
-4.000272997 -25.50138858 5.485805613
-0.0002729969583 -45.03417873 -69.07118939
-4.000272997 -118.348236 52.83543961
-15.592971 -2.49890671e-05 46.45888261
-4.000272997 -48.79675436 0.7334746131
-0.0002729969583 -224.8832103 18.18168161
-4.000272997 -17.90075192 -52.94499439
-3.820518997 -0.5000249891 68.91474561
-0.0002729969583 -144.6248678 -18.63388939
-0.0002729969583 -195.0579584 42.72931061
-4.000272997 -172.8797383 25.33645561
-0.0002729969583 -37.61521243 12.28450261
-149.438414 -2.49890671e-05 68.96072961
-172.048715 -2.49890671e-05 -4.933378387
-4.000272997 -48.97729136 -68.37982439
-0.0002729969583 -89.40089215 -3.681820387
-172.488876 -2.49890671e-05 -60.27007039
-128.171794 -2.49890671e-05 -36.28935539
-0.0002729969583 -162.9709826 -21.26440939
-162.361911 -2.49890671e-05 -12.99894639
-0.0002729969583 -80.5776237 23.01351861
-0.0002729969583 -176.058881 -49.52660639
-0.0002729969583 -121.1014394 53.61612861
-218.567173 -2.49890671e-05 -20.71421039
-0.0002729969583 -244.3574965 -46.49645239
-0.0002729969583 -57.97622932 20.72786861
-11.978934 -2.49890671e-05 66.98399461
-125.481958 -2.49890671e-05 47.93681261
-0.0002729969583 -72.39769859 34.82442561
-4.000272997 -45.77677472 -34.92172239
-0.0002729969583 -216.4472053 -37.87879939
-170.08139 -2.49890671e-05 -33.57036439
-92.607158 -2.49890671e-05 -66.83903939
-106.405352 -2.49890671e-05 27.69328161
-138.429005 -2.49890671e-05 9.186050613
-217.624542 -2.49890671e-05 -41.75103839
-0.0002729969583 -158.2245976 -10.92202739
-0.0002729969583 -140.438239 -44.59438539
0.02835300304 -223.6435051 -72.28917239
-0.0002729969583 -31.73741388 32.47785161
-4.000272997 -60.12863606 37.64742061
-4.000272997 -54.13743945 -27.75406639
-72.452299 -2.49890671e-05 -42.64614339
-0.0002729969583 -45.74445817 -63.65837339
-0.0002729969583 -192.1976989 -8.905490387
-4.000272997 -74.33997909 67.90181361
-124.443312 -2.49890671e-05 1.281360613
-0.0002729969583 -169.5700742 64.87459361
0.07846800304 -82.50265129 -72.79523139
-4.000272997 -113.9403201 23.79689861
-0.0002729969583 -53.63339642 -10.64515539
-4.000272997 -120.292334 46.40238761
-0.0002729969583 -22.49545251 66.71942561
-4.000272997 -115.5049799 -25.90567039
-0.0002729969583 -224.6490606 9.187131613
-0.0002729969583 -77.8789275 -41.61639439
-0.0002729969583 -89.99142245 3.130843613
-4.000272997 -38.05864822 -56.03471039
-67.439217 -2.49890671e-05 65.12598061
-0.0002729969583 -154.2188341 -42.87363239
-0.0002729969583 -117.6311053 -45.51010539
-0.0002729969583 -37.43236332 -29.12386039
-0.0002729969583 -170.6719235 -3.508116387
-0.0002729969583 -122.3512909 26.83081561
-0.0002729969583 -168.5296472 4.587502613
-0.0002729969583 -95.86055886 -9.929157387
-4.000272997 -157.8574061 -7.498121387
-0.0002729969583 -101.7568514 14.94866161
-141.290173 -2.49890671e-05 -2.407681387
-4.000272997 -101.7002495 45.32021961
-4.000272997 -100.1565232 -15.90586339
-236.577996 -2.49890671e-05 47.52146361
-162.278364 -2.49890671e-05 58.69869461
-0.0002729969583 -66.54247925 37.50969561
-4.000272997 -119.3556172 37.56964461
-31.142533 -2.49890671e-05 53.29976361
-0.0002729969583 -92.3945457 52.82157861
-3.327869997 -14.4621024 -45.62688239
-0.0002729969583 -226.8290447 36.25115761
-0.0002729969583 -98.51252577 -69.01395539
-0.0002729969583 -90.98005993 32.63258661
-4.000272997 -70.35677161 5.687024613
-4.000272997 -60.28618931 63.03033161
-86.325237 -2.49890671e-05 -44.71138639
-0.0002729969583 -105.3715417 -48.06268739
-213.21122 -2.49890671e-05 29.07731361
-0.0002729969583 -96.94383958 -28.37643139
-0.0002729969583 -40.28524133 36.68161261
-0.0002729969583 -154.4278896 -4.654950387
-221.299687 -2.49890671e-05 -7.427433387
-0.0002729969583 -112.5433655 -21.26145739
-0.0002729969583 -45.96934549 64.61757161
-67.42875 -2.49890671e-05 10.80542361
-0.0002729969583 -72.64321258 60.21547261
-95.809304 -2.49890671e-05 -60.53989239
-117.173704 -2.49890671e-05 -37.34682339
-0.0002729969583 -200.8938052 -41.43023539
-163.00522 -2.49890671e-05 39.12865261
-91.987105 -2.49890671e-05 -54.42076839
-241.176638 -2.49890671e-05 -37.61752839
-0.0002729969583 -197.4980124 28.08963361
-234.972031 -2.49890671e-05 57.03265361
-0.0002729969583 -224.4408612 -10.94762039
-202.123458 -2.49890671e-05 28.13907861
-115.419375 -2.49890671e-05 42.56726161
-0.0002729969583 -89.42715681 -25.90916839
-0.0002729969583 -111.2015976 62.76403861
-1.111145997 -103.7178443 5.879978613
-54.863762 -2.49890671e-05 -45.36501839
-165.991545 -2.49890671e-05 17.49110661
-0.0002729969583 -52.15628931 -69.11397739
-0.0002729969583 -4.468650219 -26.52282139
-0.0002729969583 -131.5435157 -1.890167387
-2.599641997 -2.49890671e-05 42.13062461
-0.0002729969583 -67.61745772 61.43862461
-245.077984 -2.49890671e-05 -0.09340338694
-0.0002729969583 -244.548591 45.42222861
-0.0002729969583 -63.67776515 58.30099261
-0.0002729969583 -94.16971933 38.38366761
-0.0002729969583 -58.96916952 52.12621761
-0.0002729969583 -132.6411191 -52.31812939
-0.0002729969583 -64.54468722 0.2082926131
-0.0002729969583 -168.4059934 -17.12278939
-0.0002729969583 -57.96840355 -51.24731639
-219.232589 -2.49890671e-05 45.38017961
-0.0002729969583 -198.4439206 -60.55916639
-54.796318 -2.49890671e-05 26.59879361
-194.81569 -2.49890671e-05 36.16274961
-0.0002729969583 -147.9314575 30.71528161
-31.994764 -2.49890671e-05 21.55030061
-156.771105 -2.49890671e-05 -36.40497239
0.142037003 -54.10401223 -73.43716239
-0.0002729969583 -98.22844327 42.96012061
-0.0002729969583 -165.2752121 38.51642861
-173.689035 -2.49890671e-05 41.75895861
-0.0002729969583 -114.7913542 -53.12009839
-0.0002729969583 -238.3210148 36.88736861
-145.98035 -2.49890671e-05 -64.40757539
-213.566567 -2.49890671e-05 65.96063261
-179.656075 -2.49890671e-05 -3.771451387
-0.0002729969583 -29.40402574 67.19727561
-0.0002729969583 -123.6792459 -42.15633839
-140.275846 -2.49890671e-05 1.285922613
-0.0002729969583 -70.92259326 -10.54072039
-0.0002729969583 -179.7377214 -60.64186639
-84.03514 -2.49890671e-05 20.80065461
-206.652494 -2.49890671e-05 -71.36563839
-23.686321 -2.49890671e-05 38.86865961
-0.0002729969583 -35.09492592 56.47516061
-1.325024997 -109.2687813 54.94514361
-3.932976997 -0.5000249891 -58.02916339
-133.262058 -2.49890671e-05 -27.47595039
-0.0002729969583 -77.64372389 -60.63806839
-0.0002729969583 -161.5006018 3.681388613
-162.797435 -2.49890671e-05 5.298520613
-0.0002729969583 -3.635414289 65.09008661
-167.713072 -2.49890671e-05 -30.61884139
2.180208003 -2.49890671e-05 -32.65356539
-0.0002729969583 -162.1782245 62.17028661
-0.0002729969583 -175.9907565 -21.66373139
-59.901472 -2.49890671e-05 -19.67705039
-29.132351 -2.49890671e-05 62.74800361
-0.0002729969583 -116.8732504 55.53773261
-0.0002729969583 -162.4720956 -41.60147139
-0.0002729969583 -17.76865103 -70.21755439
-0.0002729969583 -158.0713048 1.211836613
-207.582027 -2.49890671e-05 -66.78702139
-211.73447 -2.49890671e-05 -42.82834139
-0.0002729969583 -91.28973183 25.58254561
-0.0002729969583 -200.0099574 13.22933461
-0.0002729969583 -87.66886475 54.81051461
-80.087238 -2.49890671e-05 -55.06265439
-200.363533 -2.49890671e-05 -29.45258639
-0.0002729969583 -52.47493478 69.42860061
-0.0002729969583 -29.69353704 -34.92774139
-0.0002729969583 -111.3071694 -5.863970387
-93.231816 -2.49890671e-05 20.81807161
-0.0002729969583 -226.2968169 42.46770661
-127.881898 -2.49890671e-05 28.75965361
-140.107165 -2.49890671e-05 -10.27080539
-0.0002729969583 -60.83983853 71.94952261
-0.0002729969583 -159.0031905 52.82279461
-0.0002729969583 -217.558178 46.22013861
-0.0002729969583 -82.39941582 -58.77473439
-0.0002729969583 -81.4506573 -66.85422439
-0.0002729969583 -77.09825687 64.75685861
-187.611154 -2.49890671e-05 -34.72587339
-246.258596 -2.49890671e-05 13.98476961
-0.0002729969583 -231.9485364 12.19980361
-0.0002729969583 -176.8165806 -37.31939839
-0.0002729969583 -144.5609531 69.76876761
-65.949186 -2.49890671e-05 -38.33040139
-0.0002729969583 -193.4433586 -68.76092939
-208.302031 -2.49890671e-05 56.30928661
-0.0002729969583 -118.217512 23.02194461
-0.0002729969583 -166.2965832 -13.20962439
-88.058019 -2.49890671e-05 -35.25187639
-177.575881 -2.49890671e-05 -39.80907239
-0.0002729969583 -189.8250856 60.88958161
-217.001998 -2.49890671e-05 40.25295861
-22.64376 -2.49890671e-05 13.51074861
-99.468916 -2.49890671e-05 -54.70615639
-130.600486 -2.49890671e-05 24.74286861
-88.923602 -2.49890671e-05 -63.04395339
-242.120047 -2.49890671e-05 54.65233461
-0.0002729969583 -83.90189409 52.23935561
-0.0002729969583 -132.8791239 -7.199060387
-116.665868 -2.49890671e-05 14.54479061
-0.0002729969583 -142.2668146 32.85985561
-0.0002729969583 -36.44735758 50.03122061
-118.694439 -2.49890671e-05 46.45246661
-189.810826 -2.49890671e-05 70.74205561
-0.0002729969583 -170.4268435 26.40296061
-0.0002729969583 -123.7782995 -63.72954439
-0.0002729969583 -229.9778742 -27.16830239
-0.0002729969583 -183.6374395 -51.15589539
-123.379304 -2.49890671e-05 70.37579361
-181.417878 -2.49890671e-05 65.30886461
-0.0002729969583 -139.7250216 8.673787613
-84.166712 -2.49890671e-05 50.10993961
-0.0002729969583 -117.1883162 19.26082661
-0.0002729969583 -120.3181799 -19.74120639
-234.499151 -2.49890671e-05 -15.89492239
-22.481314 -2.49890671e-05 -73.63958639
-0.0002729969583 -215.0874883 -53.24853639
-0.0002729969583 -70.89025641 -44.38464339
-0.0002729969583 -79.27713921 -16.62086439
-19.354327 -2.49890671e-05 69.34486261
-0.0002729969583 -176.1255776 -2.506315387
-0.0002729969583 -172.1332246 -11.88922339
-0.0002729969583 -240.0517066 32.76164161
-0.0002729969583 -245.5329578 -31.35458439
-3.429071997 -164.8995015 -39.65451739
-191.541148 -2.49890671e-05 22.64475861
-166.697854 -2.49890671e-05 47.59103361
-117.716707 -2.49890671e-05 35.15968961
-0.0002729969583 -52.17220878 -61.16149939
-0.0002729969583 -31.09744923 39.35123261
-0.0002729969583 -177.4493054 26.76499761
-0.0002729969583 -155.9076339 -57.61981339
-0.0002729969583 -184.5524226 3.449882613
-0.331175997 -2.49890671e-05 9.337204613
-0.0002729969583 -3.104020899 -37.61294439
-0.0002729969583 -156.0451015 -62.20974939
-0.0002729969583 -156.6718803 8.648556613
-0.0002729969583 -20.53726284 28.20183561
-0.0002729969583 -63.68556563 -11.48610739
-0.0002729969583 -74.44304596 -18.50825039
-0.0002729969583 -146.9457319 39.82681761
-0.0002729969583 -49.82514266 5.456151613
-0.0002729969583 -4.681574179 -7.341171387
-0.0002729969583 -117.2845205 70.14736461
-0.0002729969583 -88.39897978 -6.996232387
-93.814098 -2.49890671e-05 61.13685261
-93.125092 -2.49890671e-05 -7.037016387
2.155889003 -2.49890671e-05 -9.109778387
-102.829908 -2.49890671e-05 -23.79574139
-137.752441 -2.49890671e-05 60.06420661
-0.0002729969583 -245.071939 -10.14088139
-0.0002729969583 -103.7312439 -31.38695139
-0.0002729969583 -131.1322559 47.25397261
-0.0002729969583 -20.63934794 -23.73778739
-0.0002729969583 -207.9783405 -67.03730539
-47.148644 -2.49890671e-05 63.54221061
-9.399695773e-05 -223.4452091 72.00171861
-0.0002729969583 -34.31555384 -9.780358387
-202.528194 -2.49890671e-05 44.58713561
-169.354352 -2.49890671e-05 -65.36271839
-0.0002729969583 -38.25000769 -47.11217139
-0.0002729969583 -181.1293869 44.91934761
-0.0002729969583 -16.2230258 32.33353161
-0.0002729969583 -67.96776571 -14.28105239
-169.770053 -2.49890671e-05 -38.30023439
-59.093358 -2.49890671e-05 -63.95986739
-79.098465 -2.49890671e-05 -39.14750939
-170.521943 -2.49890671e-05 -23.14190039
-0.0002729969583 -53.02800249 -24.44612339
-0.0002729969583 -53.70693792 42.18654961
-0.0002729969583 -159.0058945 -3.611729387
-0.0002729969583 -117.421168 26.40254361
-0.0002729969583 -140.8187594 4.515695613
-0.0002729969583 -71.8537871 -64.71282839
-0.0002729969583 -223.1687955 -34.87526839
-0.0002729969583 -64.38629267 -32.28078639
-0.0002729969583 -43.14310917 -4.366522387
-146.210811 -2.49890671e-05 -43.66958939
-186.08373 -2.49890671e-05 6.569924613
-104.146704 -2.49890671e-05 -59.01715439
-206.00963 -2.49890671e-05 -27.89076639
-113.61498 -2.49890671e-05 -45.48727339
-0.0002729969583 -211.4841304 8.278570613
-0.0002729969583 -59.71352475 -69.13369739
-202.02223 -2.49890671e-05 -62.72847539
-194.874622 -2.49890671e-05 -41.26438239
-45.653949 -2.49890671e-05 -22.62473239
-0.0002729969583 -25.14201563 32.70417861
