# .PCD v0.7 - Point Cloud Data file format
VERSION 0.7
FIELDS x y z
SIZE 4 4 4
TYPE F F F
COUNT 1 1 1
WIDTH 1173
HEIGHT 1
VIEWPOINT 0 0 0 1 0 0 0
POINTS 1173
DATA ascii
111.4586348 89.41993239 -9.738825702e-05
-52.14137518 -2.460831229e-05 -78.19349539
42.78253382 19.79126739 -9.738825702e-05
-124.1021832 34.36824439 -9.738825702e-05
17.29120082 -2.460831229e-05 -109.8640504
-89.38152118 -2.460831229e-05 -69.48477639
-22.85426618 -2.460831229e-05 -8.845335388
118.9997508 108.1112224 -34.23483439
57.13155282 114.0912174 -9.738825702e-05
118.9997508 105.4083944 -1.948242388
133.3538638 -2.460831229e-05 -118.9043694
77.22494482 120.9414214 -9.738825702e-05
-109.3680792 -2.460831229e-05 -196.9966994
65.55091782 -2.460831229e-05 -121.9448444
-123.8907292 -2.460831229e-05 -89.11627739
118.9997508 48.23398739 -175.5766784
-15.44135818 -2.460831229e-05 -215.4661534
-67.85230118 -2.460831229e-05 -48.82561839
-97.17422518 67.99997539 0.3623026117
122.9997508 43.89218939 -236.0415494
118.9997508 64.63866239 -160.4451664
-11.22921218 -2.460831229e-05 -237.2436904
75.60248182 85.52385639 -9.738825702e-05
52.40216682 -2.460831229e-05 -68.85100239
66.88500282 30.20632339 -9.738825702e-05
70.52726882 -2.460831229e-05 -235.5525014
-124.8204182 65.49579439 -9.738825702e-05
-33.02745518 -2.460831229e-05 -106.5509584
0.8839008216 -2.460831229e-05 -153.5978604
63.18682582 -2.460831229e-05 -84.52039139
-50.61540818 -2.103843608 -9.738825702e-05
-15.93165818 -2.460831229e-05 -175.2238174
62.17389882 -2.460831229e-05 -42.32109539
141.6421428 -2.460831229e-05 -204.0545054
65.62902982 55.09717739 -9.738825702e-05
14.07036182 -2.460831229e-05 -209.9012544
-89.85736518 -2.460831229e-05 -207.9700484
103.6781808 12.48173439 -9.738825702e-05
-143.2972442 14.51422339 -9.738825702e-05
118.9997508 58.81592439 -75.62906239
42.74781582 -2.460831229e-05 -235.9605104
-90.10870618 -2.460831229e-05 -123.1861764
-78.72387018 -2.460831229e-05 -179.4185424
122.9997508 77.22576339 -125.4582684
-51.35621018 -2.460831229e-05 -113.3638284
122.9997508 29.89892539 -162.6338764
-29.02149518 -2.460831229e-05 -72.50994739
-42.05446118 -2.460831229e-05 -237.4331034
-113.6536082 -2.460831229e-05 -39.75068039
103.8305858 -2.460831229e-05 -110.9634504
122.9997508 8.159816392 -133.6898514
-89.99982118 -2.460831229e-05 -47.78683939
-139.9068922 -2.460831229e-05 -56.44868439
18.42373082 -2.460831229e-05 -142.9712914
-31.46562618 -2.460831229e-05 -165.6648134
-45.99360618 -2.460831229e-05 -45.82676239
122.9997508 40.15416139 -9.203591388
-126.3315882 -2.460831229e-05 -204.4034684
-135.9211412 -2.460831229e-05 -175.0350344
118.9997508 35.52107739 -130.5968874
122.9997508 7.997293392 -85.49497939
122.9997508 0.5541343917 -66.24203539
-6.260681178 -2.460831229e-05 -8.104524388
51.03683382 0.7381813917 -9.738825702e-05
-6.274555178 -2.460831229e-05 -113.8386684
-21.86149618 53.10679339 -9.738825702e-05
122.9997508 81.33319039 -57.21594539
118.9997508 36.15304039 -248.9026904
-85.90833818 51.39818339 -9.738825702e-05
133.0080458 -2.460831229e-05 -171.9603194
7.453166822 43.67820039 -9.738825702e-05
-98.18846218 -2.460831229e-05 -86.95352839
11.83343982 -2.460831229e-05 -237.6958114
56.12247582 92.06222139 -9.738825702e-05
108.4475388 -2.460831229e-05 -226.2923074
-8.654761178 30.02045239 -9.738825702e-05
45.40356582 -2.460831229e-05 -216.7842844
-40.63596718 -2.460831229e-05 -216.2802854
122.9997508 11.35480339 -44.67788939
-77.24664918 11.96942439 -9.738825702e-05
-52.74883118 -2.460831229e-05 -178.0160264
92.18362182 90.70115639 -9.738825702e-05
62.42690382 -2.460831229e-05 -9.788110388
35.20640382 -2.460831229e-05 -28.44357639
122.9997508 12.24753039 -181.6167664
-98.86718518 -2.460831229e-05 -173.6345234
122.9997508 11.69260439 -26.68456539
-97.98890418 -2.460831229e-05 -250.5091014
122.9997508 81.40686339 -22.69710339
130.0282668 -2.460831229e-05 -18.03029039
122.9997508 23.22515639 -209.9516754
-59.32068518 13.06561939 -9.738825702e-05
-110.4262592 40.62763839 -9.738825702e-05
82.56087082 -2.460831229e-05 -96.74989239
-14.52001318 66.47741539 -9.738825702e-05
47.74541182 130.9472104 1.798286612
-137.9441852 45.09563439 -9.738825702e-05
107.6524808 -2.460831229e-05 -192.5421114
-67.74052918 -2.460831229e-05 -201.9100484
95.94702782 62.44469639 -9.738825702e-05
-134.5431232 -2.460831229e-05 -104.4374614
118.9997508 50.80089739 -141.9658154
7.708032822 85.25493739 -9.738825702e-05
143.2177568 -2.460831229e-05 -236.0751364
4.243678822 -2.460831229e-05 -18.12162939
-64.74740818 67.99997539 1.867493612
18.50072782 -2.368440608 -67.22197039
-59.05994418 -2.460831229e-05 -17.48414339
48.19525182 -2.460831229e-05 -166.0255444
-66.65758618 -2.460831229e-05 -80.97221339
-84.41509418 -0.9999556083 -9.738825702e-05
-78.72607818 -2.460831229e-05 -139.9366984
-36.03225518 -2.460831229e-05 -124.1735524
118.9997508 24.20019939 -94.68528839
110.4400038 -2.460831229e-05 -93.73160939
35.11066382 -2.460831229e-05 -203.6212314
-15.23830618 -2.460831229e-05 -94.61982439
127.3585988 -2.460831229e-05 -96.23488839
17.44231782 -2.460831229e-05 -177.2773074
-37.65444718 33.99719139 -9.738825702e-05
-142.3133302 -2.460831229e-05 -31.25707839
49.82111182 -2.460831229e-05 -27.50119639
-127.9963902 -2.460831229e-05 -234.5052404
-47.18902118 -2.460831229e-05 -91.73816339
-0.7725301784 -2.460831229e-05 -209.4460144
-122.9992722 51.17335939 2.108376612
130.0777858 -2.460831229e-05 -211.8896864
28.08677782 -2.460831229e-05 -47.17067039
118.9997508 34.15704739 -72.18926439
118.9997508 64.89568039 -130.2648634
135.8570898 105.1735444 -9.738825702e-05
83.60052582 -2.460831229e-05 -57.74834639
122.9997508 31.60580339 -45.28757739
-25.36203918 -2.460831229e-05 -23.54838139
-72.97014718 -2.460831229e-05 -96.72141539
-95.60264618 -2.460831229e-05 -157.4789694
107.9885788 -2.460831229e-05 -133.7211954
37.66500682 76.94202239 -9.738825702e-05
-82.63079618 -2.460831229e-05 -195.0812124
109.7935728 -2.460831229e-05 -0.9512783883
-73.35689118 -2.460831229e-05 -35.18350839
118.9997508 65.05078139 -18.69188839
-120.5671632 -2.460831229e-05 -151.7209214
113.1640518 -2.460831229e-05 -35.25832039
118.9997508 35.80958539 -23.33932739
-51.93102818 44.77456439 -9.738825702e-05
129.5266268 68.55095339 -9.738825702e-05
118.9997508 10.49867239 -206.5944264
-67.80930618 -2.460831229e-05 -232.5034684
-72.66284518 -2.460831229e-05 -112.7226594
118.9997508 51.07960339 -209.2868534
79.39342382 -2.460831229e-05 -30.95893739
-17.51710618 -2.460831229e-05 -132.0511024
129.4609148 -2.460831229e-05 -48.37426439
129.7351798 -2.460831229e-05 -158.6866694
50.56721582 -2.460831229e-05 -55.34066239
126.7058648 -2.460831229e-05 -185.4515694
118.9997508 57.39511639 -188.1556044
-46.10517518 -2.460831229e-05 -32.48913139
7.273117822 -2.460831229e-05 -81.62268839
81.35687482 -2.460831229e-05 -128.8605544
-44.77150518 -2.460831229e-05 -166.2142074
121.2517558 18.18274839 -1.500097388
122.9997508 46.78266939 -96.15771139
-99.70726418 12.56684739 -9.738825702e-05
15.30563582 56.93687039 -9.738825702e-05
-102.1823702 -2.460831229e-05 -21.00019539
-70.54190018 -2.460831229e-05 -155.7205234
-129.8991142 22.43941039 -9.738825702e-05
-74.45009018 43.50562939 -9.738825702e-05
121.8617558 -2.460831229e-05 -110.2345504
118.9997508 7.940177392 -251.1644024
118.9997508 13.71367839 -72.75136639
31.83501782 27.20281939 -9.738825702e-05
90.41182082 12.16602639 -9.738825702e-05
118.9997508 22.76221739 -109.4100164
91.61808582 116.1748394 -9.738825702e-05
118.9997508 37.70230039 -143.5524444
118.9997508 12.81271339 -150.9489374
51.07104082 -2.460831229e-05 -98.37308539
-55.83650118 -2.460831229e-05 -54.44958439
94.27041582 -2.460831229e-05 -247.0788814
-139.9060742 -2.460831229e-05 -69.50062139
-118.4849122 -2.460831229e-05 -52.68495739
118.9997508 57.91628939 -45.35312839
122.9997508 34.41539139 -117.0641174
122.9997508 11.79225539 -233.4383004
-126.7335492 -2.460831229e-05 -165.9878234
31.59478282 109.6998374 -9.738825702e-05
122.9997508 48.82433239 -113.0261274
75.23935182 -2.460831229e-05 -14.14684139
80.50240382 -2.460831229e-05 -227.5731214
54.56548682 61.47968639 -9.738825702e-05
107.8695478 66.89594239 -9.738825702e-05
-32.27098718 -2.460831229e-05 -52.53151539
29.02104182 -2.460831229e-05 -153.5224594
-9.711406178 -2.460831229e-05 -252.2259014
5.921914822 -2.460831229e-05 -192.9152864
0.5120288216 -2.460831229e-05 -124.5208654
69.17250082 42.63920939 -9.738825702e-05
122.9997508 34.79795139 -58.54983739
99.10916182 -2.460831229e-05 -150.6072024
41.75845682 -2.460831229e-05 -250.7438344
61.64708482 -2.460831229e-05 -202.3233784
101.8962968 -2.460831229e-05 -10.96550739
-84.39522618 -2.460831229e-05 -228.5984214
-21.86950118 37.46739639 -9.738825702e-05
-16.12435718 -2.460831229e-05 -187.6172704
118.9997508 92.73930139 -81.43685139
-21.36426018 8.527908392 -9.738825702e-05
118.9997508 72.87921939 -94.43944339
33.08072982 -2.460831229e-05 -10.54788839
-98.61911918 52.37082339 -9.738825702e-05
122.9997508 45.20789839 -221.4321334
98.88890682 32.63763139 -9.738825702e-05
101.2542988 -2.460831229e-05 -38.27315139
-115.9330702 -2.460831229e-05 -250.5560834
28.42524382 -2.460831229e-05 -120.5049074
122.9997508 60.84528039 -147.6984774
31.15356682 89.12084939 -9.738825702e-05
69.24589382 -2.460831229e-05 -251.5754954
99.38623582 -2.460831229e-05 -76.44485639
-99.69520718 -2.460831229e-05 -132.1468494
-35.71748318 22.08424939 -9.738825702e-05
118.9997508 32.72174139 -193.6057924
-102.0195392 -2.460831229e-05 -69.17632339
109.2727858 -2.460831229e-05 -240.3586584
-120.7220822 -2.460831229e-05 -193.0387894
24.91180682 -2.460831229e-05 -233.5772494
24.57824582 -2.460831229e-05 -34.03219139
118.9997508 90.84805739 -50.99711839
-17.09952318 -2.460831229e-05 -40.12727739
122.9997508 71.45795639 -82.81094539
96.03725982 -2.460831229e-05 -217.7628494
122.9997508 50.63792839 -54.12445139
-27.34600118 -2.460831229e-05 -216.0438394
122.9871688 83.66942439 -1.500097388
16.37319782 8.859365392 -9.738825702e-05
118.9997508 67.71266339 -67.76458039
39.17675682 8.493515392 -9.738825702e-05
-112.2534182 -2.460831229e-05 -90.76458439
122.9997508 93.24915739 -30.20367939
-113.1959042 -2.460831229e-05 -211.6915364
118.9997508 12.67883939 -117.6103544
100.4700078 127.8196174 -9.738825702e-05
-16.07387418 -2.460831229e-05 -143.9289854
16.52587782 -2.460831229e-05 -94.56874939
-41.77937918 -2.460831229e-05 -200.9360804
79.14993982 -2.460831229e-05 -161.6647284
115.8515558 -2.460831229e-05 -214.8934214
118.9997508 69.45431839 -43.64197439
65.28002282 69.64950839 -9.738825702e-05
48.14315182 -2.460831229e-05 -120.7559814
-111.6295722 -2.460831229e-05 -173.6853504
-9.590155178 -2.460831229e-05 -61.32812039
122.9997508 10.76200339 -60.67394039
45.62234782 112.7412864 -9.738825702e-05
-142.5972022 -2.460831229e-05 -248.0686824
119.0834438 56.05444039 -240.6310834
18.44804082 89.52232339 -9.738825702e-05
95.01723382 -2.460831229e-05 -118.4348404
-139.9561122 -2.460831229e-05 -119.3224554
51.43138082 102.6090724 -9.738825702e-05
-98.54475518 -2.460831229e-05 -98.46843139
-108.6765092 67.99997539 0.9012816117
50.86583582 -2.460831229e-05 -190.1616594
133.9118318 50.94527039 -9.738825702e-05
84.65592482 59.21470639 -9.738825702e-05
1.605151822 -2.460831229e-05 -167.8749254
76.68621382 11.23953939 -9.738825702e-05
118.9997508 88.35449439 -65.62673639
-3.547536178 -2.460831229e-05 -30.91084139
51.62876282 -2.460831229e-05 -109.9169194
108.6732138 100.4558444 -9.738825702e-05
-61.88890518 -2.460831229e-05 -217.8946414
-121.9992722 -2.096927608 1.563814612
80.17875782 -2.460831229e-05 -204.1439384
-57.49093218 -2.460831229e-05 -66.10960839
-103.3736412 -2.460831229e-05 -149.2535824
122.9997508 36.71567939 -90.82499439
122.9997508 30.74493439 -239.8163754
81.85677682 -2.460831229e-05 -141.3342694
40.98184582 -2.460831229e-05 -76.01268139
125.8886868 -2.460831229e-05 -145.4043944
118.9997508 117.8074654 -6.037849388
38.11555082 -2.460831229e-05 -95.46851739
118.9997508 37.23039939 -34.61089539
90.46439782 -2.460831229e-05 -9.177525388
-59.15682618 -2.460831229e-05 -121.3610214
55.07494982 -2.460831229e-05 -238.1099884
-62.60364318 41.60554839 -9.738825702e-05
46.17572682 87.08260639 -9.738825702e-05
-134.5089072 -2.460831229e-05 -186.0438894
25.61093582 99.41824539 -9.738825702e-05
123.5007278 -0.4894096083 -78.42410039
118.9997508 55.83925839 -32.26419839
99.90984182 -2.460831229e-05 -51.05090739
23.44124082 -2.460831229e-05 -204.1530664
3.238289822 26.74635939 -9.738825702e-05
-121.4275192 -2.460831229e-05 -76.14007339
-129.6894432 -2.460831229e-05 -9.663266388
134.8376748 -2.460831229e-05 -229.0182074
-118.2920482 -2.460831229e-05 -113.8879684
-77.06071518 -2.460831229e-05 -74.73502339
31.35538382 -2.460831229e-05 -82.49315839
118.9997508 41.86076539 -165.4359854
74.34442982 -2.460831229e-05 -89.57361539
134.9337498 -2.460831229e-05 -105.6130074
-77.21598318 -2.460831229e-05 -59.39222839
-108.4739162 -2.460831229e-05 -186.1727104
4.757391822 74.80565439 -9.738825702e-05
118.9997508 57.19545739 -169.4558694
28.04907182 -2.460831229e-05 -169.6135494
102.9983568 -2.460831229e-05 -177.6198504
120.5701538 9.904523392 -15.90126239
122.9997508 20.22225539 -220.3372404
139.1834358 -2.460831229e-05 -12.28289839
118.9997508 106.5327284 -13.99589839
19.56008382 35.32091239 -9.738825702e-05
118.9997508 25.10393939 -133.3141334
-57.91047618 -2.460831229e-05 -196.1657334
38.94572882 -2.460831229e-05 -142.7306354
-72.67247818 56.62919339 -9.738825702e-05
-87.10390018 32.88941139 -9.738825702e-05
-67.22978018 -2.460831229e-05 -10.48772639
118.9997508 -1.559703608 -226.9400624
122.9997508 100.9988424 -41.11369439
-58.52539118 -2.460831229e-05 -88.43263439
-41.79929618 -2.460831229e-05 -248.0921864
-125.2597922 -2.460831229e-05 -135.1842514
-135.5535152 -2.460831229e-05 -209.7306564
122.9997508 55.19463439 -12.14057139
-33.23500818 -2.460831229e-05 -6.507066388
33.58027882 51.50403239 -9.738825702e-05
108.4018418 54.99333639 -9.738825702e-05
122.9997508 37.67384239 -175.1679714
5.016484822 -2.460831229e-05 -141.7950774
122.9997508 8.626123392 -192.8137894
109.4216398 110.9925754 -9.738825702e-05
36.80246782 -2.460831229e-05 -188.5625524
47.13159882 68.97511539 -9.738825702e-05
118.9997508 65.69049239 -6.087385388
54.76924482 -2.460831229e-05 -211.2249554
118.9997508 66.15521339 -102.8322154
123.8454118 28.24869639 -9.738825702e-05
-21.63105218 -2.460831229e-05 -102.9449574
-84.73456918 -2.460831229e-05 -37.48088239
-40.01994618 -2.460831229e-05 -226.7411874
131.9789858 13.92717639 -9.738825702e-05
-55.53849118 -2.460831229e-05 -155.4238494
-104.0727612 -2.460831229e-05 -34.04253639
118.9997508 69.89139139 -119.1749234
122.9997508 49.35555639 -72.85409939
118.9997508 51.32634539 -198.3839594
122.9997508 92.64041739 -6.774603388
-1.594911178 -2.460831229e-05 -53.60081939
-79.43152318 -2.460831229e-05 -9.076096388
73.05644582 -2.460831229e-05 -211.7248064
37.55491782 -2.460831229e-05 -162.6443464
8.662255822 -2.460831229e-05 -41.94195539
136.8284858 -2.460831229e-05 -41.05587839
22.79370082 19.75617039 -9.738825702e-05
136.3710028 -1.924150608 -88.43403939
-137.8921602 -2.460831229e-05 -237.5140034
-115.4466192 -2.460831229e-05 -127.3508484
118.9997508 43.09886439 -120.9352334
68.20181882 115.9695064 -9.738825702e-05
-111.0449782 -2.460831229e-05 -26.46269139
70.53324682 -2.460831229e-05 -36.31582439
82.69136582 34.37164539 -9.738825702e-05
-83.67292518 -2.460831229e-05 -94.90568139
122.9997508 59.19139239 -63.62537439
122.9997508 21.47906239 -47.04928339
120.7895148 -2.460831229e-05 -163.7217194
118.9997508 23.61342639 -70.17518439
70.91847682 -2.460831229e-05 -49.56086239
122.9997508 69.30327139 -170.0216084
-49.42904718 56.14494339 -9.738825702e-05
-66.54407618 -2.460831229e-05 -133.0344494
-35.11213518 -2.460831229e-05 -26.42280839
-88.83964318 -2.460831229e-05 -57.87827839
-4.025357178 -2.460831229e-05 -190.6164984
130.5560598 -2.460831229e-05 -129.0987544
-35.04053518 57.76188939 -9.738825702e-05
16.14937482 -2.460831229e-05 -228.4628294
93.02983482 42.32366239 1.826921612
75.48990282 -2.460831229e-05 -68.53925139
118.9997508 22.02329039 -235.3521514
8.481428822 -2.460831229e-05 -58.68954039
99.51381082 21.67837539 -9.738825702e-05
1.165803822 7.157319392 -9.738825702e-05
-120.2754142 19.44457539 -9.738825702e-05
7.296103822 -2.460831229e-05 -108.6676234
122.9997508 105.0212474 -25.54767439
118.9997508 35.70453439 -220.5643764
-62.71772418 -2.460831229e-05 -241.8219714
122.9997508 18.48739439 -172.1199984
75.71147282 54.69899539 -9.738825702e-05
-12.11299418 -0.6695566083 -9.738825702e-05
122.9997508 78.51845439 -32.26791239
116.7335338 -2.460831229e-05 -186.1272004
-61.70186718 -2.460831229e-05 -111.6970974
1.195057822 -2.460831229e-05 -241.9603594
85.48754282 -2.460831229e-05 -0.5377013883
-131.9669142 0.8530693917 -9.738825702e-05
134.2113728 4.244225392 -9.738825702e-05
122.9997508 79.26168639 -101.5127914
-107.5835832 -2.460831229e-05 -227.4030814
55.11075182 123.8024154 -9.738825702e-05
126.6853838 40.09311639 -9.738825702e-05
18.34541482 -0.9249116083 -9.738825702e-05
114.4733848 38.76892139 -9.738825702e-05
92.70442882 -2.460831229e-05 -108.8189854
122.9997508 57.25534939 -178.4913404
63.44355182 -0.7622356083 -9.738825702e-05
-40.82129418 -2.460831229e-05 -100.5160564
99.96337682 -2.460831229e-05 -101.9303384
52.38697582 -2.460831229e-05 -37.98362339
-98.61932018 24.48153439 -9.738825702e-05
-18.34691018 -2.460831229e-05 -226.7403284
54.43441582 -2.460831229e-05 -80.10397639
-124.4592522 -2.460831229e-05 -243.6286314
7.305777822 -2.460831229e-05 -202.5927504
92.96398982 -2.460831229e-05 -199.5092194
20.33333682 -2.460831229e-05 -249.3397854
117.6592358 -2.460831229e-05 -140.1788094
23.15137982 68.90924539 -9.738825702e-05
118.9997508 41.84275639 -183.5331124
122.9997508 32.98884939 -81.85054839
118.9997508 42.00643839 -201.1088974
122.2504148 101.2877184 -60.42934339
-119.5924842 -2.460831229e-05 -229.0246014
70.21606182 -2.460831229e-05 -108.7193864
26.94224282 -2.460831229e-05 -108.8990464
118.9997508 22.26729939 -153.0972014
-82.66589118 -2.460831229e-05 -116.9982314
-26.29116618 -1.885410608 -9.738825702e-05
113.8197138 74.52141739 -9.738825702e-05
-4.713169178 57.20929939 -9.738825702e-05
54.11999182 -2.460831229e-05 -17.05268239
142.4408578 -2.460831229e-05 -122.1163724
8.168033822 95.16749839 1.346620612
122.9997508 60.09571139 -122.9446304
-86.14085418 -2.460831229e-05 -16.12362339
122.9997508 78.44105439 -48.04566239
118.9997508 35.63272039 -156.0619644
61.96005382 82.69074539 -9.738825702e-05
-55.48763418 -2.460831229e-05 -44.44766439
118.9997508 29.07195339 -16.52442239
118.9997508 20.17001439 -185.2255944
66.19081982 -2.460831229e-05 -75.42972239
111.8386638 18.82340539 -9.738825702e-05
81.11103982 129.6504214 -9.738825702e-05
140.0660818 -2.460831229e-05 -50.01530839
118.9997508 84.94313139 -11.70522739
122.9997508 15.80169739 -92.68388639
-19.15546518 -2.460831229e-05 -242.7435134
-102.7718422 -2.460831229e-05 -6.004414388
118.9997508 53.70454539 -105.9343084
-46.34774818 11.54031339 -9.738825702e-05
-23.73257418 -2.460831229e-05 -181.9760154
-93.58848818 -2.460831229e-05 -197.3137454
74.26677682 24.29495639 -9.738825702e-05
46.95370482 49.62724339 -9.738825702e-05
57.10070582 31.01158739 -9.738825702e-05
-107.6459782 -2.460831229e-05 -246.0476374
-19.32722318 -2.460831229e-05 -30.79855639
-116.7444442 -2.460831229e-05 -66.88727839
62.56468882 -2.460831229e-05 -151.2197384
122.9997508 55.58798739 -159.7697844
133.8259728 -2.460831229e-05 -27.52791839
-53.29860018 -2.460831229e-05 -24.94516339
64.78692182 -2.460831229e-05 -134.0318924
-24.71705018 -2.460831229e-05 -191.4848504
-67.49142918 22.75413839 -9.738825702e-05
93.07623782 53.70307839 1.968694612
118.9997508 13.62439239 -141.5767404
134.8738488 -2.460831229e-05 -68.21385239
-21.68157318 -2.460831229e-05 -87.78092239
86.01809782 -2.460831229e-05 -66.81449139
112.6915298 132.7659054 1.863574612
-27.32285618 -2.460831229e-05 -127.6086154
-127.6485402 -2.460831229e-05 -54.47291239
-95.14165618 -2.460831229e-05 -223.6140314
-33.85161618 -2.460831229e-05 -148.8324044
40.84720782 29.60457439 -9.738825702e-05
91.71334582 -2.460831229e-05 -83.51256739
118.9997508 64.38168039 -139.5541564
43.94884982 -2.460831229e-05 -178.3751564
114.7766388 48.06701839 -9.738825702e-05
-87.45383218 -2.460831229e-05 -153.0577214
-49.48780718 -2.460831229e-05 -138.8161384
-130.3728792 -2.460831229e-05 -196.0725374
112.8491788 -2.460831229e-05 -108.2771524
-117.5057272 -2.460831229e-05 -164.3975214
122.9997508 43.24980539 -105.6897104
142.1358198 -2.460831229e-05 -173.0292274
118.9997508 46.45696239 -30.38881239
-132.1998742 -2.460831229e-05 -129.2067234
-43.94137618 -2.460831229e-05 -5.895453388
118.9997508 8.861281392 -52.67922039
120.3509978 -2.460831229e-05 -130.5706304
118.9997508 16.15569739 -127.3822074
138.1559208 82.78519739 -9.738825702e-05
119.6279358 -2.460831229e-05 -88.27788639
118.9997508 0.06788939169 -42.25237739
122.9997508 28.02842339 -249.8775834
122.9997508 44.61114739 -136.6166784
118.9997508 14.26509939 -37.03969339
121.4763148 72.63925939 -156.8873724
122.9997508 53.44710039 -231.4469624
-32.75632418 -2.460831229e-05 -246.7253334
122.4535618 114.2481114 -25.95647139
41.47651982 -2.460831229e-05 -60.92879339
130.1514618 -2.460831229e-05 -8.999073388
122.9997508 5.212250392 -121.9648074
-93.33417718 -2.460831229e-05 -23.17062339
142.6831608 26.86302939 -9.738825702e-05
118.9997508 74.02019539 -61.32133239
134.8578778 -2.460831229e-05 -146.2433424
48.00217682 10.24069939 -9.738825702e-05
-3.089353178 70.41367139 -9.738825702e-05
119.4661518 -2.460831229e-05 -28.65568539
118.9997508 87.12612239 -99.80172339
89.75001982 73.93733739 -9.738825702e-05
107.2822368 -2.460831229e-05 -28.48209639
-32.12183418 41.33469639 -9.738825702e-05
-68.92087118 -2.460831229e-05 -167.7145354
122.9997508 52.48204639 -82.91340039
36.84766682 -2.460831229e-05 -2.449911388
83.76289682 -2.460831229e-05 -195.0140314
23.50072782 -2.489277608 -75.54508939
23.72901582 -2.460831229e-05 -130.7534554
118.9997508 21.32068839 -162.3286914
89.28421982 -2.460831229e-05 -170.9895444
33.62301982 -2.460831229e-05 -231.8955354
-35.68534018 -2.460831229e-05 -207.3629904
-50.90109818 -2.460831229e-05 -234.8513394
118.9997508 42.77705439 -16.61048839
73.61591082 -2.460831229e-05 -98.35099839
118.9997508 57.50401439 -23.22684839
123.9226708 121.8731554 -9.738825702e-05
11.39205182 -2.460831229e-05 -186.0423784
59.17477382 -2.460831229e-05 -187.3864774
28.04886482 -2.460831229e-05 -188.8105054
-23.68444618 -2.460831229e-05 -171.1596174
82.51754982 -2.460831229e-05 -236.0854014
67.21570182 -2.460831229e-05 -168.7505854
142.8267078 -2.460831229e-05 -151.4555324
105.7903308 38.18282339 -9.738825702e-05
-56.31592618 -2.460831229e-05 -144.4529974
136.8277208 -2.460831229e-05 -196.8182254
124.2831348 -2.460831229e-05 -57.69160439
110.6843458 -2.460831229e-05 -68.44656539
107.5098278 -2.460831229e-05 -212.7522324
118.9997508 79.71987839 -86.30636339
64.83862882 -2.460831229e-05 -229.1023874
74.78174882 -2.460831229e-05 -57.42594739
-3.163634178 -2.460831229e-05 -234.2763404
-126.4218252 -2.460831229e-05 -107.2179724
121.8501068 65.07691739 -190.6750374
105.0030798 -2.460831229e-05 -119.4509184
85.18855282 -2.460831229e-05 -183.7361334
122.9997508 87.93453639 -75.59361139
-91.72093418 -2.460831229e-05 -179.7099064
36.88216282 -2.460831229e-05 -121.6773184
31.34469182 -2.460831229e-05 -72.77004339
-121.0471152 -2.460831229e-05 -44.54217539
122.9997508 24.22412939 -24.27497939
122.9997508 21.98994839 -101.8861934
23.63646882 55.11183539 -9.738825702e-05
-124.1404622 -2.460831229e-05 -126.4516814
10.78983482 -2.460831229e-05 -119.7232204
36.67021182 68.49725339 -9.738825702e-05
61.64899382 98.22748639 1.934368612
-128.9768122 -2.460831229e-05 -24.40356139
-59.95065318 4.615881392 -9.738825702e-05
122.9997508 51.84286339 -39.30495739
-135.1093072 -2.460831229e-05 -164.7397754
118.9997508 7.552154392 -171.6581784
105.2189718 -2.460831229e-05 -87.07279439
122.9997508 74.17816039 -110.2627614
44.86031282 121.1560894 -9.738825702e-05
118.9997508 77.01799139 -137.0595344
122.9997508 4.468426392 -215.2728974
93.46329482 -2.460831229e-05 -208.5406784
-135.0519912 53.01480139 -9.738825702e-05
-143.4703182 -2.460831229e-05 -16.21802639
-131.3540902 -2.460831229e-05 -140.9699354
16.27599682 -2.460831229e-05 -199.7790464
118.9997508 76.84031839 -39.67094939
-44.17550518 -2.460831229e-05 -54.79422839
110.8300248 -2.460831229e-05 -44.13369739
-63.04504518 -2.460831229e-05 -40.81834739
122.9997508 40.14809239 -47.96003039
-27.10120518 -2.460831229e-05 -62.83606739
-14.13005918 -2.460831229e-05 -206.0765274
122.9997508 28.26408339 -63.73035839
118.9997508 32.02915239 -201.9088614
27.51153082 -2.460831229e-05 -89.88403439
-25.34942118 -2.460831229e-05 -110.3987644
-28.53286918 -2.460831229e-05 -15.85454339
82.51522482 -2.460831229e-05 -88.02105439
13.65422882 -2.460831229e-05 -218.2029534
136.8968698 -2.460831229e-05 -241.4661714
44.38454482 -2.460831229e-05 -33.78001339
5.927324822 54.73940339 -9.738825702e-05
46.10350082 -2.460831229e-05 -243.6699364
-122.6279642 -2.460831229e-05 -143.6808524
118.9997508 10.08275339 -240.4956284
-33.38027918 -2.460831229e-05 -80.42058439
10.26642482 -2.460831229e-05 -73.90197439
99.89150282 -2.460831229e-05 -189.6559894
-2.342972178 -2.460831229e-05 -217.5749174
-141.0751152 -2.460831229e-05 -203.5665374
-13.11035518 8.038242392 -9.738825702e-05
68.41561382 124.2342264 -9.738825702e-05
80.35568282 -2.460831229e-05 -22.76185439
-100.9382632 -2.460831229e-05 -192.7206164
122.9997508 60.52600539 -211.2043794
30.70888482 17.53003239 -9.738825702e-05
-98.33242918 -2.460831229e-05 -57.65608839
8.329034822 -2.460831229e-05 -94.23393639
116.2429148 -2.460831229e-05 -12.50587639
14.48785082 16.83558539 -9.738825702e-05
122.9997508 60.64338339 -37.56034939
72.23715882 -2.460831229e-05 -157.2682814
-45.50108118 -2.460831229e-05 -107.6422294
122.9997508 73.53879639 -2.704290388
-83.72969218 -2.460831229e-05 -24.54667339
65.92833782 -2.460831229e-05 -67.25564039
-6.614635178 -2.460831229e-05 -244.3729894
122.9997508 47.62966139 -245.6856314
-26.36923718 14.94265339 -9.738825702e-05
-39.60841518 67.99997539 0.8490726117
-93.79842118 -2.460831229e-05 -80.11258139
71.05462582 94.60745339 -9.738825702e-05
-16.51430918 43.55094339 -9.738825702e-05
-8.965861178 -2.460831229e-05 -147.8135664
-48.13553318 -2.460831229e-05 -158.6958234
19.65123382 -0.8866596083 -56.93449839
-105.7403372 -2.460831229e-05 -109.5677864
103.0187478 83.22805939 -9.738825702e-05
118.9997508 32.23553139 -169.2536414
118.9997508 72.10479539 -26.03329239
116.6970738 -2.460831229e-05 -204.1297454
133.6246498 -2.460831229e-05 -181.3083794
-48.67517418 -2.460831229e-05 -216.8555764
118.9997508 32.85633139 -9.413471388
-49.13790218 37.21975739 -9.738825702e-05
58.61953882 -2.460831229e-05 -56.17291639
-119.6214162 -2.460831229e-05 -172.5679634
118.9997508 24.74210639 -5.581596388
138.6142408 -2.460831229e-05 -112.8181704
-0.2381641784 -2.460831229e-05 -198.0628674
118.9997508 36.93899339 -235.8821394
87.52342982 -2.460831229e-05 -222.0562294
-99.89302418 -2.460831229e-05 -230.1125694
-82.21353418 -2.460831229e-05 -250.7000824
122.9997508 1.821377392 -154.7573324
-115.0991502 50.15919639 -9.738825702e-05
-112.5778272 32.91648439 -9.738825702e-05
-88.35250618 -2.460831229e-05 -241.1877704
0.4863408216 -2.460831229e-05 -3.802149388
24.05121282 -2.460831229e-05 -225.6235544
118.9997508 55.31755939 -117.9463404
118.6031758 -2.460831229e-05 -251.8903714
35.97390582 -2.460831229e-05 -36.38562039
122.9997508 38.41851139 -226.9077664
13.32796582 -2.460831229e-05 -149.1050794
126.2180738 -2.460831229e-05 -176.1368724
-5.141941178 22.86671639 -9.738825702e-05
95.65706782 -2.460831229e-05 -143.4269144
100.1677508 -2.460831229e-05 -20.55167239
59.34322882 39.75399739 -9.738825702e-05
122.9997508 36.25847339 -187.5333214
-132.7814332 8.941865392 -9.738825702e-05
-96.48175218 -2.460831229e-05 -43.21615339
122.9997508 79.36073039 -116.7520404
-84.41689518 -2.460831229e-05 -128.7093274
54.66897382 19.98607039 -9.738825702e-05
118.9997508 27.04318239 -117.1263584
15.78910682 -2.460831229e-05 -19.02982139
118.9997508 13.50308739 -81.43333539
-68.47737118 -2.460831229e-05 -90.20701039
36.44084882 -2.460831229e-05 -215.6948924
-143.2505172 23.19602239 -9.738825702e-05
-59.17124718 -2.460831229e-05 -135.8449104
41.28329782 -2.460831229e-05 -208.5352284
118.9997508 53.98842639 -151.3958484
-3.304455178 -2.460831229e-05 -70.30676739
-24.20642018 60.63110539 -9.738825702e-05
-133.3056522 -2.460831229e-05 -73.80498239
122.9997508 57.76591439 -138.0324464
-5.637192178 -2.460831229e-05 -170.9769224
122.9997508 18.36168039 -62.71357539
-52.72224518 -2.460831229e-05 -165.6717204
-3.220440178 -2.460831229e-05 -15.65106439
-74.13844918 -2.460831229e-05 -27.10273639
118.9997508 99.94732139 -30.95141639
-56.88988418 36.08649639 -9.738825702e-05
103.6955858 -2.460831229e-05 -234.8590074
62.34954382 108.2835144 0.5124776117
21.42378082 -2.460831229e-05 -43.07266439
-16.31122218 -2.460831229e-05 -113.8706914
129.0023208 58.98431739 -9.738825702e-05
-68.19736818 6.357934392 -9.738825702e-05
-16.41889318 30.61152239 -9.738825702e-05
122.9997508 38.55057739 -65.36948239
-62.33602218 -2.460831229e-05 -60.02060739
139.9015838 -2.460831229e-05 -211.6380264
105.3143438 -2.460831229e-05 -62.82047939
-31.59171818 3.907863392 -9.738825702e-05
118.9997508 32.35445939 -137.6710054
118.9997508 20.24250039 -227.8151864
122.9997508 110.3814964 -6.329289388
-39.93745018 -2.460831229e-05 -179.2029384
-63.78740118 -2.460831229e-05 -179.9524524
100.7840388 -2.460831229e-05 -226.8908794
103.0167288 -2.460831229e-05 -127.8590424
-89.13946918 -2.460831229e-05 -161.6306324
122.9997508 12.09621639 -214.3938434
86.77271582 -2.460831229e-05 -38.85921439
-91.46410918 56.67414039 -9.738825702e-05
-92.22231318 -2.460831229e-05 -133.8170484
8.896745822 10.46863139 -9.738825702e-05
29.88023882 -2.460831229e-05 -161.1100894
118.9997508 90.28664439 -22.83928639
-117.6038842 12.29445039 -9.738825702e-05
-65.76948318 -2.460831229e-05 -125.1642404
122.9997508 56.73072639 -99.21267439
9.715908822 -2.460831229e-05 -178.6048514
-6.376132178 38.95173239 -9.738825702e-05
126.0745508 -2.460831229e-05 -103.8812264
-66.35008218 -2.460831229e-05 -19.70116539
122.9997508 96.48967939 -54.19184039
122.9997508 43.40052339 -146.6258144
116.0281398 4.517362392 -9.738825702e-05
-142.7453422 -2.460831229e-05 -93.93226739
-114.1876172 -2.460831229e-05 -147.5800844
-15.56951618 -2.460831229e-05 -47.57350639
122.9997508 101.3976304 -7.017728388
65.50173282 -2.460831229e-05 -241.2461454
-127.3694792 -2.460831229e-05 -16.89385439
122.9997508 37.43851339 -124.4457904
87.80856982 -2.460831229e-05 -229.6300494
122.9997508 6.604651392 -143.1024964
-29.07496918 -2.460831229e-05 -100.0999624
122.9997508 38.75615639 -98.10044839
133.4865778 31.11115539 -9.738825702e-05
122.9997508 93.83446239 -62.31244539
-76.24643018 -2.460831229e-05 -169.5399284
62.97726482 -2.460831229e-05 -92.05674339
-70.50792218 -2.460831229e-05 -105.4985804
-114.5677182 62.71097739 -9.738825702e-05
-9.164166178 -2.460831229e-05 -229.7372014
122.9997508 33.35042639 -148.2025394
-14.21490918 58.97156539 -9.738825702e-05
118.9997508 15.86067239 -201.3411504
118.9997508 82.67735639 -79.41757939
-18.50336518 -2.460831229e-05 -195.6666024
118.9997508 52.65747039 -93.79527739
-9.618282178 74.06480939 -9.738825702e-05
-6.365263178 -2.460831229e-05 -182.4125914
121.0045948 15.74437339 -8.989114388
125.2202988 -2.460831229e-05 -116.9153724
122.9997508 51.01078939 -168.2114474
-37.62163118 -2.460831229e-05 -13.29062839
77.79723082 -2.460831229e-05 -181.4251864
22.19277682 -2.460831229e-05 -150.5245454
35.46150482 -2.460831229e-05 -46.06835039
59.16262882 -2.460831229e-05 -173.2093424
118.9997508 52.70761639 -65.43373339
91.28377882 35.32139239 -9.738825702e-05
116.7033938 62.07530839 -9.738825702e-05
-47.21762418 -2.460831229e-05 -182.9961584
51.29170882 -2.460831229e-05 -10.17722439
-98.92338918 -2.460831229e-05 -181.5442744
118.9997508 4.397640392 -60.50515139
141.5629638 -2.460831229e-05 -35.33297039
122.9997508 60.15420839 -87.69699539
58.18569482 -2.460831229e-05 -121.1004724
-106.1846282 -2.460831229e-05 -95.02179039
129.9925838 -2.460831229e-05 -244.1421464
-60.29476918 21.01371839 -9.738825702e-05
69.14766082 80.91681639 -9.738825702e-05
-59.19529018 -2.460831229e-05 -233.5743714
55.00263682 131.9035634 -9.738825702e-05
118.9997508 59.51423639 -197.5668824
44.14103082 37.74039239 -9.738825702e-05
105.8632558 -2.460831229e-05 -55.38304839
122.9997508 74.71219339 -19.63249639
130.2346728 -2.460831229e-05 -200.0873764
118.9997508 47.90994039 -228.7103634
49.77454682 -2.460831229e-05 -173.8899504
-126.3488552 -2.460831229e-05 -225.4217084
-59.31061218 -2.460831229e-05 -203.3655404
70.22736982 -2.460831229e-05 -200.7585564
95.41152982 -2.460831229e-05 -14.57598439
119.1573128 95.95874539 -1.500097388
118.9997508 45.09938739 -130.0320894
-29.71079218 28.33393439 -9.738825702e-05
122.9997508 67.87391439 -149.6777584
122.9997508 8.159091392 -200.1001854
35.00279982 59.17499339 -9.738825702e-05
122.9997508 7.143302392 -69.36381939
114.0271488 -2.460831229e-05 -245.8855344
-106.6567172 10.38729739 -9.738825702e-05
-48.66405718 -2.460831229e-05 -84.58845839
86.70867182 110.8019354 -9.738825702e-05
94.02624382 124.4805454 -9.738825702e-05
-24.58768818 -2.460831229e-05 -159.5995534
-127.4035272 -2.460831229e-05 -80.25027139
134.0160478 112.1877524 -9.738825702e-05
-102.9202172 38.99022639 -9.738825702e-05
105.5541148 93.61780139 -9.738825702e-05
118.9997508 7.925023392 -112.1445354
122.9997508 31.97076339 -37.57695039
-108.8231192 -2.460831229e-05 -135.9938074
-100.1873082 31.54831639 -9.738825702e-05
32.46729582 42.01765939 -9.738825702e-05
118.9997508 5.377245392 -33.46003439
9.387903822 -2.460831229e-05 -23.19005039
-20.50372418 -2.460831229e-05 -235.6490354
121.2530518 107.8597414 -42.53352239
118.9997508 62.83092639 -173.9692454
27.29074882 32.81292939 -9.738825702e-05
122.9997508 71.43812139 -129.7687474
96.02791682 -2.460831229e-05 -183.5617964
-122.6633662 -2.460831229e-05 -11.29139439
118.9997508 30.64792939 -185.1650874
-41.81708518 41.92686739 -9.738825702e-05
122.9997508 46.16267439 -205.8631624
-50.84332918 -2.460831229e-05 -68.88436639
122.9997508 6.143271392 -160.5174604
118.9997508 52.19654039 -181.6771464
47.14096582 94.20341339 -9.738825702e-05
122.9997508 119.3827464 -11.79585139
68.70361682 4.116108392 -9.738825702e-05
-90.12175418 66.77103039 -9.738825702e-05
-88.15467818 -2.460831229e-05 -214.9327324
122.9997508 30.02102339 -95.90486039
120.2022768 -2.460831229e-05 -96.62317939
122.9997508 67.87881439 -61.82356339
59.61684382 5.291379392 -9.738825702e-05
118.9997508 20.22202139 -33.06793139
117.6635808 -2.460831229e-05 -238.1353804
39.27654182 -2.460831229e-05 -134.4427954
11.66408482 50.46361639 -9.738825702e-05
-77.67264318 -2.460831229e-05 -156.2325664
118.9997508 45.85670839 -7.625391388
142.4956258 -2.460831229e-05 -18.60863939
33.04557682 -2.460831229e-05 -17.67724839
-119.1011262 -2.460831229e-05 -82.86916639
118.9997508 22.49990439 -204.1084224
-105.2357012 -2.460831229e-05 -46.66068639
122.9997508 63.31171839 -71.84092139
122.9997508 42.29880339 -73.71300239
44.26874682 -2.460831229e-05 -192.7957704
29.02742282 -2.460831229e-05 -138.2596614
122.9997508 44.16583639 -171.3536974
-128.1053302 -2.460831229e-05 -181.4757174
122.9997508 28.89625339 -125.6930884
29.89558782 -2.460831229e-05 -146.4831464
124.3955728 47.47521939 -9.738825702e-05
-75.72281718 -2.460831229e-05 -67.76815639
78.20480282 -2.460831229e-05 -147.3912654
-45.69698618 -2.460831229e-05 -209.0378084
118.9997508 42.93291839 -57.43906739
-70.89661418 -2.460831229e-05 -148.6752724
118.1158668 -2.460831229e-05 -193.0378674
122.9997508 41.60107139 -23.20545139
-85.40892318 -2.460831229e-05 -142.1235024
122.9997508 32.17530039 -109.2629254
-49.78001218 -2.460831229e-05 -199.6914424
29.60442082 -2.460831229e-05 -210.7125504
122.9997508 68.13139339 -11.32048539
122.9997508 52.22129339 -221.1302174
127.4498528 78.47146639 -9.738825702e-05
44.86931282 -2.460831229e-05 -101.6454544
4.595874822 -2.460831229e-05 -159.5467774
118.9997508 24.06716039 -168.7794534
-56.13223718 -2.460831229e-05 -11.11964739
118.9997508 27.63481039 -88.58070539
-109.8416332 -2.460831229e-05 -68.05283439
122.9997508 27.16559039 -156.0920794
105.0404918 -2.460831229e-05 -154.3123734
110.7456598 -2.460831229e-05 -141.2055644
-30.64612118 48.15523239 -9.738825702e-05
-84.01348518 -2.460831229e-05 -74.19038039
-75.67495018 -0.8763316083 -9.738825702e-05
136.9422018 -2.460831229e-05 -155.1941714
62.79058682 -2.460831229e-05 -16.74461339
3.318675822 -2.460831229e-05 -135.0484584
122.9997508 37.83357339 -41.31352939
118.9997508 70.61064139 -50.49645939
35.02605082 -2.460831229e-05 -249.0383374
83.37684382 -2.460831229e-05 -45.15921039
37.13561882 -2.460831229e-05 -104.0282184
70.60832882 109.4785204 -9.738825702e-05
122.1308878 -2.460831229e-05 -51.11523139
84.70972482 69.22008239 -9.738825702e-05
-75.80357418 -2.460831229e-05 -52.63783339
-19.02613218 15.01240039 -9.738825702e-05
121.1972928 115.3195414 -9.738825702e-05
-51.38642418 6.841445392 -9.738825702e-05
-105.2816092 -2.460831229e-05 -171.0354524
79.40582882 -2.460831229e-05 -102.8619584
23.03643882 10.56248139 -9.738825702e-05
-5.305944178 -1.537991608 -9.738825702e-05
-129.5860742 30.24376239 -9.738825702e-05
41.16535782 -2.460831229e-05 -7.772848388
122.9997508 40.83289039 -154.0940724
-67.93100118 62.24645039 -9.738825702e-05
118.9997508 17.66026439 -208.9356024
61.37931382 61.87710839 -9.738825702e-05
-79.04667918 -2.460831229e-05 -99.92302939
-68.65439118 -2.460831229e-05 -217.0139484
118.9997508 61.00267939 -52.24977239
118.9997508 49.01961039 -78.36790639
71.33318282 -2.460831229e-05 -245.0881324
118.9997508 5.695611392 -178.4669624
125.6309538 -2.460831229e-05 -25.78549839
-83.04174418 8.436997392 -9.738825702e-05
-35.56969618 -2.460831229e-05 -130.9430904
-70.31701018 -2.460831229e-05 -249.3577784
-115.2483522 -2.460831229e-05 -107.8270274
122.9997508 82.89040539 -65.29253539
110.7886288 80.58592839 -9.738825702e-05
-0.4378391784 84.32313039 -9.738825702e-05
-97.26833718 -2.460831229e-05 -164.0404704
-103.8379522 -2.460831229e-05 -83.23466239
132.3850218 -2.460831229e-05 -222.7231234
130.2106908 -2.460831229e-05 -86.43710539
-113.9861402 -2.460831229e-05 -204.9850654
104.9369858 60.78095139 -9.738825702e-05
-104.9468642 -2.460831229e-05 -212.1457504
-96.37208518 -2.460831229e-05 -242.4473824
122.9997508 11.92933839 -174.8951974
122.9997508 21.50003139 -128.9931864
122.9997508 1.280521392 -244.6069614
-30.93089718 -2.460831229e-05 -114.1527314
32.40352582 -2.460831229e-05 -52.32536939
-40.51345918 -2.460831229e-05 -92.47120339
89.94639082 -2.460831229e-05 -59.94055139
71.57133582 -2.460831229e-05 -228.9215334
122.9997508 48.29851239 -215.4893714
-65.80318818 -2.460831229e-05 -72.26342739
-4.716025178 -2.460831229e-05 -157.2709334
122.9997508 14.03373239 -112.4190404
118.9997508 10.65660739 -157.6231614
-60.30126718 -2.460831229e-05 -24.05621739
122.9997508 79.70180839 -13.05145439
40.13069882 -2.460831229e-05 -69.37979739
122.9997508 37.40352539 -198.3661944
-12.88724518 -2.460831229e-05 -8.978986388
-73.22211218 -2.460831229e-05 -198.0992954
96.99722282 11.13524239 -9.738825702e-05
-85.97251518 -2.460831229e-05 -7.805543388
118.9997508 10.49783739 -92.18209539
-48.96887018 -2.460831229e-05 -10.54303739
80.58366082 16.63721439 -9.738825702e-05
-14.38055618 -2.460831229e-05 -168.7564664
14.57088182 -2.460831229e-05 -80.46932739
68.14820982 -2.460831229e-05 -207.2524754
31.49942782 103.0649924 -9.738825702e-05
118.9997508 5.073652392 -227.0409874
122.9997508 38.39725239 -29.00785439
118.9997508 50.08477839 -13.46914439
53.74281882 69.36494439 -9.738825702e-05
78.00662482 -2.460831229e-05 -221.4394004
-73.10206018 19.23754439 -9.738825702e-05
89.32872582 -2.460831229e-05 -103.1277114
122.9997508 69.19533739 -89.02173439
-85.65743118 -2.460831229e-05 -222.1180444
21.84661982 29.08844139 -9.738825702e-05
118.9997508 -1.923520608 -73.82436839
-64.27716818 -2.460831229e-05 -194.4765234
115.4371408 -2.460831229e-05 -63.86690039
122.9997508 30.84412939 -27.69468539
-107.9280842 -2.460831229e-05 -238.3778254
40.40981382 -2.460831229e-05 -168.5537604
-3.821628178 -2.460831229e-05 -24.35455639
96.58362882 -2.460831229e-05 -240.9408914
-97.17131418 -2.460831229e-05 -49.73892839
99.29184782 -2.460831229e-05 -84.26771239
113.5060558 -2.460831229e-05 -230.4528484
122.9997508 23.09973439 -38.19697139
-88.90198818 -2.460831229e-05 -90.97131739
122.9997508 15.76842439 -136.8626564
7.555527822 -2.460831229e-05 -128.9171274
-139.3991282 -2.460831229e-05 -151.3038824
122.9997508 112.0246924 -12.65536739
49.63489682 57.19134639 -9.738825702e-05
118.9997508 66.52027939 -84.60114339
36.62545082 115.9818894 -9.738825702e-05
-53.96564318 19.39270039 -9.738825702e-05
30.65409482 82.60755539 -9.738825702e-05
-73.18792518 -2.460831229e-05 -80.87915539
140.9924338 101.1437744 -9.738825702e-05
-49.06964618 -2.460831229e-05 -62.60531339
-22.87415418 69.29570839 1.311614612
-27.19239618 -2.460831229e-05 -42.57132339
87.76624682 -2.460831229e-05 -247.5570384
48.83386782 -2.460831229e-05 -76.77148139
122.9997508 17.67329539 -155.4061894
-104.1134672 -2.460831229e-05 -63.01998539
43.86034082 74.58984439 -9.738825702e-05
-134.9439342 59.51201739 -9.738825702e-05
110.6468618 -2.460831229e-05 -15.80521639
-139.0874662 -2.460831229e-05 -76.76035239
118.9997508 99.10490339 -11.58844939
121.4504108 79.18370339 -131.4529004
122.9997508 6.874754392 -105.6026504
-128.9852742 -2.460831229e-05 -172.0622464
118.9997508 87.27196439 -45.40005739
121.8521608 -2.460831229e-05 -170.4538494
-28.30620518 -2.460831229e-05 -121.2086054
118.9997508 63.01041139 -11.97831139
118.9997508 35.53617539 -16.80172139
-121.6098182 -2.460831229e-05 -235.5305914
122.9997508 41.25137239 -244.6721094
136.9897288 -2.460831229e-05 -6.210914388
122.9997508 21.10991839 -89.01076539
37.22475982 106.5460994 -9.738825702e-05
45.19322182 -2.460831229e-05 -160.3273984
19.59026682 41.76078539 -9.738825702e-05
122.9997508 70.74611639 -76.41125239
-46.31688118 25.82816039 -9.738825702e-05
-47.17581418 49.10744939 -9.738825702e-05
122.9997508 24.31532639 -239.8573784
118.9997508 69.36729039 -108.4002484
-116.0787002 -2.460831229e-05 0.2109826117
95.86359782 68.86559639 -9.738825702e-05
56.83720682 -2.460831229e-05 -6.631791388
-29.71642818 -2.460831229e-05 -195.5083894
122.9997508 11.87558239 -248.0516594
122.9997508 68.44839139 -136.6190194
62.51530882 -2.460831229e-05 -181.9129034
-52.48076018 -2.460831229e-05 -31.83833239
-108.0654762 46.58493539 -9.738825702e-05
122.9997508 6.194856392 -150.0746234
122.9997508 65.15157939 -117.5688794
-86.15512118 -2.460831229e-05 -31.23610639
-12.88548518 -2.460831229e-05 -245.6598774
118.9997508 14.62132839 -22.63657539
-6.592306178 -2.460831229e-05 -99.95686339
118.9997508 30.01306339 -50.01959639
-100.3877202 -2.460831229e-05 -75.36129339
-64.08567018 -2.460831229e-05 -95.03141639
17.98756482 80.62465939 -9.738825702e-05
-70.56958318 -2.460831229e-05 -43.04754439
-128.6912582 -2.460831229e-05 -34.86694139
-119.1893862 67.99997539 1.647037612
-105.8545342 -2.460831229e-05 -40.31239639
96.08184682 -2.460831229e-05 -43.02618139
118.9997508 3.761675392 -76.90594839
100.0847678 -2.460831229e-05 -4.565508388
122.9997508 56.67580339 -193.4976154
22.55816082 -2.460831229e-05 -185.5817144
33.27819682 95.12484139 -9.738825702e-05
118.9997508 42.65798139 -114.5836324
118.9997508 50.13207839 -59.61202639
23.73076482 -2.460831229e-05 -157.0631834
-84.26148118 63.77299939 -9.738825702e-05
133.0666338 44.63962739 -9.738825702e-05
-35.31672818 -2.460831229e-05 -189.2665034
-33.13234318 -2.460831229e-05 -67.65720839
-94.25136618 45.51821739 -9.738825702e-05
35.56093082 -2.460831229e-05 -156.6083714
118.9997508 4.198393392 -23.73895039
16.36801082 -2.460831229e-05 -31.42016439
118.9997508 81.72850939 -121.0828774
71.71820682 -2.460831229e-05 -123.4580724
-53.13829918 -2.460831229e-05 -101.1394134
122.9997508 17.42130439 -69.50482439
118.9997508 55.05918139 -6.396212388
-33.06686318 16.32598839 -9.738825702e-05
118.9997508 43.40804739 -209.9355994
118.9997508 88.42038339 -31.10258739
125.2289558 8.248655392 -9.738825702e-05
3.452088822 -2.460831229e-05 -113.6915854
-84.98566618 -2.460831229e-05 -64.93771439
99.30873082 110.9029174 -9.738825702e-05
124.0135068 -2.460831229e-05 -125.4247554
118.9997508 26.52599339 -192.3998454
-88.83942018 -2.460831229e-05 -98.52415639
94.47983182 -2.460831229e-05 -226.7646024
93.18325282 -2.460831229e-05 -96.96966439
-72.90716618 -2.460831229e-05 -13.22197139
93.91633882 -2.460831229e-05 -175.2593394
58.19103582 -2.460831229e-05 -47.19499639
-26.07154418 -2.460831229e-05 -78.06621839
33.88040382 11.88741639 -9.738825702e-05
105.6232448 26.02838339 -9.738825702e-05
-110.5770112 -2.460831229e-05 -217.3951434
127.4564808 -2.460831229e-05 -70.62547539
-52.88261118 -2.460831229e-05 -121.2419224
122.9997508 109.0819914 -20.76631239
-135.3564342 -2.460831229e-05 -6.977047388
122.9997508 4.825899392 -234.6944234
118.9997508 16.60794739 -216.1020704
-77.81158118 53.04400139 -9.738825702e-05
-66.68574718 -2.460831229e-05 -115.4920634
56.20612782 85.16464439 -9.738825702e-05
-77.63790418 -2.460831229e-05 -108.9193184
85.92237982 -2.460831229e-05 -136.5755354
118.9997508 31.31035039 -32.58787539
-88.01758318 -2.460831229e-05 -188.1151554
137.6840188 -2.460831229e-05 -126.1559424
88.78186082 -2.460831229e-05 -118.5522924
78.09737082 79.80928139 -9.738825702e-05
-109.0272322 16.15408239 -9.738825702e-05
118.9997508 26.62398339 -245.1657124
122.9997508 27.49283139 -203.4098824
115.4532518 112.5349344 -9.738825702e-05
17.89077382 -2.460831229e-05 -234.4358384
118.9997508 16.95432539 -240.2702974
92.69387982 -2.460831229e-05 -137.4177104
50.23706282 -2.460831229e-05 -45.30334739
89.59936082 48.57456639 2.118202612
122.9997508 7.844495392 -186.6744284
-45.13024018 1.453523392 -9.738825702e-05
-16.11133418 -2.460831229e-05 -79.70119539
122.9997508 9.483175392 -225.3707004
-10.11540118 52.16212039 -9.738825702e-05
122.9997508 29.33900539 -210.7928784
1.245690822 -2.460831229e-05 -107.4901834
118.9997508 56.77847739 -203.0889164
5.812977822 -2.460831229e-05 -87.60562739
36.83512082 -2.460831229e-05 -56.59593839
122.9997508 73.35503139 -35.61633439
101.5231958 -2.460831229e-05 -220.5398924
69.43763282 -2.460831229e-05 -130.0134974
118.9997508 16.91269439 -46.09741039
-91.99984818 -2.460831229e-05 -63.92752839
-10.24632818 -2.460831229e-05 -135.0163504
-73.14485418 -2.460831229e-05 -142.4794674
130.6902688 124.4412884 0.6575546117
-86.04858718 -2.460831229e-05 -177.4092274
122.9997508 10.23851239 -78.14582239
135.5990208 18.86161939 -9.738825702e-05
118.9997508 36.70669639 -3.565568388
16.97699482 -2.460831229e-05 -122.2915434
122.9997508 21.87140539 -137.1582994
-83.35118218 21.44752739 -9.738825702e-05
122.9997508 51.98890839 -89.00241539
-36.11972818 -2.460831229e-05 -238.8514914
1.036343822 13.25552139 -9.738825702e-05
104.8529658 -2.460831229e-05 -70.23229239
-138.6671962 39.04125439 -9.738825702e-05
118.9997508 60.72529739 -181.5141694
50.75004382 32.54908139 -9.738825702e-05
90.43924282 -2.460831229e-05 -51.77342739
118.9997508 81.76183739 -69.74208939
122.9997508 15.44031839 -56.78198539
124.8751458 -2.460831229e-05 -43.82706339
122.9997508 25.94688939 -218.2804134
-120.3997902 -2.460831229e-05 -121.6573264
122.9997508 69.15966839 -99.37681539
122.9997508 28.67786439 -77.56519339
121.6021028 70.88722939 -164.3375664
118.9997508 43.53032539 -240.7320754
23.12934282 -2.057288608 -220.0000974
118.9997508 92.93820639 -69.58686939
75.07938482 60.72175639 -9.738825702e-05
118.9997508 34.83682839 -86.68578039
122.9997508 41.45763539 -36.27105039
40.54299482 84.87714839 -9.738825702e-05
18.33917082 -2.460831229e-05 -133.4880934
-133.2503762 -2.460831229e-05 -123.2566264
81.18908782 -2.460831229e-05 -167.3506014
-92.07441818 -2.460831229e-05 -108.0037924
