# .PCD v0.7 - Point Cloud Data file format
VERSION 0.7
FIELDS x y z
SIZE 4 4 4
TYPE F F F
COUNT 1 1 1
WIDTH 1242
HEIGHT 1
VIEWPOINT 0 0 0 1 0 0 0
POINTS 1242
DATA ascii
-22.06272818 55.68765339 -9.738638255e-05
36.08451782 -2.461343956e-05 1.204294614
67.49975082 49.15986639 166.3002266
-68.00236818 56.50602339 -9.738638255e-05
-80.86708418 -2.461343956e-05 236.9645106
-23.48213618 -2.461343956e-05 121.5487006
-77.55655218 -2.461343956e-05 100.8861536
63.49975082 72.82161939 193.5749546
49.79241582 55.19497639 -9.738638255e-05
67.49975082 0.3147463866 45.56195161
-35.78090518 -2.461343956e-05 99.75695961
-28.89124118 -2.461343956e-05 190.0996796
-44.16568218 34.69237439 -9.738638255e-05
-72.03997118 -2.461343956e-05 225.2882526
63.49975082 86.93026239 198.1965876
37.87545682 -2.461343956e-05 214.3793166
-6.636138179 35.33231839 -9.738638255e-05
6.632573821 -2.461343956e-05 92.76680561
7.757156821 -2.461343956e-05 242.4847246
-56.98551818 -2.461343956e-05 228.6051966
-2.071424179 -2.461343956e-05 203.5228736
-57.12100118 -2.461343956e-05 180.4789276
-30.04654718 -2.461343956e-05 204.4612526
32.25318282 -2.461343956e-05 23.68664861
-32.84225918 -2.461343956e-05 141.9572536
-62.17103318 -2.461343956e-05 247.4091236
63.49975082 83.96561039 213.1924726
67.42121482 53.88194939 32.56571861
-34.36717118 -2.461343956e-05 62.18892361
63.49975082 23.49024439 211.8729006
-66.49927218 -1.170716613 9.403112614
-45.62706518 -2.461343956e-05 120.5225876
22.21910682 -2.207147613 -9.738638255e-05
63.49975082 26.37076839 24.90109861
78.05000782 -2.461343956e-05 201.9659076
67.49975082 57.23973339 247.3740836
-11.28841518 -2.461343956e-05 123.2904206
-83.50310618 -2.461343956e-05 209.3296756
-77.91092218 -2.461343956e-05 81.33935861
55.76096882 27.77740539 -9.738638255e-05
74.88381982 -2.461343956e-05 67.09258161
-82.05256418 -2.461343956e-05 171.1462536
67.49975082 8.217219387 60.01433661
31.54384382 -2.461343956e-05 82.17281061
66.98961082 -2.461343956e-05 251.9555216
67.49975082 18.87752639 250.4976736
63.49975082 94.72265339 219.4479556
71.08012882 -2.461343956e-05 132.0127466
56.36054182 -2.461343956e-05 60.22544461
78.97152382 -2.461343956e-05 223.8235236
64.24483782 57.98222439 59.32585261
63.49975082 19.56970139 98.21442261
63.49975082 70.69994539 162.5697586
63.49975082 36.16065939 192.8662576
62.12797282 -2.461343956e-05 181.4403676
-50.91245618 -2.461343956e-05 205.6564596
63.49975082 43.03933039 48.50875961
-18.48663918 -2.461343956e-05 94.32237061
84.08762982 35.32206439 -9.738638255e-05
-0.8319511786 -2.461343956e-05 165.3795626
67.49975082 36.28923939 89.51496461
-46.37494618 -2.461343956e-05 60.94206861
27.37619482 -2.461343956e-05 114.7056916
63.49975082 26.24001839 167.2668656
38.05073282 -2.461343956e-05 177.7471496
-8.643719179 3.658900387 -9.738638255e-05
12.58441782 -2.461343956e-05 204.7544186
39.08273382 -2.461343956e-05 152.2765986
63.49975082 30.60115739 150.7567946
63.72210182 -1.824937613 209.9999026
-39.01903318 -2.461343956e-05 2.644575614
67.49975082 101.9316664 242.5007476
71.38027182 -2.461343956e-05 105.7767436
-84.65765918 -2.461343956e-05 40.91889361
-17.39784518 -2.461343956e-05 208.0646636
63.49975082 54.75723939 229.3052116
67.49975082 33.71853239 56.04758561
71.74033882 66.90702339 -9.738638255e-05
63.49975082 21.78847339 233.3446366
-57.65823518 -2.461343956e-05 25.81629961
-79.54720018 22.84620639 -9.738638255e-05
63.49975082 51.36257339 67.98865961
-76.14068018 64.93989339 -9.738638255e-05
63.49975082 66.67864639 146.7104026
40.59145282 31.13070339 -9.738638255e-05
67.49975082 87.06167539 238.0836986
47.97962682 20.13840339 -9.738638255e-05
-57.47325118 50.11782739 -9.738638255e-05
67.49975082 29.59936839 34.37756461
63.49975082 31.30181939 79.17494161
-3.751452179 -2.461343956e-05 189.2063916
7.770235821 -2.461343956e-05 110.3942486
67.49975082 40.89490439 225.2615486
-74.04861718 9.560414387 -9.738638255e-05
58.24101982 -2.461343956e-05 228.8661226
-42.94739218 -2.461343956e-05 83.39654561
67.49975082 17.84025939 8.761111614
63.49975082 16.35108239 219.8366416
73.46910682 39.52758939 -9.738638255e-05
63.49975082 60.29319039 124.2122826
-48.88255118 -2.461343956e-05 45.64180561
-57.78768718 -2.461343956e-05 155.6782616
20.65002182 -2.461343956e-05 51.12143961
67.49975082 39.99784339 130.3493656
33.57174282 -2.461343956e-05 243.3912956
63.49975082 23.01989539 188.3291866
12.25442582 -2.461343956e-05 121.3194036
67.49975082 49.95320539 191.7831016
63.49975082 4.850010387 22.55098961
-4.696719179 64.24039339 -9.738638255e-05
63.49975082 9.977712387 119.4227946
63.49975082 0.9786853866 168.5784226
67.49975082 11.66653539 198.9661976
50.76282682 -2.461343956e-05 148.7331636
-33.62700418 -2.461343956e-05 235.2530656
55.56881382 -2.461343956e-05 203.1308456
-7.964308179 -2.461343956e-05 242.2194206
76.47973482 -2.461343956e-05 164.9082296
82.33275482 12.12827439 -9.738638255e-05
21.06307582 -2.461343956e-05 135.6007326
1.276462821 -2.461343956e-05 36.41898961
6.739568821 28.10525139 -9.738638255e-05
67.49975082 53.70707839 145.2165636
-75.85335518 36.67358239 -9.738638255e-05
67.49975082 69.23822139 181.5509096
75.23736582 -2.461343956e-05 144.7075466
67.49975082 21.56830139 125.3468506
-43.69218818 -2.461343956e-05 240.6900076
-77.51101818 -2.461343956e-05 11.04996261
55.42421882 -2.461343956e-05 14.29479361
-23.93244218 27.92491439 -9.738638255e-05
67.49975082 6.402906387 77.27520961
-87.60509918 -2.461343956e-05 101.4377076
47.10997382 -2.461343956e-05 8.206618614
5.181960821 -2.461343956e-05 153.6075426
-72.52631518 -2.461343956e-05 149.4868206
63.49975082 51.02806239 210.0200326
37.00571882 57.78215539 -9.738638255e-05
49.51738982 -2.461343956e-05 166.4456856
-43.79123918 -2.461343956e-05 19.26756261
-23.74659318 -2.461343956e-05 155.0036306
58.30197082 -2.461343956e-05 130.4613566
86.26823282 -2.461343956e-05 55.70551561
50.18509182 -2.461343956e-05 116.4971246
-59.45287618 -2.461343956e-05 84.38933861
67.49975082 54.50431039 180.7702786
-13.09503618 -2.461343956e-05 19.71544761
71.89667782 20.55770639 -9.738638255e-05
76.29949282 -2.461343956e-05 123.6434366
74.81589082 -2.461343956e-05 26.69998561
67.49975082 41.95795439 67.73018161
63.49975082 38.18582339 243.2659956
81.37584082 -2.461343956e-05 180.1893066
-37.99053318 -2.461343956e-05 36.06851361
67.49975082 6.542861387 217.7584996
-44.80825618 -2.461343956e-05 154.6835776
67.49975082 89.26558039 228.6080746
-67.49927218 -1.333768613 173.1942196
-48.96150118 -2.461343956e-05 191.7393456
63.49975082 46.00378439 91.24880061
-14.34399318 -2.461343956e-05 188.5443776
45.73640882 -2.461343956e-05 188.7907576
-59.96501318 14.43681539 -9.738638255e-05
-81.49336318 -2.461343956e-05 186.2621226
67.49975082 9.668069387 35.94747461
-64.09547618 -2.268425613 -9.738638255e-05
-77.21173018 -2.461343956e-05 61.66000861
49.09848982 -2.461343956e-05 71.79281561
-76.56769218 -2.461343956e-05 201.8748566
63.49975082 11.76457939 68.34269261
-42.44225018 -2.461343956e-05 139.0327526
85.80847982 -2.461343956e-05 158.1449556
67.49975082 57.07816339 115.9160866
-26.08606718 -2.461343956e-05 108.6579456
21.80322982 -2.461343956e-05 147.3785066
63.59120382 -2.461343956e-05 54.23231561
67.49975082 72.81688539 219.8125116
-66.49927218 -0.5456686134 199.8764086
67.49975082 58.89101739 98.04493561
79.07146682 -2.461343956e-05 4.646768614
37.60722882 -2.461343956e-05 31.34652261
-16.98571518 -2.461343956e-05 168.5678396
-8.918383179 17.16366039 -9.738638255e-05
-26.31852018 -2.461343956e-05 9.618640614
-10.22228118 -2.461343956e-05 43.69394261
3.735672821 -2.461343956e-05 55.27162661
67.49975082 32.65226539 136.2787696
-70.28428318 -2.461343956e-05 212.8629686
67.49975082 61.10443639 213.6113316
-6.416368179 -2.461343956e-05 86.73922661
67.49975082 32.47627939 161.6155276
67.49975082 66.57100239 130.9642206
-17.21117818 -2.461343956e-05 248.9514366
-15.81819118 34.66937739 -9.738638255e-05
38.85500282 -2.461343956e-05 50.82731461
-1.549647179 -2.461343956e-05 137.8663576
67.49975082 23.35526839 242.5159216
63.49975082 47.42457139 136.9620516
30.01227982 -2.461343956e-05 95.77300761
19.88577882 -2.461343956e-05 84.31490761
67.49975082 2.105021387 188.4768046
65.54788382 4.565119387 4.934758614
29.50072882 18.66717639 -9.738638255e-05
10.83970382 10.94425339 -9.738638255e-05
46.48590082 -2.461343956e-05 207.3848426
63.49975082 52.47057939 24.64280661
67.49975082 9.748303387 139.2634516
-34.35640418 -2.461343956e-05 225.9211446
7.072022821 -2.461343956e-05 83.88662561
14.75839282 65.71758339 -9.738638255e-05
67.49975082 64.31480039 197.9625976
-46.27875518 -2.461343956e-05 165.0323666
67.49975082 0.6157993866 154.2171026
-33.29080918 -2.461343956e-05 120.2598346
43.94507382 6.939356387 -9.738638255e-05
63.49975082 18.94510139 202.0609516
67.49975082 45.83658839 110.6017636
74.84924682 -2.461343956e-05 17.57780161
63.49975082 73.14622339 234.0064136
26.40741182 -2.461343956e-05 228.6712716
-50.89934018 -2.461343956e-05 78.67516561
22.36157882 -2.461343956e-05 177.0580206
68.00072782 -2.273736613 76.40548361
63.49975082 18.57521239 82.97481661
67.49975082 80.57368039 249.7237126
-41.32001618 59.67511539 -9.738638255e-05
59.20707982 -2.461343956e-05 217.2062466
85.25132682 -2.461343956e-05 124.1290316
-65.75848718 -2.461343956e-05 126.8104686
-74.88578918 -2.461343956e-05 25.54371261
63.49975082 34.20385639 201.3202386
-12.97603118 -2.461343956e-05 102.4792716
67.49975082 16.53728439 163.5638006
-76.42693118 -2.461343956e-05 43.62772961
63.17529382 -2.461343956e-05 244.1785236
-84.78283518 -2.461343956e-05 121.5445566
63.49975082 49.39341439 80.30547261
-12.55798818 -2.461343956e-05 222.0629086
-63.80194218 -2.461343956e-05 114.7274106
-47.33288418 -2.461343956e-05 222.7714556
20.32510082 -2.461343956e-05 197.1766766
67.49975082 86.94039339 220.2039556
-76.26595618 -2.461343956e-05 164.7838976
63.49975082 21.68460539 175.5147296
79.62280682 55.92306639 -9.738638255e-05
48.69565482 -2.461343956e-05 82.33021161
29.69582582 -2.461343956e-05 41.89844661
-15.51714718 -1.443725613 -9.738638255e-05
63.49975082 12.90475439 28.20359661
63.49975082 25.85629539 52.15200061
63.49975082 3.857099387 236.3176666
14.66832782 -2.461343956e-05 8.393954614
-60.68374518 64.88382339 -9.738638255e-05
63.72981182 62.67737039 85.33282461
6.017365821 -2.461343956e-05 72.10916561
67.49975082 24.75779739 43.29339361
63.49975082 47.57766739 174.7333426
1.177731821 -2.461343956e-05 237.1481836
63.49975082 50.22263539 39.27331661
-59.91111418 23.79409139 -9.738638255e-05
-65.02143518 -2.461343956e-05 143.7262986
40.30430382 -2.461343956e-05 130.6323426
82.79215082 -2.461343956e-05 240.7653526
-1.355189179 -2.461343956e-05 11.08196061
5.489015821 -2.461343956e-05 228.9087016
-17.72813018 -2.461343956e-05 37.08730161
-22.31336018 3.758133387 -9.738638255e-05
-3.671125179 27.47118839 -9.738638255e-05
57.09712882 -2.461343956e-05 25.00431661
63.49975082 59.82714639 164.2757536
30.56757382 -2.461343956e-05 210.2518116
74.24999682 -2.461343956e-05 113.6484706
-10.97244318 -2.461343956e-05 141.8939416
46.91674682 -2.461343956e-05 40.92837361
63.49975082 8.876841387 43.22176861
65.02430582 84.29563239 174.6553266
63.49975082 45.09673239 233.0590026
-37.11406318 30.33841239 -9.738638255e-05
-38.35363018 -2.461343956e-05 161.3370896
35.02880282 -2.461343956e-05 223.1455536
18.32061182 -2.461343956e-05 211.1644996
67.49975082 70.09891739 155.3869246
67.49975082 41.37925039 16.18382861
-66.49927218 -2.162046613 188.4899736
63.49975082 96.99435339 250.0386526
24.88836082 -2.461343956e-05 63.22548661
67.49975082 14.03295639 181.6519326
-46.72158818 0.2197083866 -9.738638255e-05
46.42179582 -2.461343956e-05 90.66775661
67.49975082 20.28277539 107.2276766
46.56238182 47.74108039 -9.738638255e-05
-4.844786179 45.59006939 -9.738638255e-05
-37.17721218 49.95732039 -9.738638255e-05
-26.41253518 -2.461343956e-05 133.2414036
63.49975082 30.23787639 96.57373161
1.566508821 -2.461343956e-05 220.0051856
-64.22204418 -2.461343956e-05 60.40747461
-66.49927218 -2.320492613 97.70840961
66.86369582 -2.461343956e-05 87.49976061
76.66304282 -2.461343956e-05 192.4269376
-57.92150918 -2.461343956e-05 240.5658146
64.02519082 36.64418839 -9.738638255e-05
-30.35170918 -2.461343956e-05 43.98981661
67.49975082 58.91743339 66.58766461
47.60700082 66.85493839 -9.738638255e-05
13.66659582 -2.405337613 -9.738638255e-05
63.49975082 4.926058387 148.7988616
63.49975082 37.20426739 252.4466556
67.49975082 -0.5490676134 62.71692461
63.49975082 43.42537939 212.4726606
63.49975082 52.33087139 100.2194216
63.49975082 0.06139638656 98.66354161
13.20521382 -2.461343956e-05 53.99218061
57.27988782 -2.461343956e-05 144.1459606
67.49975082 42.25308539 122.7057526
-82.88669518 40.37701339 -9.738638255e-05
80.57025282 -2.461343956e-05 138.8333346
4.652646821 59.79070639 -9.738638255e-05
67.49975082 68.17298439 226.2213946
67.49975082 78.38119439 204.8651006
-67.55644018 -2.461343956e-05 41.64209661
-79.99774818 -2.461343956e-05 34.22210161
-14.79442518 -2.461343956e-05 69.27297461
-76.54547518 45.93881839 -9.738638255e-05
73.74947982 -2.461343956e-05 246.4924616
21.93885582 -2.461343956e-05 240.5612536
67.49975082 12.77387139 238.1056826
67.49975082 6.622742387 179.0120796
67.49975082 5.620536387 114.1419066
67.49975082 28.17866239 117.5339596
67.49975082 70.32966839 169.3105776
-27.62247318 -2.461343956e-05 58.19048361
67.49975082 39.34106839 185.1171896
63.49975082 17.91533239 151.4438226
24.25392882 37.41428239 -9.738638255e-05
60.82325782 -2.461343956e-05 0.3634366136
-79.63137718 -2.461343956e-05 229.2754706
-7.543869179 -2.461343956e-05 169.3227286
63.49975082 75.94842739 183.1029476
-66.49927218 -1.709513613 28.92533961
56.12289182 62.45141339 -9.738638255e-05
12.38992182 -2.461343956e-05 36.54013361
63.49975082 18.12763539 43.14988061
36.85526082 -2.461343956e-05 202.2255406
67.17516882 50.71760039 7.459921614
63.49975082 54.68804839 171.6849866
-32.46026518 -2.461343956e-05 81.02746861
67.49975082 74.87992239 142.3056266
67.49975082 23.86147839 79.02745961
69.05693282 52.93688839 -9.738638255e-05
67.49975082 30.64060239 186.8274916
80.13181082 -2.461343956e-05 32.28584261
38.15908482 -2.461343956e-05 142.6358636
67.49975082 79.74911439 235.8252006
63.49975082 51.23330339 159.4921746
31.30555082 -2.461343956e-05 69.75113761
-51.76459518 35.09916139 -9.738638255e-05
63.49975082 81.72362539 191.9304326
8.580104821 48.72489239 -9.738638255e-05
63.49975082 40.10510539 56.92693761
-42.53653618 21.01092239 -9.738638255e-05
-22.38852418 64.28319139 -9.738638255e-05
-29.87636018 -2.461343956e-05 26.08215561
47.96084782 -2.461343956e-05 155.7695726
87.96031682 -2.461343956e-05 91.08422661
67.49975082 32.40321039 6.901410614
18.09249582 -2.461343956e-05 155.3824666
67.49975082 31.12641839 171.3893016
63.49975082 34.68177839 107.4215106
63.49975082 64.05992839 247.1226716
63.49975082 39.22105339 148.1124116
19.43015982 -2.461343956e-05 118.3856236
15.61510282 -2.461343956e-05 251.5234916
-28.63301118 52.18516439 -9.738638255e-05
63.39559782 9.704996387 -9.738638255e-05
74.84253482 29.23696339 -9.738638255e-05
-48.43951818 -2.461343956e-05 37.97985361
67.49975082 13.65939539 96.18580661
63.49975082 60.71561739 109.0387296
22.41317082 16.48888639 -9.738638255e-05
9.953037821 -2.461343956e-05 99.39273261
67.49975082 55.82798739 240.0647836
63.49975082 50.25917239 202.6615336
63.49975082 36.00685639 39.92404761
63.49975082 55.78173439 193.9125206
8.992018821 -2.461343956e-05 187.5578636
79.11730782 63.27919139 -9.738638255e-05
63.49975082 35.95087939 209.2054866
63.49975082 41.56137839 161.2501276
-66.49927218 -2.431462613 82.42220161
-54.87788818 -2.461343956e-05 90.13566361
17.26549882 49.25881539 -9.738638255e-05
63.49975082 56.28472239 52.22222261
6.971262821 -2.461343956e-05 214.6277956
63.49975082 16.81892839 131.7222846
-5.608946179 -2.461343956e-05 27.10507061
6.461300821 -2.461343956e-05 164.9234906
63.49975082 3.515104387 204.1586736
67.49975082 44.87256239 28.97700861
-85.30042518 -2.461343956e-05 109.7095726
-11.32434018 -2.461343956e-05 204.0471676
-57.30246318 -2.461343956e-05 64.15952061
-10.09985218 -2.461343956e-05 113.2511636
-62.35247818 -2.461343956e-05 168.3224946
67.49975082 29.42699639 230.1711976
63.49975082 19.85480639 194.9414376
66.90306482 63.94039639 91.64500561
-73.02012518 25.82304039 -9.738638255e-05
63.49975082 91.99648839 241.3910746
-80.81259118 30.47662839 -9.738638255e-05
23.12379682 27.81115439 -9.738638255e-05
-54.35665918 -2.461343956e-05 246.7651426
-31.41496718 -2.461343956e-05 68.69986561
63.49975082 35.69730439 14.54213561
77.73220982 5.408269387 -9.738638255e-05
-40.25952618 -2.461343956e-05 221.9042916
-2.591042179 -2.461343956e-05 0.6768206136
50.94143982 -2.461343956e-05 20.71245761
29.23733082 -2.461343956e-05 237.7702156
79.46595182 -2.461343956e-05 61.45486761
63.49975082 29.08573039 193.3782836
25.02649382 -2.461343956e-05 79.39957861
63.49975082 21.22520439 3.996707614
67.49975082 5.122341387 226.7058096
-55.19193018 -2.461343956e-05 219.0326636
63.49975082 71.09477239 125.0221036
67.49975082 12.81586639 80.72511861
64.36184882 88.77283739 189.4640166
-44.10859918 -2.461343956e-05 74.20121561
-81.34142318 6.714437387 -9.738638255e-05
70.31316582 45.80396539 -9.738638255e-05
5.351710821 -2.461343956e-05 120.0698976
-74.32802718 -2.461343956e-05 249.2468826
-71.43740418 -2.461343956e-05 110.7300866
-49.50274118 -2.461343956e-05 23.84676961
-76.04528118 -2.461343956e-05 94.06422861
63.49975082 47.98165139 145.1745916
67.49975082 92.72879839 202.2162906
67.49975082 68.75270239 203.3465026
33.87507382 -2.461343956e-05 156.9190986
-12.31849618 -2.461343956e-05 91.06337461
-15.82004718 16.25275239 -9.738638255e-05
67.49975082 21.00697539 23.07827961
-44.54241318 -2.461343956e-05 172.3784796
63.49975082 12.32841639 7.504911614
75.43494582 -2.461343956e-05 229.7769836
63.49975082 50.62236939 118.1685116
-45.80851218 -2.461343956e-05 179.5448686
-40.54320818 43.93008039 -9.738638255e-05
-51.81582618 -2.461343956e-05 160.9098876
63.49975082 36.65485339 221.5644876
26.57643082 10.37127439 -9.738638255e-05
67.49975082 51.77260939 133.4000556
80.58526582 -2.461343956e-05 12.64486261
63.49975082 77.18802639 198.9019066
67.49975082 66.63447139 190.7301886
67.49975082 7.340710387 171.8045836
63.49975082 28.41245439 110.2316146
63.49975082 10.98469039 112.6253306
73.45264382 -2.461343956e-05 183.1446276
-11.28171518 -2.461343956e-05 181.0065736
-26.98864818 -2.461343956e-05 233.5779396
-39.12540918 -2.461343956e-05 132.7586306
-67.49927218 -0.1875156134 180.5564476
26.94829382 -2.461343956e-05 48.15655161
-35.24727118 5.042219387 -9.738638255e-05
63.49975082 18.24811639 239.1733436
36.87094082 -2.461343956e-05 184.4628986
31.38093282 4.786742387 -9.738638255e-05
70.07954982 -2.461343956e-05 52.14108261
67.49975082 0.1172753866 19.24624761
63.49975082 17.73237739 226.4734686
63.49975082 35.54978239 140.9203766
-50.31050418 18.18915639 -9.738638255e-05
-2.885103179 -2.461343956e-05 101.1175616
67.49975082 98.53866739 226.3996226
63.49975082 6.440656387 12.00887961
67.49975082 65.77545139 141.3400766
63.49975082 23.46713039 35.72852161
63.49975082 27.16003739 67.29494161
13.54762382 -2.461343956e-05 89.20324561
46.86245582 -2.461343956e-05 239.3475566
66.32675382 62.90603739 -9.738638255e-05
70.63531982 -2.461343956e-05 161.5735526
67.49975082 43.05888339 177.6765916
26.65505782 -2.461343956e-05 163.0618486
67.49975082 50.18995139 226.4752546
63.49975082 0.7319473866 40.21073461
67.49975082 22.96943439 15.31833061
63.49975082 5.975210387 131.5307016
32.82575082 52.56803339 -9.738638255e-05
63.49975082 44.81861939 193.1959066
67.49975082 0.1884043866 215.7722216
-71.67547918 -2.461343956e-05 142.8924316
3.911532821 -2.461343956e-05 7.025494614
67.49975082 21.25082139 69.40057561
67.49975082 79.33590139 158.0775416
45.38088082 -2.461343956e-05 52.02181661
63.49975082 51.71899639 61.36182261
67.49975082 37.58740039 50.67511661
67.49975082 22.04772739 217.8257306
7.880661821 -2.461343956e-05 48.98044761
14.83654682 -2.461343956e-05 30.41704161
56.96426082 -2.461343956e-05 40.32934661
-10.61422518 56.75014739 -9.738638255e-05
-60.31293018 -2.461343956e-05 103.1070186
67.49975082 10.49459439 23.60417061
63.49975082 90.69050739 234.4001986
-67.49927218 -1.239275613 243.8384686
-19.13642118 -2.461343956e-05 8.516943614
-62.28888618 45.70715339 -9.738638255e-05
67.49975082 30.52158439 216.6922586
67.49975082 14.32229639 122.1918346
-16.75928918 -2.461343956e-05 119.7463576
67.49975082 35.10346839 24.02235961
67.49975082 36.46877139 64.23753361
20.82295882 59.29297639 -9.738638255e-05
85.32700282 -2.461343956e-05 44.56979361
12.12234182 -2.461343956e-05 23.74238961
28.67578982 -2.461343956e-05 250.0673086
-68.33461318 6.483612387 -9.738638255e-05
67.49975082 57.93049939 128.7399316
-77.62322918 -2.461343956e-05 55.19491561
-24.20205818 -2.461343956e-05 41.32216661
67.49975082 7.243084387 93.02736661
67.49975082 58.65391239 226.0458086
78.64908782 -2.461343956e-05 93.68503761
-50.32089818 11.04062939 -9.738638255e-05
63.49975082 51.35758639 186.2368436
67.49975082 32.16176639 123.4585016
17.43950582 -2.461343956e-05 101.6165796
44.99224482 60.96885639 -9.738638255e-05
63.49975082 42.15252639 106.8340476
-20.69873718 -2.461343956e-05 82.23492361
63.49975082 0.8593453866 125.1300416
-52.59194818 -2.461343956e-05 51.78049361
-17.85756118 8.815384387 -9.738638255e-05
-17.40038718 -2.461343956e-05 155.9783246
-9.795561179 -2.461343956e-05 154.9035846
63.49975082 47.99015339 33.26856861
38.97622082 -2.461343956e-05 24.79395561
-56.31275218 29.10600739 -9.738638255e-05
67.49975082 37.82791939 72.61882561
63.49975082 64.27946539 154.3988136
67.49975082 102.6293934 236.1406656
63.49975082 44.99402739 243.1167306
67.49975082 37.27738539 32.06899361
-67.51875718 -2.461343956e-05 229.9484896
60.35778482 -2.461343956e-05 114.3238846
-21.74244718 42.75857539 -9.738638255e-05
67.75958182 -2.279678613 229.8998056
-20.84077318 -2.461343956e-05 235.1685776
63.49975082 18.76046339 91.91851261
63.49975082 12.67322139 57.99882861
63.49975082 15.62164439 168.3605266
63.49975082 53.42599439 244.3285696
17.43686282 -2.461343956e-05 172.1112416
-58.85580718 -2.461343956e-05 142.4424456
-27.17372318 -2.461343956e-05 144.6995746
33.49641582 -2.461343956e-05 116.1335696
63.49975082 47.46554539 74.32469661
-27.71107618 -2.461343956e-05 171.8919526
61.35324682 -2.461343956e-05 17.55798161
67.49975082 26.22465639 161.9400016
39.99710482 18.33425639 -9.738638255e-05
-40.58121118 -2.461343956e-05 45.43994161
27.28258482 -2.461343956e-05 27.47894161
63.49975082 12.47880139 203.6987686
67.49975082 15.72883239 141.0739726
4.438526821 -2.461343956e-05 251.7627946
23.77454382 -2.461343956e-05 17.88952961
67.49975082 26.77800339 147.8849676
67.49975082 48.62411039 52.42216461
-6.524748179 -2.461343956e-05 209.3394196
-52.74874318 -2.461343956e-05 197.7636806
-34.00753718 -2.461343956e-05 193.6405296
63.49975082 20.52975939 48.93993161
-84.83701018 -2.461343956e-05 85.06213461
-47.39688218 -2.461343956e-05 103.6284356
16.89017682 -2.461343956e-05 245.4391826
25.37132182 -2.461343956e-05 131.1200156
29.34543582 -2.461343956e-05 191.0330306
63.49975082 44.22916539 62.30580461
-7.678929179 -2.461343956e-05 38.03975361
63.49975082 6.506962387 190.8879186
63.49975082 59.23035939 180.8342736
63.49975082 64.91584639 174.8388366
63.49975082 4.602802387 81.63312261
-66.49927218 -0.9390006134 150.4639886
63.49975082 20.16905339 119.7146126
67.49975082 13.78855039 64.09762461
67.49975082 5.238591387 126.8911856
67.49975082 49.22000539 94.66503661
-38.46889818 -2.461343956e-05 66.79018961
67.49975082 30.56595539 204.2677366
67.49975082 55.69887039 210.2554406
63.49975082 8.618117387 183.2416516
72.70514282 -2.461343956e-05 169.7668186
63.49975082 85.84994239 181.6342286
63.49975082 18.59583239 59.70193061
15.10945082 -2.461343956e-05 140.9738166
67.49975082 53.94070739 81.32040261
67.49975082 58.26615139 198.9994606
73.27274582 -2.461343956e-05 138.8967506
67.49975082 49.43328639 88.12203461
63.49975082 4.501887387 138.2543226
51.39788482 -2.461343956e-05 27.25063261
81.98220482 -2.461343956e-05 103.3578316
-71.67031018 -2.461343956e-05 85.79959161
67.49975082 55.86974139 159.3762686
67.49975082 24.12734839 100.7929676
63.49975082 92.73796339 213.6187296
40.00407282 -2.461343956e-05 119.5663036
57.63704282 -2.461343956e-05 100.4077026
67.49975082 17.89965639 172.8551196
63.49975082 12.07477839 90.98632461
63.49975082 59.70792139 71.70756661
-33.28321618 -2.461343956e-05 176.8666966
-62.82126318 53.04907739 -9.738638255e-05
67.49975082 62.74204639 113.6628956
63.49975082 46.20789439 220.1968516
63.49975082 0.5436913866 158.8082196
67.49975082 43.60414639 150.5341666
-61.02714618 -2.461343956e-05 185.1378126
59.05526882 45.71420539 -9.738638255e-05
-61.28931018 -2.461343956e-05 176.0650446
63.49975082 29.88531539 209.1506876
42.05889182 -2.461343956e-05 97.14166261
63.49975082 5.594508387 101.1292336
67.49975082 13.36672339 42.54066561
67.49975082 44.06567339 41.67419861
67.49975082 46.64171639 208.9092466
67.49975082 10.94938139 73.30348961
-11.80171718 -2.461343956e-05 25.61018661
63.49975082 26.87141639 18.88814661
63.49975082 13.26807839 160.4500326
-2.261364179 40.14718239 -9.738638255e-05
-38.25060818 -2.461343956e-05 144.6080296
63.49975082 83.10272939 222.5570976
63.49975082 6.851253387 167.2594376
-56.50180918 -2.461343956e-05 116.0670016
67.49975082 21.29278939 132.1223906
50.91517182 -2.461343956e-05 94.64932061
63.49975082 4.951819387 87.62485561
63.49975082 40.55078339 237.7684726
67.49975082 40.55271939 171.4813086
67.49975082 35.09181039 238.8323196
63.49975082 59.68943139 234.7784256
59.45442082 -2.461343956e-05 149.7124626
63.49975082 46.15979639 23.17189561
67.49975082 74.95000139 163.8116726
-80.51959718 -2.461343956e-05 27.49669561
67.49975082 14.07724739 115.7858716
-61.60609218 -2.461343956e-05 209.8849006
67.49975082 6.675196387 207.2434226
63.49975082 16.20920639 103.1318256
63.49975082 25.38259539 238.5990476
67.49975082 0.1223913866 147.5287026
63.49975082 73.10477239 247.1485676
-32.14330318 -2.461343956e-05 31.57470761
63.49975082 28.35165739 8.580115614
-4.907791179 -2.461343956e-05 226.4133786
67.49975082 64.80365439 97.75307261
-50.97126418 -2.461343956e-05 84.58875461
28.53250382 -2.461343956e-05 90.04884561
67.49975082 31.71635539 154.9510986
67.49975082 83.27460339 208.1572346
67.49975082 5.612003387 250.2202726
63.49975082 65.88489939 233.5179546
64.11453182 -2.461343956e-05 131.4258176
63.49975082 30.32478439 73.37091661
87.14643282 8.742458387 -9.738638255e-05
-71.02414618 -2.461343956e-05 100.6580956
67.49975082 77.71470239 168.9910896
59.36406482 -2.461343956e-05 85.96797061
67.49975082 40.17491839 190.9148786
-32.87882218 67.99997539 -0.08438738638
67.49975082 10.90464339 156.8654826
85.53012782 -2.461343956e-05 218.3090936
67.49975082 23.59851739 207.6148626
66.98985282 107.7558034 245.1841906
-84.91245218 -2.461343956e-05 214.9935536
44.29332382 -2.461343956e-05 160.4959766
63.49975082 77.05731039 219.8451446
-81.53704818 52.04643639 -9.738638255e-05
-3.110117179 -2.461343956e-05 194.9985606
-85.79062818 62.50002639 -9.738638255e-05
4.934031821 12.20072639 -9.738638255e-05
63.49975082 81.95526839 202.2295386
63.49975082 39.46916039 179.8917866
67.49975082 10.98814739 15.44360961
67.49975082 46.65075339 127.9483846
67.49975082 5.893138387 120.4126326
63.49975082 56.20894639 150.8697416
-72.60710218 -2.461343956e-05 170.7934776
63.49975082 47.42398039 4.423023614
63.49975082 0.1283763866 193.7596416
-49.66020518 -2.461343956e-05 18.05566161
63.49975082 45.89495439 169.1938446
82.08311382 -2.461343956e-05 151.7920046
67.49975082 36.70454039 151.4528226
67.49975082 19.73690839 180.7528266
63.49975082 3.514666387 48.21243761
63.49975082 55.14975839 136.3456406
63.49975082 7.633441387 213.7512706
-71.77199518 -2.461343956e-05 238.5721456
67.49975082 40.24247639 246.8574576
63.49975082 47.40044839 44.75336861
67.49975082 81.41830239 196.0570146
-31.67988718 -2.461343956e-05 103.7930426
67.49975082 25.21759939 191.8087746
-25.34053618 -2.461343956e-05 72.20329461
63.49975082 45.75852939 114.7028836
63.49975082 1.403497387 231.1460026
1.559147821 25.16362539 -9.738638255e-05
87.75958982 -2.461343956e-05 66.65444061
63.49975082 30.48967039 226.2292746
53.24214182 -2.461343956e-05 226.1148046
-25.40903618 -2.461343956e-05 185.5869626
63.49975082 9.242089387 126.0816606
27.25914482 46.21311139 -9.738638255e-05
63.49975082 69.58610639 217.3609936
-41.63589718 -2.461343956e-05 209.3539156
40.92342882 -2.461343956e-05 209.5720566
-29.99286218 -2.461343956e-05 5.279560614
-23.58971218 -2.461343956e-05 179.0834236
67.49975082 49.10963239 178.4598726
52.39882482 4.392204387 -9.738638255e-05
-59.42407918 -2.461343956e-05 233.7247346
44.83797282 -2.461343956e-05 3.012842614
11.15232782 -2.461343956e-05 114.9431946
67.49975082 96.55233639 244.2852386
67.49975082 4.435384387 26.54053361
67.49975082 66.58797539 241.8362476
63.49975082 42.91355239 12.48003561
63.49975082 14.21548839 213.6031976
67.49975082 28.83636139 85.09311961
67.49975082 41.17442939 230.9070896
63.49975082 19.01265639 159.3513976
63.49975082 78.34199639 212.6554386
63.49975082 4.652020387 198.2502176
63.49975082 53.99132939 216.9735606
67.49975082 47.33980139 197.0765676
70.16362882 -2.461343956e-05 192.9849096
87.70540082 -2.461343956e-05 175.4686096
-41.32791718 54.04046239 -9.738638255e-05
53.54401282 -2.461343956e-05 89.40099261
-8.976495179 -2.461343956e-05 4.253077614
-41.33128118 -2.461343956e-05 57.09636661
-17.94075318 -2.461343956e-05 142.8840816
-65.45484418 39.61738039 -9.738638255e-05
67.49975082 1.245672387 182.4835166
50.98885382 -2.461343956e-05 190.7635876
67.49975082 59.64444239 185.2232676
67.49975082 36.92838439 110.6502226
63.49975082 66.40356239 169.3713316
67.49975082 88.38560139 243.5248856
63.49975082 40.71211539 126.4977996
63.49975082 27.91285139 244.1829536
-9.920769179 -2.461343956e-05 15.10514361
24.51638482 -2.461343956e-05 234.7646776
29.64284482 38.90405139 -9.738638255e-05
32.56900682 -2.461343956e-05 76.68700361
58.25327682 -2.461343956e-05 170.2062066
63.49975082 33.39312739 32.13469561
67.49975082 4.676537387 38.43166761
67.49975082 14.59256339 230.2259236
-82.28973718 -2.461343956e-05 176.7108686
63.49975082 56.76008539 103.5685226
67.49975082 62.83541339 146.8435536
67.49975082 26.74098739 94.98079761
67.49975082 21.71226239 150.8707226
67.49975082 10.19055339 51.12379161
63.49975082 16.68945839 125.1934836
63.49975082 64.57511139 202.3974996
63.49975082 60.83676239 140.1205036
66.69269182 68.62722439 113.7130996
63.49975082 39.75082039 43.98644561
-55.80050518 10.41203739 -9.738638255e-05
63.49975082 26.86698539 61.42526661
-51.35448318 -2.461343956e-05 242.1405386
67.49975082 47.58151539 247.0543836
-76.72524118 -2.461343956e-05 138.7223186
67.49975082 33.46447639 180.9644246
67.49975082 42.83904939 52.33093461
-39.94134618 -2.461343956e-05 96.16246161
67.49975082 36.97375439 94.96995261
67.49975082 49.87239239 213.6009366
63.49975082 94.85648639 225.6542026
63.49975082 84.73839639 244.4227606
63.49975082 23.94908039 135.2515016
62.37392582 -2.461343956e-05 222.1596096
81.40970482 17.51308639 -9.738638255e-05
63.49975082 70.26999939 223.1481076
67.49975082 25.99169339 247.3688336
63.49975082 24.91545739 228.8704286
67.49975082 86.16187139 201.8150216
18.01560282 29.70540139 -9.738638255e-05
67.49975082 48.63999639 232.0025036
63.49975082 19.94094339 145.3806366
67.49975082 47.41909039 186.3403486
63.49975082 13.64474039 242.0778536
-11.06620918 47.08468839 -9.738638255e-05
63.49975082 67.94937539 197.3588586
63.49975082 15.93789939 185.2221776
67.27710582 -2.461343956e-05 205.8668466
67.49975082 15.18465139 69.69484061
39.50730882 -2.461343956e-05 168.8861476
79.76503482 -2.461343956e-05 127.8253326
-33.18386218 -2.461343956e-05 165.7885346
63.49975082 20.31374539 29.68848861
63.49975082 41.52481839 94.31768961
63.49975082 42.23897939 118.8282726
67.49975082 35.25626639 144.5554546
63.49975082 34.88766439 229.3732986
78.40265582 -2.461343956e-05 21.64450661
34.05268282 -2.461343956e-05 99.35532161
76.03182382 -2.461343956e-05 108.5170516
67.49975082 25.89756439 140.0332076
67.49975082 69.27698939 150.0549336
24.19668882 -2.461343956e-05 142.5450986
45.60199782 -2.461343956e-05 129.6260546
63.49975082 3.138762387 94.23567361
67.49294082 98.04183039 217.9975556
63.49975082 80.60679439 178.3824086
70.43446282 15.09422539 -9.738638255e-05
-86.22148418 -2.461343956e-05 226.5002996
-30.30820718 -2.461343956e-05 115.7849146
63.49975082 83.52491439 239.1877086
63.49975082 22.41700039 249.9191276
63.49975082 64.59664139 180.9863176
49.32272882 35.90702839 -9.738638255e-05
67.49975082 5.301371387 70.57720361
67.49975082 7.414073387 236.6207136
-68.40627218 -2.461343956e-05 16.15853861
63.49975082 57.22647639 82.69730061
63.49975082 7.623915387 221.1496786
-66.49927218 -0.3445636134 194.5275846
34.46953582 -2.461343956e-05 16.93126461
-2.112801179 58.31750739 -9.738638255e-05
67.49975082 27.03577739 211.8110916
63.49975082 42.23243839 75.41500561
67.49975082 33.38305639 130.1381376
63.49975082 71.05406839 173.7747556
-42.27771518 -2.461343956e-05 10.27635461
63.49975082 36.23917639 75.77526361
63.49975082 52.74799739 94.74663161
72.82109682 -2.461343956e-05 59.06531661
67.49975082 0.4071643866 113.0328066
67.49975082 57.45094339 110.3613556
60.59575782 25.53571539 -9.738638255e-05
63.49975082 60.70889439 228.9029536
58.58558282 -2.461343956e-05 68.85830461
63.49975082 71.53286439 239.0807006
67.49975082 13.85732739 252.2640556
63.49975082 52.65004639 177.7979466
67.35036482 82.99670239 170.0540676
63.49975082 0.1913633866 25.11326361
63.49975082 63.04999639 194.6969966
56.48666782 -2.461343956e-05 221.7716836
-5.920446179 -2.461343956e-05 220.7898126
-39.41280118 -2.461343956e-05 245.9078716
63.49975082 33.00196539 64.30058261
67.49975082 5.247666387 15.24964761
63.49975082 7.380446387 106.1004106
-46.68759718 -2.461343956e-05 143.4132866
67.49975082 9.964950387 109.3409916
67.49975082 11.02161939 186.3772086
-58.20589118 -2.461343956e-05 37.33973361
67.49975082 53.56167539 201.7311996
63.49975082 74.26317839 188.0933096
63.49975082 4.631137387 110.8653606
63.49975082 6.008024387 35.28125761
63.49975082 39.30457739 153.6686846
67.49975082 66.28050639 214.5465876
67.49975082 73.46460539 251.3281736
-46.52739718 -2.461343956e-05 87.39933261
44.95565682 -2.461343956e-05 215.0986586
67.49975082 31.38707139 108.5848166
84.66496082 -2.461343956e-05 50.70868661
67.49975082 79.23374839 222.4527386
63.49975082 27.35742939 154.8812016
67.49975082 55.82640639 55.82056461
63.49975082 68.91122139 212.1580096
67.49975082 37.12416039 164.8786436
-6.214254179 -2.461343956e-05 160.0208186
67.49975082 45.38905939 19.56146261
63.49975082 33.66705839 83.85362861
63.49975082 77.38447639 155.0456206
-72.00394118 -2.461343956e-05 4.480473614
-45.46882118 -2.461343956e-05 127.8345106
63.49975082 49.05954239 130.3028846
63.49975082 65.04549539 163.9535456
63.49975082 20.63635439 19.73346861
67.49975082 46.78620639 64.49295061
63.49975082 106.0220304 250.3471666
63.49975082 40.65903039 206.9411346
67.49975082 47.61760439 36.60736161
67.49975082 44.43743639 5.956556614
63.49975082 105.2036494 241.7501826
67.49975082 63.79189839 157.7113846
79.94837182 -2.461343956e-05 133.6550916
67.49975082 26.44787839 55.43886961
63.49975082 65.64497239 127.7648926
-59.24685718 40.47101239 -9.738638255e-05
-18.24384218 20.85751639 -9.738638255e-05
67.49975082 92.38617639 216.9231076
9.217307821 -2.461343956e-05 133.5169956
63.49975082 55.13549539 123.5751196
67.49975082 14.12915139 152.6900626
-57.34986118 -2.461343956e-05 147.4103356
-67.79547018 -2.461343956e-05 76.05395961
63.49975082 54.05129439 234.4446696
63.49975082 51.14805939 149.7317286
63.49975082 23.00628939 181.0271246
-33.27105718 -2.461343956e-05 1.292280614
63.49975082 4.373467387 173.1475006
63.49975082 13.90554939 74.66838461
67.49975082 9.156230387 6.243271614
67.49975082 92.22928939 248.6633796
63.49975082 25.26314939 46.90417661
63.49975082 31.42049939 59.01719961
63.49975082 28.19515939 218.9400276
67.49975082 70.57080239 187.4234166
63.49975082 34.64704739 187.9572886
63.49975082 62.47936739 208.0821366
63.49975082 50.82820139 197.5587586
27.64489082 -2.461343956e-05 74.98311861
67.49975082 8.373373387 98.03450461
63.49975082 36.89799839 120.5763166
63.49975082 29.09545039 145.6742556
67.49975082 17.19467639 128.5421516
50.92820282 -2.461343956e-05 143.6127476
18.54751182 -2.461343956e-05 181.0062906
67.49975082 75.46279439 240.0873196
63.49975082 33.63274439 217.3810616
-62.05625918 -2.461343956e-05 229.3402926
67.49975082 32.48207539 50.47863661
63.49975082 31.67476939 183.8042746
63.49975082 61.48805839 149.7180076
67.49975082 11.27563039 247.8619126
67.49975082 101.6907754 231.0670026
-61.60195418 -2.461343956e-05 134.1985686
-9.741220179 12.13984039 -9.738638255e-05
2.966929821 -2.461343956e-05 198.4382696
67.49975082 79.29161739 188.3657366
67.49975082 81.27973039 244.6849036
24.93029382 5.557689387 -9.738638255e-05
63.49975082 18.22212639 190.0131466
-72.83110518 -2.461343956e-05 115.6170166
67.49975082 5.896970387 46.17870561
67.49975082 43.83339539 166.8399846
-24.75303418 -2.461343956e-05 159.9805156
63.49975082 17.96678839 53.32305661
67.36554582 -2.461343956e-05 135.4718146
-44.65747418 29.64650039 -9.738638255e-05
67.32388682 -2.461343956e-05 176.8629656
67.49975082 14.27731339 5.084832614
63.49975082 3.964052387 209.2024276
-77.41118118 -2.461343956e-05 196.8821086
67.49975082 22.32039039 165.1631496
0.3771458214 -2.461343956e-05 112.3012386
67.49975082 61.06871839 241.5585196
67.49975082 71.12036539 134.0557216
-37.12504018 -2.461343956e-05 7.330563614
67.49975082 35.49659639 232.7804726
67.49975082 40.23875939 26.97089961
-53.75172118 -2.461343956e-05 173.6478766
67.49975082 58.62742939 90.73706061
63.49975082 31.00742939 178.4498096
67.49975082 49.88617639 29.46264861
67.49975082 86.75298439 192.8466276
41.85545882 -2.461343956e-05 200.3601226
67.49975082 51.66711139 128.3675756
67.49975082 27.45485439 125.2408656
-17.00904918 -2.461343956e-05 99.13243061
63.49975082 25.31891439 13.37379661
63.49975082 23.91015839 200.6427676
-6.843789179 -2.461343956e-05 175.4967406
63.49975082 57.84469439 94.60923961
-9.719870179 64.24883439 -9.738638255e-05
67.37496082 -2.461343956e-05 246.9476326
63.49975082 21.51328139 102.8412786
63.49975082 38.50486739 66.47968161
63.49975082 42.87506039 131.2918506
78.26089782 -2.461343956e-05 244.2984866
67.49975082 26.96396839 27.86707761
67.49975082 62.19011239 166.4369306
67.49975082 38.84078739 104.7300406
63.49975082 35.05291939 247.1766376
67.49975082 33.25937139 76.24863861
67.49975082 51.09762039 42.58874561
67.49975082 15.98188539 136.0732206
-62.51359818 -2.461343956e-05 160.0240766
-27.82246918 44.74668139 -9.738638255e-05
66.61851482 -2.461343956e-05 6.674426614
63.49975082 31.60794839 157.9491126
67.49975082 5.108589387 193.5376326
63.49975082 88.10485439 215.9924716
67.49975082 81.87383339 181.0936826
63.49975082 15.34394039 197.0830566
4.034273821 38.21333539 -9.738638255e-05
67.33172482 70.48398339 121.8872046
-24.15276818 -2.461343956e-05 116.6057616
67.49975082 53.86645739 140.2339656
63.49975082 52.91429539 56.42912661
67.49975082 7.163057387 231.2535996
67.49975082 18.92918339 234.1633256
-20.50034918 -1.542006613 -9.738638255e-05
67.49975082 0.4312493866 57.83049561
63.49975082 33.37338039 173.3317456
63.49975082 79.31369839 207.6819986
63.49975082 38.02639439 198.1284256
63.49975082 47.33732239 227.2885456
67.49975082 32.01501739 29.50813861
-80.25512418 -2.461343956e-05 213.1028516
67.49975082 19.16655239 64.88017261
67.49975082 23.86757939 2.659293614
-13.04537518 -2.461343956e-05 137.3728866
63.49975082 58.80234339 131.5624856
63.67083582 16.92927139 1.499902614
52.03874182 -2.461343956e-05 206.6298836
63.49975082 11.03146939 63.05025961
67.49975082 48.37656439 71.52413861
66.53747782 67.48112239 108.6675566
45.42930082 -2.461343956e-05 115.0736456
19.83442282 -2.461343956e-05 37.58907461
67.49975082 86.17060939 248.5593276
43.64923882 -2.461343956e-05 64.64691961
67.49975082 53.91690139 196.1787716
63.49975082 96.95502239 241.3862116
67.49975082 36.25662639 173.9477866
63.49975082 11.22575539 226.6264906
53.49874382 -2.461343956e-05 231.0589756
-79.80679618 67.99997539 -1.296977386
63.49975082 19.43492439 206.9849606
33.28190782 47.64512839 -9.738638255e-05
63.49975082 58.33226739 243.7257686
63.49975082 19.19074639 38.32573961
63.49975082 47.65064539 249.9510376
33.96180482 -2.461343956e-05 39.41771761
67.49975082 12.30463839 171.9412836
32.37653282 -2.461343956e-05 174.6797746
67.49975082 75.10751839 231.9001326
-81.47381418 -2.461343956e-05 224.7061366
67.49975082 62.86892539 176.8545086
67.49975082 68.13290739 235.5305666
67.49975082 76.22456339 209.2894696
67.49975082 54.02321939 86.34541161
63.54002782 -2.461343956e-05 104.1136636
63.49975082 75.65940839 203.9778356
67.49975082 28.30138539 22.79028961
67.49975082 27.27334339 252.1159376
63.49975082 36.35002039 26.59529061
67.49975082 35.45929839 244.1099386
-22.42418018 -2.461343956e-05 193.8061986
63.49975082 87.34920439 209.6339356
67.49975082 34.80732139 195.3624706
63.49975082 22.85816539 223.4892316
27.84517582 -2.461343956e-05 21.53827761
63.49975082 0.8463633866 73.89076461
24.25821682 -2.461343956e-05 169.5436336
67.49975082 48.81006839 76.81578161
67.49975082 17.75583139 28.21243961
-3.937543179 -2.461343956e-05 55.95920661
63.49975082 12.97956139 140.4026736
63.49975082 51.92359139 112.9650416
67.49975082 21.41109139 55.81715561
63.49975082 34.40397939 99.15149761
67.49975082 13.49285439 30.96525661
67.49975082 50.54731139 108.6829626
67.49975082 18.61453539 101.6568906
67.49975082 10.99015639 215.7231696
85.57126682 60.79703539 -9.738638255e-05
-28.84808818 -2.461343956e-05 53.46122061
67.49975082 23.63946839 32.93130661
67.49975082 40.45968039 86.97500761
63.49975082 27.95379639 187.6135956
63.49975082 56.51604139 188.8197026
67.49975082 23.06929939 144.7148546
-19.63347918 31.62895139 -9.738638255e-05
67.49975082 64.07731239 151.5607986
-62.90302818 2.460374387 -9.738638255e-05
67.49975082 43.44076839 220.5399026
63.49975082 39.67940039 138.3361626
63.49975082 26.67823139 233.9051366
63.49975082 29.91976439 115.3807436
63.49975082 35.94262539 52.90260861
67.49975082 54.42387739 61.95239161
-12.11535418 -2.461343956e-05 86.20406461
63.49975082 9.556764387 150.2696606
59.55439782 -2.461343956e-05 36.21889761
63.49975082 69.25412739 137.8466756
-52.08621618 -2.461343956e-05 34.77240761
67.49975082 32.36203739 148.4547786
67.49975082 45.11544939 157.5948626
26.62904782 -2.461343956e-05 151.7050426
67.49975082 18.61963839 199.3355416
63.49975082 7.445995387 158.1862916
63.49975082 47.53776239 164.0957396
67.49975082 18.51498439 45.85711661
63.96183982 76.25420339 145.3142036
63.49975082 11.91133039 145.1519546
67.49975082 67.64380739 125.9143496
-25.21091918 -2.461343956e-05 204.5875036
67.49975082 51.34505439 207.3277356
67.49975082 74.26792739 190.7999146
63.49975082 76.82545239 250.2242316
67.49975082 49.49718939 83.20625461
63.49975082 89.55490139 225.9231556
63.49975082 46.23844139 237.9408896
63.49975082 16.77059639 115.9640186
67.49975082 82.22980039 229.6887216
63.49975082 46.55779439 67.56038261
63.49975082 20.25645439 166.8962866
63.49975082 55.40015139 156.7242606
63.49975082 30.73377939 141.1111566
67.49975082 64.50217439 210.0676976
67.49975082 73.24037439 147.3142576
67.49975082 16.62848239 110.3632516
67.49975082 2.262005387 242.0462916
63.49975082 100.2763354 246.5175496
63.49975082 75.35333839 170.2495596
63.49975082 42.15015839 28.84331461
54.92234782 -2.461343956e-05 133.8870976
-30.22826818 22.24199039 -9.738638255e-05
63.71372182 -2.461343956e-05 163.8759206
-13.14576418 -2.461343956e-05 171.4577486
67.49975082 31.51594139 166.5994156
67.49975082 69.82912939 209.6648326
64.05468082 52.21344739 19.88321561
63.49975082 27.92636739 87.58228661
63.49975082 25.09034939 30.13708561
63.49975082 26.01935539 130.1067706
63.49975082 40.57131239 81.96634861
67.49975082 36.08288139 249.6105776
67.49975082 36.66299839 17.03860961
67.49975082 31.23557939 43.38872761
67.49975082 49.23342639 147.4966486
67.49975082 18.13078539 85.57435761
63.49975082 58.97386039 215.1617436
67.49975082 47.65207839 100.9573816
67.49975082 4.233195387 62.97706861
63.49975082 52.90961339 35.31018361
67.49975082 5.386014387 56.15680061
-81.96938018 -2.461343956e-05 102.7309816
-62.17362518 -2.461343956e-05 24.25196061
71.61953682 -2.461343956e-05 234.5447526
67.49975082 57.76640939 168.6586876
63.49975082 14.96535839 23.89351761
67.49975082 21.31177639 96.26833461
63.49975082 75.63615839 224.4056206
63.49975082 38.37539339 132.8919006
63.49975082 45.86036339 103.8282816
67.49975082 39.64875739 118.5766856
63.49975082 23.74552039 109.2359786
67.49975082 60.32472239 218.3160156
67.49975082 57.04924839 191.6478276
67.49975082 46.00062139 216.5190796
67.49975082 56.60146039 231.1215106
63.49975082 60.38547339 157.1429036
67.49975082 103.5223574 247.3050356
62.53444882 -2.461343956e-05 82.38201361
63.49975082 71.45618139 157.8725546
67.49975082 71.94008539 215.1363986
-64.03685118 -2.461343956e-05 122.3756366
20.34103782 -2.461343956e-05 78.61277761
63.49975082 52.09363239 75.39784761
67.49975082 7.512289387 31.71463461
67.49975082 6.452459387 155.2170936
63.49975082 15.78106239 250.5796856
67.49975082 43.36754039 115.6257076
63.49975082 40.81248039 174.0230886
63.49975082 21.84889539 63.15212061
21.68024782 -2.461343956e-05 229.0415936
63.49975082 70.10882239 227.8868226
63.82322782 90.53246539 195.1318276
67.49975082 30.41510839 238.0625036
-67.49927218 -1.424709613 164.5258106
52.41429982 21.79046239 -9.738638255e-05
-67.49927218 -2.022405613 139.8672936
63.49975082 25.40074039 98.61343061
67.49975082 64.15242839 186.6541156
63.49975082 54.21873539 142.7325056
67.49975082 5.958126387 146.4996716
67.49975082 25.12429439 183.1762356
67.49975082 28.17613239 71.61752461
63.49975082 31.48555239 16.68582961
67.49975082 22.29558039 230.8491506
63.49975082 37.55000739 86.54003361
-87.19746818 16.88183239 -9.738638255e-05
67.49975082 54.78030139 174.1860116
67.49975082 32.84794239 118.2053716
67.49975082 69.64184839 144.0392336
67.49975082 65.14987739 117.7166836
67.49975082 23.57178639 236.8823676
67.49975082 16.92408539 208.5045276
63.49975082 25.70810839 117.8406926
53.26368582 -2.461343956e-05 84.69847361
63.49975082 36.91966139 19.90162561
67.49975082 62.46515739 203.7089476
67.49975082 28.31313039 77.49922861
63.49975082 77.82792139 230.2351556
63.49975082 12.41374439 12.20761361
67.49975082 22.46718039 7.917280614
-21.37393518 -2.461343956e-05 218.3540506
67.49975082 92.60260639 209.7831776
67.49975082 84.15354039 234.1840086
63.49975082 7.149558387 67.45209461
67.49975082 70.67356639 246.7327766
-11.00571718 -2.461343956e-05 117.8608516
-80.67371318 -2.461343956e-05 244.7451636
63.49975082 90.75105539 203.6806006
63.49975082 39.33976439 187.9722016
-56.73461618 67.41337339 -9.738638255e-05
67.49975082 70.38486439 193.8076866
63.49975082 31.72757839 12.00461161
67.49975082 31.68964639 199.7199246
80.30114282 -2.461343956e-05 187.6544416
63.49975082 27.65190139 105.6127236
9.130363821 -2.461343956e-05 104.0007796
63.49975082 61.38316339 115.6730746
67.49975082 31.98077839 191.3097456
67.49975082 6.121572387 20.48732161
67.49975082 31.51292139 247.7606996
67.49975082 63.60705239 232.4373786
63.49975082 23.10550839 123.4851786
63.49975082 46.38235039 150.3308026
63.49975082 4.364211387 179.8579886
63.49975082 9.089593387 80.33979061
67.49975082 10.91938839 177.1863196
63.49975082 9.130301387 136.9380296
67.49975082 49.51747739 138.1466326
67.49975082 74.95177639 185.7906876
63.49975082 17.90563039 107.5764506
-83.38938118 -2.461343956e-05 190.5252426
67.49975082 83.69729739 224.8819636
67.49975082 41.66877339 195.3331106
63.49975082 48.20356239 109.1866746
-76.98139518 -2.461343956e-05 150.8594856
67.49975082 34.20593639 104.2526696
67.49975082 39.74263939 60.92518161
