# .PCD v0.7 - Point Cloud Data file format
VERSION 0.7
FIELDS x y z
SIZE 4 4 4
TYPE F F F
COUNT 1 1 1
WIDTH 1259
HEIGHT 1
VIEWPOINT 0 0 0 1 0 0 0
POINTS 1259
DATA ascii
74.117526 -2.461350391e-05 -105.9224154
43.163303 -2.461350391e-05 -10.32604739
235.246017 -2.461350391e-05 105.6102146
-2.899996798e-05 13.17590139 22.17851661
21.020875 -2.461350391e-05 113.6979816
-2.899996798e-05 52.43250339 -108.7231194
205.420536 -2.461350391e-05 114.3523416
100.462924 19.39454939 -145.0000974
148.519983 -2.461350391e-05 59.68719161
234.723746 -2.461350391e-05 74.78304361
-2.899996798e-05 66.81534539 -62.03169839
197.68265 38.98695639 -145.0000974
203.224291 -2.461350391e-05 -2.726782386
230.133315 6.001222386 133.2677076
80.749673 57.46837639 145.0244236
21.071065 -2.461350391e-05 50.58783461
-2.899996798e-05 71.79230839 99.71979961
23.847441 -2.461350391e-05 12.34185461
-2.899996798e-05 2.204425386 -99.49047739
-2.899996798e-05 51.32381639 -9.590576386
-1.317553 57.57770739 -129.7693184
26.887275 -2.461350391e-05 -86.26151939
124.19514 -2.461350391e-05 -81.02627139
149.331338 60.44021339 133.6083996
-2.899996798e-05 68.87757639 12.50636561
42.355366 39.81996539 -151.0000974
251.416839 16.76119439 125.5740876
99.393299 -2.461350391e-05 130.5079976
118.324892 -2.461350391e-05 -65.35838839
-2.899996798e-05 0.2126243865 80.45683661
161.88261 -2.461350391e-05 -128.7344314
11.466261 -2.461350391e-05 -12.49513039
72.603251 29.46226039 145.6655586
-2.899996798e-05 23.59705639 -123.5597344
210.46128 -2.188709614 -151.0000974
-2.899996798e-05 35.87031139 -136.7344974
196.178411 -2.461350391e-05 -40.57689239
250.522404 26.03639939 -151.0000974
237.54043 47.10315639 132.6847566
177.676693 56.43051739 137.3961216
186.557681 -2.461350391e-05 -17.56644239
251.556509 -2.461350391e-05 -29.36408139
31.02583 -2.461350391e-05 -134.2613144
66.016816 -2.461350391e-05 -68.86496439
-2.899996798e-05 118.5540344 -66.67686339
125.408057 16.44747139 141.5097416
152.465685 25.08885439 133.3617206
5.716028 -2.461350391e-05 -41.37957839
-2.899996798e-05 33.32252139 -34.78956539
168.473226 14.28232739 -151.0000974
211.247362 -2.461350391e-05 128.3323706
79.044295 27.05925539 -145.0000974
-2.899996798e-05 143.4134814 -79.83320639
95.734295 -2.461350391e-05 -46.42244439
67.219781 -2.461350391e-05 43.10023861
107.408668 -2.461350391e-05 -94.54410039
84.174421 -2.461350391e-05 -22.06044839
245.127042 -2.461350391e-05 -138.4114394
73.040943 -2.461350391e-05 8.478020614
97.759101 16.78808839 143.6857556
217.535982 -2.461350391e-05 105.7313126
7.118651 -2.461350391e-05 19.90467961
-2.269001 34.05125239 -66.28968639
164.130933 49.52334639 132.4436446
55.984089 -2.461350391e-05 53.71093361
121.898591 -2.461350391e-05 -11.03461439
-2.899996798e-05 51.50198439 136.4150366
60.535121 4.934554386 -151.0000974
-2.899996798e-05 104.1298014 -94.47895039
134.381102 -2.461350391e-05 25.48243861
176.352461 -2.461350391e-05 -125.9937294
35.276762 53.20967839 -145.0000974
10.548911 8.839876386 -145.0000974
34.764189 22.30378539 142.6250386
28.56382 14.52770239 -145.0000974
-2.899996798e-05 79.36557339 -107.1869874
61.890757 -2.461350391e-05 82.28423661
-2.899996798e-05 9.300500386 -72.56549239
179.697293 -2.461350391e-05 115.5827366
225.276676 60.87318039 127.6313646
-2.899996798e-05 12.71762639 128.5428126
-2.899996798e-05 31.19544839 -110.0204814
54.69547 58.46702039 141.0564116
125.207287 -2.461350391e-05 -144.1186144
243.962891 -2.461350391e-05 42.34724461
-2.899996798e-05 43.99752739 94.59608761
146.545305 -2.461350391e-05 -78.82208839
221.640759 43.18080539 -151.0000974
193.240482 54.32817339 136.1712286
235.543137 -2.461350391e-05 -70.21096039
137.949844 28.69201639 -145.0000974
137.98032 -2.461350391e-05 83.62628461
14.074258 54.91640039 -151.0000974
215.921767 -2.461350391e-05 81.94264761
226.921972 27.88817539 127.5018776
-2.029149 24.40147239 148.9999026
163.26796 62.31364839 -145.0000974
174.335482 -2.461350391e-05 -46.52844939
201.495221 -2.461350391e-05 -137.7720474
175.097489 -2.461350391e-05 -67.15334739
-2.899996798e-05 128.9816324 72.96092661
163.648004 35.43835839 138.5002006
142.18227 56.31386239 -145.0000974
13.032069 -2.461350391e-05 -87.99757939
112.878978 -2.461350391e-05 -35.33240739
-1.19137 -2.461350391e-05 -5.101321386
226.364976 -2.461350391e-05 -119.0915534
241.118825 -2.461350391e-05 121.5666556
56.416144 -2.461350391e-05 -14.33545839
187.633244 -2.461350391e-05 33.37710461
202.023289 63.25077539 129.4614486
99.583822 55.81229339 143.5421476
15.508064 52.90837839 142.9999026
160.317068 -2.461350391e-05 22.80420661
-2.899996798e-05 17.54167439 94.72855761
178.756274 -2.461350391e-05 -95.19825939
240.036855 35.17828739 126.4697126
125.462449 39.58723339 -145.0000974
198.99541 21.89185739 129.6997476
190.263617 -2.461350391e-05 -113.9959684
35.636784 -2.461350391e-05 -35.08878839
70.942203 1.249239386 139.7777646
228.568276 -2.461350391e-05 58.78959761
155.930387 -2.461350391e-05 76.47514761
118.951232 52.19770039 142.0179036
18.522079 34.57498539 -145.0000974
58.022853 66.01764339 -145.0000974
220.595334 -2.461350391e-05 -4.809455386
220.103461 -2.461350391e-05 -32.61026539
176.98553 48.99933739 -145.0000974
72.650708 11.94179839 -151.0000974
54.891207 32.87208939 -151.0000974
118.517308 36.48431139 142.0520536
216.26406 67.22247739 -145.0000974
208.115834 -2.461350391e-05 10.93509361
215.574622 33.59741039 134.4134986
72.173794 -2.461350391e-05 105.7705876
146.486426 9.469938386 -145.0000974
238.365806 9.577023386 -145.0000974
-2.899996798e-05 26.22240739 60.51915761
85.898496 -2.461350391e-05 -133.0644714
183.709652 30.37820239 130.9027646
42.074594 -2.461350391e-05 -73.39843039
5.977677 -2.461350391e-05 -131.4842324
58.779065 39.46170039 140.7350256
198.739112 -2.461350391e-05 -23.01446339
53.243472 10.30572939 141.1706866
40.13891 33.09865039 148.2205506
-2.899996798e-05 86.26875139 -58.13586539
141.157416 49.22805639 134.2517016
202.928317 7.942694386 135.4087816
-2.899996798e-05 80.90155939 72.03039161
88.918245 -2.461350391e-05 -113.8268104
105.68548 -2.461350391e-05 34.64387661
-2.899996798e-05 21.58396739 -22.39943339
-2.899996798e-05 25.88685139 -94.53417939
-2.899996798e-05 34.03369039 38.73730061
50.005025 -2.461350391e-05 102.2681956
109.909222 -2.461350391e-05 107.9356076
-2.899996798e-05 118.7566384 81.20283961
153.525428 37.39485639 -145.0000974
210.927569 -2.461350391e-05 -119.4217834
96.445666 35.14619239 143.7891256
139.576091 -2.461350391e-05 111.2416126
11.509279 35.88268239 142.9999026
-2.899996798e-05 55.94696439 56.30851561
-0.64256 136.0310384 -104.8643274
21.12524 2.760047386 142.9999026
148.00098 -2.461350391e-05 -50.51807839
200.593972 20.82552539 -151.0000974
65.673152 -2.461350391e-05 -131.1999524
105.228386 -2.461350391e-05 14.38219961
-2.899996798e-05 44.80385539 -45.72400339
167.875613 10.72601239 132.1489316
149.316087 -2.461350391e-05 102.0315746
208.447295 -2.461350391e-05 56.10445061
51.775296 -2.461350391e-05 23.28250061
238.664876 -2.461350391e-05 -3.524227386
-2.899996798e-05 62.20446839 -17.78531039
-2.899996798e-05 69.42288839 82.70859761
140.522125 35.60091739 140.3202416
126.844617 27.45486139 135.3781446
233.621839 -2.461350391e-05 28.63178761
101.477819 -2.461350391e-05 -112.1947074
-2.899996798e-05 31.88478739 116.9100276
-2.899996798e-05 62.96913539 -49.28782939
99.22558 -2.461350391e-05 -10.66860339
54.102865 -0.9486516135 -102.4164764
112.322758 -2.461350391e-05 82.93657661
11.015339 -2.461350391e-05 5.094005614
18.73397 -2.461350391e-05 -136.8570774
238.948689 59.60661939 -151.0000974
41.266615 -2.461350391e-05 54.13953761
176.641843 -2.461350391e-05 66.56891961
165.099082 -2.461350391e-05 51.53935961
181.566336 6.494196386 137.0900016
68.660814 49.07436239 -151.0000974
-2.899996798e-05 12.06459039 39.56630761
173.056933 24.88696439 -145.0000974
-0.97122 35.73160839 142.9999026
9.164598 -2.461350391e-05 107.4472306
165.701272 -2.461350391e-05 -27.14682339
142.891151 4.688813386 134.1152536
160.846395 -2.461350391e-05 130.4148476
207.594168 44.46317939 -151.0000974
31.648526 -2.461350391e-05 -105.3382064
240.508357 -2.461350391e-05 -44.95671439
112.667813 -2.461350391e-05 130.8409426
-2.899996798e-05 41.14239539 16.84214461
220.378177 6.600255386 -151.0000974
30.236602 -2.461350391e-05 -19.12463539
115.309896 44.00257239 -151.0000974
91.032627 -2.461350391e-05 36.28195461
55.728961 -2.461350391e-05 -75.59769339
73.762184 -2.461350391e-05 28.88510261
8.73954 -2.461350391e-05 -110.6499294
120.927647 -2.461350391e-05 1.147508614
125.70961 -2.461350391e-05 34.05364061
38.027721 -2.461350391e-05 6.818339614
-0.135138 50.75927539 -139.7447784
34.500338 -2.461350391e-05 -53.49405539
243.084604 -2.461350391e-05 -60.25241039
122.507058 -2.461350391e-05 108.3014086
98.367862 -2.461350391e-05 24.95692161
-2.899996798e-05 71.17255439 -87.46644139
235.69336 22.83058439 -145.0000974
-0.91345 28.06279339 89.01859561
243.146942 0.3656713865 -151.0000974
189.85863 41.45677739 130.4188286
115.31705 -2.461350391e-05 43.74127661
172.276196 -2.461350391e-05 -2.533938386
-0.367005 -2.000024614 -66.29667239
99.802263 -2.461350391e-05 65.59565961
43.579846 7.282543386 147.9497446
155.615668 54.82341439 -151.0000974
96.953381 8.143946386 -151.0000974
30.501266 34.96236239 -145.0000974
34.040541 42.16600839 142.6819916
121.636009 25.09166339 -151.0000974
213.570142 -2.461350391e-05 35.24828461
104.392971 37.33795239 -151.0000974
-0.02646799997 -2.461350391e-05 137.9481786
-2.269324 53.68565639 73.98047861
180.962994 -2.461350391e-05 21.24325561
82.895211 -2.461350391e-05 110.5866376
49.815344 -2.461350391e-05 79.74323261
16.178557 -2.461350391e-05 -58.08803939
40.469865 55.32183539 142.1759916
80.66779 67.99997539 139.9259766
73.296298 -2.461350391e-05 -11.98666739
83.009711 -2.461350391e-05 -53.57700439
-1.052092 133.5690164 92.17191461
130.852145 -2.461350391e-05 -58.53743339
-2.899996798e-05 11.35819639 -85.64662739
124.277661 -2.461350391e-05 131.1562466
-2.899996798e-05 37.15734439 51.89784561
218.656351 22.66117639 -151.0000974
163.082145 -2.461350391e-05 89.48286561
93.717688 -2.461350391e-05 90.62427161
54.09342 -2.461350391e-05 -89.05301739
186.891293 4.029862386 -145.0000974
-2.899996798e-05 37.42584539 -7.372055386
-2.899996798e-05 89.88955139 -73.80506439
11.709773 66.91815939 -145.0000974
-2.899996798e-05 102.6118554 100.0425816
-0.04281799997 60.64366739 126.3682986
67.940564 -2.461350391e-05 116.4499606
220.539399 -2.461350391e-05 -52.01340639
145.148951 -2.461350391e-05 -62.19173239
127.200954 -2.461350391e-05 -36.63921139
218.722035 54.11874339 134.1657916
220.474208 13.21423039 128.0093276
48.555978 19.95024439 -151.0000974
77.882689 42.04072039 -151.0000974
87.686356 1.854361386 -145.0000974
108.799952 52.51406839 136.7982916
54.737509 -2.461350391e-05 129.2721026
32.998506 -2.461350391e-05 78.44320861
229.518913 -2.461350391e-05 -104.3683844
172.589393 66.80808239 131.7779486
-2.899996798e-05 95.58101139 90.01102161
190.10666 64.49938139 -151.0000974
7.9359 30.55954939 -145.0000974
100.981373 -2.461350391e-05 -59.38765639
98.197432 59.23805339 -145.0000974
117.900081 -2.461350391e-05 -131.0444484
94.193348 -2.461350391e-05 -125.4076854
49.190258 -2.461350391e-05 12.30214861
27.512202 24.97926339 -151.0000974
249.854429 -2.461350391e-05 -2.815498386
191.623736 23.84373139 -145.0000974
145.958664 -2.461350391e-05 28.55629061
135.282884 -2.461350391e-05 57.12998261
88.394751 27.45337539 144.4227446
32.956403 -0.6800656135 142.7672266
158.00552 8.469746386 -151.0000974
91.850387 6.193929386 138.1322526
11.608277 -2.461350391e-05 87.10947561
123.586876 -2.461350391e-05 78.28928061
-2.899996798e-05 61.50484139 35.09750461
251.877035 -2.461350391e-05 50.74418661
-2.899996798e-05 64.98886439 -37.45458539
88.274504 58.33670039 -151.0000974
-2.899996798e-05 19.95874039 31.82236661
133.245801 10.03278239 134.8743596
202.570502 57.15052039 -151.0000974
-0.243997 60.99997539 3.573890614
39.539116 -2.461350391e-05 32.89033761
-2.899996798e-05 47.03763639 -26.06812839
-2.899996798e-05 57.03277439 -90.59366739
116.034018 -1.228995614 12.61438361
65.157218 58.67740139 146.2515726
19.927903 -2.461350391e-05 61.47760161
246.44834 -2.461350391e-05 -71.10634339
-2.899996798e-05 23.02635039 14.61459261
55.919599 12.82375639 -145.0000974
124.0511 59.42331239 135.5979986
245.427283 -2.461350391e-05 109.5806486
-2.899996798e-05 19.94099439 -47.86976939
248.381468 30.64733839 131.8315506
74.692182 41.16391439 139.4826346
193.688381 -2.461350391e-05 5.409940614
-0.683107 -2.000024614 64.60257461
150.309275 -2.461350391e-05 47.39040961
-2.899996798e-05 107.3529414 -69.57664239
140.857248 18.21041839 -151.0000974
116.950566 12.27905339 136.1568236
125.177343 -1.032946614 19.85044161
24.286343 58.11385539 -145.0000974
102.104779 64.28244439 137.3252136
146.709805 -2.461350391e-05 -39.79989039
25.355189 -2.461350391e-05 -114.9053904
202.503586 -2.461350391e-05 69.02764461
240.434685 3.030042386 132.4569736
241.563069 42.59915639 -151.0000974
203.295783 -2.461350391e-05 -126.9762874
93.449909 47.56397639 -145.0000974
19.472243 -2.461350391e-05 39.97710361
-2.899996798e-05 133.0975374 -94.56266239
81.430249 -2.461350391e-05 15.38953561
109.520155 -2.461350391e-05 -13.60924539
108.961803 -0.1154306135 -145.0000974
239.036627 -2.461350391e-05 -21.99296539
24.644996 26.59297639 142.9999026
138.329834 -2.077921614 -87.40785439
110.425823 23.00046039 -151.0000974
165.448281 -2.461350391e-05 -103.9756474
137.174544 -2.461350391e-05 -20.71447439
-0.05615099997 92.23301139 60.74222861
19.412939 43.05344339 142.9999026
117.096894 -2.461350391e-05 -118.2403554
198.235485 8.163977386 -145.0000974
190.200792 -1.988707614 136.4104566
134.972585 49.02224639 -151.0000974
77.250586 -2.461350391e-05 -86.67734439
7.075845 -2.461350391e-05 46.14648661
233.450757 -2.461350391e-05 -135.1018984
-2.899996798e-05 106.1521454 68.65187861
-2.899996798e-05 22.99027839 124.9137326
232.370677 66.35250739 133.0916236
134.235792 53.60128339 140.8149856
3.728248 57.57173239 148.9999026
208.358861 38.89353539 128.9628276
61.786104 -2.461350391e-05 -140.9753794
9.544295 9.035723386 142.9999026
152.345385 33.59603639 139.3897336
166.578725 -2.461350391e-05 -73.16555839
28.21281 67.99997539 145.6892546
-2.899996798e-05 6.691677386 -108.8786324
184.892339 -2.461350391e-05 -86.64700839
172.659113 -2.461350391e-05 41.85463561
114.741148 52.43531639 -145.0000974
72.112935 -2.461350391e-05 94.55704861
197.879599 -2.461350391e-05 -54.42016239
45.276884 -2.461350391e-05 111.7790856
246.861428 -2.461350391e-05 84.84448961
94.213919 47.01165739 143.9647666
70.455527 -2.461350391e-05 75.59910961
65.469392 -2.461350391e-05 -100.3126804
-2.899996798e-05 35.06511539 126.7010056
101.38141 25.75283439 137.3821446
70.751858 26.18616139 -151.0000974
143.65785 16.32405039 134.0549126
193.221454 -2.461350391e-05 -4.977898386
75.19919 21.65954439 139.4427316
26.16357 -2.461350391e-05 102.6595116
178.012006 21.88292239 131.3511796
122.004573 60.11933539 -145.0000974
19.25158 10.81967139 148.9999026
-2.899996798e-05 10.20978839 -119.7117334
145.519297 -2.461350391e-05 76.76171961
93.878251 -2.461350391e-05 -28.69584239
49.89975 67.15941739 -151.0000974
170.924404 43.47593439 -151.0000974
-2.899996798e-05 69.38802539 56.35637961
39.337992 -2.461350391e-05 -44.56782439
161.866484 -2.461350391e-05 108.4898496
185.934585 -2.461350391e-05 73.52463261
-2.899996798e-05 140.6933534 78.04497961
102.286538 -2.461350391e-05 -38.70842939
210.17678 -2.461350391e-05 -34.57808039
123.164724 -2.461350391e-05 -101.0811584
211.872706 59.66208439 128.6862816
31.804187 61.22785239 -151.0000974
47.140895 -2.461350391e-05 -142.9166984
71.795136 -2.461350391e-05 -37.55460339
76.980237 55.65409139 -151.0000974
148.775492 -0.004078613504 -96.01469639
51.936459 40.42117439 -145.0000974
-2.899996798e-05 59.62292439 -69.10068039
224.273741 56.59443139 -145.0000974
198.22503 47.02523839 129.7603776
244.396467 58.78652439 132.1451756
-2.899996798e-05 94.50503839 -91.53044639
-2.899996798e-05 13.89191039 50.23048761
208.992373 25.82595939 128.9129686
43.248031 -2.461350391e-05 -63.41619939
114.035848 14.91555039 -145.0000974
86.426031 38.22151239 -145.0000974
237.211085 -2.461350391e-05 -111.9776544
19.096355 -2.461350391e-05 -36.46165239
218.458193 5.607008386 134.1865566
-2.899996798e-05 9.823422386 76.26963561
-2.899996798e-05 133.7689124 -76.47231039
241.136041 67.99997539 -146.0615164
117.982128 -2.451109614 -151.0000974
58.825865 17.12752739 146.7498596
107.965834 -2.461350391e-05 59.87812461
230.455055 -2.461350391e-05 -41.87100539
97.172017 -2.461350391e-05 -84.53811539
156.39246 56.08352639 139.0712226
7.919261 48.28808639 -145.0000974
66.526648 58.90153639 -151.0000974
227.878378 30.08720239 -145.0000974
188.655883 35.54520139 -151.0000974
180.531965 22.49196139 -151.0000974
194.117044 -2.461350391e-05 55.94234961
-2.899996798e-05 111.4680014 -85.08119339
28.984004 -2.461350391e-05 24.86212661
164.792843 -2.461350391e-05 5.681807614
233.251397 55.95070339 133.0223096
-2.899996798e-05 26.52827139 -140.8164024
81.10339 6.403693386 138.9780606
-2.899996798e-05 62.23732339 97.45899761
206.894103 -2.461350391e-05 -98.55674539
235.887313 -2.461350391e-05 -85.12479539
144.01887 67.31372439 140.0450426
-2.899996798e-05 84.62379339 -82.07529939
132.38714 36.53856039 134.9419376
82.426036 50.04652439 138.8739666
80.000066 0.3751593865 -151.0000974
59.167524 -2.461350391e-05 62.94310761
-2.899996798e-05 76.38594539 108.3318556
159.36673 17.66806539 138.8371436
132.030718 35.63623539 -151.0000974
26.986495 -2.461350391e-05 135.1153466
196.466786 29.76531139 -151.0000974
247.703521 -2.461350391e-05 16.69924861
-0.625908 143.0830054 -69.24784339
18.148663 9.297197386 -151.0000974
52.302731 50.68540139 147.2632406
161.989437 25.01330239 -145.0000974
214.574555 -2.461350391e-05 48.63493961
79.337278 67.99997539 -146.4817084
3.09783 10.16416839 -151.0000974
80.720705 29.67286039 139.0081786
151.094203 -2.461350391e-05 -131.4078374
-2.899996798e-05 11.45818139 -96.77981339
155.243681 -2.461350391e-05 -31.82766139
-2.899996798e-05 9.226384386 118.2892976
168.15362 58.26363639 132.1270516
105.690894 32.22110339 143.0615116
179.469706 -2.461350391e-05 -137.1727834
208.32286 -2.461350391e-05 102.9585026
92.346197 -2.461350391e-05 -1.982396386
20.860662 -2.461350391e-05 -16.93114139
-2.899996798e-05 51.51936839 -122.4194044
9.141873 -2.461350391e-05 62.67847961
36.367887 -2.461350391e-05 116.2731536
182.561508 56.82000939 -145.0000974
195.809102 14.38364139 135.9690746
232.237126 5.165769386 -151.0000974
7.578207 -2.461350391e-05 -77.56017239
135.282824 -2.461350391e-05 130.7523006
104.400003 -2.461350391e-05 94.77988761
-2.899996798e-05 43.32831839 -105.3933104
61.558695 46.61063239 -145.0000974
226.055735 -2.461350391e-05 68.36752761
226.399294 -2.461350391e-05 16.93749361
237.720083 -2.461350391e-05 65.73997861
183.13474 -2.461350391e-05 -74.82560739
1.142974 -2.461350391e-05 127.5206486
167.010286 1.603106386 -151.0000974
248.151654 33.01639739 -145.0000974
171.39123 35.48362239 -145.0000974
-2.899996798e-05 22.12345239 -113.1611004
7.182363 1.095626386 -151.0000974
-2.054974 -2.461350391e-05 15.02840661
-2.899996798e-05 9.183966386 -30.74975439
-2.899996798e-05 6.551943386 87.51349961
-2.899996798e-05 42.66350439 105.7356136
145.824302 -1.244815614 -145.0000974
124.439076 -2.461350391e-05 64.82468661
167.33774 56.24715039 -151.0000974
245.548856 7.704819386 126.0359086
206.901763 -2.461350391e-05 20.78431961
129.172372 -2.461350391e-05 46.01569761
215.487563 -2.461350391e-05 117.9271776
-2.899996798e-05 41.80379539 26.24182461
168.989321 -2.461350391e-05 72.21068761
175.497649 28.46522739 137.5676156
115.36179 45.68128139 136.2818636
246.847263 49.70253539 131.9522946
-2.899996798e-05 6.556074386 -44.90405139
223.999308 -2.461350391e-05 -61.31301139
63.627854 26.95199239 146.3719356
-1.910605 73.28698339 40.79841261
10.352641 26.61421439 142.9999026
170.300991 35.73042239 131.9580496
135.770744 -2.461350391e-05 -120.6720254
121.298282 8.906959386 -145.0000974
236.392674 9.293769386 126.7565166
241.757369 50.73517739 -145.0000974
33.258474 43.85811739 -145.0000974
30.716003 -2.461350391e-05 87.46733561
236.323668 -2.461350391e-05 85.82958761
-2.899996798e-05 38.00550739 6.756071614
10.298052 -2.461350391e-05 -123.2636224
61.592898 -2.461350391e-05 -6.630493386
-2.899996798e-05 23.89497239 73.43667861
224.35963 -2.375925614 127.7035386
186.243063 57.00942939 130.7033806
187.359772 -2.461350391e-05 -104.3689884
149.148141 48.19330139 -151.0000974
36.398669 10.06472039 -151.0000974
59.01318 -2.461350391e-05 110.4985996
74.929586 13.16189539 145.4824726
126.260381 -2.461350391e-05 -70.08276339
8.981274 -2.461350391e-05 -25.26127539
90.220531 -2.461350391e-05 -59.32787039
67.329143 6.925105386 146.0806386
207.777156 63.63141239 -145.0000974
-2.899996798e-05 127.0130324 100.4334826
24.093681 5.634849386 -145.0000974
201.708801 48.19567739 -145.0000974
149.230341 -1.952871614 133.6163476
181.026676 11.11116839 -145.0000974
65.176456 10.12972239 -145.0000974
250.857714 -2.461350391e-05 -38.53120039
-2.899996798e-05 38.83671139 -55.02623739
51.952088 26.02221839 -145.0000974
199.244471 -2.461350391e-05 104.3426536
-2.899996798e-05 28.17178639 -58.47135539
61.625234 30.45355839 -145.0000974
197.814876 -2.461350391e-05 91.71861161
224.564269 -2.461350391e-05 78.94167061
157.351961 66.10450239 -151.0000974
222.122739 -2.461350391e-05 97.32219261
209.823742 -2.461350391e-05 -80.38704139
239.388312 -2.461350391e-05 51.52759461
197.916904 -2.461350391e-05 -118.9905424
210.744088 -2.461350391e-05 74.41323061
-2.899996798e-05 59.59645839 114.5410726
181.165941 -2.461350391e-05 58.64593161
-2.899996798e-05 4.330056386 106.0599896
51.040219 -2.461350391e-05 93.20562461
56.692167 55.97790039 -145.0000974
181.300991 0.0537343865 -151.0000974
-2.899996798e-05 62.30839839 -110.9850394
32.170207 60.44043239 148.8476996
29.668746 18.28806239 148.9999026
180.153932 41.43943239 -151.0000974
214.94334 13.88924539 -151.0000974
63.671525 -2.461350391e-05 127.6010586
59.912544 -2.461350391e-05 -50.05428939
6.412101 21.61030439 -145.0000974
46.72064 -2.461350391e-05 123.8923236
182.10731 47.37118939 137.0474256
160.536838 5.440554386 138.7450536
138.90618 -2.461350391e-05 -1.161270386
244.511785 20.95792539 -145.0000974
251.947232 -2.461350391e-05 -124.0912684
-2.899996798e-05 92.12700439 99.39064661
40.998899 -2.461350391e-05 65.30628261
217.783728 22.28670139 128.2210736
139.192412 -2.461350391e-05 65.22659661
175.45353 -2.461350391e-05 -26.64650239
44.601632 -2.461350391e-05 -115.6407404
184.81515 -2.461350391e-05 -8.105050386
-2.899996798e-05 46.38340039 -65.67722339
10.664406 -2.461350391e-05 122.8005116
220.784515 62.25256839 -151.0000974
67.401162 36.72450239 146.0749706
8.013797 -2.461350391e-05 -95.39500739
215.581822 2.032303386 -145.0000974
75.416037 -2.461350391e-05 39.53976561
16.270082 41.70820539 -151.0000974
153.753077 -2.461350391e-05 -116.1992174
-0.114092 144.0539064 99.04963361
20.793544 -2.461350391e-05 -67.03940639
37.569399 19.22735639 -151.0000974
-2.899996798e-05 24.53605839 -6.005035386
216.253049 -2.461350391e-05 15.84072761
38.692647 14.34656739 142.3158626
121.592186 1.313244386 141.8100566
-2.899996798e-05 22.15500839 -65.43767739
47.76282 -2.461350391e-05 -47.31156139
63.232437 -0.8328056135 11.99888961
164.558239 -2.461350391e-05 37.24066661
-1.584944 133.9569764 64.99990261
28.388542 -2.461350391e-05 -61.62364939
209.259896 26.12483839 -145.0000974
118.935097 -2.461350391e-05 -56.52589139
93.736416 -2.461350391e-05 57.62034061
42.74281 30.97995939 -151.0000974
139.043056 -2.461350391e-05 -55.19575439
91.850018 17.40388539 -145.0000974
212.066178 -2.461350391e-05 -7.116653386
-2.899996798e-05 29.76851939 -129.8808854
172.415014 45.71108439 137.8102236
223.704314 -2.461350391e-05 -139.8286034
205.339614 55.56123839 135.2190086
193.337383 28.71256339 130.1450446
173.847584 -2.461350391e-05 108.8777486
-2.899996798e-05 61.88542439 25.61200861
193.699325 -2.461350391e-05 -32.14685339
-2.899996798e-05 69.76867339 3.099648614
112.382331 33.52050439 136.5163526
-2.899996798e-05 52.28176039 65.62630461
-2.899996798e-05 42.79733139 137.4092336
106.330526 15.12018239 143.0111716
112.397679 -2.461350391e-05 -87.36396739
110.038485 40.26582739 -145.0000974
178.958084 0.5106123865 131.2767216
163.003692 -2.461350391e-05 -49.85863539
131.883598 7.847955386 -151.0000974
20.193181 -2.461350391e-05 -80.66779939
247.39132 21.98112439 131.9094766
57.08431 -2.461350391e-05 44.13648661
218.029826 -2.461350391e-05 -94.16106239
203.440926 36.37496939 -151.0000974
50.32808 0.6863243865 -151.0000974
3.183259 20.85864939 142.9999026
67.207638 -2.461350391e-05 -115.0280614
91.885976 -2.461350391e-05 -76.04822239
139.037452 -2.288105614 -111.3240444
124.190889 49.67187539 135.5869976
183.57782 -2.461350391e-05 123.3198006
154.954369 -2.461350391e-05 -55.65488339
56.482957 -2.461350391e-05 -66.48454839
43.354161 21.64912039 141.9489926
-2.899996798e-05 72.28550339 66.65421461
30.019832 -2.461350391e-05 -10.41540839
104.787663 4.507071386 -151.0000974
236.192083 16.63862539 -151.0000974
-2.899996798e-05 102.4728274 -102.9453024
72.974018 62.27334039 145.6363786
181.18587 66.47872939 131.1013906
147.04131 37.41536539 133.7886286
249.938813 -2.461350391e-05 36.15367361
127.162238 27.83586439 -145.0000974
59.688172 40.75317739 -151.0000974
116.017322 24.44054139 142.2488066
-2.899996798e-05 25.85716539 -41.64389439
114.595451 -2.461350391e-05 32.93394461
195.298485 -2.461350391e-05 -87.09257039
35.02555 -2.461350391e-05 -88.96517439
153.551193 50.44669639 133.2762886
-2.899996798e-05 138.0212714 -86.48977939
135.4654 42.94272439 -145.0000974
172.327919 -2.461350391e-05 -88.89087939
139.934664 -2.461350391e-05 -95.98233939
10.82179 38.60176339 -145.0000974
177.604073 -2.461350391e-05 7.131359614
99.023218 -2.461350391e-05 -92.98123439
-2.899996798e-05 52.55064339 32.16775861
167.817056 -2.461350391e-05 -139.1496964
123.417025 -2.461350391e-05 99.83691961
-2.899996798e-05 109.3926414 77.42440061
-2.899996798e-05 95.12501939 79.61519461
213.979069 49.54375439 128.5205066
136.41291 67.99997539 -149.1969084
8.370557 -2.461350391e-05 79.12874761
104.755305 15.24657339 -151.0000974
156.717302 -2.461350391e-05 96.02332661
91.68942 -2.461350391e-05 18.38230461
142.676848 32.60372839 -151.0000974
138.287409 7.458915386 -145.0000974
-2.899996798e-05 24.93950439 -33.25210439
-2.899996798e-05 46.49154639 113.2572646
-2.899996798e-05 60.52956939 13.74280761
27.091562 -2.461350391e-05 33.06771661
-2.899996798e-05 5.514052386 -16.16303339
128.269266 -2.461350391e-05 -50.53325139
81.19353 -2.461350391e-05 133.5376406
118.922968 67.99997539 -150.7857284
-1.44838 125.5579824 64.99990261
-2.899996798e-05 63.17695739 -79.17822639
41.888609 53.78264239 -151.0000974
-2.899996798e-05 85.12908639 -100.9946634
-2.899996798e-05 5.848599386 -138.2488844
37.783737 48.40417839 148.4059066
233.430612 -2.461350391e-05 12.39354261
131.681223 18.25393539 134.9974946
9.695697 -2.461350391e-05 54.09245061
-2.899996798e-05 6.730242386 -64.60374939
77.433231 1.618557386 145.2854326
154.720093 -2.461350391e-05 -7.157784386
229.870623 14.34284839 133.2883816
-2.899996798e-05 13.55197539 5.278148614
100.595717 12.03423639 137.4439796
206.066587 4.895502386 -151.0000974
243.538535 -2.461350391e-05 -31.61966539
15.481718 -2.461350391e-05 -144.5229054
199.728018 -2.461350391e-05 49.80002561
110.521961 58.83522039 142.6812996
207.571493 10.50696739 129.0247946
92.181808 -2.461350391e-05 104.2220496
-0.258452 133.9999754 82.93578261
77.143337 -2.461350391e-05 -113.6235334
-2.899996798e-05 2.985254386 71.61438661
44.203469 45.20213139 -145.0000974
221.314154 -2.461350391e-05 -80.86201939
28.764411 42.89480239 148.9999026
126.614196 67.99997539 138.6396716
-2.899996798e-05 54.11470139 95.98835361
144.200951 10.29203039 140.0307126
-2.899996798e-05 0.6868393865 24.02093961
31.334513 28.97934439 147.1702756
93.351848 20.80575839 138.0140856
17.208032 -2.461350391e-05 -113.7821634
216.18893 41.79699639 -145.0000974
163.8401 43.95153839 138.4850826
27.114998 -2.461350391e-05 43.48970061
197.111633 -2.461350391e-05 -65.67866539
13.372614 -2.461350391e-05 14.59829461
-2.899996798e-05 120.7307164 95.00346261
229.173156 -2.461350391e-05 -75.37088139
240.107822 -2.461350391e-05 -77.04402339
-2.899996798e-05 31.91483539 96.19565361
7.3225 52.55685039 142.9999026
133.463585 -2.461350391e-05 -81.15901339
-2.899996798e-05 41.43396439 -35.87024639
189.391534 -2.461350391e-05 19.15807461
91.742208 -2.461350391e-05 -13.94407939
15.833704 1.116716386 148.9999026
4.466468 4.314855386 148.9999026
159.296232 -2.461350391e-05 -67.71445539
250.795694 11.34635039 131.6415476
46.926528 39.77736539 147.6863556
-2.899996798e-05 58.31869939 -102.1997474
19.493026 32.90671739 142.9999026
230.935174 61.28294739 -145.0000974
197.468352 -2.461350391e-05 116.1172066
152.329455 67.99997539 133.6981716
13.469157 32.45519239 -151.0000974
99.184746 47.35722139 137.5550256
-2.899996798e-05 79.82667739 98.57205061
8.367748 56.38725339 -145.0000974
-2.899996798e-05 47.72692539 -132.2324934
44.282918 16.59631039 -145.0000974
129.204887 58.62943739 -151.0000974
18.294195 -2.461350391e-05 104.5071106
136.928911 61.55556839 134.5844926
128.303179 -2.461350391e-05 120.7857056
84.380016 33.21436839 -151.0000974
79.637308 20.12314239 -151.0000974
40.264992 60.67499339 148.2106286
-2.899996798e-05 9.827820386 -54.01039839
46.031439 57.20653339 -145.0000974
130.191229 -2.461350391e-05 -11.67413839
48.050373 -2.461350391e-05 -34.67571939
34.576354 -2.461350391e-05 -76.32560939
-2.899996798e-05 58.80036539 -25.07876139
144.949417 28.53323739 139.9718076
169.979735 63.84229439 -151.0000974
218.852403 -2.461350391e-05 -24.67305239
43.266068 -2.461350391e-05 95.21976061
230.084675 -2.461350391e-05 35.81950561
174.705254 -2.461350391e-05 -116.4265534
116.653458 23.31759339 -145.0000974
144.592623 -2.461350391e-05 -70.16658039
175.686487 49.97012239 131.5342016
32.86135 -2.461350391e-05 0.7242966141
88.91031 -2.461350391e-05 117.3870936
227.282291 49.65798839 -151.0000974
101.583412 -2.461350391e-05 -67.33914539
167.843332 24.30100239 -151.0000974
-2.899996798e-05 92.52529039 -83.00443039
-2.899996798e-05 87.54377139 76.40628761
85.148417 45.31905139 144.6782356
148.043855 -2.461350391e-05 -17.29937239
-2.899996798e-05 53.08245539 119.3830126
38.373873 -2.461350391e-05 -137.2617084
81.232336 -2.461350391e-05 -45.84992139
161.373217 -2.461350391e-05 -13.35427139
184.644176 46.95985639 -145.0000974
88.102361 -2.461350391e-05 -91.29894739
248.616846 2.663989386 -145.0000974
186.466894 27.94169239 -151.0000974
60.251084 51.59419539 -151.0000974
218.197415 -2.461350391e-05 90.46065961
155.611929 49.09142739 -145.0000974
-2.899996798e-05 52.71697639 14.93325561
-2.899996798e-05 0.1356063865 -75.36100939
162.762515 10.37360039 -145.0000974
116.329449 -2.461350391e-05 -138.7746984
234.685708 26.64488539 126.8908576
55.003931 -2.461350391e-05 -127.1968744
102.1576 -2.461350391e-05 -121.4922704
96.43584 -0.7920136135 137.7712866
-2.899996798e-05 52.90757339 127.8501176
155.776407 29.84704239 -145.0000974
130.931871 31.03025739 141.0750096
-2.899996798e-05 2.359571386 -36.52183539
98.419513 24.04238239 -151.0000974
132.854978 -1.584599614 -145.0000974
247.58542 -2.461350391e-05 -90.78430039
250.074351 49.45706239 -151.0000974
106.222788 29.62760939 -151.0000974
75.641759 -2.461350391e-05 113.5759836
98.350985 67.99997539 -146.5050034
13.411713 18.00771039 -145.0000974
-2.899996798e-05 99.26594439 64.89980161
34.810679 37.68663639 -151.0000974
21.292229 -2.461350391e-05 20.26997161
235.204337 1.439935386 126.8500406
243.146299 39.45502039 132.2435656
81.737426 -2.461350391e-05 69.09097061
-2.899996798e-05 42.66939639 37.75690761
103.279957 -2.461350391e-05 74.34836861
201.079333 -2.461350391e-05 35.00588161
54.524545 37.83273739 147.0883796
109.406276 -2.461350391e-05 -42.32943239
176.135867 12.09785039 -151.0000974
7.346317 -2.461350391e-05 135.3936276
136.976499 -2.461350391e-05 18.12539461
14.098556 40.13505039 148.9999026
-2.899996798e-05 79.17188239 -52.87135039
5.170309 -2.461350391e-05 -0.6010283859
-2.899996798e-05 2.321834386 43.85459061
-2.899996798e-05 27.71117039 -17.60028739
21.403112 -2.461350391e-05 121.4697386
17.245392 -2.461350391e-05 0.4350036141
-2.899996798e-05 11.98719739 100.1695796
181.600469 -2.461350391e-05 -40.16777339
103.467637 -2.461350391e-05 3.100786614
235.837481 -2.246421614 -151.0000974
189.335131 -2.461350391e-05 91.39761361
-2.899996798e-05 23.28548739 99.93485561
28.588967 7.593583386 -151.0000974
-2.899996798e-05 77.13984639 -65.92869339
208.788381 -2.461350391e-05 64.51388061
102.229214 -2.461350391e-05 109.0642276
61.19561 52.05433739 146.5633576
112.08079 58.83971539 -151.0000974
192.534382 32.59845339 -145.0000974
208.303599 21.05363039 -151.0000974
23.152878 -2.461350391e-05 85.95875561
202.128691 -2.461350391e-05 -83.38301439
171.674909 -2.461350391e-05 -60.25789939
-2.899996798e-05 127.2449654 -72.39068639
239.083976 -2.461350391e-05 98.94335861
199.113925 -2.283275614 -145.0000974
-2.899996798e-05 120.4261704 71.70369161
158.889689 -2.461350391e-05 -97.73262739
197.796783 62.38685239 135.8126406
42.714116 1.665345386 -151.0000974
-2.899996798e-05 67.61132739 75.25409161
47.81994 61.81624339 141.5975276
175.968553 -2.461350391e-05 -18.11686839
16.120252 27.29444639 -145.0000974
-1.722369 108.1076284 105.1023106
62.137195 7.499159386 140.4707346
24.907531 18.55919939 142.9999026
202.838536 -2.335968614 129.3972866
118.239319 -2.461350391e-05 60.32763661
191.921508 14.74127539 -145.0000974
70.620202 61.31161739 -145.0000974
68.47011 55.82693339 139.9723226
203.219346 -2.461350391e-05 -47.41922539
39.013169 25.54511439 148.3091486
251.056783 24.38404639 125.6024246
70.94576 -2.461350391e-05 -137.6407144
199.812377 -2.461350391e-05 82.39483761
117.051143 66.90381139 142.1674436
157.954828 13.06527339 132.9297146
36.592583 48.30336139 -151.0000974
58.036077 -2.461350391e-05 90.18668361
194.713968 65.35048639 -145.0000974
191.978459 18.99716339 130.2519946
-2.899996798e-05 43.26553539 -14.84445739
193.681676 7.194540386 -151.0000974
21.490089 -2.461350391e-05 -91.60363139
215.016531 25.71480839 134.4574206
-2.899996798e-05 49.86772039 -93.09399539
48.695102 18.24419839 147.5471656
225.36536 53.28961339 127.6243856
64.564831 22.53480639 140.2796746
176.587674 -2.461350391e-05 99.95925461
141.737452 -2.461350391e-05 102.1412916
114.161608 15.54338539 142.3948536
214.530337 -2.461350391e-05 97.08216461
87.335831 48.53477739 -151.0000974
170.598493 18.67830739 131.9346356
47.327749 0.7225193865 147.6547786
28.368281 54.49792539 -151.0000974
121.902197 4.368464386 -151.0000974
229.582913 20.82933839 127.2924566
234.003569 40.44431639 132.9631126
196.188365 4.606809386 135.9392256
151.02718 33.57519339 -151.0000974
180.319593 38.35945939 137.1881216
54.451529 5.820930386 147.0941266
63.010638 66.95237339 -151.0000974
-2.899996798e-05 40.31492339 45.06557161
245.406562 61.89734039 -145.0000974
201.503637 -2.461350391e-05 58.96971261
-2.899996798e-05 50.63041639 -19.47989339
23.439342 49.57669739 -145.0000974
220.056663 11.07276739 -145.0000974
149.559771 19.33456339 -145.0000974
44.007485 -2.461350391e-05 75.02093861
93.836199 -2.461350391e-05 -132.8833014
24.826502 -2.461350391e-05 -101.4410444
165.375892 17.50168339 -145.0000974
67.65948 -2.461350391e-05 -55.92387939
36.272599 -2.461350391e-05 -6.311667386
101.595805 -2.461350391e-05 -17.75650439
22.906347 35.29373039 -151.0000974
157.35042 25.45465339 138.9958296
72.443025 -2.461350391e-05 -97.64768839
94.320447 1.161651386 -151.0000974
46.129806 -2.461350391e-05 59.88966861
59.305096 63.28135939 146.7121436
220.512779 28.90721739 -145.0000974
-2.899996798e-05 77.56038739 -97.36569639
-2.899996798e-05 14.94781939 12.60195561
57.325525 -2.461350391e-05 136.2591106
162.935508 31.03958939 132.5377266
107.873007 -2.461350391e-05 -103.7128004
152.851524 -2.461350391e-05 7.763974614
92.88051 29.41564439 -145.0000974
88.004733 -2.461350391e-05 -41.04144239
163.753531 41.53004139 -151.0000974
-2.899996798e-05 14.11128639 -65.77671839
25.804245 40.69308139 -145.0000974
-2.899996798e-05 60.29193539 76.44900161
84.857384 64.90452939 -151.0000974
203.48482 33.34418139 129.3464236
-0.226686 119.4315204 104.9999026
66.073128 -2.461350391e-05 -76.24194639
155.945747 61.43849339 -145.0000974
138.71663 -2.461350391e-05 90.96371661
164.389206 53.80407839 138.4418666
244.15422 54.38488239 -151.0000974
-0.07426799997 122.0209764 -90.11916339
-2.899996798e-05 33.02112439 29.82498061
-2.899996798e-05 5.202596386 132.7317566
203.193035 32.11189939 -145.0000974
194.527011 42.16741739 136.0699766
75.745932 -2.461350391e-05 -63.47777039
78.587988 14.13435839 139.1760276
15.714911 59.68615339 148.9999026
-2.899996798e-05 15.65963739 -5.532882386
192.931395 -2.461350391e-05 -71.94223739
173.032086 4.822322386 131.7431076
176.770198 12.03790239 137.4674646
211.47171 65.67799039 -151.0000974
-2.899996798e-05 33.65397039 -120.2827994
3.796419 -2.461350391e-05 86.72088161
221.947764 -2.461350391e-05 -100.3498994
154.280194 -2.461350391e-05 -43.56477439
165.249101 -2.461350391e-05 -90.75063739
120.14964 -1.879488614 -37.09116139
221.397905 47.35146639 -145.0000974
49.49256 6.591214386 -145.0000974
89.134491 52.23822139 144.3645256
170.400043 62.01913539 137.9688046
-2.899996798e-05 27.10063139 36.50024061
4.750779 64.09534039 -151.0000974
94.798672 43.67428939 -151.0000974
237.564962 43.03081839 126.6642546
168.071647 -2.461350391e-05 129.5527206
17.963918 -2.461350391e-05 8.098662614
-2.899996798e-05 114.8065294 -72.88632639
219.932667 -2.461350391e-05 42.21829761
168.799899 -2.461350391e-05 25.95525461
-2.899996798e-05 48.48077039 -1.023818386
168.499587 -2.461350391e-05 -131.6834204
46.916058 -2.461350391e-05 -90.01679139
156.856416 -2.461350391e-05 83.65740061
56.621183 3.896881386 -145.0000974
243.956562 -2.461350391e-05 -128.9700654
122.523278 21.66852239 135.7182416
73.317077 36.52268939 -145.0000974
86.959838 36.26081739 144.5356736
135.764469 6.569684386 140.6946766
201.143224 -2.461350391e-05 -9.642077386
-2.899996798e-05 30.65303839 -9.864883386
30.592228 -2.461350391e-05 9.775924614
63.06135 -2.461350391e-05 -27.41217739
112.155072 4.399098386 136.5342376
8.095064 -2.461350391e-05 -34.57073339
-2.899996798e-05 70.00520739 -68.49870139
244.699389 -2.461350391e-05 91.95945161
-0.464788 41.62717939 148.9999026
38.908198 40.19111639 148.3174096
-2.899996798e-05 6.723495386 31.46765561
110.117843 -2.461350391e-05 -119.9698144
4.255137 49.79255239 -151.0000974
-2.899996798e-05 5.285971386 -89.48996639
70.834481 52.37069239 -145.0000974
217.80993 -2.461350391e-05 -15.11356839
-2.899996798e-05 90.33877439 -66.63803339
-2.899996798e-05 60.41302439 61.92874461
177.851922 -2.461350391e-05 49.68610061
98.501869 -2.461350391e-05 123.3917766
238.90838 27.76523539 132.5770966
241.605462 -2.461350391e-05 71.76554961
-2.899996798e-05 26.95174039 51.69274161
185.617336 63.27946439 -145.0000974
125.498583 -2.461350391e-05 -91.23837339
214.860152 -2.461350391e-05 -0.5471243859
138.564178 -2.461350391e-05 73.01832261
-2.899996798e-05 69.25644039 108.1324976
155.8703 -2.461350391e-05 -124.9013634
-0.15306 28.64864839 142.9999026
-0.756588 -2.461350391e-05 -112.5048374
34.573618 67.78867839 -151.0000974
-2.899996798e-05 18.20292339 59.55259361
104.230689 53.99513939 -145.0000974
193.958066 18.25922039 -151.0000974
-2.899996798e-05 20.79450539 87.82672661
-2.899996798e-05 6.414590386 -79.06550639
-2.899996798e-05 7.482791386 0.7526386141
214.868025 -2.461350391e-05 -125.3401424
223.018987 -2.461350391e-05 -39.09115139
-0.244086 -2.461350391e-05 -126.7092784
106.130087 -2.461350391e-05 86.41039161
-2.899996798e-05 115.2465254 87.37453461
40.07259 -2.461350391e-05 -26.53120739
130.857122 -2.461350391e-05 0.4530446141
116.524389 64.61385439 -145.0000974
5.751039 -2.461350391e-05 -63.34079139
17.137712 13.93326839 142.9999026
165.641501 -2.461350391e-05 17.89204861
-2.899996798e-05 69.27130339 19.57287461
114.536314 -2.461350391e-05 102.4742236
8.749346 -2.461350391e-05 93.57852461
-2.899996798e-05 47.89408939 -114.1409764
56.076348 20.28346939 -145.0000974
85.267175 -2.461350391e-05 83.17478661
76.479528 44.64833039 145.3604896
-2.033221 49.95806739 142.9999026
117.205059 -2.461350391e-05 -82.02578639
92.351536 -2.461350391e-05 -107.2236974
100.106558 45.22283039 -145.0000974
36.458965 -2.461350391e-05 25.08789461
12.182301 11.63858439 148.9999026
235.6839 -2.461350391e-05 -118.8593964
77.292133 -2.461350391e-05 -23.56385939
77.201637 45.65990439 -145.0000974
59.616634 32.99040439 146.6876246
155.592009 3.820724386 133.1156726
121.721047 45.54393039 -145.0000974
78.114856 62.59098739 -151.0000974
35.318061 32.51166339 142.5814486
6.391003 19.10342039 148.9999026
140.953846 -2.461350391e-05 126.6120936
53.042229 10.58421039 -151.0000974
55.231572 18.98280539 141.0142196
225.296343 4.468369386 -145.0000974
217.745036 61.06741339 134.2426836
148.731218 -2.461350391e-05 38.47772761
176.390326 32.28409639 131.4788086
177.941284 -2.461350391e-05 -9.486951386
190.077284 60.57822939 136.4201766
214.134693 -2.461350391e-05 -102.2096424
27.447095 54.52751839 142.9999026
-2.899996798e-05 69.15099939 35.11944161
137.978965 20.35792539 -145.0000974
-2.899996798e-05 6.552194386 64.55261061
225.877315 -2.461350391e-05 3.225796614
107.24154 21.07349839 -145.0000974
183.61322 -2.461350391e-05 109.8013056
32.018223 -2.461350391e-05 -112.3109044
-2.899996798e-05 31.49348739 45.24095661
251.204625 -2.461350391e-05 -76.21178939
186.305634 -2.461350391e-05 -24.53866539
89.57115 45.82638539 138.3116326
-2.899996798e-05 54.26288939 -51.94427439
202.954075 -2.461350391e-05 -76.46860339
-2.899996798e-05 17.17168339 -119.7704284
9.889101 18.23739839 -151.0000974
81.576966 26.15696839 144.9593136
-2.899996798e-05 66.76857639 92.18325961
176.987993 16.77160439 -145.0000974
32.066828 30.23194239 -151.0000974
70.486668 -2.461350391e-05 -89.95441539
215.160652 37.09787639 128.4275146
208.304343 0.5616903865 -145.0000974
153.047023 4.813804386 -145.0000974
11.977715 -2.461350391e-05 24.84971961
-2.899996798e-05 55.77707939 -41.53179739
23.320042 -2.461350391e-05 128.1267816
191.772909 42.59806139 -145.0000974
77.755484 -1.899919614 139.2414626
98.30442 -2.461350391e-05 14.51834161
243.598092 26.04588439 -151.0000974
-2.899996798e-05 109.2152644 -101.3821074
227.693551 -2.461350391e-05 -68.61093339
26.601601 4.161613386 148.9999026
205.646362 -2.461350391e-05 -23.37546839
225.541889 22.03668639 -151.0000974
107.533971 -2.461350391e-05 -30.64901939
125.089361 44.92002239 -151.0000974
218.443235 37.06003539 -151.0000974
163.170539 -1.991728614 -145.0000974
203.077562 -2.461350391e-05 -40.30131439
-2.899996798e-05 35.56864439 -98.12672839
35.091629 60.66490139 142.5992686
149.347794 7.632316386 -151.0000974
80.10427 -2.461350391e-05 95.01737861
-2.899996798e-05 51.43543539 47.07710861
226.868599 59.02877039 -151.0000974
238.494254 49.87046239 -151.0000974
205.643775 39.98030739 135.1950706
99.708159 -2.461350391e-05 -75.90810539
236.465493 -2.461350391e-05 -50.51669539
128.165352 -2.461350391e-05 -106.4375694
207.620423 28.62303439 135.0395056
188.047845 8.719660386 136.5798966
191.619177 22.78617539 136.2988276
8.467536 62.53944739 148.9999026
-2.899996798e-05 15.66041039 71.45354461
-1.725951 -2.461350391e-05 -47.72177439
38.832151 18.70101039 148.3233946
217.903738 67.19595939 128.2116286
179.815541 63.76140639 137.2277916
180.020944 50.24197139 -151.0000974
-2.899996798e-05 58.93182139 46.69052061
-0.06843299997 -2.461350391e-05 -11.84413639
5.393767 32.62334339 -151.0000974
245.867311 -2.461350391e-05 100.8128056
161.403701 -2.461350391e-05 43.30223361
-2.215611 55.79395639 -145.0000974
212.863231 -2.461350391e-05 24.11524061
-2.899996798e-05 14.08988039 -77.42860039
-2.899996798e-05 77.26389339 82.81733061
-2.899996798e-05 44.25698439 50.63357761
159.416003 54.75340539 -145.0000974
203.81063 17.07916639 129.3207816
39.907276 -2.461350391e-05 124.1538036
15.882608 -2.461350391e-05 -129.7246984
6.29475 -2.461350391e-05 13.14205061
188.457401 -2.461350391e-05 -92.44628339
124.580641 -0.1443416135 13.12998761
239.057317 63.02676039 132.5653746
183.677633 -2.098844614 -145.0000974
13.375149 33.27807839 148.9999026
34.29468 -2.461350391e-05 71.76626861
229.517072 43.23919939 -151.0000974
-2.899996798e-05 44.81215439 130.9193646
137.525401 43.49268239 134.5375476
132.05781 -2.461350391e-05 63.10904461
-2.899996798e-05 57.61837939 -12.14156339
77.697757 33.93025639 145.2646136
60.397154 -2.461350391e-05 -91.56727639
246.451707 -2.461350391e-05 -17.53962339
188.170391 -2.461350391e-05 60.24566661
-2.899996798e-05 96.86723239 -69.82968539
-2.899996798e-05 108.5304584 91.37358061
83.542403 25.65887339 -151.0000974
14.69087 48.41366639 -145.0000974
33.512684 20.70692739 -145.0000974
16.874105 46.31080639 148.9999026
179.82079 59.84800339 131.2088246
145.718893 25.05950039 133.8927046
97.541912 5.070114386 -145.0000974
202.826583 23.00671439 -145.0000974
93.350891 11.67270339 144.0326886
-2.899996798e-05 74.12533139 51.53487861
11.971223 67.99997539 147.1127656
212.07691 35.31785839 -145.0000974
-2.899996798e-05 15.96945639 -91.75049439
240.07246 0.6854463865 -145.0000974
222.72581 -2.461350391e-05 62.16348161
119.741336 -2.461350391e-05 -111.4073904
-2.899996798e-05 68.24439539 -55.45181239
243.94243 -2.461350391e-05 -111.8458204
167.513171 -2.461350391e-05 94.55078061
27.694938 12.43319739 142.9999026
50.070403 -2.461350391e-05 -12.10456739
192.845473 -2.461350391e-05 -11.69335039
135.80243 23.96529939 134.6731486
187.938251 -2.461350391e-05 128.4340346
16.36615 23.61505139 142.9999026
21.722261 27.35442239 148.9999026
230.299741 41.30764039 127.2360406
-0.45822 44.17534539 -141.0000974
104.364259 51.12093439 143.1659196
-2.899996798e-05 61.41710739 -58.05575139
91.260883 58.37652139 -145.0000974
29.472353 -2.461350391e-05 -39.06778639
240.19262 39.96541239 -145.0000974
-2.899996798e-05 32.27186439 133.5970116
244.866943 19.87351539 126.0895756
243.133994 16.44143839 132.2445346
-2.899996798e-05 37.71697439 110.2109276
82.318743 -2.461350391e-05 118.4075086
181.650268 -1.357068614 137.0833956
35.584259 3.887219386 148.5790086
65.965798 -2.461350391e-05 108.2008966
167.340188 25.00522839 132.1910706
106.340604 1.165306386 136.9918466
191.254245 -2.461350391e-05 77.53106461
0.511392 58.81016739 -151.0000974
-2.899996798e-05 60.86039439 -31.40735839
40.325042 -2.461350391e-05 47.46615161
117.902492 -2.461350391e-05 -5.719190386
225.054592 29.62179039 -151.0000974
132.117289 48.83765339 -145.0000974
-2.899996798e-05 115.4252494 -79.50039339
99.634579 -2.461350391e-05 54.56547561
9.932284 -2.461350391e-05 -136.8177674
63.718117 19.44606839 -145.0000974
39.059299 40.63125939 -145.0000974
102.465333 -2.461350391e-05 -99.86780139
68.018886 16.97278139 146.0263556
1.033265 64.90306139 142.9999026
48.652248 55.23929739 141.5320236
220.643729 4.711455386 127.9959866
-2.899996798e-05 30.82743039 -3.243406386
214.873839 -2.461350391e-05 -71.55992039
157.60848 40.28313339 138.9755206
241.106028 -2.461350391e-05 16.95035561
74.219995 67.99997539 142.5978746
21.54144 58.15731539 -151.0000974
162.153294 -2.461350391e-05 99.75456561
139.210779 -2.461350391e-05 -144.2530444
220.407771 20.61659439 134.0331226
62.051493 -2.461350391e-05 -59.38587439
131.508492 14.05629439 -145.0000974
100.686568 19.20784939 137.4368296
112.856274 49.76753639 142.4975856
223.718213 49.85764539 133.7725856
232.103698 -2.461350391e-05 121.2340196
109.112666 22.95236639 142.7922136
-2.899996798e-05 89.80652239 86.87103661
10.845553 -2.461350391e-05 -102.8183494
118.184387 39.16147239 136.0597196
-2.899996798e-05 125.6802814 -101.1525854
85.051447 -2.461350391e-05 51.74176461
56.423749 35.62587739 -145.0000974
50.952068 40.48471539 141.3510236
189.915853 -2.461350391e-05 -121.2771474
10.823662 19.62061039 142.9999026
45.389475 30.81047639 -145.0000974
