# .PCD v0.7 - Point Cloud Data file format
VERSION 0.7
FIELDS x y z
SIZE 4 4 4
TYPE F F F
COUNT 1 1 1
WIDTH 1214
HEIGHT 1
VIEWPOINT 0 0 0 1 0 0 0
POINTS 1214
DATA ascii
50.70102164 70.79304039 -164.7522174
-72.51856936 -2.461348458e-05 -33.89598339
-47.99998036 89.29923639 -96.81559539
70.00187764 130.4098654 -9.73878191e-05
17.67579464 -2.488082613 -9.73878191e-05
48.00001964 86.25783339 -74.02445639
-2.869626359 -2.461348458e-05 -203.2313704
-9.588002359 -2.461348458e-05 -83.98602039
-47.99998036 68.33177239 -174.3899064
66.87631364 53.50987739 -9.73878191e-05
70.90101564 -2.461348458e-05 -158.0643054
-68.23396436 132.6101514 -9.73878191e-05
-68.79988436 -2.461348458e-05 -209.3919734
52.00001964 57.72141339 -228.3854964
-51.99998036 58.73217639 -43.45506539
10.28254164 -2.461348458e-05 -143.4476714
69.20339964 -2.461348458e-05 -24.93404439
48.00001964 44.23654639 -111.9320604
-33.76175436 23.11369439 -9.73878191e-05
-51.99998036 33.05772239 -98.57107239
-37.90954736 -2.461348458e-05 -250.5258594
48.00001964 10.70876939 -205.0227184
30.83158164 95.18390339 -9.73878191e-05
48.00001964 42.74418239 -48.30951339
-68.59763636 83.23791939 1.813232612
13.09733564 46.96801339 -9.73878191e-05
-50.07916636 109.3106804 -38.59287039
21.69251764 -2.461348458e-05 -249.9988354
-11.19832136 -2.461348458e-05 -35.77294639
-47.99998036 22.45791439 -175.3823064
34.39457964 -2.461348458e-05 -55.63260139
-52.49900336 -0.9134536135 -72.13732039
48.00001964 0.2500593865 -119.9780974
51.77478164 111.0868634 -33.90175239
-47.99998036 61.82575739 -129.2640504
-30.09977636 -2.461348458e-05 -136.1845434
-51.99998036 41.31418239 -211.0173904
48.17065864 81.77283639 -122.2812914
48.00001964 32.68978939 -172.2483034
-71.87635236 20.27758539 -9.73878191e-05
48.18306864 19.35246439 -9.73878191e-05
67.40155364 92.84474939 -9.73878191e-05
48.00001964 72.41267739 -26.80935739
48.00001964 29.15848839 -250.6266724
25.40324464 -2.461348458e-05 -176.5077844
-69.30044336 -2.461348458e-05 -104.3599614
-34.54058436 116.6263904 0.4142546122
26.55606864 -2.461348458e-05 -90.82231539
-47.68309436 55.26473939 -9.73878191e-05
-51.99998036 27.61533339 -139.6265634
-47.99998036 26.36841539 -33.67051539
52.00001964 27.43984139 -81.11397439
-35.56741136 -2.461348458e-05 -216.1709294
-47.99998036 59.24055839 -76.97607739
52.00001964 28.65929939 -140.0844654
52.00001964 54.66502739 -196.1998294
-8.051622359 -2.461348458e-05 -237.4552434
-51.99998036 88.23549039 -64.29917539
-16.51089636 -2.461348458e-05 -174.7394734
-51.99998036 30.24422739 -66.68027639
72.79405564 -2.461348458e-05 -189.7762004
-49.46859836 -2.461348458e-05 -13.53138939
-47.99998036 79.44463039 -20.63433339
-68.69541136 -2.461348458e-05 -176.8209554
-12.69806836 -2.461348458e-05 -1.664667388
2.291878641 -2.461348458e-05 -114.2009894
-37.67625136 -2.461348458e-05 -98.35445239
23.02005164 -2.461348458e-05 -218.5409554
-67.83042736 -2.461348458e-05 -248.0231684
52.00001964 58.80959639 -86.14408439
37.62794664 -2.461348458e-05 -26.04415739
-16.28985436 51.18707539 -9.73878191e-05
39.29275164 123.4744224 0.5805596122
-51.99998036 26.37150739 -241.8116434
38.79758064 66.31688439 -9.73878191e-05
38.62134264 -2.461348458e-05 -149.1509244
5.793332641 -2.461348458e-05 -59.75640839
66.82809864 -2.461348458e-05 -53.52361439
-44.81389136 -2.461348458e-05 -44.38875939
69.73587364 -2.461348458e-05 -221.6624864
52.00001964 39.86259139 -20.69246239
10.88615864 76.34419139 2.222640612
52.00001964 59.93215039 -139.7438834
-47.99998036 0.7396823865 -157.2430364
46.24365064 -2.461348458e-05 -236.6918714
52.00001964 31.34871439 -224.0748244
2.620171641 21.53678339 -9.73878191e-05
-51.99998036 63.91242439 -103.6693574
-51.99998036 52.97003839 -153.0817714
-47.99998036 2.735702387 -193.9032484
-51.99998036 14.28439839 -116.6780684
-21.11896536 -2.461348458e-05 -59.13524439
52.00001964 86.76019539 -49.01657739
69.49548764 4.035385387 -9.73878191e-05
-72.67919436 56.14926539 -9.73878191e-05
13.59011764 -2.461348458e-05 -33.49159739
-45.04281036 94.07841239 -9.73878191e-05
48.00001964 63.92612739 -61.12150239
52.00001964 21.12059239 -37.17033739
51.34193664 -2.461348458e-05 -177.7637724
-50.91558436 63.63188839 -197.8968114
48.00001964 95.84784539 -16.21004239
52.00001964 79.24013239 -97.77355439
-50.65397336 57.95333039 -228.8408784
-51.99998036 42.59149539 -186.4449934
-67.47181036 109.3127214 -9.73878191e-05
-51.97118436 82.77501239 -118.7312364
67.07054864 -2.461348458e-05 -106.8415644
-71.78823036 -2.461348458e-05 -59.46354539
-47.99998036 46.23833039 -21.16142839
48.00001964 15.49957539 -100.3163144
48.00169664 54.56616339 -250.7720914
37.38044064 43.40827739 -9.73878191e-05
24.18201164 -2.461348458e-05 -120.0302214
70.40115264 -2.461348458e-05 -135.5343354
-51.99998036 19.24339539 -215.0279974
-51.99998036 112.7650544 -16.54478239
-52.41168636 -2.461348458e-05 -231.8133334
-71.93438336 -2.461348458e-05 -11.60156339
48.00001964 2.290391387 -81.59570339
25.91900664 24.51138139 -9.73878191e-05
-26.55322536 -2.461348458e-05 -19.89716539
-24.98566436 -2.461348458e-05 -195.0103314
47.59234264 -2.480728613 -9.73878191e-05
-47.99998036 40.12002439 -118.7284184
-47.99998036 83.39948639 -43.51018239
-47.99998036 73.70680339 -147.2984714
48.00001964 31.46362439 -199.1853964
52.00001964 18.91136039 -58.59216139
-51.99998036 3.803038387 -135.4000474
6.013324641 -2.461348458e-05 -168.2383104
-47.99998036 18.22801939 -84.25175539
-51.99998036 22.71027639 -10.17212239
-18.06340636 -2.461348458e-05 -117.8509094
48.00001964 24.12801439 -120.3724954
-37.12509036 -2.461348458e-05 -174.6992654
52.00001964 47.61299539 -156.1160444
-33.28617036 2.997213387 -9.73878191e-05
52.00001964 0.03366138652 -40.20671039
69.26990464 33.74842539 -9.73878191e-05
52.00001964 118.0525074 -15.35927439
-23.28474136 -2.461348458e-05 -154.7694984
-29.15945636 66.09985839 -9.73878191e-05
-10.75309036 -2.461348458e-05 -139.6198734
52.00001964 15.27468739 -164.1598784
48.00001964 51.91074739 -176.0203104
52.00001964 46.43274239 -68.71659339
59.38171264 71.46978139 -9.73878191e-05
-47.99998036 70.04952539 -59.05693439
-47.99998036 34.39009139 -157.2400854
5.009180641 -2.461348458e-05 -16.27366939
48.00001964 62.65519539 -120.6817644
4.136518641 -2.461348458e-05 -221.8926534
36.77911364 -2.461348458e-05 -191.8578044
48.00001964 15.88733839 -19.25133439
50.56300264 106.9085594 -9.73878191e-05
-47.99998036 17.83313139 -52.87151539
-5.245151359 66.67395039 -9.73878191e-05
-26.80939336 -2.461348458e-05 -235.2835164
-47.99998036 41.01434539 -48.40073939
-27.76294036 -2.461348458e-05 -79.31792339
-34.65574536 41.73992639 -9.73878191e-05
48.00001964 10.74254039 -137.3018404
48.00001964 59.93658239 -40.52310939
51.63295864 101.3088534 -60.36700939
11.85121964 -2.461348458e-05 -77.15942139
-39.37394436 -2.461348458e-05 -120.2881844
-49.80558936 126.6832974 -9.73878191e-05
-51.99998036 96.57986739 -25.40088939
48.00001964 15.62250439 -186.5223584
-13.63321836 -2.461348458e-05 -217.9416334
-51.95643036 76.76355639 -1.500097388
52.00001964 0.3004463865 -63.94706239
48.00001964 58.93348239 -13.72139539
-47.99998036 28.54001539 -196.9634224
48.00001964 44.85872639 -212.9071664
52.00001964 11.60959439 -224.3558894
-47.99998036 41.72985939 -80.00797339
-71.27964736 -2.461348458e-05 -126.2516204
9.338018641 -2.461348458e-05 -98.04740439
-51.99998036 76.84065339 -77.70869039
-60.55060736 -2.461348458e-05 -89.12310939
-10.83261936 -2.461348458e-05 -101.4661324
22.42982864 -2.461348458e-05 -17.15476939
52.00001964 42.40478339 -91.95002639
50.77928464 88.01750939 -9.73878191e-05
-7.520581359 36.30092339 -9.73878191e-05
52.00001964 43.85565639 -128.7171524
-47.99998036 50.52741439 -171.7254914
14.21042564 -2.461348458e-05 -201.7650244
48.00001964 89.09377139 -31.89818639
-51.99998036 103.1226844 -54.34745839
66.95008964 111.4556954 -9.73878191e-05
40.19758864 -2.461348458e-05 -104.8825724
54.09008064 -2.461348458e-05 -17.16965239
51.49568264 66.40322139 -184.0777424
22.74910264 -2.461348458e-05 -154.8758014
48.00001964 77.07828239 -138.4764544
52.00001964 12.83076339 -251.2520684
-47.99998036 41.41709539 -229.2072294
-13.90157236 19.35020939 -9.73878191e-05
-60.09691736 -0.3447936135 -9.73878191e-05
42.66302364 -2.461348458e-05 -217.1023634
-6.954198359 -2.461348458e-05 -157.9693614
52.00001964 61.03788139 -104.7659234
-51.99998036 61.00637839 -15.01800539
-51.99998036 8.734238387 -245.7889004
5.289102641 -2.461348458e-05 -251.4624794
51.75182364 60.86272939 -212.0527124
-47.99998036 5.276371387 -29.13770839
-51.99998036 40.09577339 -6.457113388
-51.99998036 1.076048387 -215.4913254
-47.99998036 15.60035539 -150.4604354
-51.99998036 54.52429139 -60.22424539
-29.00226236 -2.461348458e-05 -41.58256339
35.33708464 -2.461348458e-05 -133.4932214
28.04575364 -2.461348458e-05 -70.31039839
52.00001964 43.39896639 -235.4770234
-51.99998036 9.367330387 -98.69843139
-51.99998036 5.222449387 -176.3380444
-68.06334036 -2.461348458e-05 -75.20975239
-48.50847436 60.62479439 -213.4256734
-47.99998036 47.56950939 -135.9713534
-47.99998036 50.30001339 -93.19142239
-47.99998036 92.80960239 -78.73942339
54.69995164 126.1448504 -9.73878191e-05
50.74617964 -2.461348458e-05 -158.8518284
52.00001964 32.09764539 -156.4048734
52.00001964 49.56328739 -2.042522388
34.87069764 11.50670439 -9.73878191e-05
-47.99998036 68.56043039 -32.33596239
56.98172964 -2.461348458e-05 -192.0245194
-56.12932736 -2.461348458e-05 -120.3322544
57.80704064 -2.461348458e-05 -144.1422454
-40.66481036 -2.461348458e-05 -62.62204439
0.8018816411 -2.461348458e-05 -188.4714194
48.00001964 31.28072439 -101.5060444
48.00001964 31.99796639 -66.86483339
-63.56330436 -2.461348458e-05 -46.82478139
-51.37323136 111.7340234 -9.73878191e-05
-70.84990536 -2.461348458e-05 -224.2675354
-63.42583936 -2.461348458e-05 -162.8196734
-51.99998036 75.41513739 -93.11690139
58.90398164 -2.461348458e-05 -94.36901539
-60.69610736 95.73206339 -9.73878191e-05
9.399290641 -2.461348458e-05 -237.1498354
-7.758512359 -2.461348458e-05 -65.91550139
-11.68488436 -2.461348458e-05 -19.28097339
-47.99998036 18.90268339 -229.3519164
52.00001964 101.2235174 -44.95884039
48.00001964 19.38181939 -238.6220454
68.20620164 -2.461348458e-05 -175.7583054
-51.99998036 13.77843739 -70.78267739
23.16475464 -2.461348458e-05 -44.69171039
4.459983641 -2.461348458e-05 -45.10494739
-51.99998036 78.42868539 -132.7337604
-47.12758836 7.808950387 -9.73878191e-05
15.35939064 -2.461348458e-05 -187.1410944
-64.90485436 42.13998039 -9.73878191e-05
52.00001964 33.97810039 -7.379832388
48.00001964 38.12573839 -34.54213939
-51.99998036 55.54202739 -115.4937014
27.96616564 75.90742839 -9.73878191e-05
36.02781764 -2.461348458e-05 -251.8742164
-47.99998036 66.07659939 -160.1307024
52.00001964 41.56407339 -189.7034824
48.00001964 22.52328939 -213.2780074
65.81860664 -2.461348458e-05 -67.88233439
51.65999664 92.54551339 -86.38408939
-47.99998036 17.43509639 -130.3527354
48.00001964 81.55151339 -15.13631139
52.00001964 71.84973039 -80.27148039
-51.99998036 57.25496839 -183.6640764
35.77883664 -2.461348458e-05 -163.1023514
-47.99998036 38.34184739 -248.1430044
55.80264364 -2.461348458e-05 -209.7999604
-31.53363136 97.83556439 -9.73878191e-05
3.740220641 -2.442785613 -9.73878191e-05
62.52888664 -2.461348458e-05 -233.5826254
-47.99998036 36.76910739 -173.8185534
-69.41982236 -2.461348458e-05 -190.6898304
-4.018956359 -2.461348458e-05 -127.4878184
48.00001964 62.20768439 -152.8275214
-62.31498136 -2.461348458e-05 -21.57716639
52.00001964 12.25158439 -72.87826939
-47.57450836 -2.461348458e-05 -107.9624394
-47.99998036 78.52130339 -106.2678324
-47.99998036 47.17401939 -199.2380024
52.00001964 55.85908439 -26.51123439
31.33036964 -1.919636613 -9.73878191e-05
52.00001964 28.79608539 -184.6991874
68.81839964 -2.461348458e-05 -120.3642944
-51.99998036 45.02709739 -106.7362794
-47.99998036 23.46798439 -107.2444364
52.00001964 74.05835139 -44.34522939
48.00001964 14.09037839 -150.4139224
-24.27737836 -2.461348458e-05 -96.50110139
-47.99998036 90.39082139 -12.69972139
24.80972664 -2.461348458e-05 -104.2080864
-51.99998036 10.85044639 -40.91639239
-47.99998036 40.18127639 -34.96798639
-34.58810436 84.74180039 -9.73878191e-05
14.19173964 10.47661039 -9.73878191e-05
30.06063064 -2.461348458e-05 -229.9694794
23.47313364 -2.461348458e-05 -139.6826134
9.341964641 33.05192139 -9.73878191e-05
-51.99998036 22.84519839 -162.7083454
53.98791864 -2.461348458e-05 -248.4038034
-42.36982036 -2.461348458e-05 -80.60901439
52.00001964 29.39104839 -47.46524339
-51.99998036 4.730758387 -54.40464039
52.00001964 13.91613839 -112.6608244
-47.99998036 14.09803239 -200.3575144
-51.99998036 13.43277439 -187.5581804
-3.278505359 50.20063339 -9.73878191e-05
52.00001964 59.50269739 -72.70681239
61.79265164 23.09559639 -9.73878191e-05
48.00001964 41.59497739 -145.3017064
26.63935864 61.72026839 -9.73878191e-05
-47.99998036 29.94511539 -21.20125939
-51.99998036 69.49887539 -115.3737404
-51.99998036 49.58748239 -239.5889264
48.00001964 16.24775539 -86.03967939
-51.99998036 30.35353139 -126.0063324
38.84298964 83.38891439 -9.73878191e-05
68.82092564 -2.461348458e-05 -201.9037484
66.68042064 -2.461348458e-05 -40.78059439
-47.99998036 31.43306839 -221.3364194
48.00001964 5.595780387 -50.88516439
48.00001964 85.60405239 -60.98907739
-69.36602336 68.37227339 -9.73878191e-05
-19.12118736 -2.461348458e-05 -245.3343094
72.29233164 -2.461348458e-05 -12.68534339
-51.99998036 38.99574839 -145.0505504
48.00001964 47.45252139 -81.13182739
52.00001964 74.46169039 -109.3605714
48.00001964 70.70049039 -7.262223388
-51.99998036 30.85626439 -84.73055539
52.00001964 7.536976387 -27.60564439
-47.99998036 44.29584439 -66.12002639
52.00001964 26.86562739 -26.14441839
-57.44946836 27.31089039 -9.73878191e-05
40.47528164 -2.461348458e-05 -68.40341239
-41.20567236 -2.461348458e-05 -238.6611664
-47.99998036 11.72868539 -166.1443864
52.00001964 -1.106393613 -224.9993974
-23.17693336 29.24567639 -9.73878191e-05
51.74458664 -2.461348458e-05 -132.8174424
-51.99998036 80.35480939 -32.13291239
-47.99998036 58.97717739 -143.2490454
-47.99998036 71.42074339 -45.70975739
-57.18082236 -2.461348458e-05 -204.5432334
-56.70124136 -2.461348458e-05 -36.79590839
-40.19190736 -2.461348458e-05 -202.7742134
-48.06333636 99.57482439 -65.48118339
48.00001964 69.68166339 -91.40257839
-51.99998036 97.33286139 -43.82560239
48.00001964 32.38503939 -129.0610004
5.415662641 61.20201139 -9.73878191e-05
52.00001964 0.4577673865 -106.6282654
52.00001964 99.83267339 -28.70802139
48.00001964 4.706233387 -93.81526339
46.50258964 -2.461348458e-05 -200.2147734
56.97586964 4.705727387 -9.73878191e-05
-51.99998036 30.62720539 -183.0807054
-40.41522636 69.63942939 -9.73878191e-05
15.54595664 -2.461348458e-05 -112.0205594
60.31339064 -2.461348458e-05 -165.6696344
68.84476464 78.36371939 -9.73878191e-05
-72.27213436 -2.461348458e-05 -235.8868604
16.02707364 -2.461348458e-05 -128.4279904
52.00001964 53.62258539 -57.35638639
-47.99998036 18.89233139 -249.8820884
52.00001964 45.78452739 -224.0843694
-41.80608636 -2.461348458e-05 -147.4198694
-51.99998036 65.13625239 -86.16072139
-47.99998036 53.93884439 -33.68434039
52.00001964 72.54602039 -149.4644594
-25.31378036 -2.461348458e-05 -206.5322324
52.00001964 70.75454839 -127.7702484
48.00001964 75.17332539 -56.19137139
-51.99998036 101.4039874 -14.89731739
-60.32538636 -2.461348458e-05 -145.4740924
48.00001964 75.01172239 -70.00552639
-8.242366359 -2.461348458e-05 -46.84347839
52.00001964 49.35598639 -35.93185739
-44.64005236 34.17086639 -9.73878191e-05
-58.20864936 -2.461348458e-05 -188.4002484
-35.63954936 56.70236939 -9.73878191e-05
-14.47545736 73.71423639 -9.73878191e-05
-51.99998036 31.17528639 -43.21649339
36.29401164 105.1955334 -9.73878191e-05
-51.99998036 42.97628139 -163.5856404
52.00001964 22.07227239 -10.39265839
-51.99998036 5.639908387 -84.19044839
52.00001964 48.18990239 -101.7355634
-3.450010359 -2.461348458e-05 -27.50238439
-47.99998036 32.99014739 -56.44303539
48.00001964 39.63969339 -246.4050464
18.23413564 -2.461348458e-05 -167.7801364
-4.122515359 -2.461348458e-05 -9.656596388
-48.40729636 -2.461348458e-05 -93.56244639
48.00001964 32.71922339 -113.1126344
-1.277357359 7.598516387 -9.73878191e-05
52.00001964 19.92775639 -200.0285674
-21.02930636 -2.461348458e-05 -128.6671834
-51.99998036 91.29039439 -53.51457239
3.134580641 -2.461348458e-05 -153.0981954
-51.99998036 15.00485539 -18.30224339
35.52166464 54.44759539 -9.73878191e-05
-35.59367236 -2.461348458e-05 -109.3351704
55.91786264 59.80284439 -9.73878191e-05
52.00001964 56.17176639 -166.5306244
14.74543064 -2.461348458e-05 -53.15352639
-28.88545836 -2.461348458e-05 -167.2379144
-47.99998036 29.15246139 -208.0362854
-60.54314436 123.9269014 -9.73878191e-05
-51.99998036 8.420381387 -224.6174444
-13.89616236 -2.461348458e-05 -202.8574774
32.07019464 -2.461348458e-05 -201.8315934
-46.11168236 -2.461348458e-05 -168.3090044
48.00001964 105.7083944 -11.28078339
-19.42264436 -2.461348458e-05 -47.03274339
-47.99998036 83.88630039 -87.21566039
52.00001964 40.15420239 -164.2185544
-22.76256536 -2.461348458e-05 -6.100067388
-47.99998036 78.09415039 -66.53653739
-22.28712936 -2.461348458e-05 -32.90804639
52.00001964 19.86422239 -129.6422854
-47.99998036 5.574315387 -125.1147084
16.05420064 -2.461348458e-05 -87.80644639
48.00001964 15.35685939 -45.53991939
26.47378164 43.21935339 -9.73878191e-05
48.00001964 22.49236839 -72.21225939
0.7994906411 -2.461348458e-05 -87.29298239
-51.99998036 48.19514639 -221.6820044
-59.91881236 10.54103539 -9.73878191e-05
-16.65797936 62.06797439 -9.73878191e-05
48.00001964 53.93645639 -128.0876984
40.62210264 -2.461348458e-05 -176.1467364
-43.87934036 19.22475339 -9.73878191e-05
48.00001964 45.73714439 -200.8659834
28.36339164 -2.461348458e-05 -31.66062839
-51.99998036 19.91715839 -96.23953339
52.00001964 53.81849039 -240.7325214
-58.48123836 -2.461348458e-05 -104.0153934
-57.38434336 -2.461348458e-05 -242.3438494
-21.66551436 -2.461348458e-05 -225.0990154
50.51840664 84.95745539 -111.0002644
-45.11570336 -2.461348458e-05 -223.9514474
-0.6832213589 -2.461348458e-05 -176.5995604
68.19567064 -2.461348458e-05 -146.6921334
-39.84450136 -2.461348458e-05 -24.66174939
48.00001964 62.70057739 -202.2102804
-58.83650036 -2.461348458e-05 -63.57855939
-47.99998036 16.50902239 -29.58435539
52.00001964 49.19422239 -15.51498539
-51.99998036 71.25618439 -10.60808939
-39.92302636 104.3828614 -9.73878191e-05
34.94886464 -2.461348458e-05 -122.8748764
48.00001964 8.856297387 -172.9524614
52.00001964 40.87685739 -59.67483039
-31.90479536 -2.461348458e-05 -186.9662454
52.00001964 31.22360939 -91.72231139
-65.22972036 -2.461348458e-05 -115.0226114
-47.99998036 51.76118439 -126.1907624
22.57637664 -2.461348458e-05 -237.3449144
-47.99998036 67.05390239 -69.95446839
60.67346364 -2.461348458e-05 -127.2838214
-47.99998036 26.23856139 -149.1308134
48.00001964 66.26399139 -50.83051139
-70.38706436 -1.832756613 -9.73878191e-05
-57.98021836 56.64693339 -9.73878191e-05
3.797028641 -2.461348458e-05 -134.3167334
52.00001964 93.62085239 -67.90838839
-47.99998036 31.80447539 -233.0150294
-51.99998036 32.54931239 -112.9386004
52.00001964 33.10273839 -208.5668374
61.06890564 -2.461348458e-05 -77.82459939
-51.99998036 37.96395739 -195.7509144
52.00001964 50.62542639 -119.2042554
-29.00036136 -2.461348458e-05 -51.85112639
-48.90359936 -2.461348458e-05 -250.1886964
-10.73482636 -2.461348458e-05 -183.2142104
-47.99998036 89.74824039 -33.07465439
41.06102264 94.51866439 -9.73878191e-05
52.00001964 64.62374539 -172.8097364
-51.99998036 7.652229387 -144.8664474
-47.99998036 74.41490639 -123.3754254
47.47120064 -2.461348458e-05 -188.3337654
-70.96542336 30.40674939 -9.73878191e-05
48.00001964 36.86064139 -84.26627439
-51.99998036 53.67102439 -206.8850024
-26.08015336 48.53175639 -9.73878191e-05
13.79958964 -2.461348458e-05 -177.1190624
14.46551464 24.30815439 -9.73878191e-05
-47.99998036 5.532659387 -206.0944964
48.00001964 29.42921839 -239.7552864
-47.99998036 12.88226839 -107.5082344
-8.146735359 -2.461348458e-05 -193.1416324
-47.99998036 23.70399739 -75.77287239
48.00001964 8.852789387 -194.0076714
-47.99998036 117.4716154 -7.579029388
-51.99998036 50.20555639 -49.44108239
52.00001964 97.24395639 -3.864936388
6.543900641 -2.461348458e-05 -26.22946739
-45.12854236 44.22924439 -9.73878191e-05
-47.99998036 53.51673339 -103.0925764
-15.78023336 9.480003387 -9.73878191e-05
-7.681498359 -2.461348458e-05 -112.9911894
48.00001964 1.040599387 -142.0667634
52.00001964 80.58958039 -35.38389539
51.82818964 116.6903984 -1.500097388
52.00001964 8.826401387 -123.0767144
-51.99998036 59.05163439 -165.8928764
38.36093564 -2.461348458e-05 -81.24931339
-47.99998036 17.13302139 -240.1500634
48.34764064 95.66436839 -77.01429539
48.00001964 24.30362339 -164.0317204
32.23730164 32.09737339 -9.73878191e-05
65.93814664 121.4213344 -9.73878191e-05
-39.34854136 -2.461348458e-05 -52.86090139
52.00001964 43.01868339 -177.4125004
-47.99998036 49.00448739 -8.121212388
-19.83274436 -2.461348458e-05 -143.3736544
48.00001964 95.13422839 -53.66468639
-47.99998036 82.28635239 -53.25197639
-51.99998036 17.98467839 -141.4009284
-47.99998036 101.0307764 -33.15196139
48.00001964 11.66612339 -36.48349439
-48.20751136 65.47447539 -188.6881734
-52.15476536 101.9964924 -9.73878191e-05
52.00001964 57.13954539 -95.81215539
-60.98925736 -2.461348458e-05 -135.1163684
32.51651864 -2.461348458e-05 -216.3289724
-9.970034359 -2.461348458e-05 -248.6497194
-47.99998036 20.44395239 -43.51048439
48.00001964 43.39722039 -8.382909388
60.50376964 -2.461348458e-05 -115.3577024
52.00001964 88.86798339 -96.71248139
48.00001964 51.25275139 -185.6751924
-67.14179536 -2.461348458e-05 -153.8981574
48.00001964 25.36882439 -230.5219074
48.00001964 112.8257904 -25.20057939
-51.99998036 32.85384839 -165.8775074
-25.13225536 -2.461348458e-05 -111.2940034
-15.40939136 -2.461348458e-05 -92.72194339
52.00001964 68.34073539 -34.55717639
-47.99998036 18.58114639 -63.47458639
32.33007264 -2.461348458e-05 -183.3799654
48.00001964 38.00212339 -121.0818264
68.17393664 -2.291554613 -94.44504839
-51.99998036 51.57194839 -72.98724839
52.00001964 93.50127239 -39.40649239
29.40745964 85.29777939 -9.73878191e-05
48.00001964 23.81370339 -175.5864494
-15.72090236 -2.461348458e-05 -71.06040639
-19.65741736 -2.461348458e-05 -186.3861044
-52.50188336 -2.461348458e-05 -22.70563839
66.64159364 14.97466139 -9.73878191e-05
48.00001964 25.10587339 -147.8666704
52.00001964 53.50274239 -206.1407924
32.19556564 -2.461348458e-05 -18.33244039
52.00001964 19.25204139 -140.4211024
3.037090641 71.13729039 -9.73878191e-05
-51.99998036 41.78893539 -93.09179939
32.50686164 -2.461348458e-05 -46.42557239
-47.99998036 105.0200854 -24.39709839
48.71120064 -2.461348458e-05 -9.477181388
-51.99998036 36.25158839 -14.97568639
-32.27541336 -2.461348458e-05 -90.75838039
59.69375064 85.30430039 -9.73878191e-05
46.85490564 31.56742439 -9.73878191e-05
10.81363464 -2.461348458e-05 -215.4420764
-5.220759359 -2.461348458e-05 -74.84245539
-51.99998036 42.17841639 -154.2152604
48.00001964 0.9731603865 -168.1219754
-2.675488359 -2.461348458e-05 -215.6515804
-47.99998036 35.17527839 -132.7907504
-48.87611836 64.39959239 -9.73878191e-05
8.615647641 -2.461348458e-05 -193.4172624
48.00001964 31.32826439 -55.52360739
-60.94788336 77.97975039 -9.73878191e-05
52.00001964 63.32989039 -21.16377639
48.00001964 10.68948239 -59.43918739
20.04349964 -2.461348458e-05 -65.83452539
21.72819264 32.66497539 -9.73878191e-05
48.00001964 31.78676739 -19.02583639
52.00001964 79.03851039 -85.95584939
43.30622164 74.28346439 -9.73878191e-05
-51.99998036 7.129430387 -63.19144339
-57.42804436 132.4853674 -9.73878191e-05
-71.08615736 -2.461348458e-05 -200.5801544
-22.96722536 92.01612139 1.353655612
-51.99998036 47.51596339 -38.71902039
-33.06152436 -2.461348458e-05 -13.55470439
23.11161164 -2.461348458e-05 -6.838976388
52.00001964 91.31459339 -24.05255239
-59.30016936 -2.461348458e-05 -80.15677039
52.00001964 24.28792339 -105.6293404
-31.78952936 -2.461348458e-05 -64.38775539
-0.2019063589 -2.461348458e-05 -52.97867439
48.00001964 18.93193639 -27.77956939
-47.99998036 59.67324639 -92.13750739
72.67898664 -2.461348458e-05 -213.1259034
2.971636641 -2.461348458e-05 -68.33020439
48.00001964 63.73536039 -79.73240139
68.93043764 44.73024739 -9.73878191e-05
-4.598754359 -2.461348458e-05 -168.4787764
-51.99998036 87.50795739 -20.43471239
57.64624764 14.81258139 -9.73878191e-05
52.00001964 6.691030387 -214.4584464
48.00001964 11.26835539 -234.7438184
48.00001964 47.52650439 -135.8796754
-39.10646136 -2.461348458e-05 -158.2845864
-47.99998036 67.24588439 -139.7641194
37.92483164 -2.461348458e-05 -96.20649639
24.17978964 -2.461348458e-05 -82.17629639
52.00001964 7.197552387 -185.4931144
52.00001964 53.15017539 -149.0749784
-51.99998036 49.20796839 -179.7922484
-51.99998036 23.26125239 -120.6436744
52.00001964 73.63340939 -15.69858639
-47.99998036 41.21898439 -239.7373904
48.00001964 66.10040739 -134.8029594
-51.99998036 57.33616439 -23.07126939
-47.99998036 50.44138939 -84.34977439
-47.99998036 0.7832023865 -182.8458634
-51.99998036 52.80243639 -193.7264534
52.00001964 51.98895539 -109.6995204
45.72972364 -2.461348458e-05 -57.31314239
-45.29603136 -2.461348458e-05 -5.764575388
-47.99998036 108.5967484 -7.513649388
-51.99998036 8.998647387 -158.7831004
27.52124864 -2.461348458e-05 -147.4918854
52.00001964 73.33460839 -119.3689304
-51.99998036 67.55899539 -24.58342139
48.00001964 67.69208939 -100.6907204
43.41579164 -2.461348458e-05 -226.3209044
-48.01196936 14.92619139 -10.51987039
-13.88265336 -2.461348458e-05 -10.32628339
52.00001964 31.01573739 -37.58909439
-47.99998036 36.68414139 -203.3770434
-47.99998036 6.383121387 -238.4253804
-30.65051236 14.99277639 -9.73878191e-05
52.00001964 47.01020539 -169.5635344
55.46373364 -2.461348458e-05 -238.6477844
52.00001964 9.137380387 -243.3867174
-51.99998036 32.34806239 -28.80045439
48.00001964 37.37221639 -73.68458239
-3.048333359 -2.461348458e-05 -95.06862039
-49.91846536 114.7348194 -24.73320939
48.00001964 62.86959739 -1.774972388
-47.99998036 65.70881739 -150.6509554
64.88071664 -2.461348458e-05 -241.9197264
-41.08796536 -2.461348458e-05 -138.8021924
-47.99998036 57.57475039 -51.51943839
48.00001964 14.55202339 -216.5924564
-7.832961359 13.20750739 -9.73878191e-05
-47.99998036 62.60064339 -120.6716394
40.53884364 -2.461348458e-05 -243.1490604
58.32920364 -2.461348458e-05 -7.058107388
40.28820964 114.9639494 -9.73878191e-05
52.00001964 53.08356639 -48.78563339
48.00001964 39.03917639 -137.0815024
-47.99998036 83.71202039 -74.51587139
52.00001964 6.726128387 -152.1799464
-44.24093236 118.6463384 -9.73878191e-05
6.177556641 41.97286139 -9.73878191e-05
22.02605264 7.100110387 -9.73878191e-05
60.07517664 -2.461348458e-05 -178.3331404
-58.38252036 -2.461348458e-05 -174.2008454
-47.99998036 3.975577387 -115.4819754
52.00001964 21.67297039 -251.3260844
-67.01626436 -2.461348458e-05 -66.51495839
-23.66488436 -2.461348458e-05 -214.8741564
-25.98793736 -2.461348458e-05 -70.60068539
-0.9340073589 30.92751439 -9.73878191e-05
52.00001964 78.99056839 -131.2245844
-29.94186736 34.37674539 -9.73878191e-05
-33.33811136 -2.461348458e-05 -241.8201594
-51.99998036 52.34944339 -14.78874339
-68.84129636 97.99065139 -9.73878191e-05
-47.99998036 0.6713703865 -36.59388439
-47.99998036 99.20047539 -6.799815388
-51.99998036 13.54839439 -174.9659874
51.62096664 64.74196939 -192.3489964
52.00001964 39.06607639 -217.5413954
-62.81686336 -2.461348458e-05 -13.17258939
-24.14349536 5.616385387 -9.73878191e-05
52.00001964 13.24668039 -92.79544339
-51.99998036 40.14554239 -25.67390639
-47.99998036 35.90548739 -71.41562739
48.00001964 66.63550239 -69.55251239
36.42096964 -2.461348458e-05 -114.6182614
-70.29294936 -2.461348458e-05 -168.6012334
-1.823857359 -2.461348458e-05 -227.7687874
22.76532964 -2.461348458e-05 -55.53349539
-47.99998036 70.84851939 -101.2701334
61.29000764 105.3063454 -9.73878191e-05
48.00001964 4.848617387 -112.4774874
-51.99998036 51.04166639 -142.4026204
-31.64985136 -2.461348458e-05 -33.68641739
-51.99998036 39.96992539 -220.3871044
-51.99998036 59.25032439 -174.2023034
-51.99998036 46.75985839 -57.27132839
52.00001964 38.55400639 -101.7967304
48.00001964 58.44215139 -181.5210264
11.32111864 68.37030339 -9.73878191e-05
-47.99998036 19.78401539 -184.0670504
48.00001964 78.94591839 -4.974510388
63.66996964 64.40630839 -9.73878191e-05
50.43167064 9.731471387 -9.73878191e-05
52.00001964 88.29819739 -8.152601388
-51.99998036 0.3443203865 -148.6671044
-47.99998036 8.084364387 -217.1262624
-47.99998036 83.98107839 -7.559845388
52.00001964 23.92079639 -155.9090654
48.00001964 18.99438139 -225.3797294
-47.99998036 47.98485539 -213.4988394
62.15759764 -2.461348458e-05 -29.03324239
52.00001964 6.903391387 -86.99519639
-51.99998036 85.47864739 -107.6466874
-47.99998036 56.10717139 -135.6353544
50.82891164 -2.461348458e-05 -24.78035039
-47.99998036 9.791963387 -78.45576839
-47.99998036 51.66385339 -160.0351714
52.00001964 32.83649939 -148.3148044
48.51562564 107.9940904 -42.16863939
-16.76302636 -2.461348458e-05 -25.60003439
48.00001964 27.14825739 -192.3239974
-31.54804436 -2.461348458e-05 -144.1535864
48.00001964 52.20145139 -64.25272139
-47.99998036 76.87735039 -139.5948354
48.00001964 0.4862093865 -71.33181439
17.49283764 53.74849439 -9.73878191e-05
45.53433664 128.4786544 1.699504612
19.44462564 -2.461348458e-05 -207.9142634
58.30439664 44.95010939 -9.73878191e-05
-51.99998036 66.16403739 -181.5996694
52.00001964 57.94641739 -115.4939784
52.00001964 70.68159739 -141.2919074
-63.03117636 -2.461348458e-05 -226.1761664
48.00001964 103.3603494 -19.09142539
-32.09984336 106.1755514 -9.73878191e-05
-51.99998036 61.00923639 -30.18642139
48.00001964 48.93453839 -26.81683139
-42.55353336 85.43211339 -9.73878191e-05
-51.99998036 24.94906639 -131.8939974
-51.99998036 43.50271239 -73.32553039
-29.61473936 -2.461348458e-05 -225.8240814
48.00001964 6.002103387 -252.2630584
31.31748864 -2.461348458e-05 -154.4964514
-51.99998036 20.12235839 -191.8816914
-51.99998036 22.20130739 -199.6573144
-47.99998036 91.53243639 -70.87978239
-35.38951636 75.79596939 -9.73878191e-05
45.93845464 -2.461348458e-05 -45.63435639
-51.99998036 27.27400739 -215.8816844
-48.35492036 59.25065539 -221.3548974
48.00001964 66.57327439 -108.8057254
52.00001964 25.79926239 -62.51893439
-51.55916536 6.364640387 -17.76863839
-51.40193336 17.47284039 -1.775665388
52.00001964 8.769569387 -43.70088039
-47.99998036 30.74213339 -10.94797139
-27.80078836 -2.461348458e-05 -103.5753644
-48.69721336 55.64290939 -243.4352244
-44.98394036 -2.461348458e-05 -212.0453284
-47.99998036 10.77802339 -231.8895424
19.68317764 18.41875839 -9.73878191e-05
48.00001964 39.82874239 -227.2593844
70.34932164 -2.461348458e-05 -75.26224239
-58.61167536 114.7490114 -9.73878191e-05
-37.70144936 -2.461348458e-05 -231.6483864
-21.44637736 -2.461348458e-05 -164.7649134
-51.99998036 78.60951839 -58.88072339
-12.93111836 -2.461348458e-05 -163.0133114
-51.99998036 71.05264039 -129.1713194
-58.17542336 46.06599639 -9.73878191e-05
48.00001964 119.8112734 -8.939194388
-47.99998036 96.35503639 -58.41727739
48.00001964 82.50937539 -41.74954939
52.00001964 14.12350539 -176.9632194
-47.99998036 35.84492339 -104.5750314
48.00001964 86.58076139 -89.64650339
-47.99998036 48.43506839 -246.0746154
48.00001964 57.41250439 -32.90376839
-47.99998036 67.00894639 -18.04146339
-47.99998036 40.28277539 -126.4097454
48.00001964 16.52988939 -67.37228039
-22.68603436 -2.461348458e-05 -179.3043324
-47.99998036 73.98124539 -26.02948139
63.05467364 -2.461348458e-05 -138.5632594
-57.92696236 -2.461348458e-05 -29.23642239
48.00001964 54.90668939 -222.5006404
-47.99998036 21.53666739 -208.7780204
29.59349164 -2.461348458e-05 -240.3837324
52.00001964 7.467452387 -143.1341904
48.00001964 67.48151139 -41.71980939
52.00001964 57.32839639 -158.9804074
46.15210764 -2.461348458e-05 -152.7508824
48.00001964 78.84538439 -76.60530739
-47.99998036 10.02977339 -252.1499664
60.39847164 95.85914639 -9.73878191e-05
-62.47408536 -2.461348458e-05 -54.35971539
-47.99998036 11.34553339 -48.89589839
52.00001964 39.32822839 -201.7667734
40.51559864 -2.461348458e-05 -183.7384524
-51.99998036 34.79445439 -239.1407104
-47.99998036 76.50995939 -85.43073939
-10.86711436 -2.461348458e-05 -58.99988939
52.00001964 5.080379387 -201.8926164
-66.83400036 -2.461348458e-05 -97.20404539
-51.99998036 72.45268939 -52.04753039
-50.39078136 88.94467539 -1.500097388
-3.601423359 -2.461348458e-05 -135.8338704
48.00001964 9.042354387 -162.7271314
-13.71742836 -2.461348458e-05 -210.4017174
48.00001964 28.32835339 -12.32908139
-51.99998036 24.28854339 -225.9224494
-19.61907136 -2.461348458e-05 -77.48658339
-47.99998036 24.60722439 -58.98529039
52.00001964 68.59544839 -56.80496639
-51.99998036 29.28012739 -248.7371994
52.00001964 22.38415239 -50.14688839
48.40836464 -1.226243613 -210.0000974
-51.99998036 14.32636039 -206.6916334
-51.99998036 24.12405739 -23.64957939
52.00001964 82.65184439 -68.84286739
-60.07034836 -2.461348458e-05 -127.6999924
48.00001964 84.20711239 -82.34261339
3.315114641 53.66981239 -9.73878191e-05
-51.99998036 111.2600224 -30.98060839
-6.651821359 20.98003039 -9.73878191e-05
13.16953064 -2.461348458e-05 -135.2846804
-47.99998036 65.11395839 -9.478604388
62.39096264 -2.461348458e-05 -101.1022544
-47.99998036 57.07562939 -199.6633094
16.47204164 -2.461348458e-05 -21.51600639
48.00001964 22.33182939 -111.5079594
-64.47931236 -2.461348458e-05 -5.919621388
-47.99998036 48.17059739 -28.27628939
-47.99998036 29.84178339 -93.28169839
34.19162264 -2.461348458e-05 -223.8664934
52.00001964 80.01990739 -52.34662839
-58.67976636 -2.461348458e-05 -111.6665814
-51.99475736 93.00345139 -84.90905939
-51.99998036 26.06167239 -169.3157184
-32.80341936 -2.461348458e-05 -73.34472639
10.24883564 -2.461348458e-05 -69.33900139
8.194701641 -2.461348458e-05 -38.78853739
-51.99998036 70.98064539 -163.8344234
-47.99998036 76.64491339 -113.3323344
-47.99998036 52.08529139 -234.0056894
-22.67632736 69.47126339 -9.73878191e-05
33.35335864 -2.461348458e-05 -65.29550739
11.79297864 3.584135387 -9.73878191e-05
52.00001964 65.23048639 -115.1636674
-47.99998036 63.71524939 -47.59991639
-10.49222136 58.19020939 -9.73878191e-05
-20.42088736 -2.461348458e-05 -15.97218339
52.00001964 50.24525439 -93.47653239
-51.99998036 19.55349739 -156.2308984
-58.12584136 -2.461348458e-05 -197.3393284
48.00001964 3.828593387 -101.0191064
-47.99998036 31.70054139 -144.0880624
53.01611464 -2.461348458e-05 -88.96480139
-51.99998036 42.42826639 -132.7890454
48.00001964 74.70776439 -38.33631139
48.00001964 17.20090739 -194.6460554
-4.255066359 -2.461348458e-05 -40.80222639
48.00001964 8.741894387 -18.09749539
-47.99998036 12.42643739 -139.1024554
-47.99998036 54.12279939 -67.54423639
48.00001964 58.02012539 -145.5586634
-47.99998036 42.99253039 -169.5732834
48.00001964 51.76550139 -235.1275344
-51.99998036 2.716192387 -47.51408439
52.00001964 54.87721139 -216.0041984
-51.99998036 10.61717339 -133.1651244
48.00001964 102.2084144 -34.16499739
48.00001964 13.04214939 -118.8795394
48.00001964 45.60885939 -161.8508044
26.66465664 12.56244239 -9.73878191e-05
-51.99998036 33.34764139 -78.02054039
48.00001964 25.00428939 -135.4150424
-47.99998036 1.414477387 -64.66378939
48.00001964 54.57863039 -80.97235239
-49.48470436 -2.461348458e-05 -200.3124314
-51.99998036 56.21125339 -96.90918239
52.50099664 -1.842043613 -76.33263939
-65.76926636 90.74374639 -9.73878191e-05
-47.99998036 10.57820039 -182.4305684
-58.17758236 -2.461348458e-05 -158.0402324
56.18462864 -2.461348458e-05 -58.22259439
-47.99998036 45.15343839 -142.6309334
-51.99998036 86.54522739 -37.96154239
-47.99998036 15.11340839 -90.60950439
-47.99998036 2.714619387 -141.1357864
42.02351164 59.52563739 -9.73878191e-05
-51.99998036 14.17920039 -220.5221434
48.99708164 13.29231739 -12.75580939
52.00001964 33.94159539 -243.4286374
-51.99998036 4.953897387 -164.5633504
-15.06886236 -2.461348458e-05 -236.7755214
-47.99998036 106.5147134 -44.72175239
65.34738064 -2.461348458e-05 -19.03207239
22.58206564 -2.461348458e-05 -112.1710764
41.00845664 -2.461348458e-05 -0.08984738782
52.00001964 36.41142039 -47.87462639
24.67848864 -2.461348458e-05 -183.4978694
-47.99998036 71.31997439 -79.40654539
48.00001964 33.26457439 -188.8792624
48.00001964 59.70197439 -47.53841739
52.00001964 42.47019439 -1.816359388
39.33308064 -2.461348458e-05 -235.4982814
52.00001964 29.01889039 -74.29242539
17.80910564 -2.461348458e-05 -149.9164424
-36.26721136 -2.461348458e-05 -84.03509539
-47.99998036 25.16566839 -115.2263874
52.00001964 26.63073039 -5.089067388
-51.99998036 45.51233739 -233.2233484
-47.99998036 51.98394339 -185.9129924
-13.92683736 -2.461348458e-05 -156.0981544
-47.99998036 56.91384639 -109.9351284
26.09404364 -2.461348458e-05 -38.26369039
52.00001964 42.11671539 -79.07301039
52.00001964 49.03224239 -249.3443764
-47.99998036 10.37818839 -194.4605194
58.44462264 -2.461348458e-05 -151.0848474
59.33368564 -1.848305613 -9.73878191e-05
48.00001964 66.18932339 -147.1130474
33.51605264 -2.461348458e-05 -90.56711139
-47.99998036 58.23874239 -6.280102388
48.66813964 87.49226539 -102.6607414
52.00001964 33.17702839 -177.9045364
-52.50422036 -2.461348458e-05 -7.286280388
-19.39358936 -0.7729936135 -9.73878191e-05
-47.99998036 106.7510764 -16.79545539
11.74544664 -2.461348458e-05 -208.5632784
-47.99998036 38.00765939 -20.35589439
-0.9690453589 -2.461348458e-05 -234.6457954
70.12278764 105.2981814 -9.73878191e-05
16.19952764 -2.461348458e-05 -98.98397939
-47.99998036 47.11304739 -111.9889204
-51.99998036 58.24168839 -159.0175534
52.00001964 14.19617639 -79.52215739
-70.48933536 -2.461348458e-05 -183.5070314
-51.99998036 2.462363387 -99.12605039
69.17948564 60.22272239 -9.73878191e-05
-51.91621636 -1.449502613 -57.50227039
-22.22011136 -2.461348458e-05 -83.89220339
52.00001964 0.2417703865 -33.29920039
-31.79133336 -2.461348458e-05 -204.1515214
-47.99998036 94.37125539 -20.23321339
52.00001964 12.84454739 -128.6756544
-3.826507359 -2.461348458e-05 -245.5357234
-47.22241836 -2.461348458e-05 -132.2335564
-35.33102236 -2.461348458e-05 -125.8514724
-47.99998036 66.59032539 -167.2948594
-51.99998036 13.33805939 -24.98491639
-20.86056336 14.10007039 -9.73878191e-05
-47.99998036 49.25563839 -227.1608944
52.00001964 7.560362387 -107.6014914
37.91479064 -2.461348458e-05 -169.8387764
43.47479164 24.34401139 -9.73878191e-05
-51.99998036 96.96848839 -36.97842839
48.00001964 6.986722387 -69.15865139
48.00001964 90.72262539 -45.11325239
48.00001964 111.6698494 -7.909084388
52.00001964 72.22083439 -134.4573514
-25.93750336 -2.461348458e-05 -245.8898554
-51.99998036 64.52824039 -58.53620639
48.00001964 110.9072404 -18.64667439
-14.61029336 -2.461348458e-05 -147.7707194
-48.31775736 -2.461348458e-05 -85.27963539
48.46535364 -2.461348458e-05 -244.4040044
48.00001964 64.26574339 -86.97367939
52.00001964 22.30950039 -99.11263939
48.00001964 82.82421539 -21.82539839
52.00001964 27.25641739 -124.8997854
-71.18978836 -2.461348458e-05 -111.7491634
-63.83694136 102.5942154 -9.73878191e-05
-51.99998036 5.820293387 -72.92168139
11.41280764 -2.461348458e-05 -117.4158534
52.00001964 32.88696539 -166.7613044
48.00001964 49.72030839 -41.39174839
25.55718964 68.41093839 -9.73878191e-05
48.00001964 76.07314239 -126.5161764
-51.99998036 16.73637639 -37.56773439
48.00001964 14.14481239 -158.2779384
21.56602364 -2.461348458e-05 -161.8887744
-19.15923136 -2.461348458e-05 -231.4015264
-47.99998036 22.55147439 -4.646649388
45.46264264 120.8038944 -9.73878191e-05
48.00001964 43.31507839 -104.4155204
-51.99998036 81.18196939 -96.61966839
-47.99998036 25.47286239 -84.01272139
8.335140641 -2.461348458e-05 -51.06386439
48.00001964 8.485760387 -78.94237639
9.659335641 -2.461348458e-05 -246.3370044
52.00001964 38.12990639 -183.9125654
-51.99998036 33.86637639 -37.04798739
-51.99998036 62.20470139 -72.46431739
52.00001964 56.66895939 -132.7391924
-47.99998036 43.71636939 -12.25518839
31.34460164 -2.461348458e-05 -138.8865374
-51.99998036 54.87005239 -89.69960739
5.126738641 -2.461348458e-05 -231.8479824
63.33754564 129.6596264 -9.73878191e-05
48.00001964 105.1594164 -27.95222339
48.00001964 43.00624839 -15.07243839
-51.99998036 36.39969739 -179.6885624
-51.99998036 118.0205054 -2.238789388
48.00001964 98.15643439 -65.04589839
-8.872830359 46.53965139 -9.73878191e-05
66.44336264 86.22971239 -9.73878191e-05
-8.208335359 -2.461348458e-05 -119.6526054
-39.82982436 1.668210387 -9.73878191e-05
52.00001964 -2.128588613 -215.5512854
-51.99998036 31.39354839 -202.7139644
48.00001964 77.79534239 -91.13980939
72.66764764 -2.461348458e-05 -69.01499239
-0.9212323589 -2.461348458e-05 -121.5883804
-7.904203359 74.81267539 -9.73878191e-05
11.80286864 -2.461348458e-05 -230.9360844
52.00001964 73.32701539 -64.95465339
-47.99998036 14.24317539 -212.0118194
48.00001964 4.820034387 -226.4800344
-51.99998036 80.13304539 -47.70406739
8.786794641 -2.461348458e-05 -181.4914894
48.00001964 24.34306939 -55.08719139
-41.55548136 -2.461348458e-05 -38.07882939
-47.99998036 37.29336139 -186.4433284
-48.16380236 62.44730539 -203.8169634
-51.99998036 39.34478139 -64.26401839
48.00001964 22.19521739 -44.86405539
-51.99998036 46.38793839 -88.31995839
-70.29239636 13.84251139 -9.73878191e-05
58.38103064 -2.461348458e-05 -109.0929484
-51.99998036 35.14131039 -48.50968039
6.457936641 -2.461348458e-05 -80.98685339
48.00001964 46.96627139 -190.7095854
-67.83509636 -2.461348458e-05 -218.3844354
37.25988564 17.66695439 -9.73878191e-05
10.06878964 -2.461348458e-05 -108.3297454
36.79817964 -2.461348458e-05 -142.8051594
48.00001964 26.10781539 -39.54779639
48.00001964 64.12853539 -9.657716388
-47.99998036 36.18602539 -212.1126124
65.39430364 39.16338739 -9.73878191e-05
-51.99998036 34.86943339 -228.7610144
48.00001964 53.52393639 -99.60309039
-29.99737636 -2.461348458e-05 -27.30947939
-51.99998036 71.33527639 -66.97112639
48.00001964 17.87299439 -172.7760004
-51.99998036 60.52615739 -150.1351324
48.00001964 8.230288387 -179.4888034
-51.99998036 34.10799339 -120.6202254
52.00001964 19.23699539 -118.5891854
-3.562415359 -2.461348458e-05 -34.06535939
3.782728641 -2.461348458e-05 -142.5974274
7.173345641 -2.461348458e-05 -199.8108544
-51.99998036 19.80470539 -113.1575684
48.00001964 58.53246039 -65.90721039
-48.15078936 -2.461348458e-05 -175.4998344
-35.77118236 -2.461348458e-05 -132.3779104
7.350450641 -2.461348458e-05 -158.0976634
58.04078864 -2.461348458e-05 -228.8274134
52.00001964 46.31116139 -140.9054874
52.00001964 64.79011539 -96.41199839
-51.39266336 -2.461348458e-05 -124.8376804
61.98669564 -2.461348458e-05 -196.2121214
48.00001964 22.10884139 -21.19427739
48.00001964 41.25220739 -28.82357039
-47.99998036 71.39098439 -89.45236539
44.41209664 -2.461348458e-05 -23.68429139
-19.34304536 23.98596839 -9.73878191e-05
-47.99998036 79.66720639 -127.7567584
-52.49900336 -1.961174613 -225.6129664
-47.99998036 19.78460239 -20.91706139
59.83394964 54.62133039 -9.73878191e-05
-47.99998036 37.00651539 -91.29821939
42.32165264 -2.461348458e-05 -74.62020239
52.00001964 54.53520039 -11.13804939
48.00001964 2.474493387 -126.0622754
-47.99998036 11.52301039 -120.9503604
-51.28066336 -1.283411613 -206.8667174
-47.99998036 9.601696387 -152.8656484
-51.99998036 9.976284387 -34.52055039
-52.88354936 -2.461348458e-05 -79.45217639
48.00001964 78.39623339 -112.5492724
-20.50912136 -2.461348458e-05 -202.2237874
54.95548964 132.2605724 2.030914612
-47.99998036 82.29191139 -14.84978039
-47.99998036 67.04851239 -38.59961039
52.00001964 87.74189639 -14.57108339
62.15277764 -2.461348458e-05 -210.8842624
-51.99998036 53.13020539 -4.273459388
48.00001964 63.70697739 -177.8214744
-9.398554359 -2.461348458e-05 -222.7780014
-47.99998036 41.95657939 -55.78635339
31.59521364 39.34549239 -9.73878191e-05
-47.99998036 93.87708439 -47.46135839
-51.99998036 34.79832439 -252.0057544
57.00592464 -2.461348458e-05 -203.5069094
-51.99998036 46.45775639 -191.5530734
48.00001964 54.00227939 -87.52879239
48.00001964 38.40786339 -235.3917394
-47.99998036 30.10648039 -50.73457339
48.00001964 48.29691639 -150.2242394
48.00001964 46.02086839 -181.3826964
52.00001964 7.807401387 -55.33759039
48.00001964 33.82035139 -229.4040774
-65.72316736 2.652537387 -9.73878191e-05
34.09420164 113.4658214 -9.73878191e-05
52.00001964 89.95508139 -58.61381739
-51.99998036 43.73550739 -176.5413404
52.00001964 43.00478339 -35.51762539
-35.84729236 -2.461348458e-05 -19.71179139
48.00001964 55.54830639 -19.10616239
-51.99998036 95.08165639 -1.940425388
16.76032164 -2.461348458e-05 -7.131935388
-33.64144936 -2.461348458e-05 -58.30559939
-8.678003359 -2.461348458e-05 -92.11846839
-51.99998036 71.83249739 -36.03593739
-57.40333036 -2.461348458e-05 -45.27776739
-51.99998036 25.54313539 -154.1198534
-51.99998036 16.18562439 -76.65586639
52.00001964 107.9584924 -23.89590939
-47.99998036 25.23115539 -187.3238454
-51.99998036 119.8173074 -11.91066039
-47.99998036 53.85041539 -44.06354839
-6.768898359 -2.461348458e-05 -210.8102864
-47.99998036 41.10463139 -109.9686384
52.00001964 38.03525039 -39.45865539
17.56306864 -2.461348458e-05 -215.3201204
48.00001964 40.47134739 -54.78351039
-47.99998036 13.83202639 -157.9467894
-47.99998036 46.83247939 -102.1807234
31.87657464 -2.461348458e-05 -6.000548388
-47.99998036 75.91365539 -9.096180388
-51.99998036 79.08321739 -25.94169039
-47.99998036 16.62434239 -170.1403634
-47.99998036 18.44417639 -119.2489744
48.00001964 74.35367239 -97.87982939
16.93214564 -2.461348458e-05 -140.3561964
-24.68062836 82.97738439 -9.73878191e-05
-47.99998036 40.74639439 -42.09479539
57.80277564 115.3207624 -9.73878191e-05
-47.99998036 31.89247839 -244.6202254
52.00001964 60.97555439 -57.24577939
52.00001964 0.7174283865 -53.56858239
48.00001964 49.09067939 -51.56512439
-29.24180936 -2.461348458e-05 -156.8096364
48.00001964 47.24280739 -218.7297584
48.00001964 92.17571039 -11.05903739
-6.969597359 4.938253387 -9.73878191e-05
48.00001964 26.82931839 -217.8477334
48.00001964 88.44187239 -39.26400639
-47.99998036 49.74471439 -147.0635734
-51.99998036 14.04371439 -235.4566614
72.53196564 -2.461348458e-05 -50.93586539
48.00001964 23.05575339 -243.6898844
-47.37817936 -2.461348458e-05 -239.6687834
52.00001964 19.81123539 -188.8822224
-0.8275113589 61.55347539 -9.73878191e-05
-47.99998036 50.11405239 -78.12347139
-51.99998036 41.57795239 -200.8297964
-51.99998036 34.03123439 -5.019743388
48.00001964 51.35867639 -212.7705434
-13.66992636 -2.461348458e-05 -122.6532254
68.38554964 -2.461348458e-05 -112.9283474
52.00001964 62.31964539 -36.13560139
-51.99998036 36.93492939 -137.2176344
-13.20303536 25.53107839 -9.73878191e-05
-51.99998036 43.34012339 -17.00171939
-33.54972436 -2.461348458e-05 -7.363751388
48.00001964 77.14135439 -32.12689739
52.00001964 99.55763939 -13.25450939
-48.91343536 84.41476239 -112.9226734
-47.99998036 22.15787939 -236.5164364
18.32976164 -2.461348458e-05 -37.48133239
-51.99998036 21.51706039 -90.26137739
52.00001964 20.98971639 -217.7388124
48.00001964 76.26288839 -48.51276239
-46.20452836 80.44310939 -9.73878191e-05
51.30083164 72.16367539 -158.7557414
52.00001964 33.46187739 -79.72709039
48.00001964 60.58249539 -164.8877404
-51.99998036 14.72321839 -247.3005994
48.00001964 39.30892539 -168.8472244
-39.55110236 -2.461348458e-05 -221.2804204
48.00001964 19.00608839 -208.2066324
51.67817964 -2.461348458e-05 -113.4992744
19.09693364 -2.461348458e-05 -244.4045774
48.00001964 4.936309387 -233.4420724
48.00001964 4.882982387 -135.3885344
-47.99998036 63.98574139 -53.75768039
52.00001964 12.64296839 -212.3128884
52.00001964 10.41911139 -198.8201214
52.00001964 36.11430739 -63.57925939
48.00001964 70.00016739 -84.73338639
-21.75794336 -2.461348458e-05 -53.01226939
-42.62457136 51.75836439 -9.73878191e-05
48.00001964 13.65427739 -108.0079214
-47.99998036 37.18625339 -149.3443944
-4.665243359 -2.461348458e-05 -184.1099984
-51.99998036 22.08508539 -54.75041439
-47.99998036 83.22627639 -102.3528434
2.806684641 -2.461348458e-05 -205.5208654
-33.73442736 29.57283239 -9.73878191e-05
48.00001964 54.48655839 -140.5781174
