# .PCD v0.7 - Point Cloud Data file format
VERSION 0.7
FIELDS x y z
SIZE 4 4 4
TYPE F F F
COUNT 1 1 1
WIDTH 1256
HEIGHT 1
VIEWPOINT 0 0 0 1 0 0 0
POINTS 1256
DATA ascii
-227.4776 -2.460824953e-05 25.85055161
-24.913322 -2.460824953e-05 -40.06858939
-103.281028 -2.460824953e-05 -34.17069239
-224.21787 21.06319139 41.49990261
-39.464692 -2.460824953e-05 37.95639961
-99.517125 29.89523739 47.49990261
-203.79998 12.09480739 47.49990261
-236.180017 87.78260839 41.49990261
-26.326385 58.88828239 41.49990261
-251.94432 57.66482239 47.49990261
-5.14707 -2.460824953e-05 -23.40749939
-68.96685 -2.460824953e-05 -30.08798839
-228.336889 -2.460824953e-05 -46.25719639
-121.330089 -2.460824953e-05 -7.093923386
0.0002150002319 18.80676739 33.99854661
-191.976676 48.43775939 47.49990261
-44.077583 -2.460824953e-05 -1.059410386
0.0002150002319 51.96784339 38.50393261
-50.117349 -2.460824953e-05 -25.36005539
-187.224144 25.30612539 41.49990261
-248.248092 -2.460824953e-05 17.20432561
0.0002150002319 85.72816739 -47.73629739
-210.290289 51.74348739 41.49990261
-246.099398 15.19375939 47.49990261
-85.28502 -2.460824953e-05 -19.25691039
-170.975423 -2.460824953e-05 32.92262861
-167.429146 -2.460824953e-05 -30.21502939
-200.714368 -2.460824953e-05 -32.38863539
-250.593809 -2.460824953e-05 -5.165613386
-134.668345 -2.460824953e-05 -41.60561839
-153.591076 -2.460824953e-05 14.37133261
-178.703605 64.62009639 41.49990261
-150.904136 -2.460824953e-05 -24.75773739
-176.953768 -2.460824953e-05 -3.364730386
-23.215788 27.57543739 41.49990261
0.0002150002319 85.66681139 -11.95988839
-218.353788 73.20646639 46.02449461
-156.899231 6.881318392 47.49990261
-114.091195 -0.7901926082 41.49990261
2.190151 62.26530739 25.67859361
-218.322431 -2.460824953e-05 11.35682161
0.0002150002319 48.48950439 -4.422426386
0.0002150002319 127.9020584 -43.26594739
-135.869367 33.05385439 47.49990261
-48.801871 33.23849139 47.49990261
-17.251613 -2.460824953e-05 32.77043661
-25.381071 -2.460824953e-05 0.2106496137
1.138635 151.4734244 -30.47682839
-189.661983 -2.460824953e-05 32.00339161
-251.196626 87.81673739 47.49990261
-94.351155 -2.460824953e-05 28.37016661
-124.618412 54.59102639 47.49990261
-18.42457 43.75196839 41.49990261
-142.768306 -2.460824953e-05 -7.792730386
-112.593474 -2.460824953e-05 -21.20462939
-242.039818 46.81993439 41.49990261
-65.458861 12.76342339 47.49990261
-50.603445 52.68037139 41.49990261
-153.347028 32.41943139 47.49990261
-7.283422 13.38297139 47.49990261
-139.450155 1.742196392 47.49990261
-92.691183 61.81641039 41.49990261
0.0002150002319 34.69070139 -29.17454039
0.0002150002319 34.10916939 23.31493461
-76.157923 38.36944439 41.49990261
0.0002150002319 65.51754239 -33.67440239
-62.157561 -2.460824953e-05 6.009146614
-215.006625 -2.460824953e-05 34.76891961
0.0002150002319 15.25343039 -4.962161386
-194.353195 -2.460824953e-05 11.89407461
0.0002150002319 99.01031439 -36.31147639
-202.540998 -2.460824953e-05 -17.55973639
-111.142755 -2.460824953e-05 3.803987614
0.0002150002319 29.99904439 2.370028614
-219.783128 -2.460824953e-05 -3.432820386
-67.176615 28.16758839 47.49990261
0.0002150002319 71.46270439 -20.21674139
-61.43946 67.99997539 43.02013161
-68.440516 54.26384639 41.49990261
-102.921696 17.01615439 41.49990261
-35.327119 -2.460824953e-05 -29.93509139
-125.142578 25.42992839 41.49990261
-236.376616 25.70885339 47.49990261
-92.797376 -2.460824953e-05 11.10101261
-64.416387 -2.460824953e-05 -50.27596539
-171.840929 -0.8309646082 47.49990261
-157.625994 49.23399239 47.49990261
-50.124345 1.491938392 47.49990261
-120.909448 -2.460824953e-05 13.74431661
-199.385724 -1.103030608 47.49990261
-244.730566 76.93254139 41.49990261
0.0002150002319 32.25435539 -46.52933739
-38.095714 12.96687339 47.49990261
0.0002150002319 12.21342839 -20.43924839
0.0002150002319 66.18924839 12.89052561
-223.077789 60.36198039 47.49990261
-149.435238 67.50980639 47.49990261
-176.573301 30.93875039 47.49990261
-34.201883 67.99997539 47.24134761
-86.046761 10.39710139 47.49990261
-245.05715 -2.460824953e-05 -35.46382539
0.0002150002319 161.0473314 -41.83700939
0.0002150002319 98.52228439 -22.92596239
-13.634002 1.480982392 47.49990261
-164.357016 -2.460824953e-05 21.71601461
-111.58309 52.19348339 41.49990261
-101.286574 44.11175339 47.49990261
-217.47844 30.37794939 47.49990261
0.0002150002319 7.449207392 9.030353614
-135.492421 -2.460824953e-05 22.12834561
-233.935425 8.027252392 47.49990261
-100.597067 -2.460824953e-05 -46.56843939
-239.886545 -2.460824953e-05 34.07625761
-174.415994 -2.460824953e-05 -15.70373139
-14.840244 54.18802139 47.49990261
-209.651265 21.48486239 41.49990261
-133.827572 46.10818739 47.49990261
-13.874172 -2.460824953e-05 -32.31853039
-244.277749 -2.303792608 47.49990261
-191.782606 -2.460824953e-05 -10.73340139
-193.32491 36.09595639 41.49990261
-26.068789 0.9285343918 41.49990261
0.0002150002319 34.57477339 37.95781261
-234.132613 -2.460824953e-05 -7.627954386
0.0002150002319 48.18896139 26.06581461
-241.245216 59.09933039 41.49990261
-39.312531 25.42103839 47.49990261
-145.325123 57.66005739 41.49990261
-110.120201 30.86012039 41.49990261
-13.216033 -2.460824953e-05 1.369225614
0.0002150002319 75.93878739 -39.84740039
-179.289169 52.52918939 41.49990261
-166.878238 56.99799139 47.49990261
0.0002150002319 47.97430239 -29.66882439
0.0002150002319 11.77158939 24.18644361
-71.140678 -2.460824953e-05 -17.01816939
-58.877342 -2.460824953e-05 -39.63215639
-115.066478 -2.460824953e-05 -36.20412039
-166.25501 -2.460824953e-05 1.979617614
-80.098625 56.02369139 47.49990261
-89.075873 35.69089839 47.49990261
-228.518272 77.40803639 41.49990261
-41.760362 -2.460824953e-05 20.66902461
-194.142791 15.26365839 41.49990261
-169.404478 9.194175392 41.49990261
-16.88971 -2.460824953e-05 -48.51559439
-41.574369 -2.460824953e-05 -39.72948839
-153.193804 15.99299239 41.49990261
2.496142 -2.460824953e-05 -34.18855539
-90.120833 -2.460824953e-05 -5.678604386
-162.289074 40.24069739 41.49990261
-117.69574 67.99997539 43.15717061
-22.433465 67.99997539 47.23078961
-160.361212 -2.224250608 41.49990261
-98.44163 -2.460824953e-05 -23.80381139
-0.1822529998 -2.460824953e-05 -12.82450939
0.0002150002319 118.2462274 -37.17989039
-181.65934 -2.151754608 41.49990261
-8.672401 23.61457539 41.49990261
-122.959473 -2.460824953e-05 -28.05266239
-183.342907 41.95768039 41.49990261
-73.61675 -2.460824953e-05 41.45205161
0.0002150002319 38.51726639 -18.56319539
-216.675965 -2.460824953e-05 -41.61764139
-67.121104 -2.460824953e-05 30.97549261
-178.621669 17.45113539 47.49990261
-236.659682 -2.460824953e-05 19.48885161
-198.792322 -2.460824953e-05 -43.38934039
-72.948437 -2.460824953e-05 -43.14533039
-6.094065 47.32319039 47.49990261
-17.163902 -2.460824953e-05 -9.001425386
-218.258362 11.70490439 41.49990261
0.0002150002319 55.11866939 -45.98872139
0.0002150002319 138.8091674 -41.52714539
-84.295605 -2.460824953e-05 32.92923161
-150.686253 -2.460824953e-05 -36.27562639
-128.781663 4.304324392 47.49990261
-165.435717 29.35724439 47.49990261
-241.689878 95.68979839 46.54784761
-207.515774 -2.460824953e-05 11.47590761
-47.307122 -2.460824953e-05 29.93639761
-235.715363 16.74859939 41.49990261
-212.255942 65.63232039 41.49990261
-224.586192 35.69533439 41.49990261
-42.383787 42.42797439 41.49990261
-76.042463 -2.460824953e-05 -7.494517386
-131.90222 -2.460824953e-05 -8.800909386
-241.958995 36.47547539 47.49990261
-206.994496 43.55295739 47.49990261
-126.936397 16.78559539 47.49990261
-92.202099 19.08731239 47.49990261
-34.300222 -1.996048608 47.49990261
-147.764558 4.417794392 41.49990261
-233.264669 53.77415039 47.49990261
0.0002150002319 63.78408239 -4.325993386
-150.952086 -2.460824953e-05 -1.099313386
-209.79055 -2.460824953e-05 -25.23190439
-36.251424 -2.460824953e-05 -11.52552639
-32.260809 -2.460824953e-05 30.32189161
-238.980868 -2.460824953e-05 -44.02124039
-144.790711 31.67102139 41.49990261
-209.738908 -2.290846608 47.49990261
-251.638077 21.66099639 41.49990261
2.439819 37.95119639 47.49990261
-55.903297 23.91608539 47.49990261
-200.771442 26.67886239 47.49990261
-192.880043 59.12113839 47.49990261
-83.681944 -2.460824953e-05 17.26323561
-249.67055 43.26903839 47.49990261
1.056558 27.79055539 47.49990261
-81.086718 29.26548539 47.49990261
-216.954173 -2.460824953e-05 21.50525061
-90.889977 27.68035539 41.49990261
-124.170149 -2.460824953e-05 2.624249614
-111.241425 -2.460824953e-05 29.98415261
-43.730101 56.92978239 47.49990261
-184.820317 -2.460824953e-05 8.704074614
-105.102083 6.503622392 47.49990261
-52.330996 -2.460824953e-05 7.993998614
-16.396775 17.51539639 47.49990261
-66.289524 -2.460824953e-05 19.25340761
-170.942446 66.49537639 47.49990261
-60.038166 52.04446139 47.49990261
-28.365252 20.86793839 47.49990261
-190.502875 -2.460824953e-05 -48.86337339
-72.408313 47.46053539 47.49990261
0.0002150002319 25.40719739 -25.77492639
-210.485026 5.642099392 41.49990261
-98.012677 -2.460824953e-05 37.51524461
-188.22849 67.99997539 44.90812461
-217.816769 42.08901939 47.49990261
-142.842779 -2.460824953e-05 -19.11808039
0.0002150002319 39.71098439 -8.792967386
-54.40062 62.91896239 47.49990261
-252.005916 3.651629392 47.49990261
-93.698654 -2.460824953e-05 -32.35662539
-33.053565 29.88385239 41.49990261
1.7396 -2.460824953e-05 21.49450261
-101.084156 57.42917439 47.49990261
-87.657429 0.8110073918 47.49990261
-68.655482 20.67304739 41.49990261
-20.840224 -2.460824953e-05 19.01829361
-59.954121 -2.460824953e-05 -18.66098939
-111.234368 38.15993339 47.49990261
-50.270008 42.54399239 47.49990261
-242.840251 -2.460824953e-05 3.535297614
0.0002150002319 20.28289939 5.126406614
-155.257502 22.88626339 47.49990261
2.37316 52.90977139 47.49990261
0.0002150002319 54.83966839 -36.00789039
-131.615558 55.97635639 41.49990261
-136.355852 11.83733739 41.49990261
-81.285791 46.13107239 41.49990261
-127.228442 43.53681439 41.49990261
-59.267603 7.115913392 41.49990261
-225.731517 -2.460824953e-05 -11.44129939
-200.491755 51.96871639 47.49990261
-132.184534 -2.460824953e-05 -32.74454939
-171.052015 -2.460824953e-05 -46.17236939
-153.406042 -2.265635608 47.49990261
-149.389264 -2.460824953e-05 -50.49637639
-193.221242 2.031015392 41.49990261
-238.383288 79.52112339 47.49990261
-6.041285 58.05957939 41.49990261
-59.078152 16.19344239 41.49990261
-156.020054 61.26080539 47.49990261
-245.35749 26.94296239 47.49990261
0.0002150002319 127.3216734 -32.57867539
-66.622932 3.737064392 47.49990261
0.0002150002319 32.57969539 14.40463061
0.0002150002319 24.72533039 22.80265961
-154.799957 -2.460824953e-05 23.30687061
-231.95828 -2.460824953e-05 -38.03906839
-100.708686 65.85368339 41.49990261
0.0002150002319 8.863810392 -11.44582739
-14.246345 34.87969839 41.49990261
-60.958219 35.87005639 41.49990261
-49.731333 -2.460824953e-05 -8.017445386
-200.383713 43.95828339 41.49990261
-224.237844 51.03746439 41.49990261
-125.634357 66.87217739 47.49990261
-77.316738 14.47953739 47.49990261
-211.776901 -2.460824953e-05 3.631390614
-177.246398 -2.460824953e-05 22.56449361
0.0002150002319 109.3210684 -37.08641439
-120.622508 0.09032039175 47.49990261
-69.858762 63.54239839 41.49990261
-96.184321 -2.460824953e-05 2.898575614
-192.853314 -2.460824953e-05 -1.951969386
-113.503025 25.33377939 47.49990261
-165.644769 -2.460824953e-05 12.98037261
-186.5761 -2.460824953e-05 23.74045461
-242.89898 9.602229392 41.49990261
-249.165837 63.44576639 41.49990261
-154.227373 -2.460824953e-05 -16.65731539
-126.750555 -2.460824953e-05 22.48440561
-211.47967 -2.460824953e-05 -6.185392386
-120.247544 9.653372392 41.49990261
0.0002150002319 89.60309539 -39.92076239
-114.062691 58.01255339 47.49990261
-55.105104 -2.460824953e-05 33.81434961
-96.139535 -2.460824953e-05 19.14216561
-143.438805 50.66273639 47.49990261
0.0002150002319 37.82078639 6.180380614
-229.329472 59.74238739 41.49990261
-105.106294 -2.460824953e-05 10.03792161
-37.179442 48.39008639 47.49990261
-197.053241 -2.460824953e-05 -24.53080539
0.0002150002319 49.46878639 -13.98405339
-92.185539 10.99544639 41.49990261
-198.241122 -2.460824953e-05 31.43900761
-143.600058 -2.460824953e-05 19.29895761
-104.467829 -2.460824953e-05 -1.774969386
-250.317303 96.34982139 47.49990261
-43.788925 -2.460824953e-05 8.760961614
-199.33443 36.67149139 47.49990261
-32.482927 59.67168739 47.49990261
-175.778221 -2.460824953e-05 -28.60178739
-28.076604 -2.460824953e-05 -25.49225839
-118.510867 32.16334339 41.49990261
-73.183154 28.19188039 41.49990261
-19.670789 37.41684039 47.49990261
-124.683079 60.82737639 41.49990261
-52.601069 12.33274739 47.49990261
-17.12211 59.64852139 41.49990261
-223.26835 -2.460824953e-05 33.16481961
-107.602916 -1.529994608 47.49990261
-45.728629 28.20753939 41.49990261
-236.219741 -2.460824953e-05 -19.33405839
-229.98064 19.95213739 47.49990261
0.0002150002319 8.091032392 0.2080416137
-164.535674 12.35966739 47.49990261
-117.198348 20.85384939 41.49990261
-214.062543 17.75058839 47.49990261
-108.784732 18.25452739 47.49990261
-137.059958 27.42303739 41.49990261
-7.932353 41.87291939 41.49990261
-82.931015 -2.460824953e-05 -35.19935939
-240.916708 -2.460824953e-05 -12.41054639
-246.314352 90.99643139 41.49990261
-25.901204 43.12001339 47.49990261
-126.453888 -2.460824953e-05 -48.84031239
-175.032263 59.31007539 47.49990261
-23.043446 50.60804039 41.49990261
-206.602374 -2.460824953e-05 -40.74245139
0.0002150002319 77.45542139 -11.28811139
-215.204359 58.02480639 47.49990261
-73.665504 8.209582392 41.49990261
-166.663489 -2.460824953e-05 -10.99186539
-198.665079 57.18878239 41.49990261
-96.018486 45.76848939 41.49990261
-58.643843 -2.460824953e-05 -1.838074386
-71.676916 34.95516539 47.49990261
-119.060692 -2.460824953e-05 32.13348261
-252.299594 -2.460824953e-05 -31.81921539
-123.385762 39.24401839 47.49990261
-228.897578 32.35903739 47.49990261
-140.645382 -2.460824953e-05 -36.13018239
-139.937077 62.87736739 47.49990261
-21.928748 -2.460824953e-05 -31.74207039
-80.515431 61.38360239 41.49990261
-192.750529 27.29966739 47.49990261
-187.280634 51.67174739 41.49990261
-120.573577 -2.460824953e-05 -20.32245839
-127.498518 -2.460824953e-05 -15.50950039
-104.359741 25.28076539 41.49990261
-231.482113 39.78564639 41.49990261
-228.998697 6.075233392 41.49990261
-74.543383 -2.460824953e-05 -24.35124439
-245.209109 71.67167439 47.49990261
-242.258365 -2.460824953e-05 25.14862061
-251.768993 -2.460824953e-05 2.702288614
0.0002150002319 24.35421439 -5.949004386
-241.963711 31.26883939 41.49990261
0.0002150002319 59.52329339 -26.18246839
-206.642143 68.45956139 46.32489961
0.0002150002319 53.16188039 1.975182614
-113.737482 45.67324039 47.49990261
-191.338033 10.92942539 47.49990261
-227.701339 -2.460824953e-05 -3.028688386
-93.780737 53.99833239 41.49990261
-147.49171 -2.460824953e-05 9.377930614
-149.721813 25.54395139 41.49990261
-102.438448 34.04831739 41.49990261
0.0002150002319 56.41627139 12.95052561
-4.145342 4.476874392 47.49990261
-58.505983 2.125417392 47.49990261
-215.467748 4.995826392 47.49990261
-39.412515 8.121384392 41.49990261
1.322655 42.84075839 41.49990261
-205.158445 -0.2523646082 41.49990261
0.0002150002319 77.87687039 -47.41769639
-126.238989 -0.007469608249 41.49990261
-171.611533 55.44903139 41.49990261
-199.37137 6.823232392 41.49990261
-160.804838 31.13822339 41.49990261
-145.078021 -2.460824953e-05 29.74932961
-173.758877 18.26726539 41.49990261
-182.057751 -2.460824953e-05 -42.43274339
0.0002150002319 55.04179039 31.39396261
-53.824822 -1.699818608 41.49990261
-20.244894 13.91090739 41.49990261
-18.604625 2.899567392 41.49990261
-147.735778 20.94518239 47.49990261
-9.72651 -2.460824953e-05 31.15731161
-150.739641 52.20542939 41.49990261
0.0002150002319 78.77894039 -22.57002939
-176.101782 45.54351939 41.49990261
-4.848335 -2.460824953e-05 -31.06841539
-5.324909 -2.460824953e-05 -5.350628386
0.0002150002319 25.03611139 -40.78004539
0.0002150002319 149.7861204 -37.84625439
0.0002150002319 58.88666639 -10.19134039
-176.407202 35.66358939 41.49990261
-181.857533 -2.460824953e-05 -14.02977039
-101.584197 -2.460824953e-05 30.80429461
0.0002150002319 120.6571984 -28.92711839
-3.704334 17.87232939 41.49990261
0.0002150002319 67.65035339 -10.83357839
-79.967799 40.95843039 47.49990261
-218.041569 -2.460824953e-05 -49.02081739
-76.04042 23.68002839 47.49990261
-241.554508 86.32711139 47.49990261
0.0002150002319 104.4504364 -47.97693339
-223.061827 69.50677639 41.49990261
-235.620826 46.64938839 47.49990261
-212.89311 30.84263839 41.49990261
-39.761313 33.22914239 41.49990261
-95.374574 -2.460824953e-05 -16.97115739
-14.887014 -2.460824953e-05 25.67777661
-59.759891 26.01332439 41.49990261
0.0002150002319 105.7797224 -28.51054139
0.0002150002319 63.28246939 3.064229614
-41.735223 38.15090639 47.49990261
-154.085598 67.99997539 41.53958561
-25.724432 -2.460824953e-05 -8.800403386
-133.039701 4.856885392 41.49990261
-218.491847 25.70826039 41.49990261
-44.03975 -2.460824953e-05 -21.19006239
-160.875981 -2.460824953e-05 34.49964461
-196.499641 18.81996239 47.49990261
-44.801635 49.64754839 47.49990261
-133.088797 18.42534039 41.49990261
-46.972155 -2.460824953e-05 -31.99252639
-158.236288 -2.460824953e-05 -24.59082939
0.0002150002319 161.2548004 -49.16679139
-210.052096 40.67182739 41.49990261
-182.026202 -2.460824953e-05 16.82382261
-75.986961 55.28347239 41.49990261
-10.83914 60.31285539 47.49990261
0.0002150002319 27.42995039 39.48866061
-55.421058 58.87855239 41.49990261
-68.013672 -2.460824953e-05 -5.380047386
-193.431098 -2.460824953e-05 -32.51713339
-133.520589 -2.463027608 47.49990261
-238.149926 69.17245139 41.49990261
-185.897751 61.00415339 47.49990261
-150.241526 56.19356439 47.49990261
-201.08661 63.99966439 47.49990261
-175.686489 10.87232439 47.49990261
-96.889425 51.51122039 47.49990261
-151.214158 40.15773539 41.49990261
-24.917312 -2.460824953e-05 7.389291614
1.586536 168.8042944 -42.65506239
-179.485343 28.24980839 41.49990261
-171.897263 36.39831639 47.49990261
-159.290226 -2.460824953e-05 9.625128614
-135.621933 -2.460824953e-05 35.08521461
-112.752985 63.06401239 41.49990261
-117.970917 51.88504439 47.49990261
0.0002150002319 39.91661439 33.17069361
-231.761814 47.26016339 41.49990261
-144.76099 16.49754339 41.49990261
-198.713907 -2.460824953e-05 -9.034322386
-98.701373 16.14290439 47.49990261
0.0002150002319 45.01940939 -21.49362339
-15.27668 -2.460824953e-05 -25.33005139
-241.42778 4.226019392 47.49990261
-66.083458 43.51592239 41.49990261
-103.900922 -0.3831316082 41.49990261
-15.937023 -2.460824953e-05 -41.46088739
0.0002150002319 157.2831294 -35.80113739
-157.314272 45.31058539 41.49990261
-239.369173 23.40482239 41.49990261
-92.24874 39.77071539 41.49990261
0.0002150002319 3.861538392 -20.45703339
-141.627949 38.98308239 41.49990261
-129.814598 -2.460824953e-05 16.10556061
-123.191669 16.86315839 41.49990261
-230.821608 1.680595392 47.49990261
-71.988533 -2.460824953e-05 15.07997561
0.0002150002319 70.79179539 -28.99704439
-144.044304 -2.460824953e-05 -26.37166139
-239.957819 62.54697639 47.49990261
-7.202006 -2.460824953e-05 -12.34695039
0.3543280002 69.72177739 6.816306614
-53.942574 67.99997539 42.66050661
-0.7243239998 -2.460824953e-05 5.210373614
-11.362019 53.29425339 41.49990261
-127.194467 50.52448139 41.49990261
0.0002150002319 14.64706339 -26.97788439
-15.886431 65.10455039 47.49990261
-251.226778 46.40457339 41.49990261
-126.898549 47.02003439 47.49990261
-210.940171 -2.460824953e-05 18.03885861
-224.575208 -2.460824953e-05 19.54793761
-122.832666 22.83598339 47.49990261
-193.47655 44.10835639 41.49990261
-103.27 -2.460824953e-05 -18.86678439
-193.09786 -2.460824953e-05 26.03151061
0.0002150002319 2.253134392 13.55159761
-121.288302 54.08234439 41.49990261
-38.432975 -2.460824953e-05 4.443287614
-77.58191 -2.460824953e-05 -14.60873739
-238.178908 19.00281539 47.49990261
-53.283171 -2.460824953e-05 -35.65683739
-212.770898 -0.8237116082 41.49990261
-57.657994 35.78029839 47.49990261
-157.211049 10.14899339 41.49990261
-204.857645 26.68932339 41.49990261
-86.908737 56.53120439 47.49990261
-24.068237 -2.460824953e-05 32.37889561
-208.297943 -2.460824953e-05 -12.22092039
-182.771394 -2.460824953e-05 29.40322561
-205.451241 57.66269339 41.49990261
-171.571711 -2.460824953e-05 -35.60563339
-220.727612 62.51493639 41.49990261
0.0002150002319 37.93367939 -0.6010253863
-131.047106 39.94789739 47.49990261
-220.294338 1.697303392 41.49990261
-236.873197 -2.460824953e-05 -26.04588239
-8.598822 1.662966392 41.49990261
-220.864024 48.08199239 47.49990261
-242.06504 83.34276739 41.49990261
-168.856472 -0.7622596082 41.49990261
-26.332377 5.210475392 47.49990261
-114.481911 -2.460824953e-05 17.65246461
0.0002150002319 40.78417339 23.67505061
-24.601863 -2.460824953e-05 -46.74256639
-141.15939 -0.6188066082 41.49990261
-184.45334 26.16815239 47.49990261
-97.314244 25.91749339 41.49990261
-182.241707 39.29303839 47.49990261
-47.030004 11.82251839 41.49990261
-224.858871 -2.460824953e-05 10.11010561
0.0002150002319 83.15991739 -34.87803939
-6.032371 39.71704039 47.49990261
-74.528687 59.65595439 47.49990261
-158.106282 22.59020839 41.49990261
-104.598669 35.88438339 47.49990261
-169.178195 -2.460824953e-05 26.27286261
-176.20475 -2.460824953e-05 38.40544361
-31.970404 -2.460824953e-05 -0.4559493863
-181.415255 17.68667739 41.49990261
-1.907742 21.87021839 47.49990261
-231.101295 -2.460824953e-05 31.38741561
-68.45779 -2.460824953e-05 -38.28610239
-128.39335 67.23124039 41.49990261
0.0002150002319 133.8666554 -33.52771939
-82.717654 14.61440439 41.49990261
-65.462537 -2.460824953e-05 -22.31430339
-8.232903 26.34595039 47.49990261
-188.054866 54.62928139 47.49990261
-60.442594 28.69238739 47.49990261
-40.822397 -1.079444608 47.49990261
-229.998541 70.99085039 41.49990261
-52.570817 -2.460824953e-05 -43.70428539
-20.948057 22.26338939 47.49990261
-60.913373 -2.460824953e-05 28.81732161
-220.489118 -2.460824953e-05 27.04487561
-27.996203 7.301639392 41.49990261
-162.170155 37.58344839 47.49990261
-26.260833 61.75721639 47.49990261
-236.003244 -2.460824953e-05 -1.344882386
-191.493159 34.21678239 47.49990261
-229.054006 12.39020539 47.49990261
-167.789102 60.72122739 41.49990261
-137.764371 9.788701392 47.49990261
0.0002150002319 154.8762124 -44.65477339
-161.450925 4.152746392 41.49990261
-219.966468 41.12422439 41.49990261
0.0002150002319 23.88123539 30.02776061
-143.429504 24.16269339 41.49990261
-208.875612 56.82720239 47.49990261
-148.435508 6.646707392 47.49990261
-192.09602 42.00651339 47.49990261
-58.984211 49.99218739 41.49990261
-66.300787 5.986267392 41.49990261
-38.945235 -2.460824953e-05 31.56504361
-32.016507 -2.460824953e-05 23.19856861
-189.119168 11.29531739 41.49990261
0.0002150002319 145.4239204 -32.21896139
-143.684066 33.57046539 47.49990261
-4.281956 11.51916839 41.49990261
-69.058105 14.30747239 41.49990261
-106.075885 53.48429139 47.49990261
-86.317883 63.98236739 41.49990261
-162.921539 66.37378539 47.49990261
0.0002150002319 18.02032939 23.05033661
-53.586074 56.62611939 47.49990261
-98.835791 65.01610239 47.49990261
-105.592757 8.495382392 41.49990261
0.0002150002319 26.60111139 10.94127961
-98.060725 4.913568392 41.49990261
-193.542291 25.17281739 41.49990261
-144.663927 63.94070539 41.49990261
0.0002150002319 38.31979639 -48.26593139
-33.770112 -0.1430806082 41.49990261
-93.998981 19.69404339 41.49990261
-234.447718 87.06880039 47.49990261
-251.783279 97.51567439 41.49990261
0.0002150002319 13.67827139 9.720663614
-222.883188 19.84239339 47.49990261
-132.717771 -2.460824953e-05 -48.68061939
-120.159417 -2.460824953e-05 38.29150661
0.0002150002319 54.12904739 24.10898361
-157.678608 -2.460824953e-05 -39.09674239
-177.262512 67.99997539 46.55578661
0.0002150002319 89.62954639 -23.77944639
-178.713868 -2.460824953e-05 7.428731614
-85.696288 25.06841439 47.49990261
-136.740854 -2.460824953e-05 -17.85501139
-235.221599 63.68827439 41.49990261
0.0002150002319 70.40473539 -42.67319339
-58.849187 18.44718239 47.49990261
-80.449841 47.47191439 47.49990261
-79.21464 -2.460824953e-05 -47.15368339
-119.395768 -2.460824953e-05 -40.62970839
-172.451104 66.63825539 41.49990261
-236.137852 34.39466739 47.49990261
-13.999899 -2.460824953e-05 38.60874561
-44.019332 58.29817239 41.49990261
-11.529378 29.35353139 41.49990261
-165.819011 -2.460824953e-05 -4.896960386
-242.918301 -2.218375608 41.49990261
0.0002150002319 113.3260234 -32.42333139
-152.445908 33.39969939 41.49990261
-44.069008 48.58972939 41.49990261
-114.032764 36.35104039 41.49990261
-245.627188 -2.460824953e-05 31.94906761
-86.091514 42.33986739 41.49990261
-147.614651 -0.2918546082 47.49990261
-15.936598 11.42234339 47.49990261
-132.63997 56.45080139 47.49990261
-142.550296 51.29842539 41.49990261
-231.982101 11.93417639 41.49990261
-186.473163 14.59163339 47.49990261
-34.072478 29.85154039 47.49990261
-6.993227 -2.460824953e-05 -38.41670339
-214.844799 57.11906339 41.49990261
-80.266019 67.45310739 41.49990261
-124.509085 32.99966639 41.49990261
-245.74319 99.74313139 44.62334561
-197.982218 10.46808639 47.49990261
-223.53142 8.623855392 41.49990261
0.0002150002319 43.09374139 9.099778614
-34.500389 11.60773239 41.49990261
-113.029346 25.30112839 41.49990261
-84.391515 51.28652739 41.49990261
-199.964289 44.00424739 47.49990261
-204.308908 51.11106639 41.49990261
-233.603377 53.68301539 41.49990261
-43.991011 -1.754648608 41.49990261
0.0002150002319 1.389171392 -26.15279239
-36.722592 -2.460824953e-05 -17.50172839
-53.974844 -2.460824953e-05 -18.93939039
-93.56073 -0.07291060825 41.49990261
-54.863205 49.08723239 47.49990261
-177.194726 13.40510639 41.49990261
-209.622865 21.71357439 47.49990261
-158.599864 -2.460824953e-05 29.00286661
-40.068849 67.99997539 46.28546561
-178.571375 -2.460824953e-05 -9.080449386
0.0002150002319 20.47419739 -1.451746386
-202.1577 -2.460824953e-05 8.946971614
0.0002150002319 45.28481339 35.62909661
-219.370301 -2.460824953e-05 2.454923614
-93.216326 43.91937539 47.49990261
-33.234464 67.06496239 41.49990261
0.0002150002319 143.8954134 -38.09866939
0.0002150002319 141.2302134 -46.90102539
0.0002150002319 27.94738539 -18.97958039
0.0002150002319 104.9931604 -42.11608039
-32.298366 -2.460824953e-05 11.47614161
0.0002150002319 96.86938039 -41.78951239
-228.654577 66.11709539 47.49990261
0.0002150002319 6.515866392 21.55297761
-233.306342 -2.460824953e-05 24.31159461
-33.736116 -2.460824953e-05 -23.98238439
-114.667139 45.67093139 41.49990261
0.0002150002319 89.84853539 -33.31357939
-85.452925 43.19629939 47.49990261
-186.616055 0.9311423918 41.49990261
0.0002150002319 77.42039939 -33.82125339
-8.277246 -0.8302906082 47.49990261
-220.660063 55.07222639 47.49990261
-11.701546 45.78841239 47.49990261
-225.749816 15.45827639 41.49990261
-246.979999 37.56551039 41.49990261
-135.964176 -2.460824953e-05 -28.34557239
-1.796502 9.763557392 47.49990261
-48.023285 8.802948392 47.49990261
-214.098582 47.39575339 41.49990261
-199.108751 58.56909639 47.49990261
-98.584857 57.19010239 41.49990261
-7.556914 -2.460824953e-05 2.432004614
-95.954393 -2.460824953e-05 -8.115476386
-103.453097 12.01503139 47.49990261
0.1017340002 10.94033839 29.86049861
-119.696432 59.06033039 47.49990261
-50.014667 52.14627039 47.49990261
-76.164333 49.57401339 41.49990261
-203.624565 67.99599139 41.49990261
0.0002150002319 22.74628139 -15.62954639
-78.429006 34.31816639 47.49990261
0.0002150002319 33.10547939 -15.31718839
0.0002150002319 7.875793392 -5.835581386
0.0002150002319 122.5346654 -41.36017339
-55.116409 -2.460824953e-05 3.032595614
-66.787187 37.87099439 41.49990261
-233.977962 -2.460824953e-05 -46.97216139
-121.071737 -2.460824953e-05 22.30140661
-43.617633 14.26325639 47.49990261
0.0002150002319 19.36275239 -8.869365386
-0.4376049998 57.22991739 41.49990261
-212.33654 70.08647439 44.99467161
-244.267268 4.116909392 41.49990261
-165.451423 13.23461539 41.49990261
0.0002150002319 105.1246864 -22.89932839
-158.050358 1.357207392 47.49990261
-212.24491 -2.460824953e-05 24.61104861
0.2366640002 90.43463039 -14.96140739
0.0002150002319 54.10304739 -4.953043386
0.0002150002319 36.37613439 -23.77802539
0.0002150002319 50.57584439 -42.58777939
-236.360812 30.68064239 41.49990261
0.0002150002319 64.04388839 18.09325761
-137.843512 50.09264139 47.49990261
-35.007652 36.23273039 41.49990261
-216.47717 22.82533739 47.49990261
0.0002150002319 39.45917439 -41.10250839
-249.147557 -2.460824953e-05 -10.59207939
-248.251887 31.74866739 47.49990261
-34.581142 24.48997339 41.49990261
-112.70384 67.02668539 47.49990261
-38.039086 -2.460824953e-05 -6.237266386
-232.663508 81.78537139 47.49990261
-152.063567 49.55727239 47.49990261
-77.375679 13.03316239 41.49990261
-22.376711 -2.460824953e-05 13.67681961
-69.432541 67.99997539 44.78831761
-48.930705 59.65423839 47.49990261
0.0002150002319 52.76051639 -22.74904739
-215.266339 -2.460824953e-05 -26.12062439
-58.079878 67.04577239 47.49990261
0.0002150002319 29.82323739 -6.690489386
-79.367409 -2.460824953e-05 30.44667561
-173.667071 61.25683039 41.49990261
-73.591127 28.62265039 47.49990261
-11.934564 -2.460824953e-05 -46.10283339
-61.145437 9.339815392 47.49990261
0.0002150002319 166.5952294 -50.47967739
-34.767838 17.34483939 47.49990261
-154.275551 -2.460824953e-05 7.383183614
0.0002150002319 9.676326392 14.05145961
-96.513075 -2.460824953e-05 -42.89890739
0.0002150002319 139.2232934 -27.02124539
-91.319134 52.83719339 47.49990261
0.0002150002319 153.0379944 -49.84497139
-158.554462 -2.460824953e-05 19.31563261
-107.379888 -2.460824953e-05 26.09915661
-105.682784 22.76884139 47.49990261
-138.498378 4.433991392 41.49990261
-18.138914 25.53275939 41.49990261
-151.073142 45.74264439 41.49990261
0.0002150002319 45.04834239 17.89715061
-12.564747 44.76194539 41.49990261
-64.851022 -2.460824953e-05 -16.25526439
0.0002150002319 44.96325839 -10.26433439
-174.438754 25.91973139 47.49990261
-195.669266 64.61996039 47.49990261
-209.825231 16.04040939 41.49990261
-172.44092 4.579941392 47.49990261
0.0002150002319 66.11811039 -21.25066639
0.0002150002319 17.19863639 -18.25610039
-224.434047 -2.460824953e-05 -42.46745539
-234.388107 -2.460824953e-05 14.54786761
-238.561581 74.59459439 41.49990261
-140.494212 67.99997539 45.76495561
-93.204765 24.42692939 47.49990261
-62.563619 20.35862139 41.49990261
1.217697 3.394131392 25.82612161
-243.982938 54.41947339 41.49990261
0.0002150002319 84.09660239 -23.81805639
2.072226 -2.460824953e-05 -7.901678386
-152.190289 17.87065339 47.49990261
-109.663026 -2.460824953e-05 -36.44825339
-37.051593 7.662135392 47.49990261
0.0002150002319 26.39347539 -35.55265739
-223.460671 56.37928439 41.49990261
0.0002150002319 69.02715839 -3.046205386
-192.665454 -2.460824953e-05 -21.40561539
-76.606929 -2.460824953e-05 17.84216761
-108.452906 2.485371392 41.49990261
-197.78023 -2.460824953e-05 -15.06214639
0.0002150002319 4.859000392 -15.11611539
-140.101578 -2.460824953e-05 27.73914961
-154.451039 28.07895139 41.49990261
-194.585008 -2.460824953e-05 36.72464461
0.0002150002319 62.15234639 -37.84642839
0.0002150002319 51.47489039 -49.91784039
-196.723868 -2.460824953e-05 7.093640614
-192.349509 50.02091339 41.49990261
0.0002150002319 43.38695139 -32.36067139
-39.53202 -2.460824953e-05 -33.18964639
-21.803508 67.99997539 41.95508861
-242.097265 57.68452439 47.49990261
-186.083694 -2.460824953e-05 -45.89730639
-197.33554 32.61578539 41.49990261
-130.017219 -2.460824953e-05 -39.04463039
-50.081126 63.87823439 41.49990261
-6.650045 50.86085039 41.49990261
-228.378914 60.23004939 47.49990261
-54.953082 -2.460824953e-05 -7.112857386
-81.351102 -2.460824953e-05 7.434682614
-63.349226 33.11347739 47.49990261
0.0002150002319 16.06172139 15.02532561
-74.257687 33.36816339 41.49990261
0.0002150002319 31.25393539 -33.16809739
0.0002150002319 48.23844339 7.981369614
-104.466751 28.11995539 47.49990261
-124.270356 -2.460824953e-05 30.28238561
0.0002150002319 134.1505684 -39.09999139
-191.805305 66.22176939 41.49990261
0.0002150002319 52.56954239 17.17445161
-7.585696 32.81323039 41.49990261
-157.050688 36.45474339 47.49990261
0.0002150002319 62.42867739 -14.05342139
-183.377126 -2.460824953e-05 37.04148761
-182.414915 -2.460824953e-05 -5.532326386
-194.184185 54.05651639 47.49990261
-135.940077 -0.5726876082 41.49990261
-220.410341 37.56946739 47.49990261
-246.157643 6.406441392 47.49990261
-128.415341 -2.460824953e-05 -29.15196639
0.0002150002319 52.93089339 -28.07773839
-71.193871 42.53046239 41.49990261
-64.344187 31.91943539 41.49990261
-122.978773 -2.460824953e-05 -44.38634939
0.0002150002319 20.31221739 -24.79134439
0.0002150002319 58.38501139 -41.96557939
-196.497244 30.87718939 47.49990261
0.0002150002319 7.466474392 -24.16925139
-191.039841 -2.460824953e-05 -27.93206739
-220.666824 -2.460824953e-05 16.16929261
0.0002150002319 23.61744339 -30.62001139
-96.321976 4.745623392 47.49990261
-125.657266 38.01909939 41.49990261
-201.916777 61.40472139 41.49990261
0.0002150002319 103.7037334 -34.20517739
-65.273977 61.21279639 41.49990261
-149.2108 -2.460824953e-05 -31.35451139
0.0002150002319 15.65269739 38.04471361
0.0002150002319 97.48467739 -31.42515239
-235.821239 -2.460824953e-05 9.318764614
-11.445334 19.31689939 41.49990261
-169.615383 49.18160539 47.49990261
0.0002150002319 13.55807939 -13.46891039
0.0002150002319 83.67913339 -16.65034939
-143.164078 11.66092239 41.49990261
-63.460714 53.23813239 41.49990261
-137.892143 -2.460824953e-05 -6.397038386
0.0002150002319 33.52095839 8.856779614
0.0002150002319 26.20029439 5.716347614
0.0002150002319 63.24599139 -44.87494339
-166.293846 17.08915539 47.49990261
0.0002150002319 136.0143364 -45.72757739
0.0002150002319 60.98877739 -49.75702639
-212.409842 -2.460824953e-05 13.21922361
0.0002150002319 94.85747939 -19.48456239
0.0002150002319 48.73292639 31.06352061
0.0002150002319 34.83049739 -6.276565386
-4.545647 -2.460824953e-05 -48.67748039
-79.100773 9.785550392 47.49990261
-59.132409 46.45402939 47.49990261
-218.273968 16.71989739 41.49990261
0.0002150002319 110.0605384 -42.72624439
-221.293858 29.86084439 41.49990261
0.0002150002319 91.85202239 -28.72265939
-232.709975 62.74108139 47.49990261
-237.973754 51.05984439 47.49990261
-165.695743 -2.460824953e-05 -25.53285239
0.0002150002319 91.46260539 -44.55380839
-168.687086 -2.460824953e-05 6.336372614
-163.896191 8.502672392 41.49990261
-190.971887 55.00681439 41.49990261
-22.562883 33.37477439 47.49990261
-108.538212 32.85488039 47.49990261
0.0002150002319 73.69327839 -15.78778639
-210.538184 40.10796639 47.49990261
0.0002150002319 34.64146839 -42.14809039
-210.731593 -2.460824953e-05 -45.02024239
-236.293259 -2.460824953e-05 -14.40593239
0.0002150002319 81.93580339 -44.61424639
-124.475016 -2.460824953e-05 35.95021861
0.0002150002319 67.54687739 -38.14288639
0.0002150002319 59.51809339 22.25271961
0.0002150002319 54.11616139 -11.31120539
-205.356529 52.52751539 47.49990261
-173.281496 15.13674139 47.49990261
0.1182120002 164.9969044 -38.95646039
0.0002150002319 117.0994214 -41.92504139
-51.572969 -2.460824953e-05 12.81501461
-74.247462 61.42090139 41.49990261
-88.626472 -2.460824953e-05 -22.80461839
-215.825256 -2.460824953e-05 16.72326961
-211.441065 36.01630239 41.49990261
-164.727519 61.87141239 47.49990261
0.0002150002319 78.81146139 -15.94137439
0.0002150002319 124.5745504 -36.96356139
0.0002150002319 27.94621039 -2.014130386
-238.874881 92.87478739 43.79934861
-81.18465 -2.460824953e-05 -11.39125339
0.0002150002319 83.94123239 -39.64375739
-43.746231 -2.460824953e-05 3.758075614
0.0002150002319 50.51539839 -33.87595139
-189.407657 23.82698939 47.49990261
-130.646966 65.75901039 47.49990261
-79.734551 -2.460824953e-05 -2.222131386
0.0002150002319 74.14446139 -7.813374386
0.0002150002319 62.75856839 7.835101614
-163.092066 42.28102539 47.49990261
-100.947626 21.37721739 41.49990261
-142.679931 45.93799539 47.49990261
-242.830863 70.16102739 41.49990261
-154.665597 6.100341392 41.49990261
-111.128401 67.99997539 43.09373661
-251.739014 37.12441739 41.49990261
-126.036051 -2.460824953e-05 -7.881925386
-213.060228 32.17048239 47.49990261
-63.969039 37.84082339 47.49990261
-235.116866 58.92200839 41.49990261
-97.030278 67.99997539 44.25776561
0.0002150002319 101.1797434 -26.87638539
0.0002150002319 15.67537439 30.32556861
-132.359314 28.09330439 41.49990261
-220.20729 4.766828392 47.49990261
0.0002150002319 74.46366739 -25.99587939
-250.77529 27.73518139 47.49990261
0.0002150002319 164.3138274 -45.54501239
-26.329021 31.15071139 41.49990261
-23.359662 22.83882739 41.49990261
-63.273245 -2.460824953e-05 33.73034861
0.06070500023 76.71056839 -2.950042386
0.0002150002319 21.59052539 37.82441161
-247.253065 86.36013039 41.49990261
-8.040376 -2.460824953e-05 -27.14829539
-195.524839 60.71723039 41.49990261
0.0002150002319 29.72752139 -41.31774439
0.0002150002319 72.34790339 -36.80628939
-125.618225 55.90647939 41.49990261
-202.142105 36.30418639 41.49990261
0.0002150002319 79.25737139 -27.23108239
-75.126953 19.08806139 47.49990261
0.0002150002319 56.92957539 -0.8013913863
-219.840804 26.34805239 47.49990261
0.0002150002319 10.98114139 18.52545261
0.0002150002319 61.53341739 12.69230961
0.0002150002319 67.81305239 -16.91054439
0.0002150002319 9.765479392 -16.47551339
0.0002150002319 46.01383439 -0.4801553863
-67.875875 46.44076039 47.49990261
-84.387495 49.92981239 47.49990261
0.0002150002319 154.9789754 -39.83061439
0.0002150002319 50.26040639 -8.707811386
-212.166109 25.37678339 41.49990261
0.0002150002319 25.74620539 15.79710861
-203.689402 -2.460824953e-05 14.07338161
-104.172721 18.04876039 47.49990261
-238.50373 -2.460824953e-05 27.82950361
-135.619904 -2.460824953e-05 2.917996614
0.0002150002319 52.63638739 9.339279614
-49.313174 -0.8156616082 41.49990261
-48.380587 37.81581239 47.49990261
-78.682541 42.18218139 41.49990261
-108.500472 35.13291839 41.49990261
-5.361052 18.89908539 47.49990261
-67.17569 16.98289339 47.49990261
-21.83075 -2.460824953e-05 -6.436572386
-153.146275 64.76840639 47.49990261
0.0002150002319 148.0392964 -42.02995139
0.0002150002319 31.85374339 -10.73916439
-176.657248 63.53324139 47.49990261
0.0002150002319 4.045837392 17.77106461
-21.171034 6.613033392 41.49990261
0.0002150002319 22.40756039 9.272744614
0.0002150002319 30.70912839 18.50994661
-225.623396 73.21138339 41.49990261
0.0002150002319 47.84026839 -46.16424439
0.0002150002319 69.17957939 -24.79990939
-230.678738 -2.460824953e-05 1.268036614
0.0002150002319 30.31755539 36.05037261
-0.3477209998 -2.460824953e-05 -17.30803139
-110.73695 1.673816392 47.49990261
-104.53699 -2.460824953e-05 -6.253447386
0.0002150002319 51.35448639 -18.49949939
-74.262411 55.19281339 47.49990261
-171.56122 5.295943392 41.49990261
-196.075137 46.69601939 47.49990261
-61.30986 3.158795392 41.49990261
-62.53067 67.17305239 47.49990261
-246.573878 19.62015739 47.49990261
-101.522898 -2.460824953e-05 -27.01568939
-61.940044 -2.460824953e-05 -46.58082839
0.0002150002319 27.33746639 27.23758261
-88.110057 -2.460824953e-05 -41.40594939
-45.564787 39.34511139 41.49990261
-199.294149 -2.460824953e-05 -20.57275239
-71.100974 62.45956039 47.49990261
-183.80959 54.41944539 41.49990261
0.0002150002319 55.81632339 -31.43401439
-155.964397 -1.756424608 41.49990261
-26.600884 66.16114739 47.49990261
-70.385654 -2.460824953e-05 -21.36496039
-235.559383 -2.460824953e-05 -40.57120939
-27.952117 -2.460824953e-05 -29.88994039
-28.048976 -2.460824953e-05 20.78144661
-80.98121 60.32336139 47.49990261
-211.542143 66.58042239 47.49990261
-109.881396 -2.460824953e-05 -24.64274539
0.0002150002319 58.74536939 27.07710461
-86.646087 20.80190039 47.49990261
-56.405476 3.818601392 41.49990261
-129.897243 -2.460824953e-05 -43.40166939
-22.133203 -0.9037526082 41.49990261
-139.781604 -2.460824953e-05 10.67082461
-217.72574 1.226979392 47.49990261
-202.038853 40.21581339 47.49990261
-25.098091 -2.460824953e-05 17.03030061
0.0002150002319 4.680066392 -8.736393386
-196.178151 23.12186639 47.49990261
-123.736768 3.504845392 41.49990261
0.0002150002319 38.49183639 -12.92658539
-213.980639 -1.561663608 47.49990261
-45.887149 2.198846392 47.49990261
-242.212497 -2.460824953e-05 -38.67350539
-180.53186 13.62238639 47.49990261
-238.640769 -2.460824953e-05 4.244430614
-107.836749 14.10432139 47.49990261
-122.810755 21.09707439 41.49990261
-116.798184 65.94033739 47.49990261
-154.945301 -2.460824953e-05 -35.86996539
0.0002150002319 4.159708392 4.999456614
-42.037282 -2.460824953e-05 -43.92159939
-152.619848 -2.460824953e-05 18.47383861
-248.634162 -2.460824953e-05 40.56593661
-75.99756 -2.460824953e-05 -40.23706939
-197.558205 14.74754639 47.49990261
-15.568718 -2.460824953e-05 -37.26929539
-155.151854 67.99997539 45.70672161
-243.377309 35.39860339 41.49990261
-91.299483 43.86394739 41.49990261
-129.118614 36.21692639 47.49990261
-193.486284 15.89560339 47.49990261
-41.051292 46.76617639 47.49990261
-72.811348 -2.460824953e-05 19.63626061
-194.09275 -2.460824953e-05 32.06875961
-112.009943 21.42571439 47.49990261
-14.300556 21.13303739 47.49990261
-216.689286 47.85500439 47.49990261
-57.99804 -1.501722608 41.49990261
-224.428709 1.103369392 41.49990261
-36.913072 2.606099392 41.49990261
-18.994168 -2.460824953e-05 24.93023561
-80.310117 50.44730739 41.49990261
-238.070971 84.04130139 47.49990261
-62.029597 -2.460824953e-05 -42.35113139
-85.926929 38.37696139 47.49990261
-162.914683 -2.460824953e-05 -9.240630386
-29.708653 2.866872392 47.49990261
-245.461942 -2.460824953e-05 -46.00262739
-240.877227 78.34817439 41.49990261
-152.951644 -2.460824953e-05 -4.680611386
-165.566417 67.99997539 41.72001561
-227.815184 48.33799639 41.49990261
-247.781597 90.06378039 47.49990261
-72.189984 -2.460824953e-05 25.89188561
-224.790532 64.82275839 47.49990261
-84.65453 14.19736439 47.49990261
-123.827046 -2.460824953e-05 10.94141061
-22.863117 7.286113392 47.49990261
-169.967552 32.84832939 47.49990261
-196.15133 54.04100739 41.49990261
-71.370596 -2.460824953e-05 -13.00439839
-88.783919 -2.460824953e-05 11.32939461
-32.867598 -2.460824953e-05 -9.363853386
-1.512034 -2.460824953e-05 -34.11821239
-114.545967 31.65497739 41.49990261
-164.217702 -2.460824953e-05 32.31603461
-120.991214 59.31253739 41.49990261
-57.276092 54.89367139 47.49990261
-98.269515 42.50225339 41.49990261
-145.810065 3.678538392 47.49990261
-145.678615 -2.460824953e-05 -22.76643939
-203.190732 -2.460824953e-05 -42.72814339
-5.955259 45.28274039 41.49990261
-13.207922 -2.460824953e-05 33.00320961
-187.867151 -2.460824953e-05 11.19960361
-60.237668 -2.460824953e-05 -12.90627239
-48.698643 -2.460824953e-05 6.481897614
-247.444241 74.90431239 47.49990261
-97.298926 60.90367239 41.49990261
-232.745821 -2.460824953e-05 19.23750161
-44.965366 34.04753939 47.49990261
-112.393053 34.41640639 47.49990261
-91.458741 -2.460824953e-05 -16.82685239
-160.354563 -2.460824953e-05 -41.95885239
-78.845594 67.99997539 45.90228961
-206.645344 0.09239339175 47.49990261
-101.7483 62.42916539 47.49990261
-131.106907 7.417718392 47.49990261
-157.772551 -2.460824953e-05 13.19320161
-203.91334 45.90664639 47.49990261
-34.973539 62.63885439 47.49990261
-107.752332 -2.460824953e-05 5.677466614
-195.757442 -2.460824953e-05 -35.61212039
-163.174093 -2.460824953e-05 -13.10145339
-248.469848 95.52059639 41.49990261
-91.471341 1.434759392 47.49990261
-242.540218 74.46566639 47.49990261
-169.853906 -2.460824953e-05 0.5827576137
-128.679692 -2.460824953e-05 -34.35457439
-33.9748 -2.460824953e-05 18.25845461
-164.176047 -1.886060608 41.49990261
-61.130609 10.46123639 41.49990261
-172.766067 -2.460824953e-05 29.54250461
-52.712835 -2.460824953e-05 -39.88759739
-126.735611 41.07770539 47.49990261
-247.365482 29.69827539 41.49990261
-66.186593 -1.051801608 41.49990261
-210.322003 -2.460824953e-05 -39.99917639
-11.518287 -2.460824953e-05 18.91211761
-121.193563 38.66731439 41.49990261
-189.262299 28.76501839 47.49990261
-76.668721 47.33902039 47.49990261
-131.537267 49.11871339 47.49990261
-149.141949 67.99997539 43.77166461
-75.481545 -2.460824953e-05 -47.60267039
-54.01236 66.65561339 47.49990261
-152.59055 59.12468639 47.49990261
-118.972038 -1.535708608 41.49990261
-133.109556 -2.460824953e-05 37.85608961
-107.442684 38.31266139 47.49990261
-91.870301 -2.460824953e-05 -2.382087386
-146.138019 52.32248239 41.49990261
-246.642164 41.10167039 47.49990261
0.6004150002 -2.460824953e-05 -20.90862239
-80.044283 38.72594439 41.49990261
-60.709538 -2.460824953e-05 -50.13934739
-156.818971 13.82565239 41.49990261
-154.169161 -2.460824953e-05 -20.34796639
-68.062991 35.67372339 47.49990261
-0.4756709998 35.44622639 41.49990261
-174.993637 -2.460824953e-05 -6.475300386
-125.625551 -2.460824953e-05 25.97870861
-190.839978 33.39876839 41.49990261
-173.587132 -2.460824953e-05 -19.27551039
-140.732157 59.30584839 47.49990261
-17.430688 -2.460824953e-05 -33.13702039
-139.919514 -2.460824953e-05 -16.06610439
-101.563014 -2.460824953e-05 -3.980158386
-191.026037 52.26188739 47.49990261
-230.268087 43.95085539 41.49990261
-80.487636 37.30714739 47.49990261
-10.64858 35.28590339 41.49990261
-145.747833 -2.460824953e-05 33.30075861
-195.132998 47.31632039 41.49990261
-106.387805 -2.460824953e-05 13.40105361
-76.904247 -2.460824953e-05 -44.29914439
-243.43336 88.85057339 41.49990261
-208.808595 -2.460824953e-05 23.56635861
-202.300777 -2.460824953e-05 -8.950955386
-236.383038 90.38293239 44.45872161
-41.407928 41.71971339 47.49990261
-172.250414 -2.460824953e-05 -29.23120039
-124.404843 14.26375939 47.49990261
-37.287467 -0.03532360825 47.49990261
-196.620218 -2.460824953e-05 25.45937761
-155.067713 26.44380739 47.49990261
-148.201818 -2.460824953e-05 12.85726361
-81.690212 52.85776839 47.49990261
-239.478891 -2.460824953e-05 21.62764761
-94.343459 28.40925339 41.49990261
-206.799317 -2.460824953e-05 -9.030773386
-228.473648 -2.460824953e-05 -9.247207386
-209.900887 -2.460824953e-05 -21.72912939
-94.986503 -2.460824953e-05 22.45045161
-94.212706 48.75226839 41.49990261
-82.596894 -2.460824953e-05 -38.66964739
-206.403543 -2.460824953e-05 -24.40714339
-207.238702 12.64163839 47.49990261
-212.067396 18.68573639 41.49990261
-57.013412 -2.460824953e-05 19.79804861
-12.101235 -0.1764876082 41.49990261
-200.414131 2.201374392 47.49990261
-62.04691 13.33891839 47.49990261
-117.939645 53.24162039 41.49990261
-64.471867 -2.460824953e-05 -7.063387386
-88.743916 10.77594839 41.49990261
0.9139040002 46.11486439 40.49990261
-71.986841 -2.460824953e-05 -28.43285539
-11.482288 -2.460824953e-05 25.20257561
-17.011768 -2.460824953e-05 40.26253761
-95.062339 21.53674939 47.49990261
-93.197318 -2.460824953e-05 -10.16194039
-176.468316 -1.442373608 41.49990261
-132.064307 -2.460824953e-05 32.29084561
-232.277792 73.54169739 41.49990261
-108.19545 -2.460824953e-05 2.068124614
-5.621515 -2.460824953e-05 -0.3855933863
-69.038237 -2.460824953e-05 21.27271961
-135.274943 15.07022439 41.49990261
-232.983891 4.310587392 47.49990261
-44.067188 53.54660539 47.49990261
-173.474798 -2.460824953e-05 -43.79139939
-214.878898 28.19374539 47.49990261
-192.924907 37.28410239 47.49990261
-118.604738 -2.460824953e-05 -37.34192839
-87.536633 -2.460824953e-05 33.89224161
-247.417029 -2.460824953e-05 -6.312269386
-139.058346 13.82402039 41.49990261
-180.08847 7.690039392 47.49990261
-117.775521 11.61436839 47.49990261
-94.901625 23.61076639 41.49990261
-159.642025 65.79492439 47.49990261
-116.68905 -2.460824953e-05 15.16464961
-210.075935 68.13597939 41.49990261
-14.075145 67.88027939 47.49990261
-167.506084 -2.460824953e-05 -2.044229386
-247.041772 98.73778639 47.49990261
-135.867447 -2.460824953e-05 -21.04814939
-63.35266 38.15207539 41.49990261
-70.413198 -2.460824953e-05 -40.94305939
-94.291018 47.03671739 47.49990261
-130.016939 -2.460824953e-05 22.88535861
-66.61953 -2.460824953e-05 27.72527161
-80.402141 17.33846839 41.49990261
-220.235733 -2.460824953e-05 21.44966061
-95.553497 -2.460824953e-05 35.35133461
-110.038077 -2.460824953e-05 17.53262061
-58.012022 -2.460824953e-05 1.514125614
-83.632305 -2.460824953e-05 -46.64291839
-42.722249 -2.460824953e-05 37.73364961
-170.462121 -2.460824953e-05 -49.38188039
-46.563601 46.90106439 47.49990261
-32.809329 -2.460824953e-05 33.53148461
