# .PCD v0.7 - Point Cloud Data file format
VERSION 0.7
FIELDS x y z
SIZE 4 4 4
TYPE F F F
COUNT 1 1 1
WIDTH 1194
HEIGHT 1
VIEWPOINT 0 0 0 1 0 0 0
POINTS 1194
DATA ascii
-141.4104094 -2.461302483e-05 -57.91064139
-79.83456936 50.64502539 -145.2500974
0.0002636414101 4.850010387 -116.6990104
-136.3589104 15.38383039 -145.2500974
-219.9111634 -2.461302483e-05 -73.20145439
-184.1711894 -2.461302483e-05 -129.4677374
-66.09052936 -2.461302483e-05 -138.5731794
-91.98701836 79.06881539 148.7499026
0.0002636414101 57.84469439 -44.64076039
-163.5992364 65.55006839 -139.2500974
-189.1818664 27.08697539 148.7499026
-37.51820936 -2.461302483e-05 48.71145161
0.0002636414101 26.87141639 -120.3618534
-209.6620914 -2.461302483e-05 114.2421006
0.0002636414101 55.40015139 17.47426061
0.9010116414 -2.461302483e-05 98.78037361
0.0002636414101 89.04939739 108.7192136
-12.57128436 -2.461302483e-05 4.362747614
-97.85589136 -2.461302483e-05 86.67114461
-97.86665836 -2.461302483e-05 -77.06107639
-228.8203564 -2.461302483e-05 145.0428956
-178.5268674 21.07555939 148.7499026
-237.5628204 -2.461302483e-05 -6.947531386
-212.3275884 -2.325252613 -139.2500974
0.0002636414101 35.40188739 24.02190461
-66.27856636 -2.461302483e-05 78.57682061
-10.12218336 -2.461302483e-05 25.23434961
-65.76085136 40.14718239 -139.2500974
-68.05902636 16.06113739 -139.2500974
-19.18307836 42.81169139 149.1280506
-143.3062834 67.99997539 -140.5469774
-250.2518284 38.67970839 -145.2500974
-143.1564604 -2.461302483e-05 -21.02762539
-65.44759236 -2.461302483e-05 -117.9732694
-249.6759924 55.35392939 148.7499026
-62.22302436 -2.461302483e-05 -102.8310104
0.0002636414101 44.81861939 53.94590661
0.0002636414101 96.85871439 115.5651816
-142.2586884 25.43822839 -139.2500974
-227.3942214 58.26113839 148.7499026
0.0002636414101 33.18375239 95.56910261
0.0002636414101 37.15204439 -23.79328639
0.0002636414101 17.96678839 -85.92694339
-154.4953894 37.47915539 -145.2500974
-41.73461636 -2.461302483e-05 3.523402614
0.0002636414101 75.46357039 25.78208861
-217.2813774 39.57202639 -145.2500974
-188.0419944 -2.461302483e-05 79.09389261
-204.9638854 -2.461302483e-05 -130.3469704
0.0002636414101 10.07598539 131.2724666
-184.4950624 -2.461302483e-05 12.86153061
-99.87231736 1.824272387 -145.2500974
-218.0238924 16.15405339 -145.2500974
-92.68704036 27.22921239 148.7499026
-1.378594359 -2.461302483e-05 0.8525106137
-8.075268359 -2.461302483e-05 -124.9552064
-7.532354359 121.0359984 148.7499026
0.0002636414101 62.82904939 82.53462961
-77.55879236 48.88611839 148.7499026
-107.2907264 -2.461302483e-05 -119.9824374
-5.225532359 -2.461302483e-05 43.29881261
-221.4363744 55.14994239 -145.2500974
-7.738518359 27.77740539 -139.2500974
-79.44182236 -2.461302483e-05 -101.9489774
-103.1550344 64.08439539 -145.2500974
-140.0671794 -2.461302483e-05 62.62485661
-153.2991334 -2.461302483e-05 -0.04292638627
-201.5331984 -2.461302483e-05 18.35531961
-227.1097194 18.24629339 -139.2500974
-201.9718214 -2.461302483e-05 -75.31416239
-209.1304604 -2.461302483e-05 35.69839861
-112.1575894 -2.461302483e-05 -99.60309139
-114.0179584 28.43431239 -139.2500974
-100.9667884 92.08268239 148.7499026
-27.61383936 -2.461302483e-05 146.1631836
-16.38951336 -2.461302483e-05 -131.0433814
-189.1471004 -2.461302483e-05 138.8512786
-169.7414984 25.61468839 148.7499026
-121.5074284 5.067719387 -139.2500974
-135.5394584 -2.461302483e-05 86.03825261
-130.9987594 -1.239275613 104.5884686
-165.3258384 -2.461302483e-05 -134.9660594
-20.55715136 -2.461302483e-05 126.9393046
-212.2284504 66.97159739 148.7499026
-71.73481836 -2.461302483e-05 33.80000361
-201.7693654 -2.461302483e-05 76.46125161
-127.9926024 -2.461302483e-05 142.5189866
-96.96908736 -2.461302483e-05 122.0917476
-73.10672236 9.331257387 -145.2500974
0.0002636414101 0.543691387 19.55821961
-78.22974936 -2.461302483e-05 -134.9734954
-28.60760036 -2.461302483e-05 -98.53006739
-240.9167664 54.97807639 -139.2500974
-207.5064784 29.73169039 -139.2500974
-237.5239144 -2.461302483e-05 76.13897661
-10.97565136 -2.461302483e-05 138.0797976
-101.4900204 -2.461302483e-05 -103.1814864
0.0002636414101 8.014572387 -90.69738139
-139.4956234 -2.461302483e-05 51.03676561
-215.0097644 16.67247439 148.7499026
0.4623526414 76.25420339 6.064203614
-148.4020324 8.577428387 148.7499026
0.0002636414101 71.05406839 34.52475561
0.0002636414101 96.95502239 102.1362116
-222.1506884 -2.461302483e-05 107.3220096
-201.0487634 36.65673139 148.7499026
-129.9987594 -0.939000613 11.21398861
-84.34026036 -2.461302483e-05 95.91857761
-180.0720324 -2.461302483e-05 121.5741966
0.0002636414101 18.57521239 -56.27518339
-243.2170934 -2.461302483e-05 28.65209661
-245.7480234 -2.461302483e-05 121.4856236
-148.7442844 53.08410839 148.7499026
-36.65896636 54.82646839 148.7499026
-174.5492784 -2.461302483e-05 -67.55447339
0.0002636414101 36.23917639 -63.47473639
-72.33293636 -2.461302483e-05 91.61002961
-24.41675336 -2.461302483e-05 13.02659861
-127.5949634 -2.268425613 -139.2500974
-69.12076036 47.25305139 -145.2500974
-233.3591114 5.128149387 -145.2500974
-236.6630664 46.23372039 -139.2500974
-192.1194864 -1.381000613 -145.2500974
-16.58274036 -2.461302483e-05 -98.32162639
0.0002636414101 79.66977039 129.5173546
-116.0914354 -2.461302483e-05 -87.46950639
-218.9989544 -2.461302483e-05 46.39737861
-59.22412936 90.28735939 148.7499026
-226.4446164 -2.461302483e-05 -40.51954739
-28.47068436 -2.461302483e-05 83.89555361
-173.5440314 32.63073239 -145.2500974
-38.51294536 -2.461302483e-05 139.9136226
-149.4710834 7.711213387 -145.2500974
-249.1575774 -2.461302483e-05 18.30129561
-30.58679736 20.08431639 -145.2500974
-14.96982236 -1.927348613 -145.2500974
0.0002636414101 23.49024439 72.62290061
-191.1190014 -2.461302483e-05 -37.28434239
-250.9460024 -2.461302483e-05 -48.97604939
-137.3980124 -1.932963613 -139.2500974
0.0002636414101 15.78106239 111.3296856
-77.61513536 25.62999539 -139.2500974
0.0002636414101 57.13512539 35.97382961
0.0002636414101 29.55941639 63.03146961
-213.1111104 -2.461302483e-05 -59.52202439
-21.64402836 -2.461302483e-05 61.11012261
-10.36301936 11.70454839 -145.2500974
-240.9431004 -2.461302483e-05 1.805038614
0.0002636414101 21.68460539 36.26472961
-219.1235414 -2.461302483e-05 -84.67794339
-70.30566536 95.74084539 148.7499026
-123.4645004 14.43681539 -139.2500974
-158.5184264 -2.461302483e-05 37.93925361
-195.6286814 -2.461302483e-05 27.69946261
-133.7837704 -2.461302483e-05 73.61296861
0.0002636414101 56.51604139 49.56970261
-15.75757236 130.4939104 148.7499026
-115.0501454 -2.461302483e-05 -27.28292139
-45.40699136 -2.461302483e-05 16.13246661
-144.5626994 -2.461302483e-05 -37.79726739
0.0002636414101 42.87506039 -7.958149386
-83.95032636 122.0487634 153.3588556
-197.0692824 16.64855039 -139.2500974
-50.85792536 67.99997539 -143.3128034
-82.41496036 32.60719039 -145.2500974
-111.3834104 -2.461302483e-05 -62.68934439
0.7389316414 60.02989239 -145.2500974
-161.3725174 -2.461302483e-05 122.6603096
-239.9161974 42.68291539 148.7499026
-54.95532836 -2.461302483e-05 127.0120616
-181.7850774 8.629932387 148.7499026
-225.0261124 -2.461302483e-05 62.20229361
-142.8461584 -2.461302483e-05 145.1515826
-232.9612484 -2.461302483e-05 11.73990861
0.0002636414101 37.35136939 142.7692476
-99.41903036 38.77518439 -145.2500974
-218.4297644 -2.461302483e-05 27.76321961
-65.24827236 -2.461302483e-05 -88.06246339
-182.3793964 -2.461302483e-05 60.47024661
-32.19393636 -2.461302483e-05 -69.49886239
-117.0732484 11.81948939 -145.2500974
-34.56045936 75.82389939 148.7499026
-239.3462334 -2.461302483e-05 -16.34926739
-132.7348444 -2.461302483e-05 -55.11607239
-50.02898536 -2.461302483e-05 81.76058761
-221.3213874 1.647504387 -145.2500974
0.0002636414101 18.98858339 142.3013136
-103.4408334 -2.461302483e-05 -43.08753839
2.048396641 4.565119387 -134.3152414
-78.97675636 43.90359339 -139.2500974
-65.24147336 67.82321439 148.7499026
-187.5759514 62.22285939 -145.2500974
-30.83999736 4.274507387 -145.2500974
-199.3748994 43.94340439 -139.2500974
-225.6383344 -2.461302483e-05 -126.3616194
0.0002636414101 67.07099839 120.1133116
-183.5655114 20.42793539 -139.2500974
-124.9679014 20.99836939 148.7499026
-85.74219736 97.33994939 148.7499026
-19.63458636 -2.461302483e-05 -79.56002439
-198.2191044 -2.461302483e-05 129.0867666
-200.4508254 67.64548839 148.7499026
-27.75574436 56.15928439 148.7499026
-91.84594736 114.1531014 151.3713286
-24.87304536 39.17036639 -139.2500974
0.0002636414101 50.22263539 -99.97668339
-113.3375314 71.71776439 148.7499026
-181.0260354 47.85253239 -139.2500974
-84.19822436 -2.461302483e-05 -57.01507639
-22.09994436 -2.461302483e-05 -27.30735139
0.0002636414101 13.53224739 96.00840861
-66.60960436 -2.461302483e-05 55.74856061
-79.88053436 -2.461302483e-05 9.031912614
-94.61677536 55.67260839 148.7499026
0.0002636414101 40.10510539 -82.32306239
-55.82075936 25.91419239 -139.2500974
0.0002636414101 44.19072639 3.758556614
-12.42157836 58.96666539 148.7499026
-194.4867914 -2.461302483e-05 45.88743261
-73.13776036 -2.461302483e-05 114.8958326
-12.46364636 107.5315984 148.7499026
-232.7011164 -2.461302483e-05 111.6736866
-223.5475104 35.16371239 148.7499026
-122.9373134 -2.461302483e-05 16.44485161
0.0002636414101 51.26826239 142.0761376
-227.5398874 -2.461302483e-05 133.1418366
0.0002636414101 112.3054144 118.5280956
-154.1839444 -2.461302483e-05 -82.33386739
-141.6675414 37.89263639 148.7499026
-228.6935484 57.20796239 -139.2500974
-37.22848136 101.6469904 148.7499026
-129.2579744 -2.461302483e-05 -12.43953139
-48.18561036 -2.461302483e-05 143.0620536
0.0002636414101 83.96561039 73.94247261
0.0002636414101 26.24001839 28.01686561
-187.2706354 -2.461302483e-05 -109.5987594
0.0002636414101 81.69330639 44.18435261
-56.75970636 -2.461302483e-05 113.6469136
-245.5573644 -2.461302483e-05 83.52171861
0.0002636414101 67.94937539 58.10885861
-28.00261836 28.13019239 148.7499026
-84.78036236 71.13759339 148.7499026
0.0002636414101 3.515104387 64.90867361
-49.83289136 -2.405337613 -139.2500974
-159.8343454 49.27041039 148.7499026
0.0002636414101 29.79072839 110.2067036
-104.8195764 -2.461302483e-05 0.6295416137
1.283933641 -0.763106613 -82.55788139
-199.6986474 -2.461302483e-05 -89.76858639
-149.9849584 -2.461302483e-05 139.6859596
-195.4901904 -2.461302483e-05 1.096318614
-206.9795404 -2.461302483e-05 -115.3879654
-41.56063136 -2.461302483e-05 101.3112536
-38.06717536 -2.461302483e-05 22.19279961
-241.2964174 -2.461302483e-05 -96.02195039
-207.2682114 -2.461302483e-05 -47.86880539
-131.5201294 20.55221739 -139.2500974
0.0002636414101 36.16065939 53.61625761
-160.4331154 -2.461302483e-05 48.42230361
-155.3518194 4.296800387 -139.2500974
0.0002636414101 51.71899639 -77.88817739
-131.5018554 56.50602339 -139.2500974
-172.2604704 53.94639839 148.7499026
-176.0573614 43.08259239 148.7499026
-218.9320824 -2.461302483e-05 7.563474614
-105.8868994 -2.461302483e-05 90.60170561
-164.2565874 -2.461302483e-05 -115.7655714
-39.12943236 51.12303739 -139.2500974
-108.4206864 86.54047839 148.7499026
-226.9145814 -2.461302483e-05 42.96227061
-209.9138734 43.48882539 -139.2500974
-196.4385474 -2.461302483e-05 -129.0817904
-197.5535254 6.505949387 148.7499026
-137.8125684 -2.461302483e-05 40.72146661
-50.91506936 -2.461302483e-05 65.50441861
-239.7368224 -2.461302483e-05 92.72846161
-142.5005364 -2.461302483e-05 113.9185526
-69.85631836 45.09461339 148.7499026
-191.4526354 -2.461302483e-05 55.10731061
2.345739641 61.07634039 -62.07010639
-126.8160454 79.18282439 150.6218136
-30.96172336 -2.461302483e-05 -14.60683839
-66.19661836 -2.461302483e-05 146.1358306
-37.26663636 130.3610274 148.7499026
0.0002636414101 12.97956139 1.152673614
0.0002636414101 90.75105539 64.43060061
0.0002636414101 61.38316339 -23.57692539
-197.5428434 25.59308739 -145.2500974
-155.8289554 33.37819439 148.7499026
-7.376595359 62.45141339 -139.2500974
-28.39649036 8.105283387 148.7499026
-251.9193624 -2.461302483e-05 -119.5885664
-192.3825204 52.42967139 -139.2500974
-3.141702359 -2.461302483e-05 -24.92611539
-80.00715636 -2.461302483e-05 -65.84088039
-189.6903724 -2.461302483e-05 123.2944456
-167.8887074 -2.461302483e-05 115.1738126
-57.48212136 -2.461302483e-05 -67.14083439
-218.1322124 -2.461302483e-05 -14.43717139
-219.1078954 33.82013939 -139.2500974
-109.1306214 7.365454387 -145.2500974
-110.1466554 -2.461302483e-05 111.1110346
0.0002636414101 28.19515939 79.69002761
-96.47891036 62.14414239 -139.2500974
-97.50702436 -2.461302483e-05 54.39052961
-179.7880104 -2.461302483e-05 77.22725561
-137.8673974 -2.461302483e-05 -105.9523224
0.0002636414101 89.03841639 118.7702206
-2.516394359 55.05246939 -139.2500974
0.6737246414 99.92036039 84.28790761
-241.1390234 -2.461302483e-05 111.9671056
-141.7635334 42.09123439 -145.2500974
-43.08672036 29.35205939 -145.2500974
-51.46886936 -2.461302483e-05 -76.06604539
-249.9988424 57.01276639 -139.2500974
0.0002636414101 46.20789439 80.94685161
-241.9027984 34.49773339 148.7499026
-17.01358636 -2.461302483e-05 68.13484261
-206.9326184 -2.461302483e-05 -39.46999439
-66.72524336 -2.461302483e-05 -23.73712339
-46.59788036 102.2109064 151.5151816
-33.03312536 -2.461302483e-05 -83.47538339
-71.06777936 -2.461302483e-05 -102.4756124
0.0002636414101 81.72362539 52.68043261
-122.9561424 44.05363139 -145.2500974
-171.1361244 3.329102387 -145.2500974
-56.90846036 39.89852439 -139.2500974
-225.8180924 8.716409387 -145.2500974
-82.04323836 7.777158387 148.7499026
-80.89733236 -2.461302483e-05 68.81466361
0.0002636414101 90.69050739 95.15019861
-207.2163104 45.22034239 148.7499026
-48.22900736 22.52313039 -139.2500974
-164.8552454 7.964402387 148.7499026
-5.548395359 1.565794387 -145.2500974
-186.4492054 -2.461302483e-05 36.83551661
-198.9620274 -2.461302483e-05 -100.7806194
0.0002636414101 17.90563039 -31.67354939
-22.90803436 31.13070339 -139.2500974
-124.5266334 -2.461302483e-05 45.88781261
-212.2836534 67.99997539 -144.9906184
0.0002636414101 105.2036494 102.5001826
0.0002636414101 13.26807839 21.20003261
-28.77160636 -2.461302483e-05 92.14085661
-39.65908536 -2.461302483e-05 65.78735861
0.0002636414101 52.77940139 85.92771661
-229.7219904 -2.461302483e-05 -119.2082124
-20.43716636 112.8933214 148.7499026
-113.4783614 39.72065239 -145.2500974
-245.5279194 6.794227387 -145.2500974
-93.06754136 19.51400739 -145.2500974
-235.8154964 24.13251439 -139.2500974
-35.98206236 15.54467039 148.7499026
-10.58590236 83.60644239 148.7499026
-91.21056336 -2.461302483e-05 32.64195261
0.0002636414101 28.78178239 127.1438286
1.657558641 32.11852939 -137.7500974
-6.305599359 18.80731539 -145.2500974
-89.58555436 -2.461302483e-05 -30.59205439
-50.29427336 -2.461302483e-05 -85.25781939
-159.0273364 33.99796539 -139.2500974
-13.97882636 60.72943539 -145.2500974
0.0002636414101 43.42537939 73.22266061
-189.5719964 55.35771039 148.7499026
-117.8515724 -2.461302483e-05 29.38695161
-16.93710536 47.74108039 -139.2500974
-162.1429414 21.97863539 148.7499026
-137.5481044 9.560414387 -139.2500974
-218.5892524 50.47627439 -139.2500974
0.0002636414101 43.71392139 123.2741086
-172.8386354 -2.461302483e-05 58.84052761
0.0002636414101 34.40397939 -40.09850239
-247.6855214 -2.461302483e-05 -2.685133386
-89.91202236 -2.461302483e-05 -6.008596386
-152.1270324 59.28869039 -145.2500974
-199.3361654 38.28297739 -145.2500974
0.0002636414101 46.55779439 -71.68961739
-56.29430036 132.0007254 148.7499026
-12.58431536 -2.461302483e-05 -44.60067939
0.0002636414101 64.27946539 15.14881361
-173.6328404 -2.461302483e-05 -75.54562439
-39.63552836 109.3160014 148.7499026
-123.3130994 -2.461302483e-05 4.387560614
-232.2773464 10.10748239 148.7499026
-125.3398484 38.31027739 148.7499026
-95.71560336 38.28511339 148.7499026
-120.3778814 13.62714839 148.7499026
-197.3466574 -0.398670613 -139.2500974
-107.6651694 34.69237439 -139.2500974
-122.0861684 66.62825339 -145.2500974
0.0002636414101 109.6202194 136.2763146
-116.6231784 -2.461302483e-05 -47.33660839
0.0002636414101 18.04293439 131.8406316
0.0002636414101 25.22580639 56.33134861
0.0002636414101 4.602802387 -57.61687739
-161.4760144 43.62475939 -139.2500974
-197.9013154 45.72149039 148.7499026
0.0002636414101 23.94908039 -3.998498386
-242.9115124 24.51518339 -145.2500974
-33.75251436 -2.461302483e-05 -52.24114039
-186.2415724 -2.461302483e-05 -21.91513839
-99.35536236 65.70172539 148.7499026
-181.1160714 -2.461302483e-05 43.49371361
-85.56221536 55.68765339 -139.2500974
-227.9689234 47.25134739 -145.2500974
0.0002636414101 25.36678839 -99.30708739
-24.89103936 70.58007339 148.7499026
-139.8420814 -2.461302483e-05 24.19995061
-130.1539864 13.97884339 148.7499026
-91.87573936 -2.059168613 -139.2500974
-241.2740264 -2.461302483e-05 -133.4872024
-141.7702474 32.16084539 -145.2500974
-74.57786936 30.44362739 -145.2500974
-66.45286436 62.27393239 -139.2500974
-176.8064374 -2.461302483e-05 -33.32356139
0.0002636414101 69.58610639 78.11099361
-82.28914936 -2.461302483e-05 57.85826861
-184.2055164 -2.461302483e-05 114.8850686
-135.7682504 -2.461302483e-05 141.3810306
0.0002636414101 81.75226839 87.59641461
-15.21123436 -2.461302483e-05 -119.6101014
0.0002636414101 36.35002039 -112.6547094
-214.2674724 24.46657839 148.7499026
0.0002636414101 64.58830439 -1.474260386
-125.8519654 -2.461302483e-05 29.07249461
-51.28231436 15.24541139 -139.2500974
-194.4555034 -2.461302483e-05 94.38235961
-232.3924384 33.72498439 -145.2500974
-153.3682194 -2.461302483e-05 73.05271561
-25.45930436 94.31216239 148.7499026
0.0002636414101 47.57766739 35.48334261
-110.2825754 48.60936439 -139.2500974
-57.03709036 117.4971844 148.7499026
-243.1411524 -2.461302483e-05 60.17280661
-54.91938236 48.72489239 -139.2500974
0.0002636414101 86.51184639 135.0236096
-193.4243654 -2.461302483e-05 109.7277276
-82.03503236 -2.461302483e-05 -48.67193039
-73.13352236 86.26641239 148.7499026
-146.3861824 40.37701339 -139.2500974
-98.59428436 10.51977739 148.7499026
-162.3608434 41.13879639 148.7499026
-140.7112174 -2.461302483e-05 -77.58999139
-51.10956536 -2.461302483e-05 -102.7098664
-121.7053784 -2.461302483e-05 -101.9102664
-51.38463036 -2.461302483e-05 40.65784161
-170.9043104 67.99997539 -139.9301204
-14.68709336 5.349390387 -139.2500974
-214.1145114 8.992710387 148.7499026
-95.95975236 -2.461302483e-05 -58.22253139
-64.56075036 -2.461302483e-05 27.43923661
-238.8175374 60.18804739 -145.2500974
-67.77851836 -2.461302483e-05 -55.74860139
-169.3344704 -2.461302483e-05 -58.64051039
-178.6735844 20.33223739 -145.2500974
0.0002636414101 72.14454239 138.8543686
-100.5810994 28.76540439 -139.2500974
-8.205874359 32.57233839 -145.2500974
-222.5218584 -2.461302483e-05 71.65189861
-51.08121536 -2.461302483e-05 -26.26096239
0.0002636414101 53.12060639 124.3014076
-250.6383254 -1.971497613 -139.2500974
-65.21677936 26.15147539 148.7499026
-32.83418936 -2.461302483e-05 5.009150614
-89.22832036 -2.461302483e-05 24.75284661
-231.5242884 -2.461302483e-05 70.32321461
-9.830781359 -2.461302483e-05 -104.6777544
-96.62476436 47.45949639 -145.2500974
-202.8518794 -2.461302483e-05 -67.28663439
-119.1851784 58.46275939 -145.2500974
-234.1350984 -2.461302483e-05 57.51195961
-242.4187534 -2.461302483e-05 46.15043861
-141.0105054 -2.461302483e-05 -128.2000374
0.0002636414101 51.14805939 10.48172861
-52.87489636 78.06677539 148.7499026
-5.024226359 33.71844639 148.7499026
-30.69616336 -2.461302483e-05 44.04227261
0.0002636414101 18.22212639 50.76314661
-202.1361714 67.99997539 -145.2335364
-104.8195034 59.67511539 -139.2500974
-231.0950254 -2.461302483e-05 -79.31562439
-98.42733636 107.5716784 153.5533086
-130.9987594 -0.685628613 -122.3089724
-70.89047236 -2.461302483e-05 7.943387614
-208.5622134 -2.461302483e-05 79.91191261
-70.00015736 38.13603239 -145.2500974
-39.64592536 -2.461302483e-05 -67.92902739
-183.7199774 64.87924039 -139.2500974
-41.08631636 16.48888639 -139.2500974
-106.0360234 21.01092239 -139.2500974
-92.52310036 -2.461302483e-05 -120.6985104
-17.58509736 -2.461302483e-05 23.91515761
-214.5049374 9.202368387 -145.2500974
-207.6011174 -2.461302483e-05 142.7550996
0.0002636414101 51.02806239 70.77003261
-82.15865136 24.93627939 -145.2500974
0.0002636414101 40.57131239 -57.28365139
-208.7695194 -2.461302483e-05 -91.37527639
-177.2834704 -2.461302483e-05 36.75351561
-144.3665714 -2.461302483e-05 97.71451061
-206.1361844 -2.461302483e-05 61.75422961
-121.6791554 -2.461302483e-05 55.46921861
-2.086474359 -2.002780613 -139.2500974
-160.8052464 -2.461302483e-05 21.09500861
-116.7918574 62.83678039 148.7499026
-135.7032204 32.96101139 148.7499026
0.0002636414101 40.31747039 -137.2874724
-134.9324944 35.66980239 -145.2500974
-147.0941574 15.97979139 148.7499026
-249.3189754 -2.461302483e-05 -79.11657739
-74.06544136 121.4374204 148.7499026
-170.9689914 -2.461302483e-05 28.63462561
-6.395616359 -2.461302483e-05 -58.69408739
0.0002636414101 58.80234339 -7.687514386
-126.7456824 59.00658539 -145.2500974
-182.1437574 -2.461302483e-05 -82.29387439
-86.32085036 29.86108239 -139.2500974
0.0002636414101 15.27688739 40.62594461
0.0002636414101 27.92636739 -51.66771339
-75.11968636 104.4969884 148.7499026
-184.8991084 -2.461302483e-05 -94.69386439
-114.9985014 -2.461302483e-05 126.0008986
-178.5339224 6.700629387 -139.2500974
-248.4884434 64.94867439 -139.2500974
-79.21835536 -2.461302483e-05 21.99097361
0.0002636414101 50.82820139 58.30875861
-31.80194936 62.55266639 -145.2500974
-46.29617036 60.44877439 148.7499026
-56.02617336 97.35629539 152.6397326
-83.48203136 15.92447439 -139.2500974
-26.45997036 40.31302939 148.7499026
-41.43266436 67.22286439 -145.2500974
-169.3090004 -2.461302483e-05 14.23078261
0.0002636414101 52.33087139 -39.03057839
-58.84684036 59.79070639 -139.2500974
-252.0562654 10.27806939 -145.2500974
-146.8888684 -2.461302483e-05 51.27524261
-211.0762914 22.26157139 -139.2500974
-45.10728336 19.55162539 -145.2500974
-215.2616934 -2.461302483e-05 97.20667761
-54.50746836 -2.461302483e-05 48.30786361
-29.71612936 100.3586414 148.7499026
-80.84245036 57.94798739 -145.2500974
0.0002636414101 8.926993387 106.0220226
-128.9398184 -2.461302483e-05 135.2109756
-251.1054564 -2.461302483e-05 45.69223961
-204.5024414 -2.461302483e-05 108.9886126
-23.49541436 -2.461302483e-05 -19.68369639
-173.4839514 -2.461302483e-05 93.42486261
-5.834713359 -2.461302483e-05 143.4911926
0.0002636414101 1.677871387 83.20563461
-159.4881714 -2.461302483e-05 -60.68357139
-186.5688374 -2.461302483e-05 -68.50656739
-130.8313784 66.96833139 148.7499026
-107.0327514 -2.461302483e-05 -87.12231239
-214.0097224 -2.461302483e-05 -43.51110739
-43.95546936 -1.780451613 148.7499026
-251.5633564 -2.461302483e-05 125.9119106
-30.21757936 47.64512839 -139.2500974
-186.7107584 -2.325295613 -139.2500974
-43.10947336 -2.461302483e-05 -87.87940139
-205.8269994 62.70649039 148.7499026
-185.2902774 -2.461302483e-05 -2.673487386
-4.483778359 5.063559387 148.7499026
-171.1774434 -2.461302483e-05 -0.4063763863
-243.0963784 18.71578839 -139.2500974
-226.9588594 -2.461302483e-05 -88.63442039
-135.4709034 41.68837239 148.7499026
-176.4869194 -2.461302483e-05 127.8844766
-120.8019504 -2.461302483e-05 -75.09047939
-199.9331764 -2.461302483e-05 -22.10326139
-7.012819359 -2.461302483e-05 82.52168361
0.0002636414101 31.42049939 -80.23280039
-71.17472736 -2.461302483e-05 107.0817436
-70.67800136 131.1858344 152.4160846
-105.5196284 49.96167739 148.7499026
0.0002636414101 33.95214239 102.7424506
-185.2732834 -2.461302483e-05 -33.05670539
-120.3690264 51.34724439 -145.2500974
0.0002636414101 12.47880139 64.44876861
-62.98099436 110.1960254 148.7499026
-246.0080884 56.99057739 -145.2500974
-105.5983124 3.163960387 148.7499026
-144.8409104 6.714437387 -139.2500974
-28.52505136 87.11266539 148.7499026
-153.7274504 -2.461302483e-05 -14.63317939
-155.7338224 51.63729939 -139.2500974
-201.8383194 -2.461302483e-05 31.32128761
-26.68223536 9.966000387 -139.2500974
-118.7507454 52.53187839 148.7499026
-87.64357436 64.37308039 -145.2500974
-76.63473136 41.79106439 148.7499026
-39.32136036 39.30098939 148.7499026
-121.4209964 -2.461302483e-05 101.3158146
-94.91445436 -2.461302483e-05 -70.55013439
-166.7376174 -2.461302483e-05 108.0583856
-47.08164436 129.3362814 148.7499026
-54.36912336 -2.461302483e-05 -35.24922039
-118.2560594 1.363275387 148.7499026
-39.98020536 -2.461302483e-05 -131.1885134
-103.7590134 -2.461302483e-05 82.65429161
0.0002636414101 39.22105339 8.862411614
-23.66540736 27.38040739 -145.2500974
-166.5154034 -2.461302483e-05 65.07675261
0.0002636414101 36.04032339 -131.6033364
-250.5307684 -2.461302483e-05 141.7625166
-203.0248344 45.02839639 -145.2500974
-236.2163584 -1.377387613 -145.2500974
-72.14320636 3.658900387 -139.2500974
-63.85268036 37.22661139 148.7499026
-236.4756444 2.957477387 -139.2500974
-75.81867936 74.69248239 148.7499026
-218.4620164 -2.461302483e-05 117.8520676
-247.5666294 62.68598539 148.7499026
-146.4359724 61.22518839 148.7499026
-165.5927244 -2.461302483e-05 141.3806876
-213.2126984 -2.461302483e-05 -101.8824194
-246.5312374 39.23242139 -139.2500974
-214.6246414 14.55023539 -139.2500974
-98.98402236 -2.461302483e-05 -88.24254039
-143.8447334 -1.454350613 -145.2500974
-163.1705024 53.55215339 -139.2500974
0.0002636414101 50.66240139 98.16157361
-251.0549484 23.31094739 -139.2500974
-32.62454136 50.48542739 -145.2500974
-127.9328074 19.57329839 -145.2500974
-245.8779614 44.64681539 -145.2500974
-21.26524536 38.31250539 -145.2500974
-243.4777004 25.19967239 148.7499026
-113.7190734 47.25336339 -145.2500974
-79.78575636 -2.461302483e-05 118.1750526
0.0002636414101 39.46916039 40.64178661
-10.93579336 2.265841387 148.7499026
-51.76315636 -2.461302483e-05 30.32156361
0.0002636414101 9.947571387 115.2537656
0.0002636414101 103.3558794 146.5501156
0.0002636414101 44.99402739 103.8667306
-15.62134836 19.42674139 -145.2500974
-119.5645614 42.85534839 148.7499026
-46.60931036 -2.461302483e-05 106.1891826
-152.6904814 -2.461302483e-05 -129.1729244
-107.3825794 10.56222239 -139.2500974
0.0002636414101 7.657726387 37.04220461
-191.0923554 -2.461302483e-05 -119.0862414
-73.75774736 -2.461302483e-05 -38.22153239
-118.0762064 87.92270739 151.8407806
-118.6914174 -2.461302483e-05 79.78266361
0.0002636414101 62.84370639 137.0627666
-163.1806574 -2.461302483e-05 -18.08124139
-175.0512574 -2.461302483e-05 142.3624416
-122.3686214 -2.461302483e-05 -13.69526739
-123.4332064 35.31258939 -139.2500974
-171.5453894 25.65018439 -139.2500974
0.0002636414101 6.506962387 51.63791861
0.0002636414101 31.49186739 -17.95403339
-230.5682454 60.24979839 -145.2500974
-221.7955004 -2.461302483e-05 53.94646561
-172.0606504 -2.461302483e-05 -9.312568386
-18.64293936 55.54104439 -145.2500974
-29.62441336 -2.461302483e-05 17.66909861
-87.73104236 45.84696039 -145.2500974
-235.1778164 -2.461302483e-05 37.48611261
-5.862444359 -2.461302483e-05 -38.84229739
0.0002636414101 25.26314939 -92.34582339
-74.51759336 57.61336839 148.7499026
-13.96536836 -2.461302483e-05 60.43292961
-41.98757336 -2.461302483e-05 78.08849861
0.0002636414101 73.66664639 -3.435816386
-13.45563336 21.60202539 148.7499026
-21.90838736 -2.161142613 -145.2500974
-20.35630536 65.99680139 -145.2500974
-202.3271134 51.06589739 148.7499026
-187.5507634 11.75470339 -139.2500974
-103.2883264 23.14564939 -145.2500974
-52.30947036 51.00502839 -145.2500974
-177.0715334 36.04020639 -139.2500974
0.9665826414 42.14085939 -145.2500974
-108.0419004 -2.461302483e-05 33.12847961
-227.6036024 17.52187439 148.7499026
-53.20789636 -2.461302483e-05 138.2955596
-42.60656636 -2.461302483e-05 128.6863356
-57.58012736 -0.414371613 -139.2500974
-148.8828234 -2.461302483e-05 -47.99211639
-166.4694354 24.64797539 -145.2500974
-147.0025934 -2.461302483e-05 70.07967561
-184.4273004 48.33289139 -145.2500974
0.0002636414101 11.78908839 -137.2641614
-96.10372736 43.27670839 -139.2500974
-47.04905936 40.03088939 -145.2500974
-109.3079994 -2.461302483e-05 40.29486861
0.0002636414101 35.69730439 -124.7078644
-100.6766994 49.95732039 -139.2500974
-109.7782424 -2.461302483e-05 25.78236661
-0.3317723586 -2.461302483e-05 -97.34307139
-234.1560654 -2.461302483e-05 -0.2970253863
-230.0133674 16.51191139 -145.2500974
-133.8229704 -2.461302483e-05 -3.391457386
-106.9267864 -2.461302483e-05 135.2808226
-99.74328636 -2.461302483e-05 -30.39101839
-153.3405144 -2.461302483e-05 -71.82157239
-13.89351836 11.69974739 148.7499026
0.0002636414101 9.977712387 -19.82720539
0.0002636414101 34.68177839 -31.82848939
-183.1658824 31.73939639 -145.2500974
-33.22102736 27.68798239 -139.2500974
-162.3428334 -2.461302483e-05 101.3657756
-54.52685436 8.440843387 -145.2500974
0.0002636414101 47.42457139 -2.287948386
-39.94680336 -2.461302483e-05 -19.72811539
-143.5344644 11.12351039 -145.2500974
0.0002636414101 33.66705839 -55.39637139
-102.6248964 -2.461302483e-05 -6.491369386
-130.9987594 -0.187515613 41.30644761
-5.197516359 -2.461302483e-05 -8.788643386
-125.7883734 45.70715339 -139.2500974
0.0002636414101 7.149558387 -71.79790539
0.0002636414101 70.10882239 88.63682261
-215.1955444 -2.461302483e-05 -20.64152639
-24.71715936 76.80295039 152.2169316
0.0002636414101 21.74888739 118.5572606
-125.5448124 51.88773239 148.7499026
-218.9505264 49.41250539 148.7499026
-101.8531174 -2.461302483e-05 22.08708961
-91.16676236 -2.461302483e-05 -92.50635839
-247.0685024 11.22534139 -139.2500974
-232.9845554 -2.461302483e-05 -13.32886739
-33.01582536 107.0070894 148.7499026
-66.63927236 30.95851239 -139.2500974
-65.04913436 -2.461302483e-05 -1.383642386
-225.3632134 -2.461302483e-05 -18.74908539
0.5894886414 56.72792639 148.7499026
-222.1030844 -1.477646613 -139.2500974
-29.02995136 -2.461302483e-05 -122.3187354
-251.7307294 19.87702439 148.7499026
-83.58601636 -1.951739613 -139.2500974
-219.5366524 -2.461302483e-05 -25.90555539
0.0002636414101 30.72642639 144.2858946
-204.7812574 -2.461302483e-05 50.45745161
-57.51763036 -2.461302483e-05 120.3862816
-115.2640824 35.09916139 -139.2500974
-234.3655434 44.07737039 -145.2500974
-169.1645324 39.39608639 -145.2500974
-236.2314314 -2.461302483e-05 25.51153261
-58.56773936 24.40232739 -145.2500974
-193.2812644 59.98830239 -139.2500974
-209.9305244 29.65113039 148.7499026
0.0002636414101 6.440656387 -127.2411204
-88.90852336 -2.461302483e-05 46.33696261
0.0002636414101 18.76046339 -47.33148739
-60.53439136 -2.461302483e-05 -28.17813739
-102.9122884 -2.461302483e-05 106.6578716
-230.5080694 -2.461302483e-05 -131.0320344
-49.95186336 -2.461302483e-05 -50.04675439
-175.2993794 -2.461302483e-05 116.8109886
-210.5400504 -2.461302483e-05 55.55011761
0.0002636414101 27.16003739 -71.95505839
-35.70701036 34.51217339 -145.2500974
-215.3222864 -2.461302483e-05 133.2628496
-80.93735136 -2.461302483e-05 -22.85663339
-80.82453536 -2.461302483e-05 -30.69635939
-211.7969054 -2.461302483e-05 -75.10985039
-242.1536874 12.59257839 -145.2500974
-187.1432044 -2.461302483e-05 -45.21165139
-10.50452336 67.99997539 -143.7339094
-24.52326636 -2.461302483e-05 -114.4560444
0.0002636414101 46.15979639 -116.0781044
-99.35852836 -2.461302483e-05 144.7602296
-4.051314359 -2.461302483e-05 14.26788361
-70.02423536 -2.461302483e-05 70.08941961
-118.3502614 -2.461302483e-05 38.58213161
-141.1074544 23.43436139 148.7499026
-16.63703136 -2.461302483e-05 100.0975566
-155.3173974 -2.461302483e-05 8.289426614
-147.0555874 28.09900439 -145.2500974
-138.5399114 -2.461302483e-05 121.1615996
0.0002636414101 27.16978939 -58.90639939
-44.86457236 26.63281239 148.7499026
-249.2222184 50.39888439 -145.2500974
-238.3501414 34.93093239 -139.2500974
-59.58795436 -2.461302483e-05 -132.2245054
-158.8742114 -2.461302483e-05 -102.8553024
-85.81907936 -2.461302483e-05 -87.01792039
-150.1722094 -2.461302483e-05 -109.2535054
-53.39027536 41.72796939 148.7499026
-241.2133744 -2.461302483e-05 -116.8048654
-142.8869264 22.68241739 -145.2500974
0.7453506414 57.98222439 -79.92414739
0.0002636414101 64.05992839 107.8726716
-105.0518024 0.154637387 -139.2500974
-135.1749664 -2.461302483e-05 3.642431614
-250.0526024 -2.461302483e-05 -29.88797339
-5.428695359 16.19292739 -139.2500974
-55.61882536 -2.461302483e-05 -90.26955239
-182.5157574 41.73067239 148.7499026
-48.66294036 -2.461302483e-05 -108.8329584
-129.9987594 -1.709513613 -110.3246604
-65.57091136 -2.461302483e-05 64.27287361
0.0002636414101 16.35108239 80.58664161
-112.5222794 26.16426339 -145.2500974
0.0002636414101 7.380446387 -33.14958939
0.0002636414101 7.633441387 74.50127061
-210.5057194 0.575055387 -145.2500974
-37.77825636 -2.461302483e-05 -3.644037386
-205.4092844 -1.558574613 148.7499026
-233.5680764 2.624277387 148.7499026
0.0002636414101 71.45618139 18.62255461
0.7500036414 17.99672839 148.7499026
-200.7950224 61.45841139 -145.2500974
-20.11826636 10.06763239 -139.2500974
-152.8689824 -2.461302483e-05 20.19411561
-135.1062844 55.40669439 -145.2500974
-163.2378114 19.20072639 -139.2500974
-129.5808204 -2.461302483e-05 -33.01858339
-176.9162934 -2.461302483e-05 -107.1412664
-187.1976184 67.99997539 153.7255126
0.0002636414101 40.55078339 98.51847261
-77.85522236 -2.461302483e-05 133.1936756
-122.8132254 27.17268639 148.7499026
0.0002636414101 71.09477239 -14.22789639
0.0002636414101 31.60794839 18.69911261
0.0002636414101 81.95526839 62.97953861
-140.2247284 -2.461302483e-05 -0.5276813863
-125.6705204 -2.461302483e-05 108.1591236
-147.5916954 48.07149639 -145.2500974
-192.8414464 -2.461302483e-05 -103.0209594
0.0002636414101 17.73237739 87.22346861
0.0002636414101 12.90475439 -111.0464034
-39.54494836 62.48835739 148.7499026
-191.1954434 33.73635339 -145.2500974
-4.444218359 45.71420539 -139.2500974
-73.24070736 12.13984039 -139.2500974
-204.0144344 35.20786839 -139.2500974
-237.1394634 62.92689939 148.7499026
-220.2037764 -2.461302483e-05 -38.72409539
-51.37714536 -2.461302483e-05 -115.5076104
0.0002636414101 16.68945839 -14.05651639
-96.89043336 102.5233634 148.7499026
-131.8341004 6.483612387 -139.2500974
0.0002636414101 41.56137839 22.00012761
-98.74675836 5.042219387 -139.2500974
-164.6205274 56.89428539 -145.2500974
-20.53446836 62.34175939 -139.2500974
-114.5841504 3.615157387 -145.2500974
-45.48388436 29.70540139 -139.2500974
-220.1009584 28.36688939 148.7499026
-18.47462136 105.1689814 148.7499026
-113.8203854 11.04062939 -139.2500974
-127.6433104 37.64055839 -145.2500974
-28.64360936 56.80066439 -145.2500974
-144.9733014 -2.461302483e-05 85.45613661
-46.05998136 -2.461302483e-05 -37.63342039
-74.24138436 -2.461302483e-05 27.75483861
-105.8078844 -2.461302483e-05 120.3812036
-121.4922414 -2.461302483e-05 -83.97825039
-120.0012964 -2.461302483e-05 -23.18299839
-38.56919336 5.557689387 -139.2500974
-160.8377954 -2.461302483e-05 129.0528236
0.0002636414101 44.25757139 140.0044126
-68.09471136 73.56263939 148.7499026
0.0002636414101 45.75852939 -24.54711639
-33.85641936 10.09027439 -145.2500974
-29.76563136 42.13409539 -145.2500974
-6.535226359 -2.461302483e-05 -98.92065339
-20.83129836 3.557169387 -139.2500974
-74.47193036 -2.461302483e-05 2.643941614
-155.0474344 -2.461302483e-05 107.6174196
-141.3958024 10.17482039 148.7499026
0.0002636414101 17.91533239 12.19382261
-33.99875836 18.66717639 -139.2500974
-135.2714824 -2.461302483e-05 99.32214561
-212.2210224 57.56567539 -145.2500974
-204.9718194 -2.461302483e-05 -33.32072639
0.0002636414101 30.32478439 -65.87908339
-72.05839336 62.28392939 -145.2500974
-68.33828136 -2.461302483e-05 127.8760996
-246.1798664 30.68019439 -145.2500974
-225.5124064 -2.461302483e-05 -95.67331939
-50.45150036 25.49525639 -145.2500974
-173.3852594 16.77846739 -145.2500974
-69.10843336 -2.461302483e-05 -112.1449294
-85.24193436 42.75857539 -139.2500974
-192.9123984 -2.461302483e-05 74.76097161
-246.0796934 -2.461302483e-05 -41.01183039
-85.91086936 -2.461302483e-05 102.0871516
-32.93455836 22.21646139 148.7499026
-220.6260704 16.65918039 -139.2500974
1.967919641 -2.461302483e-05 -49.84643139
-60.77131436 52.11485339 148.7499026
0.0002636414101 9.242089387 -13.16833939
0.0002636414101 19.43492439 67.73496061
-103.9604874 -2.461302483e-05 -59.43122539
-155.7802924 8.392127387 -145.2500974
-38.98310236 -2.461302483e-05 95.51467761
-222.3968874 -2.461302483e-05 -67.37345339
-163.8257484 11.67247839 -139.2500974
-107.6041084 -2.461302483e-05 -109.1982834
-120.2341034 67.41337339 -139.2500974
0.0002636414101 65.88489939 94.26795461
-227.1967614 30.00544639 148.7499026
-146.6564364 20.09787139 -139.2500974
-6.219599359 -2.461302483e-05 4.895960614
-53.81673236 44.56604739 -145.2500974
-90.67321036 -2.461302483e-05 5.449574614
0.0002636414101 20.63635439 -119.5165314
-124.9894094 -2.461302483e-05 148.0458666
-164.3761524 16.09880639 148.7499026
-13.88282836 39.88174739 -145.2500974
-175.9530954 5.741593387 148.7499026
0.0002636414101 47.46554539 -64.92530339
-189.5366484 46.51557439 -139.2500974
-214.6264414 -2.461302483e-05 84.47101161
-186.9477554 -2.461302483e-05 22.08067461
0.0002636414101 36.00685639 -99.32595239
-229.3042044 40.38447739 -145.2500974
-223.5003214 -2.461302483e-05 101.1963346
-116.7068244 60.77846839 -139.2500974
-2.146240359 -2.461302483e-05 -121.6920184
-201.1782164 -2.461302483e-05 45.33741761
-170.5420494 67.99997539 149.2382866
-64.46128036 41.32598639 -145.2500974
-207.6848874 6.784582387 148.7499026
0.0002636414101 7.445995387 18.93629161
-73.29504836 -2.461302483e-05 15.65358461
-224.3461334 -2.461302483e-05 12.68877961
-92.41003036 4.807664387 148.7499026
-23.99217836 -2.461302483e-05 29.63614761
-128.7841124 29.67414939 -145.2500974
-126.3207504 53.04907739 -139.2500974
-98.91671336 28.86480039 -145.2500974
-187.8800204 7.353700387 148.7499026
-116.2482304 -2.461302483e-05 58.51368061
-8.340852359 132.9309724 148.9369376
0.0002636414101 42.15015839 -110.4066854
-18.12741636 -2.461302483e-05 -114.1260164
-41.28038036 -2.207147613 -139.2500974
-78.29515936 42.46900139 -145.2500974
-77.28355936 -2.461302483e-05 -71.41446739
-200.8163384 -2.461302483e-05 91.04476761
-242.3171924 -2.461302483e-05 135.6898076
-129.9987594 -2.001859613 87.96723061
-232.5118984 -2.461302483e-05 118.2304706
-64.70026336 67.47968039 -145.2500974
-12.97372236 3.935642387 -145.2500974
-205.3885994 -2.461302483e-05 13.50953661
-194.6504584 4.333764387 -145.2500974
-144.3608804 43.46266239 148.7499026
-39.60747136 49.28168239 -145.2500974
-136.0258024 -2.461302483e-05 10.23682061
0.0002636414101 22.43037339 -25.28138839
0.0002636414101 30.48967039 86.97927461
-87.94633136 8.200216387 -145.2500974
-61.94033936 25.16362539 -139.2500974
-60.00524536 63.38961139 148.7499026
-101.9683854 -2.461302483e-05 -72.45981039
0.0002636414101 94.72265339 80.19795561
-134.5236334 -2.461302483e-05 -38.59190439
-35.47644936 -2.461302483e-05 55.10393061
-32.11855436 4.786742387 -139.2500974
0.0002636414101 64.91584639 35.58883661
-32.75034536 67.99997539 -142.1263084
-92.38772536 -2.461302483e-05 126.1954766
-36.12329236 -2.461302483e-05 -24.54430839
-77.69728336 -2.461302483e-05 -107.8436554
-237.3348234 27.07840139 -145.2500974
-108.3077434 -2.461302483e-05 15.43357761
0.0002636414101 25.59224839 140.2028816
0.0002636414101 18.24811639 99.92334361
-205.7078464 -2.461302483e-05 85.33571461
-85.81284736 3.758133387 -139.2500974
-6.402358359 -2.461302483e-05 -114.2456834
0.0002636414101 50.88502539 -125.3195624
-14.07760036 -2.461302483e-05 123.1783366
-226.3834264 40.58711239 148.7499026
0.0002636414101 53.26033839 -94.66448839
-46.23398836 49.25881539 -139.2500974
-27.68068236 111.6496824 148.7499026
-82.63590836 -2.461302483e-05 -130.7330564
-41.58057536 -2.461302483e-05 -13.83709039
-68.52105236 -2.461302483e-05 118.9024556
-94.08207136 -2.461302483e-05 116.5540076
0.0002636414101 100.2763354 107.2675496
-81.40645036 85.28614439 148.7499026
-143.0815334 69.00571939 152.8428056
-148.2823224 -2.461302483e-05 -17.70544339
-96.78270336 -2.461302483e-05 37.61669661
-203.1201224 -2.461302483e-05 -136.1648234
-137.8275144 -2.461302483e-05 109.9968826
0.0002636414101 48.51870039 134.3796696
-78.23360736 19.02849039 -139.2500974
-81.07369036 -2.461302483e-05 38.84609761
-208.6168654 -2.461302483e-05 29.62530161
-244.7519944 5.589247387 -139.2500974
-35.29646736 123.2653334 148.7499026
0.0002636414101 7.623915387 81.89967861
-57.53754536 31.68329839 148.7499026
-191.4040334 52.63946939 -145.2500974
-172.9806614 60.97386939 148.7499026
-202.0119124 5.616552387 -139.2500974
0.0002636414101 29.88531539 69.90068761
-97.15340836 53.50211439 -145.2500974
-49.31467936 88.22552539 148.7499026
-49.55002136 65.59428739 148.7499026
0.0002636414101 25.38259539 99.34904761
0.0002636414101 57.22647639 -56.55269939
0.0002636414101 64.57511139 63.14749961
-163.2484204 34.38020939 -145.2500974
-8.352462359 69.79324339 148.7499026
-213.2900794 -2.461302483e-05 -95.39922139
-180.2418234 -1.954956613 -139.2500974
-156.8588894 0.749975387 152.6227646
-196.1532394 51.51289339 148.7499026
-236.0199674 17.19388839 -145.2500974
-234.1392124 52.55947539 -139.2500974
-72.55780336 56.26303439 -145.2500974
-178.6110914 -2.461302483e-05 148.4132806
-205.7117164 -2.461302483e-05 69.02572061
-36.02609136 -2.461302483e-05 81.17197561
-61.64445336 31.98953539 -145.2500974
-194.3631354 11.86072439 148.7499026
0.0002636414101 22.41700039 110.6691276
-46.06262436 -2.461302483e-05 32.86124161
-68.34427336 45.59006939 -139.2500974
0.0002636414101 40.81248039 34.77308861
-78.41053736 12.59871039 -145.2500974
0.0002636414101 6.851253387 28.00943761
0.0002636414101 55.14975839 -2.904359386
0.0002636414101 4.652020387 59.00021761
0.0002636414101 47.65064539 110.7010376
-30.25943836 -2.461302483e-05 -57.13414239
-121.6464694 5.288923387 -145.2500974
-134.6845244 8.607259387 -145.2500974
-112.3820384 -2.461302483e-05 -93.60819439
-113.1596924 -2.461302483e-05 -121.1943384
-214.8924354 -2.461302483e-05 -0.8190593863
-49.69371136 4.905753387 -145.2500974
-191.3594744 -0.651697613 148.7499026
0.0002636414101 42.91355239 -126.7699644
-12.17022636 117.2637774 148.7499026
0.0002636414101 12.41374439 -127.0423864
-77.94818436 -2.461302483e-05 -58.54720139
-93.92267236 -2.461302483e-05 -21.97332839
-36.21690236 -2.461302483e-05 -111.7710584
0.0002636414101 60.70889439 89.65295361
-138.3852764 -2.461302483e-05 -113.7062874
-134.6199464 -2.461302483e-05 -84.86973439
-115.5857034 -2.461302483e-05 -104.4775924
0.8623616414 88.77283739 50.21401661
-116.9396774 18.49377439 148.7499026
-73.21935736 64.24883439 -139.2500974
-41.10547336 -2.461302483e-05 109.1802306
0.0002636414101 77.15030439 103.5421986
-95.64279036 -2.461302483e-05 -107.6752924
-42.34223836 4.397892387 -145.2500974
-15.22704736 -2.461302483e-05 -65.09898839
-200.5798484 4.062955387 -145.2500974
-100.9463654 -2.461302483e-05 -82.64083439
-130.9987594 -2.215862613 -49.54935939
-68.40727836 -2.461302483e-05 87.16337861
-76.58276636 23.19952439 148.7499026
-167.2941504 7.846933387 -145.2500974
-125.1055794 -2.461302483e-05 70.63490061
-136.5390054 48.29078839 -145.2500974
-156.9953544 21.47291839 -145.2500974
-178.7589194 -2.461302483e-05 14.31353861
-225.3638014 3.045452387 148.7499026
-134.6305464 -2.461302483e-05 -101.0109004
-5.636032359 -2.461302483e-05 131.2066296
-172.4490984 -2.461302483e-05 132.5585276
0.0002636414101 1.403497387 91.89600261
-248.1169934 39.32201739 148.7499026
0.0002636414101 31.77201639 -93.27746739
-180.4464574 -2.461302483e-05 134.3386926
-70.75965636 -2.461302483e-05 -43.29722039
-93.49234936 -2.461302483e-05 -133.9704394
0.6150446414 -2.461302483e-05 -7.824182386
-161.4709064 -2.461302483e-05 -90.84059039
-204.1123004 -2.461302483e-05 38.76199461
-172.9559904 31.84436639 -139.2500974
-241.4371284 -2.461302483e-05 51.94252661
-136.3084434 64.84452139 148.7499026
-156.9098474 27.70227439 -139.2500974
-68.75036636 -2.461302483e-05 -122.8290974
-109.1883574 60.95590239 -145.2500974
-155.7693124 -2.461302483e-05 -65.22702839
-9.955474359 -2.461302483e-05 -49.84900739
-215.9200204 67.99997539 -140.3855914
0.0002636414101 76.10062539 122.9035296
-110.9265784 62.84532139 148.7499026
-4.135422359 -2.461302483e-05 -53.28202939
-96.37830936 67.99997539 -139.3343874
0.0002636414101 5.392283387 101.3592826
-172.0127624 47.10277039 -139.2500974
-12.80517736 26.21579439 -145.2500974
0.0002636414101 19.56970139 -41.03557739
0.0002636414101 47.33732239 88.03854561
-201.3976734 -2.461302483e-05 -107.3525834
0.0002636414101 39.33976439 48.72220161
-119.8122394 29.10600739 -139.2500974
-59.94225236 17.86663239 -139.2500974
0.0002636414101 11.03146939 -76.19974039
-67.25093936 -2.461302483e-05 49.95639161
-39.75121136 61.36049839 -145.2500974
-53.84109136 15.20264339 148.7499026
0.0002636414101 34.41355839 125.6809306
-46.58534136 53.93751739 -145.2500974
-82.13165236 -2.461302483e-05 -7.119603386
-164.4102314 56.07906239 148.7499026
-244.0055344 -2.461302483e-05 -56.95712339
-20.96941236 44.10499039 -145.2500974
-130.9987594 -1.333768613 33.94421961
-235.8187274 14.69744539 148.7499026
0.0002636414101 96.85966339 123.1252496
-76.59452336 -2.461302483e-05 -119.5345524
-233.8340904 -2.461302483e-05 -19.04815639
-146.0961844 62.65551939 -145.2500974
-6.032918359 90.15350039 148.7499026
-18.68583536 87.81812839 152.7207856
-159.6799764 67.99997539 149.9163226
-189.9251554 37.98654139 148.7499026
-197.8773294 29.42874939 148.7499026
-114.8278344 -2.461302483e-05 114.4908346
0.0002636414101 51.35758639 46.98684361
-53.85706436 63.47013639 -145.2500974
-225.9304844 -2.461302483e-05 122.5709296
-152.5448544 67.99997539 151.6297746
0.0002636414101 22.85816539 84.23923161
-85.30264136 44.54131339 148.7499026
0.0002636414101 47.40044839 -94.49663139
-130.7488664 75.47423139 152.5960316
-136.5196124 25.82304039 -139.2500974
-120.3493614 -2.461302483e-05 -112.8304644
0.0002636414101 44.22916539 -76.94419539
-252.3858934 -2.461302483e-05 97.04400061
-166.7289834 -2.461302483e-05 72.24098461
-39.74899336 85.38095939 148.7499026
0.0002636414101 43.03220639 114.7167816
-160.5643184 -2.461302483e-05 10.63571061
-88.84002336 -2.461302483e-05 -67.04670539
-15.12817236 48.87855539 148.7499026
0.2226146414 -1.824937613 70.74990261
-33.88394336 -2.461302483e-05 144.7185166
-13.98595036 34.22298939 148.7499026
0.0002636414101 2.007589387 114.6313226
-245.2023634 -2.461302483e-05 99.51613061
0.0002636414101 12.53586339 50.21215961
-17.08269236 79.55274639 148.7499026
-244.0602404 -2.461302483e-05 -89.85760339
-143.4972354 -2.461302483e-05 -105.0278984
-125.9534064 -2.461302483e-05 118.7147336
-104.9585054 -2.461302483e-05 -25.58511039
-78.21566136 31.13038739 148.7499026
-36.24034236 46.21311139 -139.2500974
-18.89260036 25.26167539 148.7499026
-202.7096504 17.42123539 -139.2500974
-158.9235224 -2.461302483e-05 -30.20570539
-21.41707136 129.9741214 148.7499026
0.0002636414101 102.2301634 120.7973686
0.0002636414101 80.91227439 27.37534761
-80.37055736 118.4936104 148.7499026
-214.5507294 -2.461302483e-05 37.38076561
0.0002636414101 25.31891439 -125.8762034
-227.6425364 -2.461302483e-05 -63.28438839
-122.9235664 -2.461302483e-05 94.47473461
0.0002636414101 23.00628939 41.77712461
0.0002636414101 72.82161939 54.32495461
0.0002636414101 21.80544439 -11.64070339
-250.1957334 34.92578239 -139.2500974
0.0002636414101 78.34199639 73.40543861
0.0002636414101 21.58376639 -113.9513954
-26.21403036 64.11561839 -139.2500974
0.0002636414101 88.50977939 144.7555956
0.0002636414101 31.00742939 39.19980961
-101.7500954 -2.461302483e-05 5.358029614
-4.117637359 -2.461302483e-05 -30.47788239
-104.8274044 54.04046239 -139.2500974
-185.8226574 -2.461302483e-05 72.96732761
-242.0214554 67.99997539 -140.8392494
-237.0662924 -2.461302483e-05 129.5452586
-203.1501284 -2.461302483e-05 117.0474406
-72.47598236 -2.461302483e-05 -134.9969224
0.2302906414 94.58013439 68.53797261
-199.8276724 -2.461302483e-05 -115.6607854
0.0002636414101 4.951819387 -51.62514439
-145.2112134 3.954316387 148.7499026
-51.90302536 58.88268139 148.7499026
-46.69061936 6.875995387 148.7499026
-132.3888314 44.05996439 -139.2500974
-17.76307836 -2.461302483e-05 49.54075761
0.0002636414101 86.59943039 123.8181406
-93.36066036 -2.461302483e-05 63.28918261
-22.15148136 -2.461302483e-05 121.5662106
0.0002636414101 41.41424039 -38.82417839
-0.4987593586 -0.421030613 -66.97614939
-95.43670936 -2.461302483e-05 140.7702226
