# .PCD v0.7 - Point Cloud Data file format
VERSION 0.7
FIELDS x y z
SIZE 4 4 4
TYPE F F F
COUNT 1 1 1
WIDTH 1255
HEIGHT 1
VIEWPOINT 0 0 0 1 0 0 0
POINTS 1255
DATA ascii
48.00001964 97.18765239 239.2119276
-0.9212323585 -2.461356348e-05 166.4116196
1.784932642 -2.461356348e-05 179.6599716
48.00001964 8.852789386 93.99232861
67.03797264 -2.461356348e-05 12.21156261
72.66764764 -2.461356348e-05 218.9850076
12.64501664 29.74250639 -9.738636436e-05
48.00001964 27.07126639 5.626729614
38.62134264 -2.461356348e-05 138.8490756
-51.99998036 6.812606386 219.7306446
44.59937764 61.36190539 -9.738636436e-05
-48.05774736 44.10254839 1.499902614
-51.99998036 11.40067939 28.39831261
36.70991164 -2.461356348e-05 187.7270176
-31.54804436 -2.461356348e-05 143.8464136
48.00001964 69.32059939 213.8255216
-58.38252036 -2.461356348e-05 113.7991546
-23.66488436 -2.461356348e-05 73.12584361
-39.50295736 34.88277039 -9.738636436e-05
48.00001964 10.23626339 11.23560561
52.00001964 11.38011639 191.3236466
57.40561564 -2.461356348e-05 206.6417286
69.68951364 11.74600239 -9.738636436e-05
-51.99998036 85.37048239 192.6714716
-25.13225536 -2.461356348e-05 176.7059966
9.748598642 -2.461356348e-05 124.8613786
52.00001964 32.09764539 131.5951266
-51.99998036 10.37325539 108.1079096
-47.99998036 61.24195139 203.8747286
-47.99998036 76.87735039 148.4051646
-72.73903136 -2.461356348e-05 81.49455361
52.00001964 -2.128588614 72.44871461
69.11099064 58.53140339 -9.738636436e-05
10.21536064 17.37291139 -9.738636436e-05
32.29231964 1.290435386 -9.738636436e-05
48.00001964 9.705259386 141.9004056
-51.99998036 7.318475386 53.59176261
52.00001964 33.57944139 102.8653746
-0.6832213585 -2.461356348e-05 111.4004396
48.00001964 70.66155139 236.1086186
-49.48470436 -2.461356348e-05 87.68756861
-22.68603436 -2.461356348e-05 108.6956676
25.40324464 -2.461356348e-05 111.4922156
57.34589564 -2.461356348e-05 227.8833316
-47.99998036 21.90742339 188.3813896
48.00001964 35.47755739 184.2980176
-67.83042736 -2.461356348e-05 39.97683161
48.00001964 41.47307339 201.7253136
20.04349964 -2.461356348e-05 222.1654746
-38.20347936 11.17468539 -9.738636436e-05
64.88256164 -2.461356348e-05 66.00956361
-47.99998036 12.60133639 11.09661361
48.00001964 49.71684139 146.5240996
-46.11342936 -2.461356348e-05 124.3107016
-48.40729636 -2.461356348e-05 194.4375536
-51.99998036 28.31458539 123.9724666
16.02707364 -2.461356348e-05 159.5720096
-51.99998036 40.29466139 172.8322796
-51.99998036 51.13778439 223.6185776
-51.99998036 15.26733439 142.5902546
48.00001964 54.00227939 200.4712076
52.00001964 9.137380386 44.61328261
-71.27964736 -2.461356348e-05 161.7483796
-58.67976636 -2.461356348e-05 176.3334186
48.00001964 53.85124639 252.1570086
-34.92705336 -2.461356348e-05 203.2980756
60.67346364 -2.461356348e-05 160.7161786
49.22895164 -2.461356348e-05 180.9017536
-21.79223236 -2.461356348e-05 95.58039861
57.00592464 -2.461356348e-05 84.49309061
52.00001964 39.11398339 148.3261846
-10.86711436 -2.461356348e-05 229.0001106
-51.99998036 30.62720539 104.9192946
-19.00395436 -2.461356348e-05 136.1488576
48.00001964 56.51381939 229.0924446
-60.32538636 -2.461356348e-05 142.5259076
52.00001964 70.32258839 173.2013196
40.90249764 -2.461356348e-05 94.78561961
-25.89885936 57.41340039 -9.738636436e-05
-51.99998036 53.65068539 111.8050856
-47.99998036 66.07659939 127.8692976
48.00001964 19.25932539 119.9051766
48.00001964 93.68521239 205.6097216
52.00001964 33.85634439 87.68562761
-47.99998036 63.26979939 181.0112266
36.65408764 -2.461356348e-05 34.13313961
-21.44637736 -2.461356348e-05 123.2350866
-37.90954736 -2.461356348e-05 37.47414061
-51.99998036 60.34088839 163.8212976
48.00001964 21.93548639 66.69576861
29.59349164 -2.461356348e-05 47.61626761
43.84599164 -2.461356348e-05 116.9970986
-2.869626358 -2.461356348e-05 84.76862961
50.51840664 84.95745539 176.9997356
48.00001964 50.63926539 130.8440856
-51.99998036 30.63988539 57.74361261
-68.24107736 44.07293139 -9.738636436e-05
-47.99998036 78.09415039 221.4634626
65.31546764 -2.461356348e-05 241.5903066
-47.99998036 29.09370539 84.46717961
35.38055564 -2.461356348e-05 159.2628376
43.26335564 -2.461356348e-05 220.0712756
-38.49269336 61.38639139 -9.738636436e-05
-47.99998036 17.09134539 172.9771686
-60.67191236 4.517627386 -9.738636436e-05
48.00001964 41.77439739 217.8780646
-51.99998036 47.77239239 137.0602416
-47.99998036 3.404633386 41.54622761
-47.99998036 6.890596386 66.61163161
52.00001964 9.139183386 21.84473061
-69.41982236 -2.461356348e-05 97.31016961
52.00001964 70.75454839 160.2297516
-51.99998036 4.198353386 17.48753061
-37.40918136 -2.461356348e-05 232.2314446
1.024476642 41.25925439 -9.738636436e-05
-63.03117636 -2.461356348e-05 61.82383361
48.00001964 48.15019839 9.794911614
-67.43442036 -2.461356348e-05 207.0887266
-39.55110236 -2.461356348e-05 66.71957961
-72.22115236 10.32589639 -9.738636436e-05
-51.99998036 35.51245239 7.630457614
-47.99998036 46.83247939 185.8192766
-51.99998036 37.96395739 92.24908561
-57.64308236 -2.461356348e-05 212.3468146
52.00001964 31.35966639 223.4785926
48.00001964 46.02086839 106.6173036
24.90825564 -2.461356348e-05 24.62322061
48.00001964 10.68948239 228.5608126
50.70102164 70.79304039 123.2477826
-47.99998036 80.68666639 171.8394186
48.00001964 55.41787239 50.14421061
-47.99998036 41.21898439 48.26260961
-51.99998036 35.60515239 202.8912156
52.00001964 42.33330139 242.0067766
52.00001964 93.50127239 248.5935076
16.93214564 -2.461356348e-05 147.6438036
-51.99998036 18.83473639 101.6217256
-51.55471636 16.17344439 1.499902614
52.00001964 77.23006939 220.7072186
48.00001964 8.230288386 108.5111966
-19.48584436 29.70297439 -9.738636436e-05
23.09104364 47.60839139 -9.738636436e-05
21.69328564 -2.461356348e-05 1.164748614
-18.85097636 -2.461356348e-05 58.48630561
-47.99998036 26.23856139 138.8691866
68.20620164 -2.461356348e-05 112.2416946
26.09404364 -2.461356348e-05 249.7363096
52.00001964 59.50269739 215.2931876
-47.99998036 8.699587386 204.2717986
-53.68444736 -2.461356348e-05 185.6563806
48.00001964 78.10980039 243.3998246
-47.99998036 88.36669539 213.5603586
-47.99998036 73.44125339 182.0529606
52.00001964 47.61389539 58.09636161
-16.35125336 -2.461356348e-05 8.762928614
52.00001964 6.903391386 201.0048036
-47.99998036 9.601696386 135.1343516
-47.99998036 28.99539039 223.5883276
52.00001964 22.39705039 209.0039556
-47.99998036 23.78340339 70.31017661
25.83381764 -2.461356348e-05 58.37935461
48.00001964 87.17413639 221.7585506
48.00001964 44.14324739 37.89972561
29.27368764 -2.461356348e-05 134.9930206
-47.99998036 39.43535839 123.9238336
20.76815664 57.79793339 -9.738636436e-05
48.00001964 41.07144939 127.7572176
-8.146735358 -2.461356348e-05 94.85836761
-10.89783536 -2.461356348e-05 51.97213361
-12.48826936 -2.461356348e-05 206.3855776
48.00001964 24.44316639 36.45736761
48.00001964 9.543392386 240.5500386
-68.44917336 -2.461356348e-05 16.25199661
-56.42761436 -2.461356348e-05 241.2469166
-21.23774036 0.4025873864 -9.738636436e-05
-47.99998036 17.15624339 52.75732161
48.00001964 17.13090239 175.4286606
-51.99998036 65.67300539 141.0196426
52.00001964 15.23718139 166.0410596
52.00001964 43.32017939 2.188388614
14.88060764 -2.461356348e-05 181.8314056
-15.40939136 -2.461356348e-05 195.2780566
-51.99998036 22.08508539 233.2495856
-37.97329136 -2.461356348e-05 135.6865276
48.00001964 32.71922339 174.8873656
-47.99998036 35.17527839 155.2092496
-11.82247436 -2.461356348e-05 114.5150306
51.79984164 13.20835739 -9.738636436e-05
-48.16380236 62.44730539 84.18303661
-60.98925736 -2.461356348e-05 152.8836316
48.00001964 11.26835539 53.25618161
52.00001964 4.889189386 149.3862556
50.59409964 68.55422339 113.3917246
-47.99998036 88.72606439 241.4295516
-47.99998036 13.26148339 153.6954876
48.00001964 2.572522386 38.64698061
-51.99998036 39.34478139 223.7359816
48.00001964 49.09942139 28.98951461
-66.16385036 66.47688239 -9.738636436e-05
42.66302364 -2.461356348e-05 70.89763661
-47.99998036 43.45344239 27.98829561
50.82117764 -2.461356348e-05 47.59681861
48.00001964 58.90972139 162.8085906
-67.14179536 -2.461356348e-05 134.1018426
48.00001964 49.71637439 183.9045376
52.00001964 50.91105539 222.3697546
52.00001964 65.30386839 131.8513626
-51.99998036 71.05264039 158.8286806
-51.99998036 27.23072739 12.42884461
55.97607664 -2.461356348e-05 62.44829361
-51.99998036 29.28012739 39.26280061
-51.99998036 36.70857639 246.3241576
-51.99998036 55.95929939 144.9935376
-5.496779358 -2.461356348e-05 134.6781646
-29.16153736 -2.461356348e-05 16.04776361
-51.99998036 67.17589639 213.8395966
-21.02930636 -2.461356348e-05 159.3328166
-47.99998036 18.38745239 88.44673561
45.84675364 -2.461356348e-05 126.2746906
68.26559964 24.54666739 -9.738636436e-05
-44.07075036 -2.461356348e-05 222.4671896
52.00001964 51.00145239 97.80335861
-21.75794336 -2.461356348e-05 234.9877306
52.00001964 53.50274239 81.85920761
-51.99998036 8.740575386 78.83523661
62.48452964 -2.461356348e-05 138.5094566
-51.99998036 53.67102439 81.11499761
34.39457964 -2.461356348e-05 232.3673986
-51.99998036 16.73637639 250.4322656
19.49071264 22.31771339 -9.738636436e-05
10.31971064 -2.461356348e-05 94.76787361
58.38103064 -2.461356348e-05 178.9070516
-44.74592836 -2.449028614 -9.738636436e-05
-51.99998036 34.65177339 27.49272861
-51.99998036 77.33160139 251.5863946
-38.60535736 -2.461356348e-05 90.23566561
-47.99998036 10.47726239 234.1334096
52.00001964 30.89242339 25.14516461
-51.36723636 101.4547044 228.0631506
4.270654642 24.52208639 -9.738636436e-05
-51.99998036 97.33286139 244.1743976
-47.93923236 60.65393639 -9.738636436e-05
-47.99998036 57.02913039 125.8446716
-6.254805358 48.05342039 -9.738636436e-05
-51.99998036 67.76630339 241.0918596
48.00001964 49.67445739 170.7699446
52.00001964 61.75847139 236.0901996
48.00001964 20.28273639 189.6353126
49.41994164 -2.461356348e-05 104.6338036
-47.99998036 47.13810439 239.7808586
-47.99998036 83.88630039 200.7843396
48.00001964 65.88948239 146.1324686
-26.67483236 -2.461356348e-05 25.11448161
48.00001964 20.25106339 140.7635526
-57.76948236 29.12077839 -9.738636436e-05
-35.44695636 -2.461356348e-05 74.84534861
-47.99998036 7.939463386 247.1696966
48.00001964 75.43500139 205.6362926
52.00001964 44.11949939 21.26014161
-51.99998036 58.73217639 244.5449346
34.26030664 -2.461356348e-05 11.36758461
52.00001964 17.46749239 27.58931061
-7.459418358 -2.461356348e-05 30.64854961
-2.675488358 -2.461356348e-05 72.34841961
15.25657064 6.725337386 -9.738636436e-05
-47.99998036 3.876829386 101.3968486
48.00001964 0.2500593864 168.0219026
62.15277764 -2.461356348e-05 77.11573761
18.38255964 -2.461356348e-05 243.0560396
48.00001964 58.63217339 101.0975896
-70.29294936 -2.461356348e-05 119.3987666
-47.99998036 27.98990339 208.2218496
-51.99998036 53.23751039 158.3397126
24.17978964 -2.461356348e-05 205.8237036
-37.70144936 -2.461356348e-05 56.35161361
-47.99998036 7.755336386 145.3809166
-60.56226336 -2.461356348e-05 20.49187561
52.00001964 36.36205539 75.01763361
-58.12584136 -2.461356348e-05 90.66067161
30.04851164 15.89316339 -9.738636436e-05
52.00001964 84.31210839 201.4066136
52.00001964 6.691030386 73.54155361
-12.71593436 23.97505639 -9.738636436e-05
-47.99998036 44.14682139 12.21415061
52.00001964 23.74411139 152.4252926
-47.99998036 18.22801939 203.7482446
-72.76734236 -2.461356348e-05 226.4127406
-47.99998036 45.56154939 114.4665246
-47.99998036 22.75752339 216.8053446
50.75133264 105.5198584 239.1115166
48.00001964 14.55202339 71.40754361
-20.24641536 50.74881439 -9.738636436e-05
-51.99998036 20.53017239 180.7722646
48.00001964 45.73714439 87.13401661
52.00001964 24.44085239 99.34966261
20.80739164 -2.461356348e-05 136.9295056
52.00001964 67.95522339 182.4471896
64.88071664 -2.461356348e-05 46.08027361
55.09845764 -2.461356348e-05 124.6872696
-51.99998036 78.60951839 229.1192766
48.00001964 8.485760386 209.0576236
-47.99998036 1.089587386 175.7992806
-47.99998036 0.3974323864 159.4548066
-6.813279358 63.97994239 -9.738636436e-05
-32.70462036 -2.461356348e-05 180.7978966
52.00001964 1.403985386 239.3120296
-37.16303436 -2.461356348e-05 108.8379666
3.134580642 -2.461356348e-05 134.9018046
52.00001964 34.23509439 244.8244646
48.00001964 53.16297239 118.8150296
-34.27451136 18.79156339 -9.738636436e-05
-47.99998036 4.673889386 31.85428661
-47.99998036 12.71783139 20.68565461
48.00001964 24.34306939 232.9128086
-51.99998036 76.98606939 188.7061296
52.00001964 13.26818539 100.3355496
-47.99998036 36.83319339 68.35918661
-57.32328636 -2.461356348e-05 73.59969961
-19.83274436 -2.461356348e-05 144.6263456
-18.40358636 -2.461356348e-05 225.0790546
6.615328642 -2.461356348e-05 214.2626546
52.00001964 27.96835539 13.62283461
52.00001964 23.98420839 83.82729061
16.05420064 -2.461356348e-05 200.1935536
-47.99998036 37.29336139 101.5566716
46.81354964 33.27658939 -9.738636436e-05
-51.99998036 49.63005039 39.62378661
-47.99998036 50.55143739 64.97872461
48.00001964 29.32788339 203.4676566
51.62096664 64.74196939 95.65100361
-47.99998036 106.5147134 243.2782476
-47.99998036 0.6713703864 251.4061156
48.00001964 10.99870539 133.6039746
41.62288864 -2.461356348e-05 16.94701861
22.76532964 -2.461356348e-05 232.4665046
52.00001964 62.92503739 206.7629526
-47.99998036 54.23665239 208.4461676
-47.99998036 27.39493539 158.2787446
71.45109964 -2.461356348e-05 60.83219161
-51.99998036 23.26125239 167.3563256
52.00001964 39.27964239 57.72269561
-41.08796536 -2.461356348e-05 149.1978076
37.95059564 27.11648539 -9.738636436e-05
-47.99998036 0.9379073864 50.04237361
-47.99998036 57.98193439 172.8790156
-26.80939336 -2.461356348e-05 52.71648361
-51.99998036 57.25496839 104.3359236
-13.81546936 -2.461356348e-05 25.34011161
3.782728642 -2.461356348e-05 145.4025726
-71.26029936 24.26623539 -9.738636436e-05
-51.99998036 66.47700539 222.0806596
48.00001964 26.43872039 159.6882686
70.90101564 -2.461356348e-05 129.9356946
52.00001964 42.11671539 208.9269896
-47.99998036 52.08529139 53.99431061
-51.42877036 -2.461356348e-05 24.54588861
-58.83650036 -2.461356348e-05 224.4214406
22.32154264 -2.461356348e-05 153.8283246
48.00001964 38.07033739 108.6299636
61.99268464 -2.461356348e-05 18.67399861
-47.99998036 21.85493039 120.9355326
-47.99998036 69.38881339 203.1411676
48.00001964 62.70057739 85.78971961
-4.919648358 11.33210839 -9.738636436e-05
-29.86701036 11.94757739 -9.738636436e-05
23.26642764 -2.461356348e-05 214.7109366
52.00001964 11.63646639 116.7860996
48.00001964 7.563679386 161.9144116
-34.28535836 -2.461356348e-05 22.31914861
52.00001964 15.34314639 245.5149366
36.00432964 -2.461356348e-05 115.0375586
19.44462564 -2.461356348e-05 80.08573661
18.23413564 -2.461356348e-05 120.2198636
-47.99998036 6.186806386 113.8678276
-51.99998036 66.16403739 106.4003306
52.00001964 14.06795939 222.4323946
48.00001964 51.35867639 75.22945661
48.00001964 86.10486739 242.6316026
-14.63766536 -2.461356348e-05 74.82329561
22.58206564 -2.461356348e-05 175.8289236
-51.99998036 27.62994439 22.07519061
48.00001964 17.23555039 213.6128096
-19.38605036 -2.461356348e-05 211.5687026
8.161415642 -2.461356348e-05 239.3180526
57.34049764 -2.461356348e-05 106.3910036
70.40115264 -2.461356348e-05 152.4656646
-47.99998036 69.51363539 165.7693276
-48.35492036 59.25065539 66.64510261
-51.99998036 59.41250939 229.8817346
52.00001964 72.07513339 249.4294776
-47.99998036 50.54967839 6.099811614
-51.99998036 6.987693386 210.8894606
-58.81276936 12.20361839 -9.738636436e-05
-47.99998036 67.24588439 148.2358806
48.00001964 26.06173839 52.37711261
52.00001964 79.24013239 190.2264456
-12.70177136 -2.461356348e-05 15.72936961
48.00001964 26.31855839 240.6003196
-66.34778336 -2.461356348e-05 76.10759961
48.00001964 34.90913639 65.90118561
-51.99998036 7.130692386 159.8484156
52.00001964 57.32839639 129.0195926
-51.99998036 38.99574839 142.9494496
-47.99998036 65.66389339 188.4576926
0.7994906415 -2.461356348e-05 200.7070176
67.07054864 -2.461356348e-05 181.1584356
-47.99998036 21.46762239 9.023576614
66.00578364 65.68003139 -9.738636436e-05
-5.118805358 -2.461356348e-05 46.74399061
-4.255066358 -2.461356348e-05 247.1977736
-47.99998036 93.22210239 249.8099446
-47.99998036 56.99125539 117.5861386
-50.06380736 -2.461356348e-05 10.29864061
-6.279529358 -2.461356348e-05 187.3603736
48.00001964 11.19363539 184.6669386
55.91546364 27.75794339 -9.738636436e-05
48.00001964 38.00212339 166.9181736
-51.99998036 41.31418239 76.98260961
39.33308064 -2.461356348e-05 52.50171861
-25.93750336 -2.461356348e-05 42.11014461
48.00001964 36.90755539 8.112226614
52.00001964 38.38592739 49.05796361
-51.99998036 51.64680839 233.5561796
32.51651864 -2.461356348e-05 71.67102761
35.13810864 45.87921839 -9.738636436e-05
-47.99998036 50.07788139 94.25127161
-51.99998036 0.7706813864 80.45436961
-47.18429036 35.36520639 -9.738636436e-05
-51.99998036 24.28854339 62.07755061
48.00001964 23.81370339 112.4135506
-67.42609736 -2.461356348e-05 241.6625716
52.00001964 48.20450239 140.1437696
-57.05767736 45.57679939 -9.738636436e-05
52.00001964 20.56615339 6.434194614
1.915387642 -2.461356348e-05 5.738313614
-51.99998036 51.57194839 215.0127516
-2.982738358 -2.461356348e-05 157.2687616
48.00001964 34.16155139 154.2991166
48.00001964 4.198063386 17.56937161
52.00001964 32.83649939 139.6851956
14.71316064 -2.461356348e-05 68.06791261
48.00001964 54.90668939 65.49935961
22.57637664 -2.461356348e-05 50.65508561
-47.99998036 53.37185139 72.24982261
-71.18978836 -2.461356348e-05 176.2508366
48.00001964 71.48519439 166.8305786
-47.99998036 45.71494539 19.65592061
-47.99998036 25.23115539 100.6761546
-51.99998036 34.79445439 48.85928961
-51.99998036 2.550276386 128.3622416
-28.99925836 -2.461356348e-05 198.5910756
-66.83400036 -2.461356348e-05 190.7959546
49.82880764 -2.461356348e-05 144.0350266
-57.42228136 -2.461356348e-05 53.21827761
48.00001964 1.529359386 64.72165861
57.02299864 -2.461356348e-05 6.898972614
52.00001964 57.13954539 192.1878446
52.00001964 8.145082386 35.01609661
20.34133964 -2.461356348e-05 31.51145661
62.54993964 -2.461356348e-05 248.5699176
-51.99998036 33.77965939 194.8727336
48.00001964 62.08611239 177.3146356
13.76323164 67.99997539 -1.919402386
-51.99998036 43.35645639 128.8940326
48.00001964 18.00443639 87.41461761
48.00001964 1.259613386 92.78532461
-47.99998036 82.28635239 234.7480236
18.32976164 -2.461356348e-05 250.5186676
52.00001964 45.93674439 72.04268361
-51.99998036 40.49761739 180.2788196
-67.56902236 -2.461356348e-05 5.418453614
48.00001964 74.77225339 226.4567746
-47.99998036 50.30001339 194.8085776
-51.99998036 0.6219343864 205.4272106
52.00001964 51.56420539 152.4642616
-47.99998036 35.68042639 209.1086676
21.45541264 34.14003739 -9.738636436e-05
-32.93782036 -2.461356348e-05 31.05043161
-25.98793736 -2.461356348e-05 217.3993146
48.00001964 35.42497539 230.8802756
2.037284642 -2.461356348e-05 190.7124646
65.19112764 52.19086039 -9.738636436e-05
-29.00036136 -2.461356348e-05 236.1488736
-51.99998036 70.98064539 124.1655766
52.00001964 5.080379386 86.10738361
-51.99998036 49.58748239 48.41107361
7.173345642 -2.461356348e-05 88.18914561
48.00001964 3.828593386 186.9808936
48.00001964 58.53246039 222.0927896
-47.99998036 17.10952039 107.4563986
48.51562564 107.9940904 245.8313606
52.00001964 48.74099739 113.7644646
-28.88545836 -2.461356348e-05 120.7620856
52.50099664 -1.842043614 211.6673606
-47.99998036 15.10064339 185.8699066
-47.99998036 31.70054139 143.9119376
6.457936642 -2.461356348e-05 207.0131466
52.00001964 51.98895539 178.3004796
48.00001964 29.73158639 31.50614861
-47.99998036 42.92866239 193.0674186
-47.99998036 29.05250839 189.5517616
11.74544664 -2.461356348e-05 79.43672161
11.70753464 -2.461356348e-05 8.321651614
61.89411664 58.82743939 -9.738636436e-05
-20.94172536 -2.461356348e-05 83.58143461
-47.99998036 11.52301039 167.0496396
-51.99998036 83.82824739 219.6957706
48.00001964 10.74254039 150.6981596
-41.19985836 24.58331839 -9.738636436e-05
48.00001964 78.39623339 175.4507276
9.920670642 -2.461356348e-05 149.2342676
-3.949743358 -2.461356348e-05 215.1189956
-27.76294036 -2.461356348e-05 208.6820766
52.00001964 4.772074386 227.5420626
53.01611464 -2.461356348e-05 199.0351986
-51.99998036 38.59406239 163.0376196
-51.99998036 22.16832239 240.3939006
-47.99998036 76.50995939 202.5692606
48.00001964 18.17570539 55.01820261
-47.99998036 2.735702386 94.09675161
-47.99998036 59.67324639 195.8624926
-30.08441136 37.97611739 -9.738636436e-05
-42.68417536 52.89521239 -9.738636436e-05
57.80704064 -2.461356348e-05 143.8577546
-51.99998036 56.72015839 184.0083596
-51.99998036 21.88246339 49.30492461
-51.99998036 21.58342839 152.0924926
52.00001964 56.20504139 245.5726336
48.00001964 72.93318939 146.7764356
-7.873177358 -2.461356348e-05 79.77424861
1.612314642 -2.461356348e-05 30.51278761
-51.99998036 12.98719039 73.21096361
-22.66179836 23.33820139 -9.738636436e-05
52.00001964 64.79011539 191.5880016
48.00001964 28.52437939 217.7027336
24.67848864 -2.461356348e-05 104.5021306
4.136518642 -2.461356348e-05 66.10734661
52.00001964 2.591383386 79.54096961
48.00001964 29.96979439 126.2434776
-47.99998036 83.22627639 185.6471566
69.72302264 -2.461356348e-05 37.72772061
-47.99998036 25.16566839 172.7736126
52.00001964 14.19617639 208.4778426
-51.99998036 45.51233739 54.77665161
-59.38170936 22.32821339 -9.738636436e-05
-47.99998036 35.10882439 177.9177616
-67.63019736 4.881648386 -9.738636436e-05
33.51605264 -2.461356348e-05 197.4328886
19.09693364 -2.461356348e-05 43.59542261
-51.99998036 84.60171739 209.2864616
-51.99998036 75.47332539 176.1932226
48.66813964 87.49226539 185.3392586
-51.99998036 72.45268939 235.9524696
-51.99998036 50.23360139 152.0694336
52.00001964 14.48414339 91.87609361
10.40801564 -2.461356348e-05 226.5406276
65.81860664 -2.461356348e-05 220.1176656
52.00001964 42.41210939 163.3577396
45.93845464 -2.461356348e-05 242.3656436
-1.823857358 -2.461356348e-05 60.23121261
-51.99998036 42.62276539 106.9714126
16.19952764 -2.461356348e-05 189.0160206
-47.99998036 20.34701939 145.0670066
-51.99998036 47.69273439 86.10307261
48.00001964 49.72030839 246.6082516
-64.96684036 -2.461356348e-05 173.2384156
-47.99998036 52.26100939 21.86079261
-47.99998036 24.41510339 128.9293796
-41.20567236 -2.461356348e-05 49.33883361
52.00001964 7.560362386 180.3985086
52.00001964 15.27468739 123.8401216
48.00001964 50.05549639 191.4955226
-58.17758236 -2.461356348e-05 129.9597676
-51.99998036 30.96778639 64.59078261
-41.12121036 -2.461356348e-05 166.8652106
51.67817964 -2.461356348e-05 174.5007256
52.00001964 37.07295239 40.56960561
-51.99998036 9.123437386 241.7476946
-12.93111836 -2.461356348e-05 124.9866886
-51.99998036 11.52519539 228.6917936
-51.99998036 9.367330386 189.3015686
52.00001964 22.35195839 61.17385561
-30.09977636 -2.461356348e-05 151.8154566
-40.98338836 -2.461356348e-05 17.18109861
52.00001964 21.12059239 250.8296626
-7.700938358 5.117388386 -9.738636436e-05
72.53196564 -2.461356348e-05 237.0641346
-51.99998036 35.14131039 239.4903196
-47.99998036 19.73944139 194.8296836
27.49188564 56.84140139 -9.738636436e-05
45.06986564 12.29697339 -9.738636436e-05
-51.99998036 3.457812386 199.2569656
-47.99998036 63.98574139 234.2423196
-51.99998036 16.37987339 121.1546906
-29.58907836 48.25800339 -9.738636436e-05
38.64309864 64.59510839 -9.738636436e-05
48.00001964 76.07314239 161.4838236
8.786794642 -2.461356348e-05 106.5085106
-51.03225736 -2.461356348e-05 2.268309614
42.32165264 -2.461356348e-05 213.3797976
48.00001964 40.29070739 157.1430056
52.00001964 55.44896039 144.2959676
25.85300164 5.179224386 -9.738636436e-05
48.00001964 2.290391386 206.4042966
9.659335642 -2.461356348e-05 41.66299561
29.65190364 -2.461356348e-05 16.26419761
52.00001964 53.57635139 164.0164636
48.00001964 98.15643439 222.9541016
-51.99998036 54.87005239 198.3003926
5.126738642 -2.461356348e-05 56.15201761
48.00001964 23.61438739 26.95984061
52.00001964 91.75562439 213.1550066
52.00001964 15.61889839 143.4684236
-51.99998036 92.71016639 219.2804426
48.00001964 51.71865839 43.28050061
52.00001964 71.45980039 199.6604916
-8.242366358 -2.461356348e-05 241.1565216
-47.99998036 10.02977339 35.85003361
-7.681498358 -2.461356348e-05 175.0088106
-51.99998036 43.30365439 243.4886846
-47.99998036 54.58084439 37.64877161
70.34932164 -2.461356348e-05 212.7377576
-47.99998036 4.477016386 183.3430056
-51.99998036 40.43290039 118.0338416
-41.55548136 -2.461356348e-05 249.9211706
48.00001964 34.86200039 21.62823161
-50.91558436 63.63188839 90.10318861
48.00001964 19.00608839 79.79336761
-47.99998036 44.29584439 221.8799736
68.17393664 -2.291554614 193.5549516
-13.92683736 -2.461356348e-05 131.9018456
-47.99998036 13.83202639 130.0532106
36.79817964 -2.461356348e-05 145.1948406
-53.58590636 -2.461356348e-05 163.7049126
-47.99998036 25.73350139 54.22388261
52.00001964 92.24884839 237.4795356
52.00001964 44.86847639 14.71820861
-65.32729636 -2.461356348e-05 67.98089761
52.00001964 12.25158439 215.1217306
-47.99998036 55.54556139 226.3646076
52.00001964 48.86577539 229.7640036
-31.26213336 -2.461356348e-05 111.6639296
-35.33102236 -2.461356348e-05 162.1485276
52.00001964 18.91136039 229.4078386
52.00001964 51.22200239 123.6012676
-47.99998036 33.56020239 32.53454561
52.00001964 62.31964539 251.8643986
61.98669564 -2.461356348e-05 91.78787861
-51.99998036 51.37660739 165.8928206
52.00001964 13.00116339 16.58810561
48.00001964 91.11467639 226.9537536
-19.36022036 -2.461356348e-05 64.97938961
-18.06340636 -2.461356348e-05 170.1490906
-51.99998036 78.42868539 155.2662396
-47.99998036 15.62650139 31.30304761
48.00001964 65.01613939 157.4684816
48.00001964 0.03498938644 152.5697636
48.00001964 5.660962386 49.97547361
52.00001964 44.49660439 223.3957206
48.00001964 11.34812439 26.46104261
52.00001964 37.12687739 82.07775461
52.00001964 33.17702839 110.0954636
-51.99998036 37.76209939 63.34351561
-51.99998036 24.23818739 76.73567461
-51.99998036 38.99431339 214.5232646
-51.99998036 94.74976539 238.2571086
-51.99998036 75.17745939 216.5251826
-47.99998036 15.60035539 137.5395646
52.00001964 31.01573739 250.4109056
52.00001964 7.197552386 102.5068856
-51.99998036 33.83722339 80.54824761
48.00001964 19.21105539 150.2303616
38.43833064 -2.461356348e-05 1.369734614
-16.66410436 -2.461356348e-05 242.2208186
48.00001964 43.31507839 183.5844796
-47.99998036 47.11304739 176.0110796
-51.99998036 36.70223239 42.74163661
-27.59065836 -2.461356348e-05 88.68414461
52.00001964 58.80959639 201.8559156
-19.65741736 -2.461356348e-05 101.6138956
-47.99998036 32.99014739 231.5569646
52.00001964 43.01868339 110.5874996
53.75377764 -2.461356348e-05 155.3381116
-60.26734336 -2.461356348e-05 26.85868661
-51.99998036 0.1518833864 236.6662936
48.00001964 63.70697739 110.1785256
-51.99998036 36.39969739 108.3114376
4.567672642 14.43969939 -9.738636436e-05
52.00001964 49.03224239 38.65562361
-68.74335236 -2.461356348e-05 213.3104726
-51.99998036 25.54313539 133.8801466
48.00001964 19.88951639 97.45471061
52.00001964 77.70538939 230.4181416
-47.99998036 24.60722439 229.0147096
-51.99998036 13.77843739 217.2173226
-47.99998036 53.85041539 243.9364516
-47.99998036 1.426183386 118.0451716
-51.99998036 8.998647386 129.2168996
-47.99998036 18.89233139 38.11791161
-47.99998036 45.15343839 145.3690666
-22.73243936 35.12955939 -9.738636436e-05
6.013324642 -2.461356348e-05 119.7616896
-51.99998036 7.730951386 85.07353361
46.15210764 -2.461356348e-05 135.2491176
48.00001964 74.35367239 190.1201706
52.00001964 68.59544839 231.1950336
48.00001964 24.64600739 105.2678716
48.00001964 16.52698939 10.81516461
-47.99998036 42.95716239 136.3195116
48.00001964 67.69208939 187.3092796
48.00001964 49.09067939 236.4348756
-52.49900336 -0.9134536136 215.8626796
-47.99998036 96.35503639 229.5827226
48.00001964 28.61926439 65.68343961
70.67961964 -2.461356348e-05 244.9930336
48.00001964 101.2225744 234.3874986
48.00001964 80.24509739 215.8787496
48.00001964 59.70197439 240.4615826
48.00001964 83.50288839 194.2686536
52.00001964 14.12350539 111.0367806
52.00001964 19.42163039 41.87857361
48.00001964 1.754544386 8.196237614
52.00001964 6.726128386 135.8200536
52.00001964 76.37230939 210.3547986
-51.99998036 30.43455539 3.825898614
52.00001964 99.70745639 247.9195166
-47.99998036 44.98492239 98.25921361
52.00001964 54.87721139 71.99580161
-51.97011036 49.16665539 1.499902614
-8.208335358 -2.461356348e-05 168.3473946
-51.99998036 6.710786386 174.1629616
52.00001964 32.88696539 121.2386956
-41.80608636 -2.461356348e-05 140.5801306
-21.31949636 -2.461356348e-05 28.26356561
48.00001964 90.57897939 195.7220676
9.080396642 -2.461356348e-05 176.3378966
-66.23522836 -2.461356348e-05 114.7055976
52.00001964 28.59454839 46.26153261
48.00001964 81.26718039 223.6338996
48.00001964 22.88135939 226.8447386
-52.88779736 -2.461356348e-05 222.7064846
-34.26751536 -2.461356348e-05 12.54707361
-21.61297436 -2.461356348e-05 196.6750996
-51.99998036 69.20850839 134.7220736
-1.515792358 67.17359839 -9.738636436e-05
52.00001964 49.39962339 50.17846161
-47.99998036 92.80960239 209.2605766
-27.32810036 -2.461356348e-05 183.8483576
51.30083164 72.16367539 129.2442586
-51.99998036 8.734238386 42.21109961
52.00001964 64.35602339 151.1988456
-45.11570336 -2.461356348e-05 64.04855261
-51.99998036 69.03014439 185.1785486
-47.99998036 31.89247839 43.37977461
52.00001964 58.62476439 96.29315161
52.00001964 78.85370539 169.5531886
-71.08615736 -2.461356348e-05 87.41984561
-51.99998036 49.70609939 33.47822361
48.00001964 71.96897539 243.6489866
48.00001964 49.69447139 217.8684546
65.63015364 18.99738239 -9.738636436e-05
-47.99998036 83.39948639 244.4898176
-47.99998036 10.28295039 61.49108061
68.81839964 -2.461356348e-05 167.6357056
52.00001964 45.89028039 200.2413486
60.50376964 -2.461356348e-05 172.6422976
52.00001964 30.07108139 96.90220661
-4.665243358 -2.461356348e-05 103.8900016
-47.99998036 17.83313139 235.1284846
48.00001964 27.41065939 131.8119286
48.00001964 48.99193739 63.90686761
24.49567964 -2.461356348e-05 242.7430086
2.806684642 -2.461356348e-05 82.47913461
-51.99998036 19.24339539 72.97200261
52.00001964 21.85191139 13.51649261
-47.99998036 50.44138939 203.6502256
-47.99998036 21.07384739 248.8238586
-51.99998036 22.14788239 210.0085586
48.00001964 24.30362339 123.9682796
-66.14874036 -2.461356348e-05 102.4639816
48.00001964 34.28096339 92.27629161
52.00001964 18.11315839 75.27684061
67.69515964 6.000429386 -9.738636436e-05
-47.99998036 63.99445839 225.9278406
-39.10646136 -2.461356348e-05 129.7154136
30.58291164 -2.461356348e-05 5.684086614
64.39214664 -2.461356348e-05 34.83068661
-51.99998036 36.93492939 150.7823656
-47.99998036 36.68414139 84.62295661
48.00001964 62.20768439 135.1724786
-47.99998036 18.51355839 126.2241266
48.00001964 51.25275139 102.3248076
52.00001964 67.09645239 167.9351896
51.79285364 -2.366182614 227.9999026
-47.99998036 43.77278939 38.13331261
-47.99998036 41.01434539 239.5992606
48.00001964 32.73907039 83.31566761
-47.99998036 5.590016386 226.7982526
-31.78952936 -2.461356348e-05 223.6122446
-47.99998036 34.69564939 225.7847156
52.00001964 49.35598639 252.0681426
54.35990664 37.86462839 -9.738636436e-05
-51.56144436 75.83959339 143.6853766
15.42258464 -2.461356348e-05 74.69264161
-47.99998036 30.02913139 96.86109861
-51.99998036 26.10398939 183.5776646
-14.61029336 -2.461356348e-05 140.2292806
52.00001964 68.20140439 239.8266256
48.00001964 54.57863039 207.0276476
-47.99998036 61.94241039 114.2258236
-51.99998036 16.89413739 9.996050614
48.00001964 5.287881386 232.2688676
52.00001964 18.99030639 179.6276976
48.00001964 30.99819239 163.5337896
-65.13117136 -2.461356348e-05 229.0406656
52.00001964 25.55683339 201.1643236
52.00001964 41.82282039 132.1107656
-28.99939136 -2.461356348e-05 6.693324614
-51.99998036 85.10810639 238.9035776
-51.81586436 -2.461356348e-05 97.75525761
48.00001964 35.67356939 134.1714046
48.00001964 22.52328939 74.72199261
-60.24042436 65.95920439 -9.738636436e-05
52.00001964 5.806671386 28.73574361
-24.11604536 -2.461356348e-05 240.4432316
-51.99998036 65.13625239 201.8392786
-51.99998036 44.14720939 62.23110161
-57.18543836 -2.461356348e-05 1.644035614
48.00001964 34.00746639 48.82099961
-51.99998036 63.78604739 174.2333256
48.00001964 19.78728939 239.3846396
-4.806212358 -2.461356348e-05 202.6162036
-51.99998036 46.78233139 156.8730446
-47.99998036 28.16500839 16.67758761
-47.99998036 49.74471439 140.9364266
-47.99998036 54.12279939 220.4557636
52.00001964 57.73708239 115.6183546
46.24365064 -2.461356348e-05 51.30812861
48.00001964 47.26674239 121.8506956
15.54595664 -2.461356348e-05 175.9794406
52.00001964 19.86422239 158.3577146
-47.99998036 51.98394339 102.0870076
-47.99998036 34.39009139 130.7599146
-50.77394136 90.54873439 195.1842286
-47.99998036 17.43278139 68.56999561
48.00001964 40.16410139 178.6161396
2.291878642 -2.461356348e-05 173.7990106
34.94886464 -2.461356348e-05 165.1251236
-51.99998036 14.88969539 58.98317761
52.00001964 43.39896639 52.52297661
52.00001964 44.24054639 7.988735614
-47.99998036 38.78231539 4.701749614
48.00001964 62.65519539 167.3182356
-51.99998036 19.77728139 138.4930096
-51.99998036 13.54839439 113.0340126
-4.598754358 -2.461356348e-05 119.5212236
15.41586664 -2.461356348e-05 2.512886614
52.00001964 30.03418339 229.1823106
68.74001764 -2.461356348e-05 188.1961486
9.399290642 -2.461356348e-05 50.85016461
48.00001964 0.4862093864 216.6681856
-65.97850136 -1.527467614 -9.738636436e-05
-51.99998036 24.03202139 160.9080636
52.00001964 80.28016039 184.4696676
-47.99998036 36.18602539 75.88738761
-72.68835836 47.87178539 -9.738636436e-05
48.00001964 40.46214439 225.1054446
52.00001964 13.43682239 58.09230461
-47.99998036 47.98485539 74.50116061
48.00001964 84.20711239 205.6573866
-51.99998036 59.05163439 122.1071236
50.52148364 18.90050139 -9.738636436e-05
52.00001964 78.82677139 247.5837046
-47.99998036 61.41987939 105.1283776
48.00001964 23.05575339 44.31011561
-51.99998036 15.69887739 166.3464336
-58.96677136 -2.461356348e-05 236.0044726
-52.41168636 -2.461356348e-05 56.18666661
-10.22611036 -2.461356348e-05 5.079292614
-47.99998036 12.88226839 180.4917656
-47.99998036 21.55018939 45.09436761
-47.99998036 65.44562539 207.8944406
-61.60970836 -2.461356348e-05 208.0957796
-51.99998036 46.92437339 218.5802716
52.00001964 28.52302939 174.5095956
-47.99998036 72.40979639 247.1630586
-47.99998036 41.72985939 207.9920266
-47.99998036 9.114450386 214.5174766
-51.30538036 -2.461356348e-05 44.88698861
48.00001964 66.42619039 125.9398166
-40.10215336 18.89161339 -9.738636436e-05
-47.99998036 68.33177239 113.6100936
48.00001964 60.00902439 211.1338406
48.00001964 59.93658239 247.4768906
61.69786764 -2.461356348e-05 237.0675336
27.52124864 -2.461356348e-05 140.5081146
48.00001964 21.79280639 129.4705016
52.00001964 17.77527439 186.2929076
-47.99998036 71.31997439 208.5934546
48.00001964 25.71476339 211.5420276
52.00001964 7.493427386 251.5818916
40.19758864 -2.461356348e-05 183.1174276
-47.99998036 62.60064339 167.3283606
52.00001964 93.62085239 220.0916116
-40.56874236 -2.461356348e-05 3.837548614
52.00001964 30.96219139 18.55855161
48.00001964 47.45252139 206.8681726
-47.99998036 5.775105386 191.3944856
-47.99998036 51.66385339 127.9648286
-51.99998036 83.59968839 225.4592916
48.00001964 33.82035139 58.59592261
-47.99998036 91.45388439 225.4283686
-51.99998036 26.06167239 118.6842816
-51.99998036 31.17528639 244.7835066
52.00001964 38.12602639 94.65505761
52.00001964 66.81145339 138.7151726
67.21283064 31.81852639 -9.738636436e-05
-47.99998036 63.71524939 240.4000836
29.38052564 -2.461356348e-05 28.21319461
52.00001964 21.15150939 31.98037761
-47.99998036 37.18625339 138.6556056
-47.99998036 76.42635739 234.9486076
-47.99998036 6.303481386 139.8153336
-47.99998036 25.67317239 245.4141336
-51.99998036 3.667078386 145.3374786
48.00001964 4.422060386 139.1953436
-51.99998036 49.20796839 108.2077516
-34.76471336 57.05410539 -9.738636436e-05
52.00001964 40.15420239 123.7814456
48.00001964 73.40958139 152.4699916
-47.99998036 30.73510139 108.9974846
-47.99998036 67.05390239 218.0455316
43.41579164 -2.461356348e-05 61.67909561
-58.84594436 -2.461356348e-05 121.7758906
-51.99998036 3.867151386 105.4664216
-51.99998036 17.23422839 27.56566761
10.24883564 -2.461356348e-05 218.6609986
48.00001964 70.35366239 222.8548406
-6.276570358 -2.461356348e-05 55.42324861
48.00001964 47.52650439 152.1203246
-51.99998036 51.37273639 57.98122661
-51.99998036 23.39682639 25.87794061
48.00001964 10.78209139 199.8539206
48.00001964 53.23995539 85.88626961
24.08959664 -2.461356348e-05 17.42439761
50.74617964 -2.461356348e-05 129.1481716
48.00001964 8.645729386 167.4861546
52.00001964 74.47502339 237.3914226
-51.99998036 5.640718386 96.87846061
48.00001964 4.848617386 175.5225126
-51.99998036 35.70767339 97.86700161
52.00001964 20.73061039 164.6709106
52.00001964 56.66895939 155.2608076
-51.99998036 20.12235839 96.11830861
-47.99998036 55.89755039 108.0907406
-47.99998036 7.868885386 23.58317061
-29.25810736 -2.461356348e-05 73.90372861
52.00001964 6.965285386 8.958749614
52.00001964 38.29894439 141.1144986
-51.99998036 46.75985839 230.7286716
-53.15715036 -2.461356348e-05 111.6636876
48.00001964 88.82871239 235.4387746
48.00001964 44.40954739 60.61219761
52.00001964 28.86376339 156.5333106
52.00001964 27.27477339 88.41027061
52.00001964 44.58680439 42.12549161
52.00001964 82.65184439 219.1571326
48.00001964 39.75441039 100.5282786
-47.99998036 70.65564939 223.3439296
48.00001964 4.221005386 112.4662086
23.47313364 -2.461356348e-05 148.3173866
-51.99998036 26.69337239 217.2581646
-51.99998036 22.84519839 125.2916546
48.34764064 95.66436839 210.9857046
-47.99998036 58.47526839 92.85322061
52.00001964 29.01889039 213.7075746
-51.99998036 52.97003839 134.9182286
-11.19832136 -2.461356348e-05 252.2270536
-47.99998036 2.483823386 70.09271361
48.00001964 40.11946839 13.47374061
-51.99998036 96.96848839 251.0215716
-47.99998036 28.54001539 91.03657761
40.62210264 -2.461356348e-05 111.8532636
-51.99998036 60.91607939 187.7297396
-47.99998036 31.52437739 25.11592561
-69.92037036 -2.461356348e-05 129.2356316
52.00001964 56.69470939 54.10709461
-51.99998036 50.08933439 183.6336606
-51.99998036 81.91669839 197.0740836
48.00001964 32.57835239 76.01325761
-47.99998036 24.44046339 37.43115661
48.00001964 10.70876939 82.97728161
52.00001964 47.83651739 156.6247056
52.00001964 74.46169039 178.6394286
7.350450642 -2.461356348e-05 129.9023366
-51.99998036 29.74002339 51.26762561
48.00001964 70.00016739 203.2666136
-51.99998036 28.10864239 193.3257836
52.00001964 67.47666539 209.9865916
48.00001964 32.96692939 169.3205926
48.00001964 37.20831839 144.9565056
48.00001964 9.619871386 76.06986361
52.00001964 3.352938386 121.1094476
-47.99998036 75.02245739 192.0340886
48.00001964 1.858939386 251.1978206
-47.99998036 35.84492339 183.4249686
-47.99998036 5.532659386 81.90550361
-47.99998036 78.27723639 246.6417166
48.00001964 59.19692939 195.4485966
-21.05321536 -2.461356348e-05 52.98752961
-47.99998036 8.225104386 7.678837614
-47.99998036 31.67346839 135.8164276
-51.99998036 20.79252639 108.5570416
-51.99998036 36.43648239 13.09885661
48.00001964 12.75634639 45.89582261
-51.99998036 74.47660939 199.3143376
52.00001964 25.96199139 244.6229236
-51.99998036 56.23710639 74.79321961
52.00001964 8.769569386 244.2991196
51.65999664 92.54551339 201.6159106
-51.99998036 13.43277439 100.4418196
-51.99998036 22.20130739 88.34268561
58.90398164 -2.461356348e-05 193.6309846
-47.99998036 41.23176139 110.9233426
52.00001964 36.52952239 174.7819006
48.00001964 15.76838739 192.8160376
52.00001964 33.99457039 150.3961646
-53.86077536 -2.461356348e-05 193.5926666
-62.45150336 44.41910239 -9.738636436e-05
52.00001964 42.55219939 152.6394456
-51.99998036 4.730758386 233.5953596
52.00001964 58.63200239 83.87932561
-51.99998036 71.83249739 251.9640626
-51.99998036 73.27208339 166.2575496
48.00001964 37.05941739 242.3013386
-47.15733036 -2.461356348e-05 14.97431161
-7.758512358 -2.461356348e-05 222.0844986
52.00001964 23.93589339 171.3937806
-51.99998036 61.34251939 237.4803426
-51.99998036 41.57795239 87.17020361
48.01795964 -2.461356348e-05 31.79315861
48.00001964 33.26457439 99.12073761
-51.99998036 30.35353139 161.9936676
-47.99998036 18.53629539 82.96091761
-47.99998036 34.62549139 121.2862356
-51.99998036 10.97934639 3.206155614
-47.99998036 65.12313039 196.4695526
52.00001964 13.06390939 31.71728161
48.00001964 85.60405239 227.0109226
-25.96775836 -2.367021614 -9.738636436e-05
48.00001964 15.22164739 40.60514361
48.00001964 38.92135139 72.28373861
-14.80361136 40.92580539 -9.738636436e-05
-47.99998036 13.98217839 44.36700761
51.90878164 55.22887539 41.74357961
-47.99998036 31.66437839 116.1554326
-51.99998036 49.71637639 171.1064416
48.00001964 44.02259539 171.2932536
-47.99998036 26.83247739 7.955985614
52.00001964 27.43984139 206.8860256
-47.99998036 41.76721939 198.4090536
52.00001964 1.559734386 20.19852761
-47.99998036 6.383121386 49.57461961
28.50149464 9.958061386 -9.738636436e-05
48.40836464 -1.226243614 77.99990261
59.44404764 -2.461356348e-05 45.57281761
48.00001964 12.92106339 20.30296861
52.00001964 29.52729739 183.9025006
-47.99998036 35.90548739 216.5843726
-47.99998036 82.16865839 178.6712446
48.00001964 56.21162639 217.1557846
52.00001964 42.53338039 233.5044396
52.00001964 86.76019539 238.9834226
-51.99998036 33.05772239 189.4289276
-51.99998036 69.92620839 145.6791236
52.00001964 42.40478339 196.0499736
48.00001964 55.64299139 177.6982946
48.00001964 9.024279386 31.39098161
52.00001964 18.86916339 18.07470461
52.00001964 35.56130439 192.9830796
48.00001964 29.26886239 138.7345396
52.00001964 20.98971639 70.26118761
-51.99998036 20.70760239 227.5379206
-53.64394036 37.16104239 -9.738636436e-05
20.14972064 43.03595739 -9.738636436e-05
48.00001964 25.70829439 189.9307866
52.00001964 35.39027439 115.0577896
-47.99998036 34.86395539 89.74216461
-51.99998036 33.86637639 250.9520126
-47.99998036 65.70881739 137.3490446
48.00001964 41.70213439 245.6207506
50.58910364 1.955699386 -9.738636436e-05
-51.99998036 65.01841539 161.0745536
52.00001964 49.79375039 108.4435846
-52.59548136 -2.461356348e-05 133.6323786
-51.99998036 75.31566639 223.8424316
-52.85009436 -2.461356348e-05 67.41766361
-51.99998036 27.27400739 72.11831561
52.00001964 73.68215039 215.0487426
36.95941364 5.016983386 -9.738636436e-05
48.00001964 51.91074739 111.9796896
-47.99998036 10.77802339 56.11045761
64.48628964 -2.461356348e-05 143.5280036
-51.99998036 84.26848139 230.9803786
-51.99998036 103.1226844 233.6525416
48.00001964 9.761704386 156.0047826
-47.99998036 56.10717139 152.3646456
48.00001964 3.298160386 74.80949761
52.00001964 38.55400639 186.2032696
52.00001964 60.97555439 230.7542206
48.00001964 12.04168139 173.6455566
28.48021764 47.52067939 -9.738636436e-05
52.00001964 56.17176639 121.4693756
-47.99998036 90.68205039 199.7981466
48.00001964 58.44215139 106.4789736
-47.99998036 26.73248739 64.72623161
12.25565864 -2.461356348e-05 13.67699261
-51.99998036 14.73388339 175.6988076
44.03866664 -2.461356348e-05 235.7959436
48.00001964 23.40708839 146.2662766
67.85618564 -2.461356348e-05 55.16952461
52.00001964 12.39681639 8.359055614
-48.06333636 99.57482439 222.5188166
29.02325864 -2.461356348e-05 201.9540426
48.00001964 98.27542839 244.6355336
46.50258964 -2.461356348e-05 87.78522661
48.00001964 37.88960939 2.476642614
52.00001964 33.39572239 70.54442161
52.00001964 15.76220339 251.0566436
-47.99998036 57.06075539 82.24342961
-47.99998036 6.069654386 121.5898766
71.83987164 -2.461356348e-05 9.824669614
35.87098664 -2.461356348e-05 16.47995061
-51.99998036 39.68785039 21.47339661
-47.99998036 4.437985386 133.7035406
-47.99998036 40.12002439 169.2715816
-47.99998036 2.034382386 213.6989456
-51.99998036 75.64075439 243.5364666
68.60059864 -1.564065614 26.02853861
-49.31439736 56.67179339 51.57551461
48.00001964 36.66043539 219.4463856
48.00001964 38.40786339 52.60826061
52.00001964 54.35429839 213.8494856
-51.99998036 27.25520539 231.8908096
48.00001964 66.63550239 218.4474876
-51.99998036 4.965901386 10.69380661
48.00001964 69.68166339 196.5974216
48.00001964 67.33102539 120.2044106
-47.99998036 22.93161839 236.7248836
52.00001964 50.04837139 12.77986461
52.00001964 6.922263386 2.886877614
-26.38679236 15.99623939 -9.738636436e-05
52.00001964 5.424210386 210.8230136
-51.99998036 23.10219539 56.87450861
47.47120064 -2.461356348e-05 99.66623461
52.00001964 40.28418839 27.69549261
-47.99998036 12.77682039 49.71157561
48.00001964 47.54233239 22.45480261
-51.99998036 30.35666339 152.9481046
-47.99998036 72.64469039 151.6495026
-47.99998036 9.588869386 75.41276861
-47.99998036 40.74639439 245.9052046
-47.99998036 87.60947539 234.8768736
48.19653164 61.72254939 80.56094261
15.35939064 -2.461356348e-05 100.8589056
52.00001964 27.25641739 163.1002146
48.00001964 38.17441039 207.8796816
-51.99998036 51.12768039 26.41927461
48.00001964 46.74674739 195.6582636
-51.99998036 87.91810539 188.0058526
52.00001964 38.03525039 248.5413446
-51.99998036 61.68985239 193.0010076
-51.99998036 55.38657739 66.83128661
-47.99998036 66.59032539 120.7051406
52.00001964 59.93215039 148.2561166
52.00001964 79.03851039 202.0441506
-51.99998036 57.21731139 210.2649866
52.00001964 52.32536839 62.87214761
48.00001964 22.33182939 176.4920406
-47.99998036 23.86460539 83.55244461
48.00001964 48.55863439 34.95381961
-51.99998036 8.114100386 32.56485161
52.00001964 80.01990739 235.6533716
-47.99998036 5.652381386 241.9750326
-47.99998036 15.10825939 192.2579846
-47.99998036 24.12887839 148.7757756
-47.99998036 56.91384639 178.0648716
48.00001964 95.13422839 234.3353136
-46.05717136 -2.461356348e-05 171.0007606
-51.99998036 23.97007239 4.672346614
-49.18700736 -2.461356348e-05 29.33193761
-47.99998036 50.52741439 116.2745086
52.00001964 46.31116139 147.0945126
2.632722642 -2.461356348e-05 115.7004646
48.00001964 13.65427739 179.9920786
52.00001964 45.84434239 30.13245561
70.58628564 38.39862339 -9.738636436e-05
-43.51559136 31.45706539 -9.738636436e-05
48.00001964 36.39972539 189.4927586
-50.07916636 109.3106804 249.4071296
-47.99998036 46.19130839 46.49930361
-51.99998036 10.97414539 146.5815806
-51.99998036 37.59285939 53.32677661
-51.99998036 14.17920039 67.47785661
48.00001964 17.61418439 208.2009516
-51.99998036 69.66384139 177.8916546
52.00001964 27.84265939 135.2079096
-51.99998036 91.64255839 243.2191126
-47.99998036 47.01969839 226.3840956
48.00001964 7.370412386 120.7260236
50.61640664 63.72945739 90.59080361
48.00001964 6.920886386 41.60110961
52.00001964 61.03788139 183.2340766
-51.99998036 21.51706039 197.7386226
-47.99998036 51.76118439 161.8092376
-40.19190736 -2.461356348e-05 85.22578661
48.00001964 49.19557039 91.08893461
-47.99998036 39.49697639 203.2373196
-51.99998036 62.20470139 215.5356826
64.86391564 -2.461356348e-05 204.5958616
-47.99998036 4.578988386 207.5238456
48.00001964 83.65464439 236.3210586
48.00001964 28.24874139 194.6351086
48.00001964 15.10955239 231.3909956
52.00001964 28.72697039 81.58593161
-51.99998036 65.40200239 169.2398526
48.00001964 33.19402539 106.7032606
-51.99998036 39.98300739 190.3097446
-47.99998036 61.82575739 158.7359496
52.00001964 47.19601439 83.78203261
48.00001964 23.08649439 134.7612546
48.00001964 53.86635739 243.1405396
27.46286864 -0.7228456136 -9.738636436e-05
48.00001964 12.13989339 105.0407606
-51.99998036 58.24168839 128.9824466
52.00001964 19.35601039 94.13849261
-47.99998036 80.32742639 226.2137516
-51.99998036 5.973491386 74.40634761
52.00001964 29.71920539 8.704180614
48.00001964 18.02624239 224.9275586
-66.34545836 -2.461356348e-05 31.13220061
-47.99998036 57.41715039 100.9880866
53.98791864 -2.461356348e-05 39.59619661
70.10330964 -2.461356348e-05 97.94165761
48.00001964 51.09975639 155.9313356
-51.99998036 13.79993039 234.3947636
52.00001964 28.65929939 147.9155346
-47.99998036 47.76693839 24.48673561
48.00001964 11.26305839 220.6367906
-51.99998036 37.98476639 198.2630686
52.00001964 7.467452386 144.8658096
52.00001964 89.35849139 251.7414626
-51.99998036 49.88433139 244.6483506
-47.99998036 53.51673339 184.9074236
-10.17422636 -2.461356348e-05 72.15257461
