# .PCD v0.7 - Point Cloud Data file format
VERSION 0.7
FIELDS x y z
SIZE 4 4 4
TYPE F F F
COUNT 1 1 1
WIDTH 1270
HEIGHT 1
VIEWPOINT 0 0 0 1 0 0 0
POINTS 1270
DATA ascii
39.295949 -2.460857149e-05 8.308854613
196.368962 -2.460857149e-05 -41.09794339
173.254063 -2.460857149e-05 65.02614661
199.875179 -2.460857149e-05 97.89453061
58.439847 67.27711139 143.9999026
200.462911 65.83565139 -144.0000974
156.043587 25.58517439 -144.0000974
70.886462 40.68624339 -150.0000974
121.563411 16.61247539 -144.0000974
57.011016 31.64355439 143.9999026
79.742608 67.99997539 145.2089016
138.101527 5.288812391 143.9999026
29.789861 48.17747339 149.9999026
181.083721 -2.460857149e-05 -8.618908387
19.535416 -2.460857149e-05 101.6559846
0.0002150001756 12.05903639 -13.00884639
3.869631 -0.5365016086 -144.0000974
89.007215 29.15269639 143.9999026
245.652885 36.02873639 -144.0000974
214.412947 -2.460857149e-05 26.86653361
39.284419 10.07795739 -150.0000974
154.390041 41.20822239 -144.0000974
0.0002150001756 29.26007639 104.9349946
83.738255 11.56780239 143.9999026
107.487468 -2.460857149e-05 109.2022286
123.775628 -2.460857149e-05 54.73653761
114.456657 -2.460857149e-05 120.9778056
31.622607 -2.460857149e-05 47.54650761
183.411554 58.01706239 -150.0000974
15.52946 52.60423239 -150.0000974
33.944753 27.16674139 149.9999026
0.4334450002 34.17569339 149.9999026
102.946993 57.80899739 143.9999026
0.0002150001756 37.94635839 -55.61697939
63.772131 60.97984539 -144.0000974
167.49628 -2.460857149e-05 91.52575061
86.155334 -2.460857149e-05 -106.7004454
0.2284740002 -2.460857149e-05 -51.63761439
113.72303 -2.460857149e-05 -127.7840584
149.512179 -2.460857149e-05 -20.83927939
9.069646 -2.460857149e-05 -63.41347739
35.561258 -2.460857149e-05 -28.39673939
170.006843 -2.460857149e-05 106.5066096
82.491862 -2.460857149e-05 -68.12869339
208.305176 67.99997539 149.1547306
149.68543 30.22965239 149.9999026
163.222173 -2.460857149e-05 -132.5307364
125.39933 -2.460857149e-05 -90.56321839
234.773799 -2.460857149e-05 -62.23798139
184.347827 51.88418339 143.9999026
0.0002150001756 4.041978391 63.71921961
0.0002150001756 34.58698839 -6.679447387
99.181352 -2.460857149e-05 -3.646140387
42.87449 -2.460857149e-05 117.9071076
105.673532 -2.460857149e-05 84.00963661
220.28828 -2.460857149e-05 -52.70619239
111.433588 -2.460857149e-05 -36.46927739
149.999217 -2.460857149e-05 109.9763356
223.887067 -2.460857149e-05 -99.58516639
22.573441 -2.460857149e-05 -118.9803664
98.396017 -2.460857149e-05 137.2039846
122.053009 40.91485339 -150.0000974
0.0002150001756 39.48641639 81.28256961
0.0002150001756 2.445397391 -103.9381894
203.179982 28.88423439 149.9999026
236.926006 -2.460857149e-05 -100.0648724
163.765329 46.37559939 -144.0000974
155.200158 -2.460857149e-05 7.085358613
197.906564 -2.460857149e-05 5.671703613
28.621583 28.99995439 -144.0000974
225.764594 -2.460857149e-05 8.903397613
47.832464 -2.460857149e-05 27.63406261
234.789085 43.36002939 -144.0000974
0.0002150001756 15.35094539 124.5678036
30.170708 -2.460857149e-05 28.79694661
22.452071 -2.460857149e-05 -23.04152639
0.0002150001756 17.33962339 49.49921961
199.656421 -2.460857149e-05 -7.248589387
152.164961 8.268654391 -144.0000974
150.234858 -2.460857149e-05 127.9971166
243.679748 43.61135439 149.9999026
175.650778 59.88772339 143.9999026
109.44789 16.48973639 149.9999026
33.586128 -2.460857149e-05 -63.55959639
82.27551 -2.460857149e-05 105.4511886
59.036934 -2.460857149e-05 95.72423661
169.292531 -2.460857149e-05 -83.61764039
210.471319 24.05165639 -144.0000974
-2.182993 17.09815239 -139.3694364
136.813508 48.12049439 149.9999026
20.249226 6.750538391 -144.0000974
191.601191 -2.460857149e-05 -21.29573139
173.819842 34.83403839 -144.0000974
157.110584 43.85434639 149.9999026
114.534308 36.79905839 -144.0000974
170.373989 -0.8541466086 149.9999026
76.475091 25.05312339 -144.0000974
57.605416 -2.460857149e-05 19.09904361
-0.4403529998 -2.460857149e-05 24.77821261
136.769019 -2.460857149e-05 62.77312561
51.405442 17.29329639 143.9999026
38.459599 -2.460857149e-05 -81.02698139
159.012358 0.4332033914 149.9999026
174.006541 -2.460857149e-05 -139.9559674
223.539122 -2.460857149e-05 -118.3712924
69.032392 53.25852639 149.9999026
189.215656 36.20235039 143.9999026
63.900258 17.58698739 149.9999026
239.81106 25.42866339 -150.0000974
234.744043 10.37049439 149.9999026
5.705973 13.28665939 143.9999026
0.0002150001756 0.004004391428 -81.49252439
51.437562 -2.460857149e-05 -89.61748739
152.304855 -2.460857149e-05 -30.53591039
0.0002150001756 21.03532139 92.28205161
0.0002150001756 32.94612939 -36.17581939
155.695081 -2.460857149e-05 -100.9007684
142.585144 32.87433439 -150.0000974
74.109974 -2.460857149e-05 9.592860613
207.037964 51.79763639 -144.0000974
182.037972 16.89198639 -150.0000974
59.328625 24.34813339 -144.0000974
123.534005 27.84835339 143.9999026
-0.9304159998 42.16882339 -143.0000974
234.74707 -2.460857149e-05 107.9390906
170.369366 59.49748039 -144.0000974
0.0002150001756 20.80184539 23.98226061
52.602925 -2.460857149e-05 -136.5462484
134.555346 25.17920039 149.9999026
74.907281 -0.1604066086 -150.0000974
213.268007 42.47784939 149.9999026
193.352674 42.21863039 -144.0000974
202.125003 5.122240391 -144.0000974
0.0002150001756 36.29385739 -87.82034539
212.060604 39.48166039 -144.0000974
133.994476 -2.460857149e-05 132.5716146
66.277233 -2.460857149e-05 -123.7241954
37.739523 -2.460857149e-05 71.52589361
245.419248 -2.460857149e-05 63.79336261
157.278505 -2.460857149e-05 44.64851161
131.72303 33.89674939 143.9999026
151.352832 -0.8503096086 -150.0000974
0.0002150001756 23.57258439 -120.5566924
198.026979 -2.460857149e-05 15.86572261
220.576809 3.700790391 -144.0000974
18.095938 -2.460857149e-05 81.67843961
185.390875 17.02936839 143.9999026
3.006475 -1.585876609 143.9999026
207.006874 -2.460857149e-05 -83.21519239
190.37617 -2.460857149e-05 28.76223061
227.684285 -2.460857149e-05 140.8618156
193.41178 47.41159539 149.9999026
41.114853 25.32811339 -144.0000974
92.94233 -2.460857149e-05 100.7897546
40.746783 16.16310439 149.9999026
249.740344 -2.460857149e-05 99.66181561
81.889025 -2.460857149e-05 83.48589561
27.037401 -2.460857149e-05 137.4610696
115.214172 9.842938391 -150.0000974
44.229282 -2.460857149e-05 -62.28186939
-1.650218 59.97955439 -150.0000974
113.353708 58.05863739 143.9999026
130.887055 -2.239740609 -144.0000974
130.47863 39.02240039 -144.0000974
192.591283 -1.018692609 143.9999026
72.231094 -2.460857149e-05 141.6849476
59.23769 -2.460857149e-05 -17.38009239
63.59152 -2.460857149e-05 37.23190161
240.911775 6.115183391 143.9999026
89.668003 36.11787539 -144.0000974
77.531156 -2.460857149e-05 0.5365686133
226.000395 -2.460857149e-05 54.84483161
219.173217 -2.460857149e-05 -84.89806339
125.01375 20.00266639 149.9999026
138.987273 -2.460857149e-05 -133.3926034
83.95922 51.81630839 143.9999026
169.340465 41.22846839 149.9999026
84.141291 -1.343330609 -144.0000974
20.857081 26.55836939 143.9999026
0.0002150001756 45.79337039 55.98622361
227.082826 42.42328139 -150.0000974
163.785539 -2.460857149e-05 -7.760736387
0.0002150001756 40.75092539 45.11317461
35.190279 57.17294339 149.9999026
241.719567 -2.460857149e-05 -91.23215439
110.98809 -2.460857149e-05 -95.67669339
109.746167 27.11587039 143.9999026
32.155286 -2.460857149e-05 14.49104861
42.941164 -2.460857149e-05 97.05697461
177.455069 -2.460857149e-05 87.00188161
226.265332 -2.460857149e-05 28.03911561
128.909926 53.58687139 -150.0000974
-0.6669709998 40.38615439 142.9999026
164.633122 -2.460857149e-05 127.8494276
19.589731 -2.460857149e-05 -99.34231239
93.053052 -2.460857149e-05 -117.8836844
132.116255 1.220700391 149.9999026
245.112256 -2.460857149e-05 115.0175956
39.558285 -2.460857149e-05 -102.0089844
85.620638 -2.460857149e-05 -79.22396839
-0.6487829998 49.99997539 -102.1861034
194.565697 -2.460857149e-05 -73.52428339
86.837236 -2.460857149e-05 -15.90689439
-1.062389 15.68246439 149.9999026
0.0002150001756 38.09284939 20.89279961
158.505939 -2.460857149e-05 -60.16347539
80.684666 23.99704139 143.9999026
47.289431 -2.460857149e-05 -113.9200084
18.681452 -2.460857149e-05 -14.10091639
177.074652 5.606011391 149.9999026
42.714888 35.16872239 149.9999026
73.534035 -2.460857149e-05 -70.61746739
244.253844 67.97985439 -150.0000974
0.0002150001756 17.48343439 -51.87656739
51.629209 31.54336839 -144.0000974
187.610826 -2.460857149e-05 81.21676361
19.639492 -2.460857149e-05 -55.98789939
0.0002150001756 17.58224639 -66.01478439
71.310432 -2.460857149e-05 120.7575136
81.893821 41.48144239 143.9999026
29.435597 -2.460857149e-05 88.15489961
88.303202 58.76867839 -144.0000974
176.413587 36.72017039 143.9999026
78.363599 16.36645439 149.9999026
106.530771 10.77414739 -144.0000974
249.121053 -2.460857149e-05 -12.54115139
236.09023 1.964100391 -150.0000974
139.96617 -2.460857149e-05 -44.98435839
176.710226 -2.460857149e-05 -90.18249239
27.37156 -2.460857149e-05 78.93716061
37.271025 -2.343691609 143.9999026
203.53304 -2.460857149e-05 -47.25799739
226.696588 63.87524639 143.9999026
107.382288 -2.460857149e-05 0.5027526133
243.963328 44.14449939 -150.0000974
179.456061 -2.460857149e-05 -53.77211339
199.492705 -2.460857149e-05 116.9408856
134.480262 -2.460857149e-05 2.319275613
118.671954 -2.460857149e-05 32.24660661
0.0002150001756 18.70809439 -112.8036284
24.38265 -2.460857149e-05 63.79853961
172.025455 11.75766339 143.9999026
65.595697 45.11872039 -144.0000974
0.0002150001756 15.12444639 -90.62036439
25.463858 9.575346391 143.9999026
65.3298 -2.460857149e-05 -9.607408387
176.788691 -2.460857149e-05 40.98756361
113.188631 57.50701439 -150.0000974
133.416074 6.116375391 -150.0000974
66.910526 4.875487391 -144.0000974
101.863062 -2.460857149e-05 -99.20302139
168.038607 -2.460857149e-05 26.14165761
122.137129 -2.311109609 -150.0000974
241.473815 18.77149739 -144.0000974
101.37704 58.21353739 -150.0000974
164.171987 54.41641539 149.9999026
0.0002150001756 48.46127239 32.95864561
175.525865 46.03729039 -144.0000974
57.966104 24.90085839 149.9999026
47.308978 48.69529639 -150.0000974
238.755356 -2.460857149e-05 124.2223926
79.988272 -2.460857149e-05 134.8262996
56.77928 -2.460857149e-05 143.4035686
0.0002150001756 5.393869391 80.78194161
162.781213 26.10492239 -150.0000974
214.973282 -2.460857149e-05 -17.97899239
252.324905 -2.460857149e-05 -135.1082684
53.250375 -2.460857149e-05 -37.33363139
232.459626 -2.460857149e-05 -119.6228894
142.374719 -2.460857149e-05 -14.87823939
137.150874 60.49329239 -144.0000974
44.600817 44.42418639 149.9999026
67.041896 59.73151139 143.9999026
11.490173 31.97612539 -150.0000974
7.566335 -2.460857149e-05 100.0643836
179.321478 -2.460857149e-05 3.631582613
147.772865 62.36731939 143.9999026
64.042007 48.79893039 143.9999026
65.677498 -2.460857149e-05 -79.69649939
244.838996 22.54420339 149.9999026
211.482637 -2.460857149e-05 102.0830916
52.607201 1.887655391 -150.0000974
149.879836 -2.460857149e-05 -73.00054539
236.140283 -2.460857149e-05 -43.25223039
252.13787 -2.460857149e-05 -67.40954839
58.749624 40.39015639 143.9999026
221.351817 -2.460857149e-05 96.33133061
162.907827 55.41595039 -150.0000974
18.751728 61.66274239 149.9999026
219.357558 24.57035639 -144.0000974
197.298807 50.18677639 -144.0000974
137.41801 37.14323939 149.9999026
42.674463 7.492579391 149.9999026
71.71866 -2.460857149e-05 -88.76569439
113.282393 1.344648391 143.9999026
0.0002150001756 9.504403391 -36.69985239
201.709195 -2.460857149e-05 64.58185261
13.045628 -2.460857149e-05 -106.0369034
36.223317 -2.460857149e-05 -41.04077239
151.689225 35.32676139 -150.0000974
241.555958 -2.460857149e-05 -118.9976934
245.026235 -2.460857149e-05 -46.68162239
0.0002150001756 8.615492391 47.06014161
93.290388 -2.460857149e-05 45.67799661
148.54256 48.13742839 -144.0000974
197.799232 -2.460857149e-05 -87.72664639
123.641219 -2.460857149e-05 -66.24638839
45.254442 17.55820639 -144.0000974
251.80921 37.87414039 -150.0000974
177.025665 -2.460857149e-05 -113.9617044
221.371521 -2.460857149e-05 112.7963526
119.942523 -2.460857149e-05 -34.30826039
94.537153 11.56381339 149.9999026
12.331199 -2.460857149e-05 -5.229724387
106.286944 -2.460857149e-05 -141.5816684
56.118259 44.56393139 -150.0000974
160.993086 -2.460857149e-05 -22.11471539
139.586358 -2.460857149e-05 -33.90643639
-1.109958 -2.460857149e-05 -123.0232804
161.057448 -2.460857149e-05 -46.35493939
0.0002150001756 16.81643039 82.16821861
99.543992 -2.460857149e-05 128.2827366
21.255209 0.4260093914 143.9999026
10.733526 18.44532439 149.9999026
167.065629 -2.460857149e-05 -74.89349639
108.368689 -2.460857149e-05 74.48544161
65.722397 66.99724939 -150.0000974
94.728165 -2.460857149e-05 -83.14121139
58.793832 -2.460857149e-05 8.110892613
215.730603 -2.460857149e-05 -102.6345884
0.0002150001756 47.12239639 -24.08481139
194.522898 -2.460857149e-05 -116.5556004
59.024313 -2.460857149e-05 49.66061461
39.898973 24.39746239 143.9999026
237.845648 -2.016414609 143.9999026
48.659621 -2.460857149e-05 -12.32984039
182.992944 -2.460857149e-05 -141.3899554
73.095169 28.07541139 149.9999026
0.0002150001756 39.89669339 70.81565661
7.042356 11.51870139 -144.0000974
243.623557 52.25120539 149.9999026
70.263699 -2.460857149e-05 20.50323161
0.0002150001756 29.67754839 95.45486161
208.337201 18.21670039 -150.0000974
219.862489 59.21628639 -150.0000974
121.217906 -2.460857149e-05 -111.4559374
99.644111 33.74157139 -144.0000974
0.0002150001756 13.41477439 28.44258561
8.089547 1.966133391 149.9999026
186.598353 -2.460857149e-05 137.8914936
67.117254 -2.460857149e-05 110.7335176
174.065718 53.22992439 149.9999026
133.202355 67.99997539 -147.0423354
103.359157 21.25208739 143.9999026
162.243698 21.32188739 149.9999026
0.0002150001756 39.35089639 106.6483806
44.453742 -2.460857149e-05 78.04896561
51.514297 60.59998639 143.9999026
205.613588 10.85416339 143.9999026
219.343077 4.725022391 143.9999026
145.849302 18.10870939 -150.0000974
191.874411 32.26790939 -144.0000974
0.0002150001756 -1.039663609 1.687561613
50.654558 -2.460857149e-05 35.71228361
140.53873 -2.171248609 149.9999026
190.2122 65.55199139 143.9999026
96.718111 -2.460857149e-05 -61.42457439
51.245838 -2.460857149e-05 1.081260613
24.910892 64.25265339 143.9999026
-0.3128379998 -2.460857149e-05 -63.26800439
109.122427 41.11378139 -150.0000974
92.275101 11.31707539 -144.0000974
97.815653 67.99997539 -144.5250434
0.0002150001756 41.62920839 -35.62068339
233.523983 9.636025391 -144.0000974
0.0002150001756 24.99468039 -141.6289364
196.138662 -2.460857149e-05 35.00584461
191.369551 56.57315339 -144.0000974
0.0002150001756 22.77926139 -75.37165339
209.05962 -2.460857149e-05 20.30661261
79.797713 67.90342939 -144.0000974
116.604859 32.58927039 149.9999026
119.474943 -2.460857149e-05 127.9923816
125.197694 -2.460857149e-05 -25.65776939
157.017448 -2.460857149e-05 133.0186906
233.685092 -2.460857149e-05 -70.59975639
23.356773 53.60897839 -144.0000974
0.0002150001756 0.08381939143 117.4637036
99.424833 31.68295839 143.9999026
0.0002150001756 42.26971039 9.868450613
248.858515 -2.460857149e-05 19.14675861
210.517613 -2.460857149e-05 142.5281326
244.790006 -2.460857149e-05 51.13831661
213.938311 57.22181239 -144.0000974
114.321065 -2.460857149e-05 -4.674103387
245.629676 26.89091339 -144.0000974
204.622502 60.17846139 143.9999026
161.862122 -2.460857149e-05 108.5044286
7.838098 4.162544391 -150.0000974
180.809378 41.52470939 -150.0000974
218.302642 -2.460857149e-05 -31.69945639
69.836616 -2.460857149e-05 -36.88128639
133.351295 -2.460857149e-05 -87.91173839
191.563178 -2.460857149e-05 96.85123461
53.925356 14.01662339 -150.0000974
102.809227 6.319204391 149.9999026
185.261244 -2.460857149e-05 -70.39800139
120.889982 -2.460857149e-05 137.6492736
144.578705 -2.460857149e-05 49.55445261
99.279483 -2.460857149e-05 65.18108661
47.65083 53.22295539 149.9999026
83.772985 -2.460857149e-05 -90.88157839
233.476934 -2.460857149e-05 82.90761361
21.155499 25.31779239 -144.0000974
100.501961 46.95564239 -150.0000974
0.0002150001756 35.78392739 -14.90704939
156.309016 -2.460857149e-05 142.1546106
206.235051 51.32070339 149.9999026
216.151817 -2.460857149e-05 0.5211476133
228.63196 54.59083239 149.9999026
220.682443 36.98158239 -144.0000974
112.21291 8.654925391 149.9999026
25.788071 -2.460857149e-05 -78.27006639
43.658466 63.79492639 -144.0000974
108.679901 27.00493539 -144.0000974
206.165762 -2.460857149e-05 -114.1123824
0.0002150001756 47.36742739 138.6258426
31.908946 64.27031039 -144.0000974
164.473742 15.11208039 143.9999026
62.299681 34.21452539 149.9999026
240.365468 64.05834739 143.9999026
212.076871 66.99232239 -144.0000974
168.922567 29.27372239 149.9999026
0.0002150001756 45.58245339 -121.4530444
228.541421 21.38866939 143.9999026
150.878724 54.17539639 -150.0000974
181.153605 -2.460857149e-05 103.6387396
195.946187 -2.460857149e-05 -124.6482074
48.792316 -2.460857149e-05 19.48718161
225.128227 -2.460857149e-05 -133.2242684
86.99088 -2.460857149e-05 26.85176761
0.0002150001756 7.658274391 -84.37881439
183.888976 26.23201439 143.9999026
244.082393 -2.460857149e-05 3.923750613
96.685812 -2.460857149e-05 -105.5242194
219.900444 59.79491539 149.9999026
193.379821 14.06617239 143.9999026
51.009652 -2.460857149e-05 -72.30768039
16.068699 -1.410030609 149.9999026
179.754075 5.614455391 -150.0000974
203.457868 15.70162339 -144.0000974
118.830723 61.83672839 -144.0000974
143.782228 15.55514039 149.9999026
11.194178 46.61844139 -144.0000974
241.137093 -2.460857149e-05 -127.1073144
163.322837 15.73900839 -150.0000974
190.336097 14.82942739 -150.0000974
138.349431 -2.460857149e-05 -56.64628839
30.79587 -2.460857149e-05 -115.1942094
251.778718 11.94352639 -150.0000974
126.750771 -2.460857149e-05 74.44197661
41.250937 -2.460857149e-05 54.63307761
249.194382 -2.321763609 -144.0000974
25.196291 42.87521639 -144.0000974
70.945803 23.47053039 -150.0000974
42.190019 37.16692639 -144.0000974
184.037186 34.33230939 149.9999026
-2.410263 45.07611339 149.9999026
130.396316 19.72567139 143.9999026
208.679013 21.27215439 149.9999026
80.797809 -2.460857149e-05 -49.08404439
164.494928 66.40596139 149.9999026
204.978221 46.12100839 143.9999026
3.175324 29.06646739 143.9999026
12.170094 10.54322839 149.9999026
0.0002150001756 27.90262439 -69.18674139
198.922245 15.80230539 149.9999026
195.713505 35.97679939 -150.0000974
114.010782 37.81347339 143.9999026
122.695768 -2.460857149e-05 -49.00202539
39.572755 -2.460857149e-05 -10.66172539
176.494474 45.59670439 149.9999026
220.04795 50.50694839 149.9999026
52.317993 3.869511391 149.9999026
172.981779 -2.460857149e-05 52.59805761
213.050433 -2.460857149e-05 85.27636761
149.003312 -2.460857149e-05 -118.7624784
100.147843 -2.460857149e-05 -91.38158039
98.353476 51.27438039 143.9999026
220.251039 67.99997539 -149.8077624
140.964784 16.12528239 -144.0000974
0.0002150001756 43.63275639 89.61162061
53.497983 -2.460857149e-05 64.75766661
218.1932 44.29525239 143.9999026
0.0002150001756 19.21815839 111.1963296
157.671299 -2.460857149e-05 28.68674161
25.312938 -2.460857149e-05 -5.058749387
41.820889 -2.460857149e-05 -46.66599939
21.044002 -2.460857149e-05 121.0844426
118.710835 44.87897839 -144.0000974
201.281494 34.34762139 143.9999026
6.400099 57.43250539 -150.0000974
95.094373 -2.460857149e-05 -36.43106039
189.046629 -2.460857149e-05 -96.12993539
66.361256 -2.460857149e-05 66.16199261
198.653628 -2.460857149e-05 132.2596656
112.341153 -2.460857149e-05 -15.56257239
185.833436 -2.460857149e-05 120.2901376
92.408145 -2.460857149e-05 115.9363626
233.768194 -2.460857149e-05 -22.38392439
224.341365 48.63807239 -144.0000974
116.447464 -2.460857149e-05 51.80897061
173.251005 -2.460857149e-05 -102.6496994
153.070013 13.49824039 149.9999026
24.951281 46.59137439 143.9999026
71.413883 -2.460857149e-05 36.41597161
93.969423 -2.460857149e-05 -53.90338239
28.407626 19.02427039 149.9999026
241.326931 -2.460857149e-05 -8.715851387
-1.754778 52.85374539 -144.0000974
13.275443 38.53081439 149.9999026
0.0002150001756 29.51561739 -99.59481739
0.0002150001756 39.92840039 131.1366366
54.589635 -2.460857149e-05 -64.46519839
159.898256 6.164401391 -150.0000974
63.066959 40.56559639 -150.0000974
147.021513 -2.460857149e-05 -8.600256387
92.878926 -2.460857149e-05 -10.97558039
0.5997760002 -2.460857149e-05 57.08176661
156.524556 9.744961391 143.9999026
150.833028 -2.460857149e-05 -84.65594539
237.236226 -2.460857149e-05 -35.39471239
107.225485 8.727030391 143.9999026
123.756091 5.209955391 143.9999026
149.481138 54.79021839 143.9999026
104.570021 -2.460857149e-05 -22.23138339
34.560115 -2.460857149e-05 -136.7281574
213.825551 -2.460857149e-05 124.2703346
0.0002150001756 45.60922339 -54.13654139
132.90313 -2.460857149e-05 20.88000461
0.0002150001756 19.94163739 14.79910961
155.375831 -2.460857149e-05 -136.4469934
93.085253 -2.460857149e-05 77.53664961
94.305042 -2.460857149e-05 -136.8137844
139.46807 -2.460857149e-05 70.89648061
35.485763 -2.460857149e-05 115.6247786
31.837254 9.180482391 149.9999026
239.388834 -2.460857149e-05 38.83489561
17.781403 -2.460857149e-05 -134.9378484
160.678178 -2.460857149e-05 -38.54713439
163.82707 67.99997539 -146.5215244
184.46239 24.21173639 -150.0000974
188.182017 -2.460857149e-05 -60.30087939
0.0002150001756 9.621588391 57.01868361
42.080736 -1.966602609 149.9999026
25.726923 -2.460857149e-05 -130.1761444
96.946406 66.60355239 149.9999026
243.895097 -2.460857149e-05 -60.05339739
228.618464 62.89535339 -150.0000974
49.699221 58.58728039 -150.0000974
192.858558 21.73153539 149.9999026
0.0002150001756 31.49145139 -117.5337274
62.228375 5.870324391 -150.0000974
0.0002150001756 45.63905939 25.82201861
213.870739 -2.460857149e-05 -79.35038539
25.443501 37.46114339 -150.0000974
251.258184 -1.107628609 143.9999026
11.449899 65.08514339 -150.0000974
160.021368 52.06218139 143.9999026
205.268386 -2.460857149e-05 -92.15380539
78.915355 2.950950391 143.9999026
2.864755 -2.460857149e-05 -132.9116584
145.2398 4.848029391 -144.0000974
183.530511 10.52085939 149.9999026
126.730835 21.47496339 -150.0000974
40.056303 -2.460857149e-05 42.70622261
199.282259 -2.460857149e-05 -80.00112839
223.566246 -2.460857149e-05 47.60230361
0.0002150001756 23.21960039 140.2526876
250.009521 29.54385539 149.9999026
61.02614 10.03564839 143.9999026
144.377873 51.09342139 149.9999026
19.761773 16.48039339 -150.0000974
205.169715 35.94501339 -150.0000974
245.210312 -2.460857149e-05 106.3676266
174.186507 -2.460857149e-05 -131.6539874
179.690772 -2.460857149e-05 61.00262961
29.451314 25.98047739 143.9999026
13.314071 -2.460857149e-05 75.78545261
52.988281 -2.460857149e-05 -106.4796784
96.87149 59.26119539 -144.0000974
213.12437 16.16247639 143.9999026
178.795076 20.17910539 -144.0000974
71.024978 -2.460857149e-05 -107.6936134
142.318412 -2.460857149e-05 -75.32788839
203.75468 -2.460857149e-05 32.24621061
234.919828 48.09121239 143.9999026
74.112517 38.45737839 143.9999026
10.138959 63.42353539 143.9999026
213.941062 -2.460857149e-05 43.27827761
3.336893 -2.460857149e-05 -17.96271039
85.152681 28.00416139 -144.0000974
130.422998 -2.460857149e-05 -80.98316239
224.492649 41.93621639 149.9999026
8.353071 35.23905839 -144.0000974
3.86643 -2.460857149e-05 -43.98823939
121.839506 -2.460857149e-05 118.7415426
148.501364 7.542187391 149.9999026
0.0002150001756 7.136539391 19.80482461
90.760492 48.65386539 143.9999026
11.057212 -2.460857149e-05 132.9720686
247.379873 57.85555839 -144.0000974
248.325171 10.07991239 143.9999026
240.738934 30.72929939 149.9999026
216.585808 -2.460857149e-05 -62.80335439
178.380922 -2.460857149e-05 120.8850286
61.707252 -2.460857149e-05 -130.2266364
136.77956 43.66690939 143.9999026
98.831139 4.350173391 143.9999026
228.679692 -2.460857149e-05 -43.26008039
206.955565 10.03990939 -150.0000974
0.0002150001756 27.58987339 -130.7158574
173.905496 23.18211739 149.9999026
13.609057 29.27437939 149.9999026
42.346842 59.23689739 149.9999026
241.406605 -2.460857149e-05 24.75127761
24.615078 66.89039939 -144.0000974
0.0002150001756 35.85824439 -79.77872639
204.632727 27.36846339 -150.0000974
228.676191 32.86860939 -150.0000974
221.26039 -2.460857149e-05 -110.9412874
-0.1630309998 49.99997539 9.476249613
37.235294 18.99557339 -144.0000974
91.00563 48.37229439 -150.0000974
100.086119 -2.460857149e-05 48.77030961
87.023304 44.17436839 149.9999026
237.557093 3.338446391 149.9999026
72.835423 19.60485139 143.9999026
197.576395 -1.931564609 -144.0000974
183.964942 -2.460857149e-05 93.34739361
135.429042 -2.460857149e-05 -126.8999774
75.200223 40.23786939 -144.0000974
219.092151 -2.460857149e-05 -45.40135739
2.104359 -2.460857149e-05 -96.37084439
224.223077 -2.460857149e-05 -8.016594387
138.46898 45.32798439 -150.0000974
242.493136 56.41894839 143.9999026
72.247756 51.02585839 -150.0000974
20.004744 -2.460857149e-05 109.0276886
99.408294 -2.460857149e-05 14.36584961
212.534007 50.10938339 -150.0000974
121.015642 -2.460857149e-05 -9.177231387
124.298697 67.14220639 -150.0000974
216.92141 -2.460857149e-05 -121.6132424
218.639936 -2.460857149e-05 10.78086061
144.400697 -2.460857149e-05 -104.0179394
95.428807 18.10272539 143.9999026
83.490736 5.973109391 -144.0000974
110.466776 -2.460857149e-05 -29.18873439
72.089675 -2.460857149e-05 -117.2680934
0.0002150001756 29.37664039 1.733501613
0.0002150001756 41.33719439 -95.86608739
0.0002150001756 41.76242839 -9.606880387
164.673147 -2.460857149e-05 -100.2693304
-0.7895899998 49.99997539 50.03589761
173.132712 -2.460857149e-05 -34.62705639
150.385504 46.90615239 149.9999026
213.409309 67.01560739 143.9999026
219.79347 41.07858439 -150.0000974
67.814644 -2.460857149e-05 -56.21374839
165.059934 36.14652139 143.9999026
4.544292 5.548014391 143.9999026
44.030406 -2.460857149e-05 63.59322661
52.114633 65.29536839 -144.0000974
51.015227 -2.460857149e-05 81.22998961
56.029748 -0.4483016086 -144.0000974
195.07883 56.45656639 149.9999026
21.358518 -2.460857149e-05 92.42206861
117.941002 34.46300239 -150.0000974
146.457695 -2.460857149e-05 -63.35685439
216.50208 3.096452391 -150.0000974
181.714953 -2.460857149e-05 -32.22543239
151.594111 -2.460857149e-05 -142.6641934
126.609917 -2.460857149e-05 133.1509156
144.682436 59.62235139 -144.0000974
181.038811 -2.460857149e-05 -82.50033239
104.976431 43.92892839 149.9999026
118.70789 7.721781391 -144.0000974
114.447015 1.350820391 -150.0000974
0.0002150001756 4.906246391 -8.336520387
128.649229 -2.460857149e-05 40.34400061
23.057491 12.84931439 149.9999026
252.159433 -2.460857149e-05 -32.38319139
132.482718 10.05869639 -144.0000974
215.947447 17.44684639 -144.0000974
0.0002150001756 30.35391839 27.92637161
168.871648 14.35808639 -144.0000974
89.290987 39.14281839 143.9999026
123.987131 67.99997539 146.3344446
170.812648 3.156225391 143.9999026
116.083304 54.44288739 149.9999026
84.470742 13.36535939 -150.0000974
165.088164 -2.460857149e-05 4.936937613
150.603575 28.18355039 -150.0000974
230.556226 -2.460857149e-05 -11.48954739
236.137538 37.85039739 149.9999026
92.235973 33.04488639 -150.0000974
45.123796 0.2844443914 -150.0000974
5.880621 -2.460857149e-05 -118.2971254
61.202702 31.32302539 -144.0000974
200.825739 61.36693539 149.9999026
221.665262 14.33998539 143.9999026
205.413848 -2.460857149e-05 105.9357276
73.124347 -2.460857149e-05 -138.0906624
0.0002150001756 49.55416539 -115.3215244
109.171056 65.01907139 -150.0000974
181.94127 -2.460857149e-05 -105.2710624
6.804414 21.21753839 143.9999026
149.26936 1.966549391 143.9999026
31.033511 60.53135839 143.9999026
59.90156 20.48065839 -150.0000974
68.933057 33.45656939 143.9999026
107.841328 -2.460857149e-05 36.43887261
249.872647 -2.460857149e-05 127.9727906
40.752435 43.82003139 143.9999026
188.30132 -2.460857149e-05 103.4677206
138.667064 -2.460857149e-05 8.110975613
14.817885 -2.460857149e-05 22.40443061
150.700029 -2.460857149e-05 -49.83197139
110.089125 60.15073239 149.9999026
3.649182 41.85341439 -150.0000974
81.233986 47.46683639 -144.0000974
229.60375 -2.460857149e-05 76.91144661
175.96542 -2.460857149e-05 -13.59448639
74.178299 -2.460857149e-05 89.66784761
-2.036292 -2.460857149e-05 -28.28653939
234.059855 -2.460857149e-05 6.939520613
0.0002150001756 24.64655239 -42.02969539
0.0002150001756 40.63131139 -2.592012387
0.4913870002 -2.139145609 17.53857561
0.0002150001756 32.41688739 62.20900361
54.564658 -2.460857149e-05 -96.11317539
0.0002150001756 10.02245139 67.52989061
222.507951 26.27890339 149.9999026
32.149184 51.11530239 143.9999026
4.029245 -2.460857149e-05 35.18633261
135.255704 51.97618339 143.9999026
100.099383 54.57748539 149.9999026
4.584498 47.48469739 143.9999026
244.762979 40.04358239 143.9999026
8.905405 -2.460857149e-05 122.8791216
0.0002150001756 28.95224739 -92.34868439
30.204227 -2.460857149e-05 -23.80046839
44.632769 43.78691339 -144.0000974
242.82111 6.570249391 -144.0000974
245.760625 -2.460857149e-05 70.83696261
232.767633 -2.460857149e-05 41.51665961
96.938031 -2.460857149e-05 88.87775861
151.955405 31.60038939 -144.0000974
7.755678 -2.460857149e-05 56.89970761
184.347425 40.57795739 -144.0000974
0.0002150001756 12.35050939 98.56531861
0.0002150001756 22.92402839 53.74846461
181.467902 -2.460857149e-05 68.81302961
55.289691 56.88955839 149.9999026
166.380788 39.25625339 -144.0000974
0.0002150001756 17.68607939 -44.39580039
189.471876 62.94965439 -150.0000974
203.397204 -2.460857149e-05 -133.6764554
121.553408 16.70983239 143.9999026
17.539095 4.429381391 -150.0000974
7.160138 -2.460857149e-05 49.46959361
200.424267 -2.460857149e-05 76.35823961
26.47393 -2.460857149e-05 102.2417836
49.138975 -2.460857149e-05 -122.0680624
0.0002150001756 3.488785391 108.6735936
195.528488 -2.460857149e-05 -0.8701433867
181.692291 -2.460857149e-05 34.45479261
51.791599 37.17499539 149.9999026
16.077106 24.11301239 -150.0000974
128.649528 18.55150539 -144.0000974
134.48947 -2.460857149e-05 35.24754561
91.2711 14.74548139 -150.0000974
0.0002150001756 44.20106239 114.1527786
173.403062 -2.460857149e-05 -70.54201239
105.473001 -2.460857149e-05 10.66600361
123.879937 -2.460857149e-05 7.759438613
106.75454 54.60987039 -144.0000974
246.424529 19.46435739 143.9999026
50.571429 -2.460857149e-05 135.4503146
179.043511 12.26961139 -144.0000974
0.0002150001756 21.77562939 77.33924761
181.564164 -2.460857149e-05 25.76798461
42.333846 13.10082139 143.9999026
-0.1209639998 -2.460857149e-05 93.62577961
72.020137 -2.460857149e-05 -12.19938039
167.840526 15.68967339 149.9999026
108.688242 63.26218239 143.9999026
92.157645 -2.460857149e-05 5.084655613
196.175905 62.08334539 143.9999026
73.828298 -2.460857149e-05 103.3811866
183.200654 2.444160391 149.9999026
36.751467 55.79052739 -144.0000974
158.044173 60.29514239 -150.0000974
4.358819 -2.460857149e-05 -36.54244939
223.257829 -2.460857149e-05 87.13674661
156.000987 -2.460857149e-05 22.01705761
33.046397 7.187334391 -150.0000974
28.144405 13.33653939 -150.0000974
21.379989 -2.460857149e-05 1.439606613
13.995852 25.96139739 143.9999026
178.324554 8.698172391 143.9999026
79.047249 -2.460857149e-05 -14.36366239
51.741231 29.94068039 149.9999026
35.119788 48.91500039 -150.0000974
0.0002150001756 13.75807339 117.5750026
211.842525 -0.2604016086 -144.0000974
187.148297 26.82402539 149.9999026
10.571507 -2.460857149e-05 -142.6795474
101.388567 -2.460857149e-05 58.66663561
30.280548 -2.460857149e-05 58.81968261
29.883043 17.47698239 -144.0000974
108.002715 -2.460857149e-05 67.09219161
109.926274 48.35289539 143.9999026
96.402789 40.83010439 143.9999026
0.0002150001756 24.72116739 -10.98875839
20.599429 32.64984639 -150.0000974
167.804546 -2.460857149e-05 -47.39135339
115.963797 -2.460857149e-05 -77.13205239
77.588678 45.66775239 149.9999026
223.940183 12.03403739 149.9999026
0.0002150001756 24.42280439 124.6930206
120.066351 53.26563439 143.9999026
192.847178 23.26433339 -150.0000974
88.292818 -2.460857149e-05 -122.7404594
62.194427 20.29553339 143.9999026
4.86715 -2.460857149e-05 -126.2645284
150.509855 -2.460857149e-05 135.8268766
25.2391 39.88484839 149.9999026
84.837702 -2.460857149e-05 16.12200461
155.073432 37.37983539 149.9999026
182.108181 54.10865839 149.9999026
128.440228 46.05527739 149.9999026
191.118998 -2.460857149e-05 114.0908256
98.184861 -2.460857149e-05 24.97892261
110.814829 -2.460857149e-05 103.3130306
105.082459 -2.460857149e-05 -43.99892539
83.827377 -2.460857149e-05 -130.1335054
143.459333 -2.460857149e-05 30.80845561
0.0002150001756 22.55243539 133.5290366
223.413615 -2.460857149e-05 119.2362196
213.758013 -2.460857149e-05 108.4435416
166.504191 -2.460857149e-05 65.16924661
39.281254 35.18934939 143.9999026
233.970567 40.03445339 143.9999026
44.169821 24.99714539 -150.0000974
234.748541 60.14338839 -144.0000974
6.433001 23.01224239 -144.0000974
118.181849 5.564757391 149.9999026
228.062229 44.74249939 143.9999026
42.51276 -2.460857149e-05 109.5814336
0.0002150001756 13.38720939 -2.968595387
30.882948 39.30775739 -144.0000974
89.080835 64.29665839 149.9999026
15.390558 -2.460857149e-05 30.36218861
224.120557 -2.460857149e-05 -28.38555839
0.0002150001756 45.68143239 -86.80020939
163.351931 -2.460857149e-05 120.1138386
115.810425 -2.460857149e-05 17.32993561
81.234236 -2.460857149e-05 -59.74471339
241.892696 42.08808239 -144.0000974
120.292064 23.21203839 -150.0000974
-0.8288999998 10.68020039 -129.2352534
1.146591 60.67001239 -144.0000974
222.749642 30.81533339 143.9999026
40.16682 44.25821939 -150.0000974
0.0002150001756 34.01221539 110.6045326
48.603907 27.15372839 143.9999026
214.464071 34.43589539 143.9999026
0.0002150001756 8.975635391 -65.28599139
71.198154 10.61090939 -144.0000974
69.668376 5.929070391 143.9999026
31.463261 31.08707839 -150.0000974
196.804465 15.07318139 -144.0000974
95.688338 -2.460857149e-05 -21.05940639
222.248342 -2.460857149e-05 3.305813613
173.033032 60.80511539 149.9999026
139.991674 -2.460857149e-05 129.8047626
225.815466 56.35671539 -150.0000974
46.797185 -2.460857149e-05 -56.20085539
128.809084 -2.460857149e-05 -1.232743387
4.002774 -2.460857149e-05 127.3558026
15.282019 -2.460857149e-05 -127.3187324
0.0002150001756 30.49905839 -124.0432104
0.0002150001756 32.35807339 40.86104061
207.855625 0.5630213914 149.9999026
43.352433 -2.460857149e-05 -16.21638039
87.547943 17.65714439 143.9999026
68.363163 67.49487739 -144.0000974
93.374762 -2.460857149e-05 -28.01952639
245.341466 -2.460857149e-05 -136.5445714
156.208117 -2.460857149e-05 77.04931561
32.617452 -2.460857149e-05 36.86968061
220.564939 36.68253739 149.9999026
67.103351 4.518740391 149.9999026
15.025347 40.46049739 143.9999026
0.0002150001756 32.58807839 9.111316613
161.158143 -2.460857149e-05 93.11132261
133.042112 38.82346539 -150.0000974
102.192548 28.69566539 -150.0000974
139.821287 1.130959391 -150.0000974
145.570712 -2.460857149e-05 43.11655461
90.216038 40.73044339 -150.0000974
174.736564 -2.460857149e-05 79.30033761
83.203995 -2.460857149e-05 3.722226613
195.259192 -2.460857149e-05 65.43273461
86.883584 37.67194439 149.9999026
0.0002150001756 18.42831739 -80.20548339
55.965307 67.51382039 149.9999026
4.354752 -2.460857149e-05 -58.75449439
53.138787 -2.460857149e-05 98.43739961
127.387396 59.66843139 149.9999026
88.930239 7.675735391 143.9999026
49.483729 -2.460857149e-05 -81.41030139
13.585583 57.74183139 149.9999026
146.587009 -2.460857149e-05 -126.6755794
49.067411 60.43217339 149.9999026
205.625423 29.02958739 143.9999026
124.504285 -2.460857149e-05 -141.8111014
61.036508 61.60574239 -150.0000974
30.563445 -2.460857149e-05 -142.0909144
14.537877 -2.460857149e-05 119.7049496
108.190556 35.55501039 -144.0000974
102.271045 -2.460857149e-05 -71.26530339
52.607504 24.03273939 -144.0000974
234.604471 -2.460857149e-05 21.98673761
76.237083 -2.460857149e-05 59.66452261
215.573545 25.26067539 149.9999026
235.335103 -2.460857149e-05 89.09065761
189.490423 67.82116039 149.9999026
70.506852 35.22954239 149.9999026
59.283851 -2.460857149e-05 -51.90306939
95.327103 5.717252391 -150.0000974
17.129672 53.91625739 143.9999026
125.911516 59.29336439 -150.0000974
71.269661 64.83766939 143.9999026
0.0002150001756 44.51710939 121.8051156
0.0002150001756 5.725520391 -111.6237454
1.865256 55.04615239 143.9999026
0.0002150001756 10.01500939 8.230046613
135.078785 61.48550739 -150.0000974
134.573117 31.57469939 -144.0000974
235.415976 17.61583939 149.9999026
53.138664 -2.460857149e-05 111.1895086
201.536919 -2.460857149e-05 -102.3184074
153.989121 59.87400139 -144.0000974
136.053125 56.76093239 149.9999026
129.218274 10.79614139 149.9999026
13.14304 67.79032039 149.9999026
75.412882 -2.460857149e-05 24.67594461
70.419051 14.38586539 149.9999026
165.20449 -2.460857149e-05 -118.5979914
179.859536 63.33170039 -150.0000974
169.363236 -2.460857149e-05 16.68799461
62.983938 -2.460857149e-05 -106.3424374
203.199434 -2.460857149e-05 -140.0603124
154.958001 -2.460857149e-05 105.9523086
165.279512 28.97240439 -144.0000974
149.614442 66.57908439 -144.0000974
67.686014 40.22042739 143.9999026
108.011146 -2.460857149e-05 93.16276361
154.614401 -2.460857149e-05 14.95656861
0.0002150001756 11.45259939 -95.88190639
235.70897 62.03368939 -150.0000974
137.513133 7.320168391 149.9999026
205.561439 -2.460857149e-05 -25.13108939
115.366784 47.03040739 149.9999026
192.68438 30.34117239 -150.0000974
21.448849 24.56355839 149.9999026
169.487761 65.89640939 -144.0000974
150.018674 -2.460857149e-05 116.3241096
101.935864 19.75308139 149.9999026
129.962616 -2.460857149e-05 -65.78561839
236.824999 43.49116239 -150.0000974
201.993828 3.087341391 -150.0000974
247.850027 -2.460857149e-05 -119.7116954
72.145047 -2.460857149e-05 -46.63101739
166.504645 66.52109339 143.9999026
223.720183 -2.460857149e-05 -93.05716839
172.066796 24.03315439 -150.0000974
0.0002150001756 41.64999539 30.73445061
0.0002150001756 9.035688391 124.5174916
127.655369 -2.460857149e-05 -45.09297539
-0.6749459998 -2.460857149e-05 -90.70062039
120.614752 35.09520439 -144.0000974
69.263208 38.09195539 -144.0000974
226.502533 26.93696639 -150.0000974
76.812632 8.900621391 143.9999026
125.024676 29.11120639 149.9999026
191.894392 41.91034839 143.9999026
235.166692 -2.460857149e-05 72.78387161
195.091874 4.768372391 143.9999026
157.590313 47.63937439 -144.0000974
77.29551 35.28813539 -150.0000974
88.56138 13.56072639 149.9999026
178.23332 50.36463939 143.9999026
231.272253 -2.460857149e-05 -97.28825139
71.389451 -2.460857149e-05 -61.89113239
0.0002150001756 31.11749739 86.72753961
184.584092 -2.460857149e-05 -89.16743839
29.756991 -2.460857149e-05 128.4466756
244.861953 -2.460857149e-05 -23.60169639
45.556383 10.08243739 -150.0000974
0.0002150001756 13.10201639 -115.6155264
0.0002150001756 28.37006539 -20.31448339
149.09411 56.56266739 149.9999026
0.0002150001756 41.11195439 62.66455261
119.357025 14.54120139 -150.0000974
238.935306 56.40479739 149.9999026
136.344059 25.01371239 143.9999026
182.951382 59.73728739 -144.0000974
0.0002150001756 43.94527939 75.58704561
89.621487 3.403721391 -144.0000974
0.0002150001756 15.93571439 -125.1491804
0.0002150001756 3.763939391 -76.11625839
188.77962 54.82257539 -150.0000974
9.890628 65.82754139 -144.0000974
127.665866 0.5829853914 -150.0000974
23.650819 34.80030139 143.9999026
153.316885 3.587009391 149.9999026
209.657445 27.55144639 149.9999026
79.616136 -2.460857149e-05 70.77459061
40.68657 -2.460857149e-05 -123.3484114
49.035333 -1.424625609 149.9999026
153.722478 15.24937639 -144.0000974
248.76584 4.740481391 -144.0000974
191.039864 -2.460857149e-05 -48.07845539
54.70314 15.44267739 -144.0000974
96.354122 25.51654039 143.9999026
24.961193 -2.460857149e-05 -51.07072439
196.223116 61.29307239 -144.0000974
6.352885 12.97075639 -150.0000974
25.004734 57.19982639 149.9999026
0.1734440002 25.81482539 -150.0000974
141.20545 -2.460857149e-05 112.6687446
184.014837 44.49496839 143.9999026
28.964345 47.79559539 -144.0000974
211.87379 23.39181639 -150.0000974
151.198683 30.51805639 143.9999026
207.594569 44.96020639 149.9999026
41.903142 52.35448139 -144.0000974
-0.7835129998 8.701940391 143.9999026
21.079417 -2.460857149e-05 57.38133361
122.895726 -2.460857149e-05 48.61057761
245.815412 -2.460857149e-05 -81.75220239
37.858973 -2.460857149e-05 -68.02905739
215.423759 32.24206839 -144.0000974
104.108165 13.38221339 149.9999026
2.914687 -2.460857149e-05 80.03447261
34.619552 15.40287639 149.9999026
239.232995 43.25974439 143.9999026
227.061628 67.99997539 148.8341706
52.684334 -2.460857149e-05 47.57751461
50.158775 17.97934739 149.9999026
79.439301 -2.460857149e-05 -73.48583439
145.841743 2.426377391 -150.0000974
160.356307 60.26593639 149.9999026
192.839995 -2.460857149e-05 23.12027861
127.991683 -2.460857149e-05 104.6109866
66.482854 -2.460857149e-05 -15.65441539
155.434744 24.35742739 -150.0000974
57.416537 40.07673239 149.9999026
14.291445 31.23119739 -144.0000974
0.0002150001756 28.24158539 114.1698166
9.096113 17.46789739 -144.0000974
116.216002 -2.460857149e-05 -136.8637514
104.138103 -2.460857149e-05 31.53030061
167.080018 -2.460857149e-05 111.9128046
196.847838 48.93021539 -150.0000974
184.820977 -2.460857149e-05 -127.5142304
13.021115 10.11100639 -144.0000974
-2.271022 -2.460857149e-05 37.44067961
233.168837 -2.460857149e-05 -135.6554394
0.0002150001756 48.66324139 -72.29033039
5.502383 -2.460857149e-05 64.92958161
18.286048 -2.460857149e-05 10.73037061
52.312817 30.51956439 -150.0000974
2.907298 -2.460857149e-05 -5.082400387
41.213873 -2.460857149e-05 125.5429306
77.715487 -2.460857149e-05 49.09680761
68.337149 -1.077197609 -144.0000974
212.732352 -2.460857149e-05 61.73251461
0.0002150001756 34.65541639 -28.08813739
159.995073 38.76126639 -144.0000974
116.521462 60.54200739 149.9999026
0.0002150001756 22.10001239 -135.6096134
188.145065 -2.460857149e-05 -26.33844039
80.94366 67.66235239 -150.0000974
0.0002150001756 35.70909539 48.56761161
30.469839 -2.460857149e-05 -43.76183239
81.306275 40.38380539 -144.0000974
226.489154 8.171514391 -144.0000974
-1.306818 49.99997539 78.69328161
148.992755 20.49081839 -144.0000974
85.699498 -0.1548346086 -150.0000974
64.648295 11.53217339 149.9999026
234.295012 11.37740039 143.9999026
38.21553 -2.460857149e-05 -22.90675339
-0.9348279998 30.86146339 -143.0000974
115.334725 14.90617439 149.9999026
177.627825 -2.460857149e-05 -3.597031387
228.020393 20.48154339 149.9999026
200.894538 54.24785239 149.9999026
192.693176 -2.460857149e-05 8.817859613
155.437775 -2.460857149e-05 -107.4606424
93.831851 55.33920439 143.9999026
0.0002150001756 32.09572439 -110.9588374
39.363623 -2.460857149e-05 -58.64041139
240.610252 55.30715739 -150.0000974
119.439567 -1.808441609 143.9999026
0.0002150001756 18.07102039 -26.99690139
18.435881 -2.460857149e-05 40.47886861
0.0002150001756 33.27702739 141.0276506
231.927448 2.964295391 143.9999026
79.114522 28.71175939 149.9999026
22.276941 1.050605391 -144.0000974
54.121061 -2.460857149e-05 -55.52422539
239.089831 -2.460857149e-05 95.61308761
-2.430238 -2.460857149e-05 84.74030361
166.834585 -2.460857149e-05 39.20516661
202.103892 10.66655039 149.9999026
189.510647 52.01951039 149.9999026
98.332405 -2.460857149e-05 -130.1767974
173.505384 -2.460857149e-05 7.606625613
-2.154335 14.03981239 -150.0000974
248.037036 -2.460857149e-05 -90.28941739
175.064279 -2.460857149e-05 72.49017061
6.136152 14.56016339 149.9999026
144.288055 -2.460857149e-05 -28.34686639
136.760318 -2.460857149e-05 -118.8129124
67.75209 -2.460857149e-05 -134.6520674
251.492568 37.69666639 -144.0000974
72.627144 28.65227739 143.9999026
198.497832 -2.460857149e-05 59.50785761
104.358758 -2.460857149e-05 137.8292416
113.830409 -2.460857149e-05 35.77727061
184.684618 9.018649391 -150.0000974
0.0002150001756 44.58895039 -104.6700244
193.38577 -2.460857149e-05 -130.0513874
63.921536 25.31512239 149.9999026
64.996957 -2.460857149e-05 50.31343261
72.830442 4.174403391 -144.0000974
158.215176 -2.460857149e-05 -66.11380139
239.968401 63.52548139 149.9999026
197.822993 -2.460857149e-05 -68.54851339
9.762375 -2.460857149e-05 -69.31985639
16.331569 -2.460857149e-05 -19.55716939
91.243084 -0.2194566086 143.9999026
188.959617 37.65289739 149.9999026
193.31998 -2.460857149e-05 -80.89792639
137.879336 19.43170139 149.9999026
0.0002150001756 15.19487539 -38.37962839
217.209506 -2.460857149e-05 71.46502061
134.906772 -2.460857149e-05 -106.4309134
181.920715 -2.460857149e-05 83.10287861
85.65491 -2.460857149e-05 96.44220861
200.545778 14.20930639 143.9999026
232.822769 56.73387939 -150.0000974
76.107871 45.68008239 -150.0000974
247.687284 33.63292139 -150.0000974
17.817183 5.233662391 143.9999026
105.720177 9.606130391 -150.0000974
157.691302 -2.460857149e-05 -28.12321639
96.372624 -2.460857149e-05 -122.7623544
53.0066 -2.460857149e-05 126.4590986
30.031344 -2.460857149e-05 -82.35854039
188.173429 1.034008391 -144.0000974
167.453244 20.06918739 -144.0000974
78.201258 -2.460857149e-05 -38.44134039
233.81207 12.12073539 -150.0000974
199.590737 -2.460857149e-05 126.4520246
-1.95741 0.2604843914 -144.0000974
190.102728 -2.460857149e-05 54.31997161
182.818832 -2.460857149e-05 -114.9228424
0.0002150001756 23.45841039 -0.5284843867
0.0002150001756 39.54426339 -127.8881744
202.712449 53.40489739 -150.0000974
7.007583 4.468358391 -144.0000974
0.0002150001756 19.14600139 65.24151161
0.0002150001756 32.62130039 -74.89106939
170.635359 10.54086339 149.9999026
0.0002150001756 21.57414139 -105.4453324
-0.9299779998 49.99997539 -50.37604839
168.019335 35.05704239 149.9999026
4.878309 8.843778391 149.9999026
209.540444 -2.460857149e-05 -20.15498839
78.996787 64.72364739 149.9999026
119.587786 66.80378539 149.9999026
0.0002150001756 35.00472639 -50.56962439
71.84585 61.14485139 149.9999026
144.257798 -2.460857149e-05 56.85375961
0.0002150001756 11.22364039 38.31842661
217.077752 55.03008239 143.9999026
5.196701 30.33902739 -144.0000974
51.690176 -2.460857149e-05 -17.94737139
73.086284 -2.460857149e-05 -24.73831339
214.167966 -2.460857149e-05 -48.50844839
124.308965 33.61807639 143.9999026
97.096163 -1.205695609 143.9999026
36.888635 -2.460857149e-05 -49.87854139
47.360141 33.56792039 -150.0000974
243.263931 -2.460857149e-05 58.39386961
68.439273 -2.460857149e-05 -74.53615939
216.652438 -2.460857149e-05 19.31166661
0.0002150001756 8.753122391 -30.94872839
220.707821 -0.9111276086 143.9999026
87.95344 64.55152739 -144.0000974
63.524079 50.52423039 -144.0000974
148.075975 -2.460857149e-05 82.45582761
88.828401 -2.460857149e-05 -21.70617739
0.0002150001756 38.19724139 -109.0723594
92.419585 21.34085739 149.9999026
141.078638 54.97178539 143.9999026
0.0002150001756 41.43607239 -16.10817739
171.51245 62.27027339 -150.0000974
174.829579 45.47147139 143.9999026
53.672633 -2.460857149e-05 -129.2054444
119.14147 -2.460857149e-05 93.08599161
93.987214 10.45515639 143.9999026
134.677788 -2.460857149e-05 46.11970961
107.680643 54.51672739 143.9999026
111.169991 43.44309739 -144.0000974
26.279492 -2.460857149e-05 -10.73413739
73.482525 15.51388539 -150.0000974
176.854003 51.63020239 -144.0000974
0.0002150001756 18.87790739 30.22710661
197.124856 -2.460857149e-05 -22.85040339
41.522613 -2.460857149e-05 140.9443686
110.77881 6.920904391 -144.0000974
194.988509 20.50976339 -144.0000974
14.802364 42.17181839 -144.0000974
61.544446 -2.460857149e-05 -99.92848639
193.631785 -2.460857149e-05 -6.269873387
205.281883 58.65749039 -150.0000974
60.375024 26.66682839 -150.0000974
0.0002150001756 5.104346391 27.30184561
217.483409 52.95707639 -150.0000974
134.034613 -2.460857149e-05 85.06806461
246.120091 -2.460857149e-05 13.29097161
102.990076 37.42657239 149.9999026
78.68728 57.81756939 -144.0000974
15.888509 59.47434739 143.9999026
219.516547 -1.894412609 -144.0000974
82.953492 52.89529639 -144.0000974
0.0002150001756 25.72025539 -25.69438739
245.224257 -2.460857149e-05 -54.52058139
207.735688 3.671498391 -144.0000974
24.163538 46.63104139 149.9999026
34.414002 56.23788339 -150.0000974
26.916214 -2.460857149e-05 107.9061706
101.264026 -2.460857149e-05 -138.9294984
0.0002150001756 3.164854391 15.57318461
170.952959 -2.460857149e-05 -39.86823439
92.107681 46.69814639 149.9999026
88.011128 -2.460857149e-05 57.76063061
-0.6377709998 49.99997539 -15.03520839
249.187966 -2.460857149e-05 -27.55212139
177.833385 1.068851391 -144.0000974
37.367522 10.42746439 149.9999026
67.646618 -2.460857149e-05 -95.56253939
