# .PCD v0.7 - Point Cloud Data file format
VERSION 0.7
FIELDS x y z
SIZE 4 4 4
TYPE F F F
COUNT 1 1 1
WIDTH 1280
HEIGHT 1
VIEWPOINT 0 0 0 1 0 0 0
POINTS 1280
DATA ascii
-127.917252 85.93151939 33.74990261
-218.041176 18.52141439 -54.25009739
-143.571367 36.11114439 33.74990261
-95.303387 -0.6842116133 -54.25009739
-242.887972 55.74765239 -60.25009739
-248.022568 -2.461328177e-05 -21.75248939
-136.746918 212.3119934 33.74990261
-157.999785 62.17829839 -41.81507639
-82.649973 45.72359939 33.74990261
-153.97356 138.4513954 41.50137261
-152.162757 109.4932114 36.68765961
-117.602656 63.18455139 -60.25009739
-43.038205 -2.461328177e-05 7.136249614
-157.999785 35.34885239 57.86384061
-84.428751 -2.461328177e-05 29.30931861
-153.999785 31.68757839 -13.19694139
-114.280274 43.49888039 -54.25009739
-153.999785 46.14434339 32.07037861
-226.54797 -2.461328177e-05 25.09270061
-187.922383 -2.461328177e-05 -27.03625739
-117.137346 16.94097239 37.74990261
-221.166492 35.93661339 -60.25009739
2.406468 -2.461328177e-05 -50.33676939
-2.899996798e-05 13.34886539 2.106296614
-157.999785 10.74882839 29.41775461
-12.423727 17.70164039 -60.25009739
-127.454541 40.33493639 -60.25009739
-235.49899 -2.461328177e-05 -45.17109939
-12.755928 -2.461328177e-05 59.71135961
-26.256076 0.8122053867 -60.25009739
-90.5145 23.64009539 -54.25009739
-218.488808 -2.461328177e-05 10.95369661
-153.999785 214.7056806 48.66151061
-70.142254 -2.461328177e-05 5.558440614
-186.869244 64.62344639 -54.25009739
-70.212808 -2.461328177e-05 -47.16090139
-78.188876 22.80475239 -60.25009739
-98.332235 -2.461328177e-05 7.224947614
-21.963881 -2.461328177e-05 -38.27571439
-35.180276 -2.461328177e-05 31.44685361
-251.433752 -2.461328177e-05 -8.523439386
-250.012798 -2.461328177e-05 -51.80841839
-197.180945 -2.461328177e-05 10.64813361
-2.899996798e-05 35.38182839 -2.880625386
-116.439744 -2.461328177e-05 -20.67129739
-157.999785 12.52432539 -29.97767539
-107.891627 6.465148387 33.74990261
-87.475302 197.7882534 37.74990261
-251.397398 -2.461328177e-05 10.01717161
-60.605995 -2.461328177e-05 42.05080061
-132.427091 -2.461328177e-05 47.48439661
-86.686428 134.3634304 33.74990261
-30.015062 -2.461328177e-05 46.05349961
-153.999785 9.875406387 49.33755961
-90.970404 177.6642824 37.74990261
-24.766726 -2.461328177e-05 4.809005614
-157.999785 84.82570139 44.32750961
-135.465547 158.3944164 33.74990261
-85.228113 155.1119074 33.74990261
-110.557603 183.5875264 37.74990261
-12.196972 -2.461328177e-05 -3.311399386
-173.774872 -2.461328177e-05 22.07659361
-76.707975 49.64358639 -60.25009739
-188.087094 -2.461328177e-05 -1.399273386
-216.948315 -2.461328177e-05 -20.41985139
-108.741679 208.0796554 33.74990261
-157.999785 27.13448539 8.888306614
-164.879248 39.53021239 -54.25009739
-163.115543 22.10961639 -60.25009739
-2.899996798e-05 35.86323439 17.97611761
-91.667941 -2.461328177e-05 -31.79646939
-153.999785 173.0935644 50.80309261
-108.325527 96.20800439 37.74990261
-7.086396 -1.324375613 -60.25009739
-141.316299 -2.461328177e-05 -10.40455539
-52.737201 -1.314869613 -54.25009739
-193.921298 7.845183387 -54.25009739
-17.826537 27.63156839 -54.25009739
-235.419138 -2.461328177e-05 -26.37871439
-157.999785 90.71198839 56.11818161
-53.942281 27.00475139 -54.25009739
-133.172405 123.0192084 37.74990261
-14.698253 55.76409039 -60.25009739
-203.586425 23.12253839 -60.25009739
-60.674498 -2.461328177e-05 -20.65504539
-71.933708 8.256560387 -60.25009739
-185.674334 38.38286639 -60.25009739
-119.356641 30.60639739 -60.25009739
-123.410378 74.97614839 37.74990261
-102.824419 54.35182439 33.74990261
-91.350806 65.65630039 -54.25009739
-153.999785 1.892436387 60.49311561
-157.999785 9.706763387 -49.02285239
-196.713591 -2.461328177e-05 -13.09475739
-34.428023 60.03096239 -60.25009739
-124.268052 154.7736564 37.74990261
-127.675206 38.20019339 37.74990261
-153.999785 151.6493354 50.49827461
-102.10658 15.59530139 -60.25009739
-153.999785 128.6914204 56.99973361
-209.886235 -2.461328177e-05 49.36068461
-153.999785 64.73112239 15.11418561
-153.999785 239.4390823 60.34630661
-92.364338 26.94223839 37.74990261
-97.466485 39.20112039 -54.25009739
-36.367181 -2.461328177e-05 18.00686161
-69.940429 -2.461328177e-05 52.13331161
-147.125446 40.43272939 -54.25009739
2.156998 67.60334539 -54.25009739
-215.122423 -2.461328177e-05 36.36352161
-138.251966 183.8419154 33.74990261
-225.965428 -2.461328177e-05 -2.531844386
-46.171512 -2.461328177e-05 -37.87639139
-123.774388 -2.461328177e-05 23.32102661
-52.065411 61.43124039 -54.25009739
-2.899996798e-05 18.30667839 30.79499261
-2.899996798e-05 33.20631439 -24.85464039
-211.502106 -1.831348613 -60.25009739
-157.999785 59.56450339 39.37779361
-42.576816 -2.461328177e-05 53.89563661
-157.999785 26.40080139 35.91470961
-126.983854 111.8091724 37.74990261
-177.148544 2.365759387 -54.25009739
-198.804635 -1.956568613 -60.25009739
-109.913494 118.9682864 37.74990261
-140.773319 4.022725387 -60.25009739
-157.999785 100.8172464 30.97998461
-116.590296 199.1322324 33.74990261
-2.899996798e-05 12.28413039 -10.95702639
-157.999785 87.88292139 27.91453761
-230.662766 8.654006387 -54.25009739
-112.295327 138.7940634 37.74990261
-251.549163 -2.461328177e-05 35.12690261
-90.354377 122.1661614 33.74990261
-135.990136 135.0149544 33.74990261
-3.225796 45.32471939 -54.25009739
-145.279223 164.9002564 33.74990261
-149.999785 117.7005484 57.71742061
-37.083709 9.927185387 -60.25009739
-138.561144 -2.461328177e-05 -43.38036539
-72.956665 -2.461328177e-05 -9.621850386
-149.999785 195.1191244 60.30233361
-124.923631 50.81583039 37.74990261
-2.899996798e-05 40.84547739 43.94618961
2.120259 49.99997539 -44.49195839
-88.813387 238.5668844 33.74990261
-153.999785 109.3398434 48.05287261
-146.174178 -2.461328177e-05 17.61545461
-100.608735 240.3670369 37.74990261
-59.561857 -2.461328177e-05 11.60768661
-55.76629 43.44819839 -60.25009739
-29.185902 -2.461328177e-05 -48.64278139
-2.899996798e-05 22.66208639 -4.428632386
-98.751042 29.51736139 -60.25009739
-179.221999 -2.461328177e-05 32.00967861
-231.127471 -2.461328177e-05 -14.26151139
0.767265 18.72540239 -53.25009739
-106.728642 -2.461328177e-05 -49.00702539
-127.053829 223.9336423 37.74990261
-234.311441 32.55039339 -54.25009739
-96.569743 -2.461328177e-05 -20.53808439
-70.03544 57.79419139 -54.25009739
-239.416319 -2.461328177e-05 48.75703361
-153.683118 0.9949973867 -60.25009739
-149.999785 77.35242739 46.49245561
-86.369061 168.3353294 33.74990261
-137.090548 241.7568711 37.74990261
-35.874373 45.05633439 -54.25009739
-84.736636 83.99082739 33.74990261
-237.009404 64.84413439 -54.25009739
-97.950907 155.7444714 33.74990261
-157.999785 72.67980439 8.488506614
-17.433548 -2.461328177e-05 47.66453961
-228.937108 -2.461328177e-05 55.05114961
-129.103056 31.17540739 -54.25009739
-129.122288 -2.461328177e-05 -49.16811039
-108.931335 167.4284944 33.74990261
-114.57376 -2.143078613 -36.86321239
-241.150415 18.17556839 -60.25009739
-178.047205 59.08308739 -60.25009739
-2.899996798e-05 36.40129339 -13.82062139
-153.999785 72.15215839 -3.206759386
-149.999785 129.7122854 46.84120061
-109.086418 38.45464139 37.74990261
-120.737011 -2.461328177e-05 6.588605614
-200.494839 -2.461328177e-05 27.41262361
-157.567661 69.53035039 -24.07337539
-125.71834 175.8064394 37.74990261
-84.962868 0.8437213867 -60.25009739
-153.999785 26.09548639 -3.849111386
-96.917868 58.30800239 -60.25009739
-153.999785 81.97441539 13.93610261
-157.999785 60.80437739 -17.03956139
-162.498031 60.16551639 -60.25009739
-77.243827 176.1239314 33.74990261
-153.999785 77.46478939 32.76777261
-157.999785 45.49440539 22.07249061
-91.342802 -0.1828506133 50.04062461
-12.99444 -2.461328177e-05 19.44376561
-128.845785 -2.461328177e-05 33.37607761
-81.179315 113.5769074 33.74990261
-100.717784 14.13803639 37.74990261
-108.328746 107.7701864 33.74990261
-2.899996798e-05 23.23934939 -28.66969639
-150.562192 237.8563997 35.18988461
-149.999785 42.38674939 57.41027361
-128.438997 -2.461328177e-05 -21.97801839
-156.864058 -2.461328177e-05 46.56977461
-110.16432 19.30461539 -54.25009739
-186.081539 -2.461328177e-05 10.52690661
-142.009701 56.06946239 -54.25009739
-14.581361 47.02804539 -54.25009739
-131.011947 59.98833539 -60.25009739
-153.999785 31.73091839 -38.23558439
-157.999785 41.41973439 -12.22897139
-185.261077 9.198856387 -60.25009739
-107.603559 77.11333139 37.74990261
-153.999785 13.39723439 -39.65978339
-157.999785 7.602584387 5.570294614
-127.311641 198.9334104 33.74990261
-104.515415 217.5835932 34.98879961
-157.999785 8.844513387 -6.351885386
-76.000029 222.4840255 36.04723161
-174.2369 -2.461328177e-05 41.61964161
-153.999785 51.10626439 -33.21073339
-150.666166 198.2906754 35.27632561
-50.329539 -2.461328177e-05 32.45505761
-142.277448 -2.461328177e-05 40.72242261
-206.829616 50.11940539 -60.25009739
-13.873698 7.374621387 -60.25009739
-105.90317 250.2124938 33.74990261
-201.217799 -2.461328177e-05 -48.05424239
-7.546662 25.49167039 -54.25009739
-178.892265 -2.461328177e-05 -37.77414839
-156.797298 41.96284939 -60.25009739
-157.999785 64.70368239 48.64135761
-214.15237 25.98078939 -60.25009739
-71.495089 31.61549039 -54.25009739
-47.140946 -2.461328177e-05 -2.322465386
-53.540464 -2.461328177e-05 50.41844361
-85.705116 213.0639219 37.74990261
-217.351238 59.78097339 -60.25009739
-108.092395 -2.461328177e-05 43.40561661
1.156069 -2.461328177e-05 -24.27513639
-92.503466 8.054504387 37.74990261
-178.587272 -2.461328177e-05 58.14949261
-153.999785 36.50812039 8.404843614
-115.853338 57.05209739 33.74990261
-118.412133 -2.461328177e-05 47.88290761
-167.072845 -2.461328177e-05 8.148880614
-2.899996798e-05 23.55126739 17.44889061
-2.899996798e-05 43.98774539 11.35470061
-98.287118 -2.461328177e-05 31.41784861
-76.000029 135.9493164 37.66617061
-83.036275 26.86569739 33.74990261
-125.930342 97.32599639 37.74990261
-252.258026 39.26564139 -54.25009739
-214.308614 5.724676387 -54.25009739
-112.539142 56.91371039 -54.25009739
-198.884501 67.75634839 -54.25009739
-87.171089 186.0592774 33.74990261
-153.459972 148.1500154 38.96819061
-100.688807 86.26775039 37.74990261
-116.276624 7.994327387 -54.25009739
-141.449949 21.99931139 33.74990261
-170.347416 25.53603439 -54.25009739
-94.859076 -2.461328177e-05 -41.26831239
-207.197605 -2.461328177e-05 -10.62018839
-149.999785 23.46059339 46.62065961
-245.726056 8.617559387 -54.25009739
-7.625339 59.30704839 -54.25009739
-149.297333 61.89133739 -60.25009739
-21.415733 43.16490839 -60.25009739
-153.816827 120.0563324 40.15674261
-148.708161 172.6325874 38.83898161
-177.762658 39.76442939 -54.25009739
-157.999785 7.359476387 20.02175661
-59.059344 35.40539139 -54.25009739
-89.273863 108.0225184 33.74990261
-80.104456 91.92972239 37.74990261
-157.999785 48.40093939 2.230327614
-157.999785 78.67863539 51.98478261
-2.899996798e-05 42.24202639 30.61095661
-150.438245 68.66627739 35.09635361
-236.956937 -2.461328177e-05 24.26458061
-180.100356 27.94348039 -54.25009739
-139.646474 96.20428039 37.74990261
-68.882153 46.60985239 -54.25009739
-127.730306 23.63633239 -60.25009739
-127.526545 129.8556044 33.74990261
-31.113113 20.88630739 -54.25009739
-148.262021 51.61277939 38.54355161
-143.534232 223.4802763 37.74990261
-110.460545 -2.461328177e-05 24.48682761
-104.476383 176.0107684 33.74990261
-149.999785 10.57439539 59.04816761
-157.999785 57.20362239 55.01697461
-2.899996798e-05 31.05827539 -43.67073239
-185.943403 -2.461328177e-05 -45.69263839
-86.518373 66.86099039 37.74990261
-108.866293 38.33205039 -60.25009739
-76.000029 200.3393514 37.27232461
-157.999785 53.14558839 -44.96470739
-149.999785 162.0056014 51.27044061
-2.899996798e-05 0.009518386718 24.05664961
-147.899809 101.1231254 38.29934161
-242.371692 -2.461328177e-05 -13.49946939
-153.999785 23.53513939 22.39154961
-46.169205 26.20134339 -60.25009739
-149.999785 86.78061239 48.99487561
-92.076117 -0.08882861328 60.11493661
-45.814257 -2.461328177e-05 -47.73341539
-157.999785 16.34168239 41.82471061
-2.899996798e-05 12.43014039 -38.39030439
-172.263692 17.35681639 -60.25009739
-141.310916 250.9245032 37.74990261
-149.999785 99.46407639 47.88930361
-149.999785 28.49986239 54.56213661
-112.586073 127.9698234 37.74990261
-92.214713 218.5086625 33.74990261
1.252785 -2.461328177e-05 58.33065961
-76.000029 68.33165239 36.23679261
-9.995684 -2.461328177e-05 28.31283461
-55.637507 -2.461328177e-05 1.605962614
-109.057882 240.5703865 33.74990261
-250.829437 24.80001939 -54.25009739
-2.899996798e-05 3.088234387 0.7689506136
-157.999785 7.382434387 38.11915861
-64.339849 29.35245439 -60.25009739
-136.373593 150.0237434 37.74990261
-167.46279 -2.461328177e-05 -16.12619039
-199.507371 15.28182639 -54.25009739
-153.999785 205.3023724 43.32166261
-127.331777 -2.461328177e-05 0.03870261361
-49.932004 -2.461328177e-05 -27.79309539
-157.999785 38.22146139 34.76009861
-224.554536 29.73567739 -54.25009739
-144.613045 117.4082014 37.74990261
-153.999785 44.95610839 41.47436861
-153.999785 186.7759064 47.81025661
-157.999785 64.26306739 -5.901541386
-118.439555 112.6508244 33.74990261
-25.849486 -2.461328177e-05 37.69007461
-58.916896 20.99743039 -60.25009739
-149.999785 176.3228054 60.47545361
-23.366673 -2.461328177e-05 -10.34688339
-35.358977 30.58450039 -60.25009739
-86.085687 225.8785499 33.74990261
-25.0323 24.20629139 -60.25009739
-78.774462 3.956362387 -54.25009739
-142.552176 204.8082354 33.74990261
-37.440427 -2.461328177e-05 -15.47627539
-233.167746 -0.1065026133 -54.25009739
-153.999785 248.3424766 47.54221061
-82.66718 -2.461328177e-05 39.32960361
-58.644127 5.686521387 -60.25009739
-114.305602 214.0466226 37.74990261
-91.571259 -2.461328177e-05 -1.979675386
-155.175223 32.87421239 -51.25009739
-127.19839 165.1405524 33.74990261
-157.999785 7.024618387 -22.75378239
-159.317376 51.50857439 -60.25009739
-77.099207 154.6641674 37.74990261
-153.999785 45.42608939 -47.58268539
-201.854721 -2.461328177e-05 -35.85308139
-2.899996798e-05 6.882329387 11.68214261
-145.669954 19.60816239 -54.25009739
-91.280576 161.5998664 37.74990261
-153.999785 215.0609501 59.48277961
-124.236793 248.7538821 37.74990261
-135.731302 58.89584939 37.74990261
-138.148272 -2.461328177e-05 57.46034061
-52.979413 10.40119239 -54.25009739
-110.45888 -2.461328177e-05 -9.578388386
-150.398602 -2.461328177e-05 25.57781061
-106.197316 -2.461328177e-05 11.87545161
-65.952859 -2.461328177e-05 27.91147761
-17.722589 67.99997539 -59.10908639
-25.575293 8.414802387 -54.25009739
-76.000029 238.7174324 33.95861861
-155.383425 -2.461328177e-05 -47.20800439
-153.999785 22.85873639 -36.99561939
-175.664029 -2.461328177e-05 -19.71803439
-149.999785 94.69077739 56.67911161
-145.946121 139.7182944 37.74990261
-116.6554 178.4185254 33.74990261
-157.999785 138.3430914 58.21587161
-234.908326 -2.461328177e-05 -36.26315639
-49.203816 42.94960639 -54.25009739
-2.899996798e-05 25.29938939 44.51000061
0.525666 39.93047839 -60.25009739
-153.999785 91.07166439 39.31206161
-83.996463 251.7792577 37.74990261
-107.704897 -2.461328177e-05 -24.82290139
-241.575156 -2.461328177e-05 7.303063614
-94.34896 46.88357939 33.74990261
-126.362318 14.20196939 -60.25009739
-211.173428 57.67961039 -54.25009739
-186.642397 56.98121039 -60.25009739
-149.999785 222.5913552 48.95437661
-195.933139 53.03302339 -54.25009739
-15.578258 -2.461328177e-05 -25.97474139
-157.999785 26.15075739 51.72982361
-135.781881 114.3241094 37.74990261
-157.999785 99.00730439 53.19605161
-246.154889 47.78606339 -54.25009739
-99.73815 117.8450744 37.74990261
-134.979419 220.1636127 37.74990261
-106.967862 60.07420439 -60.25009739
-22.423255 32.57850139 -60.25009739
-70.264286 67.15513039 -54.25009739
-223.187448 55.97736939 -54.25009739
-53.85857 -2.461328177e-05 -15.31522539
-201.563291 31.54126239 -60.25009739
-231.709109 -2.461328177e-05 3.938651614
-185.199212 17.84228139 -60.25009739
-101.848474 140.7515014 33.74990261
-78.485167 -2.461328177e-05 51.00586461
-156.780036 66.32381339 -32.17815039
-157.999785 113.2461004 59.09012261
-252.438762 -2.461328177e-05 46.70737261
-147.23046 81.38306139 37.99103661
-113.125115 192.3588214 37.74990261
-149.999785 60.80658939 44.43042561
-142.971138 157.1890744 37.74990261
-135.038411 -2.461328177e-05 14.86651061
2.345956 -2.461328177e-05 -41.75062539
-157.999785 44.49783139 55.24178361
-99.269288 96.20945539 33.74990261
-147.0515 -2.461328177e-05 5.772136614
-212.801032 41.04940039 -54.25009739
-250.800331 59.58642139 -54.25009739
-149.999785 72.18324039 53.27770161
-2.899996798e-05 48.94883839 -34.28734339
-2.899996798e-05 7.209867387 -17.81022639
-84.661856 54.41197539 37.74990261
-47.001159 0.4999533867 -60.25009739
-230.33464 -2.461328177e-05 38.34645461
-191.645407 39.07963939 -54.25009739
-157.999785 25.45881139 -18.52138939
-149.999785 55.02085339 56.68836061
-86.558863 47.89432439 -60.25009739
-175.4613 48.22012739 -54.25009739
-209.74503 15.55523839 -60.25009739
-137.873632 -2.461328177e-05 -32.40761839
-157.074381 22.70614239 -54.25009739
-133.614756 49.39478939 -54.25009739
-83.504125 142.1502574 33.74990261
-153.999785 17.98678039 30.90812561
-130.983574 71.01394839 37.74990261
-98.504365 7.075311387 -54.25009739
-124.472374 7.966885387 37.74990261
-97.337721 70.07950839 37.74990261
-230.0124 47.18038939 -54.25009739
-152.718226 217.8294168 37.44825061
-31.476878 -2.461328177e-05 -22.03837139
-232.991131 38.22493739 -60.25009739
-135.335032 37.54639339 33.74990261
-14.924835 -2.461328177e-05 6.055382614
-125.45645 22.92974639 37.74990261
-76.529193 17.24619739 -54.25009739
0.747033 1.554243387 -60.25009739
-193.280066 66.29905439 -60.25009739
-133.328762 92.27397539 33.74990261
-157.999785 33.41751239 -20.98042039
-38.439317 -2.461328177e-05 -41.04332439
-235.889928 15.81379739 -54.25009739
-218.657945 -2.461328177e-05 -45.13152639
-165.173743 -2.461328177e-05 -52.56141439
-78.051066 -2.461328177e-05 15.24685361
-153.999785 41.39843839 16.06267461
-134.591953 17.32471439 33.74990261
-2.899996798e-05 33.61792339 58.98519261
-157.999785 12.35185039 57.87204461
-142.420623 176.6927934 33.74990261
-153.999785 20.15819739 -25.64209839
-64.490687 -2.461328177e-05 -40.39312539
-208.854872 -2.461328177e-05 -51.92012039
-77.910177 -2.461328177e-05 2.814330614
-105.589318 194.5908874 33.74990261
-153.999785 45.50594239 -5.809558386
-237.811511 10.39207839 -60.25009739
-245.159913 -2.461328177e-05 29.87875861
-153.999785 54.93661939 19.67836261
-205.359477 -2.461328177e-05 11.08939261
-75.054984 60.16270239 -60.25009739
-224.927855 17.60475439 -60.25009739
-131.290925 206.0582864 33.74990261
0.242144 49.99997539 -13.79481539
-2.899996798e-05 31.85623439 38.44392861
-82.93963 242.5052328 37.74990261
-86.772376 37.48456639 37.74990261
-34.612474 38.78812139 -60.25009739
-120.349287 35.97773539 -54.25009739
-102.2065 57.02536239 -54.25009739
-208.993874 23.68538339 -54.25009739
-157.999785 56.89335939 -2.557835386
-66.857806 3.048266387 -54.25009739
-153.999785 38.52030139 50.95613261
-57.804024 -2.461328177e-05 20.34534561
-157.999785 54.13569439 33.40334061
-13.982939 -2.461328177e-05 -14.88024539
-140.415444 35.96063539 -54.25009739
-109.738042 12.99626239 -60.25009739
-206.329141 -2.461328177e-05 32.97516661
-142.807535 194.4584484 33.74990261
-9.132909 -2.461328177e-05 39.41193561
-42.134174 62.36984539 -60.25009739
-188.846733 -2.461328177e-05 48.73038661
-80.381422 -2.461328177e-05 -38.03399539
-120.453859 241.0109587 33.74990261
-116.514382 26.07140339 -54.25009739
-166.493426 -2.461328177e-05 25.48552361
-128.688074 212.5215521 37.74990261
-9.403537 45.72615939 -60.25009739
-134.789441 227.1128882 33.74990261
-172.860421 -2.025435613 -60.25009739
-216.400235 11.08355639 -60.25009739
-120.341054 218.018915 33.74990261
-50.175232 19.37672539 -54.25009739
-144.280773 212.8532026 37.74990261
-135.08931 191.6782084 33.74990261
-134.488262 80.13360639 37.74990261
-103.239622 30.79358239 33.74990261
-157.999785 46.58428239 -19.90841739
-157.999785 2.276320387 -12.48587539
-20.315389 37.38664439 -54.25009739
-153.999785 11.08428139 13.26152661
-118.374465 41.08720639 37.74990261
-209.887544 -2.461328177e-05 0.3361006136
-211.553391 -2.461328177e-05 -28.12919439
-153.999785 59.00260839 -35.75777239
-79.906793 9.003209387 -60.25009739
-153.999785 67.23524739 -12.20785439
-154.709457 -2.461328177e-05 -24.83565139
-150.979079 34.03786439 35.53745261
-164.730931 55.54432939 -54.25009739
-106.960669 145.8791384 37.74990261
-143.011027 68.76952039 37.74990261
-2.899996798e-05 39.62710639 4.785761614
-118.439047 -2.461328177e-05 -6.112091386
-119.02083 139.7546884 33.74990261
-2.899996798e-05 30.14926339 -32.44523339
-104.767137 67.84060939 33.74990261
-128.47936 48.13687539 -60.25009739
-136.234849 19.92245839 -60.25009739
-222.251531 -2.461328177e-05 18.50832361
-96.802457 183.7866254 37.74990261
-131.67689 101.8741044 33.74990261
-2.899996798e-05 19.45907339 -20.49099339
-91.498784 204.7282304 37.74990261
-133.572103 67.51640139 -60.25009739
-237.898534 56.40818639 -54.25009739
-110.071859 46.25516739 -60.25009739
-2.899996798e-05 42.93247639 52.06949761
-92.351221 -2.461328177e-05 26.32331161
-20.254805 20.21883239 -54.25009739
-78.089647 41.97017339 -60.25009739
-250.64403 54.61185339 -60.25009739
-105.832658 45.53418739 37.74990261
-94.223343 -2.461328177e-05 14.51545361
-188.664577 49.01175239 -60.25009739
-86.7111 63.91843839 -60.25009739
-104.465821 186.2887734 33.74990261
-109.402347 55.39420539 37.74990261
-36.8499 49.88892439 -60.25009739
-157.999785 68.40236439 33.35219561
-83.09356 127.0138324 33.74990261
-136.508796 -2.461328177e-05 -4.313787386
-236.171358 50.85493439 -60.25009739
-68.208197 18.08667639 -60.25009739
-90.904151 14.57743839 33.74990261
-153.999785 94.64750139 28.52574561
-157.999785 66.82087939 21.88489861
-157.999785 60.31428139 8.735832614
-92.604172 191.8834784 33.74990261
-134.729199 -2.461328177e-05 39.01759961
-166.900948 -2.461328177e-05 48.68163161
-220.5297 40.89713839 -54.25009739
-26.283981 -2.461328177e-05 -31.86679139
-4.123664 -2.461328177e-05 17.52817261
-100.103274 0.06703838672 -60.25009739
-38.996579 -2.461328177e-05 -23.75031539
-76.000029 47.60211639 37.17057361
-90.348185 18.62897839 -60.25009739
-65.910085 55.28842939 -60.25009739
-124.112275 59.27171239 37.74990261
-238.920379 25.53532339 -60.25009739
-190.943789 -2.461328177e-05 -18.17376139
-195.048467 23.99986639 -54.25009739
-2.899996798e-05 8.623856387 44.22263561
0.75731 49.99997539 29.11722361
-102.925102 234.2930661 33.74990261
-183.130514 67.99997539 -59.98046939
-161.155587 14.26615239 -54.25009739
-218.6067 67.99997539 -59.10633439
-218.302213 -2.461328177e-05 -32.08240039
-79.652226 -2.461328177e-05 -30.24135239
-122.190925 64.04348939 -54.25009739
-184.355033 -2.461328177e-05 -53.19783239
-222.754036 -2.461328177e-05 38.01158161
-173.279887 8.892550387 -54.25009739
-90.488162 7.919000387 -54.25009739
-2.899996798e-05 7.121410387 -31.00898939
-132.065361 40.46542539 -54.25009739
-157.999785 25.59585939 44.18362661
-78.167804 -2.461328177e-05 25.06681461
-157.999785 26.80956439 16.44351661
-2.899996798e-05 10.76023539 31.18323261
-157.999785 56.91611639 47.46768061
-176.994099 -2.461328177e-05 -9.236160386
-97.893753 50.37793339 -54.25009739
-157.999785 88.19515539 12.61715961
-151.289471 5.556459387 -54.25009739
-228.332269 37.08651139 -54.25009739
-149.999785 120.2544204 50.67537961
-149.999785 236.0310654 55.01469961
-61.434872 61.43105539 -60.25009739
-157.999785 16.55882539 -6.565778386
-112.64957 26.40347239 33.74990261
-107.226502 22.60131939 -60.25009739
-146.14012 54.54263039 -60.25009739
-47.270468 4.876804387 -54.25009739
-157.999785 39.55902639 27.13674761
-0.957331 29.76210139 -60.25009739
-139.299639 120.7057644 33.74990261
-190.944001 31.57674939 -54.25009739
-183.274072 -2.461328177e-05 -21.25882539
-177.3962 6.715609387 -60.25009739
-240.404403 38.31913639 -60.25009739
-142.306353 111.6309774 33.74990261
-25.734319 43.09216339 -54.25009739
-117.4643 233.4891856 33.74990261
-88.66075 149.9428564 37.74990261
-33.839404 17.57705739 -60.25009739
-157.346265 0.4999753867 31.26866561
-142.668887 39.58971739 -60.25009739
-157.999785 49.02559539 -27.38907239
-161.834235 30.32439239 -60.25009739
-117.200852 80.29287739 37.74990261
-153.999785 18.47623139 50.55929561
-138.796691 165.6985884 37.74990261
-90.113133 39.25330939 -60.25009739
-125.386628 32.50471039 33.74990261
-52.071795 65.62620839 -60.25009739
-88.622428 72.61942439 33.74990261
-157.999785 25.23083739 -9.907516386
-112.535657 161.0710884 33.74990261
-52.947275 -2.461328177e-05 14.69893561
-2.899996798e-05 15.69880039 52.60637561
-136.654908 -2.461328177e-05 -16.01428539
-64.111724 -2.461328177e-05 34.96770461
-0.892032 -2.461328177e-05 -17.18962639
-97.6705 133.8529214 37.74990261
-33.140369 -2.461328177e-05 55.61152461
-92.609425 66.27104839 33.74990261
-2.899996798e-05 40.36422239 -50.03124039
-86.466915 91.04754839 33.74990261
-2.899996798e-05 49.88831639 5.641878614
-56.047843 30.51512839 -60.25009739
-116.643594 9.695339387 37.74990261
-81.460741 192.0414304 37.74990261
-217.299988 29.94904239 -54.25009739
-121.1438 171.7783194 33.74990261
-124.002784 -2.484651613 -54.25009739
-15.193682 24.52599439 -60.25009739
-153.999785 27.62282239 29.99457561
-141.754316 83.48686339 33.74990261
-92.456836 0.4999753867 36.94367761
-193.615625 -2.461328177e-05 -6.069196386
-118.027517 130.5513844 33.74990261
-107.905303 51.37559339 -54.25009739
0.707602 -2.461328177e-05 42.71772461
-247.897135 5.260001387 -60.25009739
-97.787271 65.46391539 -60.25009739
-106.578345 132.1039574 33.74990261
-73.463844 -0.9165436133 -54.25009739
-157.999785 37.75601639 -46.76690839
-133.209298 36.00592439 -60.25009739
-17.415922 58.67403239 -54.25009739
-242.524238 -2.461328177e-05 -27.53585839
-105.798211 228.1095621 36.05679761
-119.746673 223.9634934 37.74990261
-2.899996798e-05 17.40137339 23.66303061
-113.402553 -2.461328177e-05 -53.94765439
-136.794582 144.0709034 33.74990261
-126.456292 184.0224964 37.74990261
-14.709936 11.22236839 -54.25009739
-56.864211 53.51982039 -60.25009739
-110.95612 71.70596939 33.74990261
-22.275708 -0.07065361328 -54.25009739
-141.625542 48.91794939 37.74990261
-21.973136 51.50493939 -60.25009739
-105.15773 -2.461328177e-05 36.89599261
-153.999785 16.47505739 -48.56106039
-105.801837 -2.461328177e-05 -17.95521839
-88.211806 79.22579639 37.74990261
-151.138106 24.44481639 35.66856061
-157.999785 8.220659387 -36.89444439
-157.999785 71.73649639 53.47427761
-31.561297 -2.461328177e-05 12.78975461
-112.361379 112.3111594 37.74990261
-153.999785 33.61741339 -31.40022239
-99.606098 21.13916339 37.74990261
-8.928738 -2.461328177e-05 -52.24119939
-190.86845 -2.461328177e-05 5.316544614
-111.627577 18.85935839 33.74990261
-194.972851 61.87605439 -54.25009739
-243.932104 61.21113139 -54.25009739
-98.302188 149.5790904 37.74990261
-149.999785 239.0507336 42.12091961
-146.848026 64.67657839 -54.25009739
-139.40961 41.68669239 37.74990261
-219.501021 -2.461328177e-05 25.29859661
-149.999785 147.7304044 56.72989761
-24.51099 -2.461328177e-05 11.84369161
-142.651715 102.2493814 33.74990261
-16.327498 -2.461328177e-05 -34.06618639
-119.985068 56.91756139 -54.25009739
-166.787758 31.59936839 -54.25009739
-198.47115 10.48830739 -60.25009739
-157.999785 28.60321239 1.347251614
-117.506895 62.57867339 37.74990261
-157.999785 83.61587539 33.48603861
-84.904979 19.42463039 -54.25009739
-26.454976 -2.461328177e-05 -1.997111386
-122.214697 89.99857439 33.74990261
-35.09036 -2.461328177e-05 41.22846961
-226.834918 63.97252139 -54.25009739
-151.316645 61.76193339 35.81471261
-79.872919 38.08197439 33.74990261
-139.895543 15.17929539 37.74990261
-56.57485 12.34831739 -60.25009739
-22.68526 -2.461328177e-05 -46.12331639
-157.999785 35.84867939 14.71957661
-94.577715 197.2408104 37.74990261
-149.999785 43.64844439 47.02522261
-62.201428 16.39498139 -54.25009739
-149.999785 169.6363424 46.28049861
-67.058487 10.00218539 -54.25009739
-220.140143 -2.461328177e-05 53.22458961
-153.999785 92.24816639 47.49913861
-207.406257 12.99188939 -54.25009739
-178.93986 43.01825139 -60.25009739
-100.227735 8.513329387 33.74990261
-2.899996798e-05 0.05100238672 10.61552661
-97.718686 102.2849594 37.74990261
-213.049012 46.67781539 -60.25009739
-174.366309 23.92961139 -60.25009739
-78.850997 216.0482658 37.74990261
-114.455163 -2.461328177e-05 53.53104261
-160.368059 6.015056387 -60.25009739
-106.233796 -2.461328177e-05 -3.603231386
-8.816307 -2.461328177e-05 2.694303614
-153.999785 79.59798839 41.35197361
2.110758 -2.461328177e-05 -33.42618239
-153.999785 135.7339014 52.89630761
-2.899996798e-05 16.73007039 -33.01257839
-31.91823 5.750741387 -54.25009739
-136.15487 26.36882539 -54.25009739
-124.408947 117.8635734 33.74990261
-115.298393 154.7268924 37.74990261
-145.02326 134.2118824 33.74990261
-2.899996798e-05 43.02805339 -30.82442739
-43.668418 37.48515239 -54.25009739
-154.650811 77.58802639 -7.322911386
-125.28569 -2.461328177e-05 11.70158861
-82.958095 48.75131939 -54.25009739
-157.999785 127.5357984 51.58095261
-213.486162 54.15983139 -60.25009739
-82.09629 63.54748239 33.74990261
-30.185758 -2.461328177e-05 -10.50488939
-202.285401 35.10047139 -54.25009739
-81.565723 74.91165439 33.74990261
-87.659796 20.94554139 33.74990261
-157.999785 83.67141039 22.56513061
-39.678408 43.33432939 -60.25009739
-232.054168 58.77615239 -60.25009739
-66.376464 -2.461328177e-05 59.60920761
-153.999785 232.6494528 60.28429761
-147.396032 39.74069539 38.02649961
-2.899996798e-05 16.46880739 8.133383614
-116.453721 13.91444039 -60.25009739
-153.999785 3.915075387 -41.85548039
-82.706164 200.4605494 33.74990261
-100.183208 39.52058739 33.74990261
-157.999785 99.42247039 59.94663361
-126.532565 20.48071539 -54.25009739
-122.315679 196.7551274 37.74990261
-108.011125 -1.997343613 -60.25009739
-91.584303 243.218704 37.74990261
-153.893758 185.3168604 40.80606961
-196.040236 -2.461328177e-05 0.5500806136
-77.028219 34.18197039 -60.25009739
-81.52623 179.4171054 37.74990261
-143.165957 -2.251169613 -60.25009739
-108.704176 60.98918139 33.74990261
-131.614034 -2.461328177e-05 -42.61329639
-144.720381 22.98609039 -60.25009739
-2.899996798e-05 42.45754139 -16.69391039
-130.161643 62.84837939 -54.25009739
-235.740022 -2.461328177e-05 42.29373761
-128.72207 136.4391584 33.74990261
-237.527311 -2.461328177e-05 -18.10886439
-203.417269 6.098856387 -54.25009739
-130.154893 234.4668662 37.74990261
-168.691736 27.94066139 -60.25009739
-225.143956 1.455883387 -60.25009739
-168.400733 45.19370339 -54.25009739
-153.999785 18.65382939 11.82198961
-153.912919 41.68630439 -54.25009739
-123.203655 66.03023939 37.74990261
-120.655706 45.42439939 -54.25009739
-240.142252 -2.461328177e-05 -54.05421039
-72.044357 -2.461328177e-05 12.38961761
-101.447189 28.54957539 -54.25009739
-153.999785 70.68665139 46.09723561
-149.912341 153.2701804 34.81112361
-180.778338 53.03302539 -60.25009739
-159.243447 -2.461328177e-05 -29.67518139
-106.923389 114.2486674 33.74990261
-207.972328 29.86181339 -60.25009739
-114.801313 63.36018439 -54.25009739
-5.7721 52.94884939 -54.25009739
-130.298237 55.11023139 37.74990261
-153.999785 55.04535039 8.925181614
-128.692259 47.13838439 33.74990261
-172.902866 -2.461328177e-05 11.26737661
-122.371619 -2.461328177e-05 32.03979061
-39.895287 -2.461328177e-05 36.69273361
-2.899996798e-05 27.02403839 26.09019361
-131.721645 175.3710664 33.74990261
-187.918091 10.59098939 -54.25009739
-9.796332 37.59209039 -54.25009739
-194.926411 -2.461328177e-05 30.95575661
-61.40547 -0.6685376133 -54.25009739
-11.065597 64.93473539 -54.25009739
-144.169991 53.55673339 33.74990261
-145.737776 45.42267439 -60.25009739
-153.999785 12.51237139 -10.09751339
-93.524263 -2.461328177e-05 -47.71569939
-49.971117 67.67190039 -54.25009739
-129.32195 153.4452114 33.74990261
-27.838171 36.48501339 -60.25009739
-65.891826 5.659768387 -60.25009739
-153.999785 12.05932539 22.28576961
-202.615634 -2.461328177e-05 53.18591361
-149.999785 234.0790857 48.43060161
-86.898202 -0.9021816133 -54.25009739
-157.908393 55.08336439 -54.25009739
-121.748456 150.2532034 33.74990261
-168.079638 35.26511139 -60.25009739
-159.19076 -2.461328177e-05 52.67684061
-208.259265 67.99997539 -58.73597039
-63.642667 59.14189139 -54.25009739
-133.500369 19.64606039 -54.25009739
-60.928131 29.14851039 -54.25009739
-157.408186 -2.461328177e-05 -53.41478439
-24.147114 30.67601439 -54.25009739
-63.640251 -2.461328177e-05 5.005964614
-76.000029 160.2619164 34.37780861
-103.964778 -2.461328177e-05 25.02255361
-153.999785 171.8935934 57.85596461
-71.116696 -2.461328177e-05 -15.86842639
-146.71418 232.1601703 37.87919661
-76.070334 24.13694539 -54.25009739
-153.999785 74.38432839 16.25231161
-149.999785 142.1485874 48.77130961
-108.518096 -2.461328177e-05 49.88224461
-116.8982 -2.461328177e-05 60.28133861
-29.275626 58.29512139 -54.25009739
-149.999785 182.0163934 49.64004761
-44.866426 48.37155339 -54.25009739
-210.575044 -2.461328177e-05 -21.54360639
-132.088835 181.8302834 33.74990261
-54.70433 -2.461328177e-05 -5.140939386
-157.999785 35.02699439 2.798887614
-153.999785 17.07499939 -34.12341839
-37.589964 0.7370413867 -60.25009739
-148.29197 191.0963554 34.12256761
-144.710357 246.6015065 33.74990261
-130.984635 108.2782344 33.74990261
-172.41067 -2.461328177e-05 -50.61148139
-149.767926 130.4945864 40.46894761
-110.874323 175.4804774 33.74990261
-94.712248 174.3161184 33.74990261
-184.20439 40.12751339 -54.25009739
-144.957125 185.2788434 37.74990261
-162.609625 5.694502387 -54.25009739
-134.635472 65.21425839 37.74990261
-107.620195 102.8091814 37.74990261
-86.889233 55.88236539 -60.25009739
-140.273796 6.197137387 -54.25009739
-162.18792 -2.461328177e-05 37.20075761
-123.256789 -0.1408636133 -39.60154539
-157.999785 103.8400514 36.60571761
-138.472049 -2.461328177e-05 49.53209461
-224.551944 -2.461328177e-05 -47.57531339
-179.147266 -0.9363126133 -60.25009739
-87.902366 -2.461328177e-05 15.35711661
-53.050157 2.490687387 -60.25009739
-107.023689 86.89726339 37.74990261
-42.57996 -2.461328177e-05 -29.01180139
-153.999785 73.07874739 58.23984961
-175.980077 58.61961739 -54.25009739
-16.304621 -2.461328177e-05 29.09296661
-212.22006 5.590178387 -60.25009739
-153.983186 155.8558634 41.58121261
-201.555318 23.58712539 -54.25009739
-157.999785 115.2934504 40.52992861
-149.999785 13.43762539 53.38179561
-175.001784 66.30547539 -60.25009739
-201.779661 58.43404239 -54.25009739
-97.122832 218.1438654 37.74990261
-133.073458 52.50915839 -60.25009739
-112.859563 101.7661044 33.74990261
-153.999785 69.36552439 28.53281461
-153.999785 1.407874387 5.434170614
-95.118848 239.8101329 33.74990261
-144.758635 -2.461328177e-05 -42.09053639
-9.810818 -2.461328177e-05 45.70199661
-30.831953 -2.461328177e-05 23.12553061
-157.999785 32.44779639 51.19726361
-125.549333 40.88391239 -54.25009739
-153.999785 34.89654039 -3.492831386
-113.999347 243.9359679 37.74990261
-200.902691 43.44843339 -60.25009739
-77.015302 60.26578139 -54.25009739
-90.409406 -2.461328177e-05 -21.90415939
-237.655888 -2.461328177e-05 1.837261614
-116.739055 68.83815339 37.74990261
-85.025199 62.96586139 -54.25009739
-37.616867 63.36392439 -54.25009739
-153.999785 41.34251939 -35.56285139
-122.852716 160.5810904 33.74990261
-161.224692 -2.461328177e-05 -40.87493039
-155.634499 23.93349939 -60.25009739
-106.229822 4.555051387 -54.25009739
-149.999785 112.5168584 44.39640461
-143.888874 -2.461328177e-05 -20.23034539
-153.999785 50.25035339 57.45615561
-153.999785 61.99894939 22.14869361
-40.246469 -2.461328177e-05 -9.871783386
-240.084181 67.99997539 -58.70618739
-149.999785 135.5891674 58.51058661
-152.725554 97.21765639 37.46387361
-139.758668 125.4971674 37.74990261
-132.570866 1.203224387 -54.25009739
-80.759157 19.96964939 34.23614161
-79.197799 -2.461328177e-05 -3.308212386
0.511506 56.28050339 -54.25009739
-157.999785 120.9183964 55.30273061
-149.999785 210.8870474 57.11181061
-92.470148 29.57419039 -54.25009739
-115.946417 205.3442454 33.74990261
-108.830228 -2.461328177e-05 -38.05163939
-194.529306 -2.461328177e-05 46.15260161
-153.999785 172.7972644 42.12339161
-149.999785 249.794528 52.43636361
-156.269405 60.25276239 -60.25009739
-93.51744 55.72989739 -54.25009739
-149.999785 87.11950939 57.01226361
-143.371191 242.0277228 37.74990261
-110.818062 38.33191739 -54.25009739
-32.207411 54.02780839 -60.25009739
-69.727825 48.01142339 -60.25009739
-99.699312 196.5828064 33.74990261
-2.899996798e-05 23.55950439 38.54155961
-79.269241 171.2911014 37.74990261
-153.999785 53.27737639 43.56763261
-85.306026 205.1058454 37.74990261
-100.967063 213.2840608 37.74990261
-86.250664 104.3848514 37.74990261
-90.730836 31.38042839 33.74990261
-98.170688 67.99997539 -54.61373039
-96.566573 58.08781439 33.74990261
-128.859989 244.6431892 37.74990261
-114.791711 7.901772387 -60.25009739
-153.999785 5.554730387 32.44339661
-139.144892 34.52287139 37.74990261
-85.929601 120.5819734 37.74990261
-167.97197 -2.461328177e-05 -22.27608939
-139.436053 140.1877294 37.74990261
-136.461315 -2.461328177e-05 33.07081461
-211.390339 -2.461328177e-05 55.34042261
-121.382666 4.537923387 -54.25009739
-86.40408 -2.461328177e-05 -36.71511939
-162.417942 27.25810139 -54.25009739
-183.978698 -2.461328177e-05 4.740065614
-157.999785 44.91968039 9.660020614
-2.899996798e-05 26.24025339 54.39258361
-92.193407 19.80343039 37.74990261
-167.80818 63.26224139 -60.25009739
-102.808266 39.31585839 -60.25009739
-134.025007 85.34931239 33.74990261
-100.964062 79.93780539 33.74990261
-157.999785 46.07629039 -36.66532939
-153.999785 143.9165714 44.27094261
-153.999785 222.195939 53.57514561
-153.999785 125.5295054 44.84002261
-94.891026 139.1018674 33.74990261
-77.744383 25.57704339 36.53878761
-45.237099 26.94328539 -54.25009739
-128.938307 238.9316617 33.74990261
1.309564 4.569521387 -54.25009739
-105.451933 17.99907439 37.74990261
-202.363711 3.006125387 -60.25009739
-6.961193 4.780652387 -60.25009739
-153.999785 69.91168739 -17.69246739
-5.607382 67.65973139 -54.25009739
-114.043808 14.59744639 -54.25009739
-6.33925 17.28499139 -60.25009739
-118.311459 49.84277339 37.74990261
-80.814715 62.37203339 -60.25009739
-155.957276 57.66666139 -48.50682239
-186.581896 55.90713139 -54.25009739
-149.71661 71.71700839 40.32411961
-132.448864 14.53098039 -60.25009739
-153.999785 6.363951387 42.60343261
-148.411716 34.47668239 -54.25009739
-240.516747 36.91155139 -54.25009739
-97.384613 -2.461328177e-05 -3.790650386
-116.617016 120.6033764 37.74990261
-126.271158 12.18742439 33.74990261
-157.999785 55.98312939 -39.58384239
-149.999785 29.72060839 43.35625161
-153.999785 123.3820894 59.95961161
-102.222249 92.14877039 37.74990261
-104.14966 -2.461328177e-05 5.466250614
-150.631083 121.6930184 35.24910761
-83.472889 160.9238794 33.74990261
-113.227792 23.48311239 -60.25009739
-114.250612 186.2599054 33.74990261
-114.532876 -2.461328177e-05 9.577477614
-56.030559 44.25526539 -54.25009739
-150.099888 114.9009244 34.91251161
-58.137034 21.15483039 -54.25009739
-70.178412 23.80801539 -60.25009739
-149.999785 219.4884653 60.48254861
-153.999785 55.05708039 -7.156883386
-157.999785 107.3414874 54.75289461
-153.999785 75.53368139 1.802023614
-153.999785 23.80780739 -30.45723039
-107.392467 -2.461328177e-05 19.28183361
-157.999785 55.16963039 -19.21961239
-157.999785 113.7487824 49.08044561
-89.677418 129.1233634 33.74990261
-72.46539 12.67980839 -54.25009739
-149.999785 159.5421474 57.47495961
-93.621379 81.88881439 37.74990261
-48.914448 55.78022139 -60.25009739
-123.190853 134.0418034 33.74990261
-153.999785 5.215563387 16.05930161
-153.677027 231.8218392 39.58320361
-138.997604 61.27817639 -54.25009739
-87.579603 174.7608934 33.74990261
-110.663372 2.966176387 37.74990261
-62.994114 -2.461328177e-05 53.74534561
-157.999785 33.26883039 -42.79799939
-157.999785 52.93155839 14.02843561
-87.582768 230.0745105 37.74990261
-87.189742 10.80591639 37.74990261
-48.309454 -2.461328177e-05 47.51650761
-153.999785 25.21608639 -49.78466339
-149.703341 35.18783939 -60.25009739
-229.463792 29.57960839 -60.25009739
-114.143877 35.27920939 37.74990261
1.261126 49.99997539 51.43348461
-95.430635 118.8570484 33.74990261
-2.899996798e-05 44.33727839 39.11073261
-173.190135 -2.461328177e-05 31.86886861
-106.997557 189.9115484 37.74990261
-127.765419 160.7575244 37.74990261
-153.999785 38.25170039 -15.30854239
-157.999785 6.502352387 -31.18824939
-157.999785 40.29803139 -21.95727339
-92.144299 222.9119553 37.74990261
-149.999785 23.82536339 60.16668761
-2.899996798e-05 44.51893839 -24.76661239
-111.762629 219.838695 33.74990261
-123.623478 -2.461328177e-05 41.43223761
-153.999785 14.36605139 -24.37096739
-27.78004 -2.461328177e-05 -39.41494939
-7.141152 -2.461328177e-05 -6.401584386
-111.056542 32.09826339 33.74990261
-153.999785 5.378740387 -15.79354239
-153.999785 214.9253684 42.43588661
-98.219259 27.75759539 37.74990261
-157.999785 12.38922239 -1.632515386
-153.999785 90.27938639 16.42131561
-67.785323 -2.461328177e-05 -6.793185386
-157.999785 87.46283439 51.20127961
-135.333327 187.0369164 37.74990261
-225.531583 5.761194387 -54.25009739
-189.298749 47.75837839 -54.25009739
-153.999785 46.97914839 18.01793561
-154.978501 -2.461328177e-05 39.58860361
-133.09091 74.77919139 33.74990261
-157.999785 46.87849339 36.32067161
-98.606251 223.6022124 36.15854461
-152.591625 166.3421624 37.23298761
-51.736004 9.021629387 -60.25009739
-157.999785 19.73903739 26.98259061
-153.999785 223.73613 59.83707061
-149.999785 135.2904654 45.01356561
-83.446585 -2.461328177e-05 0.8699946136
-154.22611 10.63657339 -54.25009739
-124.686105 239.4426129 37.74990261
-94.481385 110.7055174 33.74990261
-240.411228 44.17369539 -60.25009739
-157.999785 109.8627214 36.90512661
-244.214186 -2.461328177e-05 -49.86028839
-117.770957 76.06994239 33.74990261
-157.999785 20.61771439 36.74531061
-122.33011 25.81614539 33.74990261
-31.918859 7.203737387 -60.25009739
-127.313121 73.28697439 33.74990261
-127.908996 47.56641539 -54.25009739
-2.899996798e-05 8.449537387 -6.559087386
-46.233399 61.29923639 -54.25009739
-157.999785 12.37073939 -18.57068639
-137.894128 55.25639139 33.74990261
-149.999785 178.0758954 54.92710261
-157.999785 70.23850239 17.02716261
-87.886993 48.24456039 33.74990261
-2.899996798e-05 19.09045739 -9.010892386
-99.347359 -2.461328177e-05 -25.63750539
-23.379927 13.79045139 -54.25009739
-2.899996798e-05 32.17199139 -37.88533139
-149.581743 -2.461328177e-05 -45.31225539
-157.999785 13.01501739 7.639269614
-90.554716 2.352690387 -60.25009739
-128.598645 -2.461328177e-05 51.82826861
-207.517072 -2.461328177e-05 -32.27996939
-153.999785 80.74636239 28.00077361
-153.999785 5.614214387 -9.970175386
-118.608753 160.3191444 37.74990261
-153.999785 80.31449139 19.46374361
-153.999785 44.46572139 3.558862614
-20.14559 -2.461328177e-05 -29.75086139
-157.999785 92.70462939 23.01012961
-149.999785 227.8290701 52.04588261
-109.861661 -2.461328177e-05 58.40778261
-47.081192 -2.461328177e-05 11.23354861
-153.999785 103.0482404 52.31914461
-151.872722 -2.461328177e-05 49.42925661
-153.999785 59.16239139 51.38960061
-153.999785 50.66586539 23.51368361
-106.898806 52.01588539 -60.25009739
-157.999785 17.02862439 -41.59358039
-153.999785 57.03701739 -14.36257839
-66.110171 -2.461328177e-05 10.18182461
-153.999785 21.35577039 -18.67300239
-83.657442 -2.409757613 50.46662161
-76.358432 93.60736939 33.74990261
-153.999785 82.73730039 52.57741561
-153.999785 73.64414239 37.04639461
-120.918196 53.00273439 33.74990261
-157.999785 27.02436939 -43.67500039
-2.899996798e-05 18.66786939 14.47945061
-80.694997 167.4691054 33.74990261
-118.220658 135.7589154 37.74990261
-109.33174 80.79673339 33.74990261
-165.907702 21.95240339 -54.25009739
-81.464486 248.6037193 33.74990261
-130.334313 120.1300374 33.74990261
-233.955282 1.600501387 -60.25009739
-123.295241 202.3605844 37.74990261
-153.999785 30.48299139 18.13516561
-157.999785 63.53358539 30.41389861
-153.999785 244.480438 43.36827361
-137.929164 203.9301824 37.74990261
-80.512301 98.39196939 33.74990261
-47.635755 -2.461328177e-05 37.65583161
-90.339681 87.26850639 37.74990261
-2.899996798e-05 38.35818039 10.31318761
-157.999785 26.86057439 -36.69391039
-153.999785 197.1913194 56.87391861
-142.623999 107.5032504 37.74990261
-171.540254 14.27805139 -54.25009739
-2.899996798e-05 26.19875239 -0.01390838639
-153.999785 158.0426974 50.75074861
-71.881035 42.68749639 -60.25009739
-153.999785 61.65936339 -24.71342239
-244.510552 26.30510739 -60.25009739
-149.999785 37.74380539 45.97726961
-21.566503 64.03795139 -60.25009739
-153.999785 189.2425804 52.87597461
-150.580556 5.695927387 -60.25009739
-172.059208 -2.461328177e-05 -11.94415439
-149.999785 93.56044739 42.38398761
-155.057674 0.4999753867 -7.884765386
-2.899996798e-05 38.15877339 -22.19189239
-70.105633 -2.461328177e-05 -40.62272339
-153.999785 26.60940139 -22.29495039
-2.899996798e-05 46.64928939 44.22929261
-105.571048 172.2233834 37.74990261
-228.487713 52.57867539 -54.25009739
-153.999785 81.04096839 0.7425706136
-153.999785 11.11844639 36.91297061
-2.899996798e-05 12.00612439 13.94995761
-16.220282 4.551914387 -54.25009739
-93.327876 -2.461328177e-05 44.80633761
-149.230217 130.5811484 34.44654861
-113.51443 165.7369164 37.74990261
-2.899996798e-05 6.667421387 -23.38094639
-153.999785 64.03796739 -38.37160939
-105.822808 11.84954339 37.74990261
-185.65632 32.78895639 -60.25009739
-157.999785 70.46551039 0.3199656136
-2.899996798e-05 18.29000939 -0.5097673864
-157.999785 70.27012039 -9.759646386
-217.554047 -2.292764613 -54.25009739
-96.245607 -2.461328177e-05 2.044138614
-153.999785 246.4232791 58.90280161
1.216789 24.28783539 -53.25009739
-239.958988 31.35973039 -54.25009739
-31.895944 -2.461328177e-05 -43.76574039
-102.938685 245.4887437 33.74990261
-85.557991 234.0491334 33.74990261
-157.999785 26.42412139 26.31085261
-2.899996798e-05 33.62813639 -8.164804386
-2.899996798e-05 18.26796239 -46.15906139
-2.899996798e-05 31.22090939 5.232677614
-3.805196 -2.461328177e-05 -29.77082739
-2.899996798e-05 39.93745439 -42.93481639
-37.509813 67.99997539 -57.72440639
-89.145282 156.4680124 37.74990261
-153.999785 81.20519639 46.71935261
-141.928152 -2.461328177e-05 -3.084416386
-153.999785 7.277607387 25.11611561
-157.999785 45.27611739 49.74515661
-120.25773 58.30963339 -60.25009739
-112.52406 208.7928494 37.74990261
-157.999785 81.52189239 56.74822961
-76.769181 242.6914035 37.74990261
-142.998716 130.9482674 37.74990261
-17.494588 65.34166039 -54.25009739
-80.219082 132.3579634 37.74990261
-157.999785 23.07510639 0.9828556136
-224.729655 63.51507239 -60.25009739
-201.747675 -2.461328177e-05 15.28614261
-2.899996798e-05 19.85853639 48.95234761
-89.760969 113.5945734 33.74990261
-101.895718 124.8986794 37.74990261
-153.999785 20.25147339 -7.514449386
-153.999785 87.48068939 22.71111761
-149.999785 101.8654234 58.32847661
-153.999785 22.52681439 41.92553261
-150.206859 178.0457934 34.96814761
-157.999785 10.32985739 -13.44030439
-44.833982 -2.461328177e-05 -53.43290239
-76.593289 110.5218024 33.74990261
-150.30827 145.9461094 35.02326361
-95.742447 170.6723064 37.74990261
-149.999785 153.2761724 53.91744061
-10.767227 12.44877039 -60.25009739
-2.899996798e-05 37.81143439 48.54258561
-30.977472 -2.005209613 -60.25009739
-149.999785 36.09772839 53.84730461
-103.302145 32.59640739 -60.25009739
-127.248322 -2.461328177e-05 45.66511661
-58.273499 64.73744839 -54.25009739
-101.651687 55.53498039 -60.25009739
-74.156484 45.10489639 -54.25009739
-182.296015 20.03111739 -54.25009739
-98.467112 207.1507264 37.74990261
-110.847345 -2.461328177e-05 -45.39810339
-126.369565 149.7172834 37.74990261
-153.999785 44.88114839 60.19522561
-96.714061 49.77704139 37.74990261
-149.999785 211.1536004 49.81691061
-2.899996798e-05 5.562279387 16.98847661
-153.999785 101.3708194 40.78122561
-2.899996798e-05 26.54864439 -36.55241039
-133.052077 -2.461328177e-05 26.23444561
-2.899996798e-05 9.208660387 56.67531361
-2.899996798e-05 30.72539339 45.11943561
-78.399877 81.73057539 33.74990261
-157.999785 35.13857939 -26.15860639
