# .PCD v0.7 - Point Cloud Data file format
VERSION 0.7
FIELDS x y z
SIZE 4 4 4
TYPE F F F
COUNT 1 1 1
WIDTH 1197
HEIGHT 1
VIEWPOINT 0 0 0 1 0 0 0
POINTS 1197
DATA ascii
-377.655886 -53.63817061 -9.738637846e-05
32.110311 -2.461346503e-05 197.2573906
-374.499785 0.3781723865 102.5245916
-213.087195 -2.461346503e-05 164.1712276
85.73931 -2.461346503e-05 188.4266206
233.442155 -2.461346503e-05 239.6817506
-236.947803 -2.461346503e-05 197.7494686
223.954952 -2.461346503e-05 54.95631361
370.499971 -34.51032461 179.9542236
-232.700153 -2.461346503e-05 131.8024856
-150.528762 -2.461346503e-05 93.01438961
-103.878569 -2.461346503e-05 178.8642096
186.946548 -2.461346503e-05 121.7145596
-213.467176 -2.461346503e-05 132.2192076
-334.124609 -2.461346503e-05 90.94969961
79.083519 -2.461346503e-05 16.32812761
370.499971 -18.48961261 16.84449861
360.340833 -2.461346503e-05 96.67437361
105.011858 -26.23878261 -9.738637846e-05
370.499971 -49.99777661 92.15438561
253.106745 -14.73177661 -9.738637846e-05
-138.799628 -2.461346503e-05 169.7186516
-139.761334 -2.461346503e-05 126.3916806
-258.482259 -2.461346503e-05 34.02988561
393.704597 -2.461346503e-05 225.4063656
-222.086157 -2.461346503e-05 208.8557316
370.499971 -31.76342861 42.28586861
-312.106615 -2.461346503e-05 11.30768061
205.343629 -2.461346503e-05 157.1324266
-75.594042 -38.90516161 -9.738637846e-05
-264.667314 -2.461346503e-05 108.6853896
-255.46435 -8.435526613 -9.738637846e-05
-265.6746 -2.461346503e-05 212.7205346
-175.439647 2.001383387 -9.738637846e-05
242.207233 -2.461346503e-05 222.7453056
67.986259 -19.22502261 -9.738637846e-05
293.720923 -51.03039561 -9.738637846e-05
-330.399306 -2.461346503e-05 128.2584686
-301.366225 -2.461346503e-05 44.66106861
267.288454 -41.74155561 -9.738637846e-05
379.483847 -2.461346503e-05 43.11422461
-253.561027 -2.461346503e-05 63.64323461
172.525044 -2.461346503e-05 161.2935426
288.70036 -2.461346503e-05 142.1765046
64.620617 -2.461346503e-05 251.2086176
-102.887875 -2.461346503e-05 105.3448566
-195.470977 -65.51724461 -9.738637846e-05
80.689153 -2.461346503e-05 113.7253496
376.499971 -1.771488613 65.26509861
171.316814 -2.461346503e-05 201.5174566
232.312121 -13.92569161 -9.738637846e-05
-138.9886 -2.461346503e-05 233.5745506
365.471298 -18.62709161 -9.738637846e-05
-41.262027 -2.461346503e-05 128.0538016
234.966679 -46.03534061 -9.738637846e-05
323.721692 -68.00002461 -2.168898386
131.792286 -2.461346503e-05 230.4761156
-8.582984 -2.461346503e-05 144.4628646
162.439771 -21.42627361 -9.738637846e-05
308.722179 -19.59355861 -9.738637846e-05
-313.116498 -2.461346503e-05 58.84509361
376.499971 -34.04443261 155.6603396
-164.499264 -2.461346503e-05 161.8193746
216.500215 1.990835387 115.6377816
382.297215 -2.461346503e-05 103.5056086
-316.405797 -38.47411761 -9.738637846e-05
-268.48286 -2.461346503e-05 247.8717936
-374.499785 0.4961893865 210.0844326
-41.135652 -2.461346503e-05 91.26990061
-231.695841 -60.02781661 -9.738637846e-05
7.645274 -2.461346503e-05 82.15029261
62.088671 -2.461346503e-05 18.81443261
-328.795937 -52.04718961 -9.738637846e-05
-330.883545 -2.461346503e-05 16.94765761
-281.719884 -2.461346503e-05 72.20163461
-33.242252 -2.461346503e-05 225.1462526
115.199404 -2.461346503e-05 102.5237686
352.676361 -50.08974261 -9.738637846e-05
-361.618983 -2.461346503e-05 113.7651896
-341.697724 -7.071168613 -9.738637846e-05
-178.357032 -2.461346503e-05 246.6763156
-231.362892 -2.461346503e-05 96.34708261
-391.091116 -2.461346503e-05 76.12134661
139.192804 -2.461346503e-05 148.8806726
-33.673511 -2.461346503e-05 186.4761626
-26.426355 -2.461346503e-05 37.75898761
154.757388 -2.461346503e-05 207.5632966
-21.884363 -57.29196761 -9.738637846e-05
338.101215 -2.461346503e-05 202.0609876
-120.277209 -2.461346503e-05 107.0948656
115.521885 -2.461346503e-05 170.9703356
370.499971 -35.82274161 67.90437761
-23.466148 -9.556244613 -9.738637846e-05
-62.011439 -2.461346503e-05 33.67925561
-256.761409 -2.461346503e-05 170.4488906
63.987201 -46.72657261 -9.738637846e-05
201.60996 -2.461346503e-05 47.37215861
205.482087 -3.184302613 -9.738637846e-05
392.531885 -2.461346503e-05 208.8757676
-165.866378 -2.461346503e-05 41.91919961
-324.995508 -2.461346503e-05 156.0784806
-289.854465 -16.30014561 -9.738637846e-05
376.499971 -19.52791761 187.6241686
86.438545 -48.90505061 -9.738637846e-05
10.255372 -2.461346503e-05 108.5063736
221.58591 -2.461346503e-05 76.54001361
-378.955851 -2.461346503e-05 175.7574446
166.120889 -2.461346503e-05 76.62646361
374.866373 -2.461346503e-05 119.1889716
134.818568 -26.87988761 -9.738637846e-05
317.42431 -50.46436161 -9.738637846e-05
-289.221329 -51.02310161 -9.738637846e-05
297.570596 -2.461346503e-05 183.6742926
326.890017 -2.461346503e-05 81.79590761
304.969513 -2.461346503e-05 103.8333226
-90.194594 1.955684387 115.3771996
39.289971 -2.461346503e-05 82.47269161
95.05874 -2.461346503e-05 11.96086461
4.749602 -5.143305613 -9.738637846e-05
-162.278864 -2.461346503e-05 10.74467461
-202.760159 -2.461346503e-05 237.5076056
-388.490732 -2.461346503e-05 110.7318666
375.368433 0.9531453865 158.9999026
260.812058 -56.60445561 -9.738637846e-05
103.682538 -2.461346503e-05 118.3427326
-153.793369 -2.461346503e-05 226.6851886
376.499971 -36.64713561 236.7117946
115.192335 -2.461346503e-05 34.16484961
-304.422439 -2.461346503e-05 239.3028306
-378.253793 -2.461346503e-05 156.8113216
376.499971 -46.45448361 126.0581906
-221.760496 -2.461346503e-05 35.54359061
-3.274105 -2.461346503e-05 51.87298461
370.499971 -24.53078161 94.69055361
-377.78507 -2.461346503e-05 48.34177561
-213.227008 -2.461346503e-05 102.1940206
318.183448 -2.461346503e-05 125.5194186
359.255234 -2.461346503e-05 229.6184516
-370.076411 -2.461346503e-05 16.49240061
316.293736 -2.461346503e-05 22.86259361
3.782859 -2.461346503e-05 15.62901061
280.664804 -2.461346503e-05 54.51496261
-73.288231 -2.461346503e-05 112.5144006
300.377695 -2.461346503e-05 226.4515136
332.040271 -2.461346503e-05 224.4124276
-358.110375 -2.461346503e-05 66.77678961
140.960508 -2.461346503e-05 53.03114761
55.214639 -1.096997613 -9.738637846e-05
-108.579297 -16.89090961 -9.738637846e-05
389.981776 -2.461346503e-05 134.6399606
202.531781 -2.461346503e-05 223.0096766
376.499971 -20.75083161 210.2848836
-300.338124 -2.461346503e-05 104.7696516
-74.480056 -2.461346503e-05 251.0120356
-68.763599 -2.461346503e-05 188.5465756
-334.180061 -2.461346503e-05 219.9193816
-365.416837 -2.461346503e-05 129.2564466
82.007696 -2.461346503e-05 163.4474406
304.233619 -2.461346503e-05 37.80041761
-16.218653 -2.461346503e-05 78.01498161
-193.789816 -43.89004161 -9.738637846e-05
-269.173972 -28.80551561 -9.738637846e-05
-67.234193 -2.461346503e-05 226.9916296
225.966315 -2.461346503e-05 173.0070356
55.505296 -2.461346503e-05 212.8766736
57.129667 -2.461346503e-05 170.0678886
107.912097 -2.461346503e-05 235.6538406
-352.210393 -55.39887061 -9.738637846e-05
-204.188817 -2.461346503e-05 36.29881161
356.058576 -2.461346503e-05 78.54734761
-84.296726 -12.54363761 -9.738637846e-05
26.914035 -2.461346503e-05 20.53864861
200.517056 -2.461346503e-05 83.80895761
37.483737 1.248967387 -9.738637846e-05
-395.104314 -2.461346503e-05 132.5751806
-223.509693 -2.461346503e-05 7.094755614
-316.384233 -2.461346503e-05 94.26888161
-133.972717 -2.461346503e-05 93.26623661
248.743962 -2.461346503e-05 87.51005861
327.081105 -14.51492161 -9.738637846e-05
-224.379873 -30.49064961 -9.738637846e-05
-281.238879 -2.461346503e-05 236.0799716
335.628957 -2.461346503e-05 55.76924561
140.885946 -2.461346503e-05 10.96557061
362.303406 -2.461346503e-05 147.7298356
-132.883114 -2.461346503e-05 150.5457356
72.705803 -34.14038061 -9.738637846e-05
-282.922251 -2.461346503e-05 220.9207286
-300.724188 -2.461346503e-05 208.8812386
81.431011 -2.461346503e-05 129.4196206
-184.064875 -2.461346503e-05 63.48684661
-89.635038 -2.461346503e-05 36.60956961
179.943079 -2.461346503e-05 230.5914066
-81.493202 -2.461346503e-05 148.9240066
68.506597 -2.461346503e-05 53.00745461
238.721253 -2.461346503e-05 58.00074161
82.909481 -2.461346503e-05 34.03651461
-78.542717 -2.461346503e-05 86.01445461
-82.022483 -2.461346503e-05 63.58111361
-137.083697 -7.878087613 -9.738637846e-05
157.095021 -2.461346503e-05 124.7882416
229.0773 -2.461346503e-05 89.53414361
160.417883 -2.461346503e-05 13.56207361
-88.288648 -2.461346503e-05 204.1499026
-359.273273 -2.461346503e-05 186.7604976
51.120644 -2.461346503e-05 28.92222361
239.747698 -2.461346503e-05 162.6780696
347.525697 -2.461346503e-05 176.5108156
-5.577676 -2.461346503e-05 195.7016186
318.898228 -2.461346503e-05 159.4724526
301.399055 -2.461346503e-05 1.675929614
6.138519 -68.00002461 -0.7534203864
-158.233776 -2.461346503e-05 193.4801356
348.010435 -2.461346503e-05 249.3980536
-287.607945 -2.461346503e-05 157.7327866
173.377333 -2.461346503e-05 217.3282346
394.692897 -2.461346503e-05 148.6572406
-177.497449 -36.45971161 -9.738637846e-05
362.298309 -2.461346503e-05 32.38225961
-12.668478 -2.461346503e-05 15.70994361
-362.49116 -2.461346503e-05 236.8319196
136.203618 -2.461346503e-05 28.44317461
-297.452694 -2.461346503e-05 183.7380586
-123.881317 -42.31348761 -9.738637846e-05
370.499971 -23.19162061 77.09371861
-32.897019 -47.51962461 -9.738637846e-05
-209.431026 -2.461346503e-05 68.49182961
304.111657 -2.461346503e-05 63.57159661
133.626518 -2.461346503e-05 198.1449096
-254.657629 -54.25049861 -9.738637846e-05
-268.577294 -2.461346503e-05 1.137805614
-100.533628 -2.461346503e-05 88.38873061
213.429632 -45.89121261 -9.738637846e-05
16.713111 -13.53592261 -9.738637846e-05
291.984976 -2.461346503e-05 110.9546096
10.584946 -43.57209561 -9.738637846e-05
225.229494 -2.461346503e-05 26.30365461
152.974637 -54.16325661 -9.738637846e-05
-301.124065 -2.461346503e-05 148.3487306
-139.500762 1.757418387 61.29222561
241.018755 -2.461346503e-05 23.42323161
-387.743338 -2.461346503e-05 192.6310446
285.241317 -2.461346503e-05 0.9125536136
290.630419 -2.461346503e-05 250.9195466
-386.079915 -2.461346503e-05 13.30509461
-203.758814 -2.461346503e-05 9.943347614
373.157291 -2.461346503e-05 236.0463666
-159.736167 -2.461346503e-05 74.88097261
106.570572 -42.38452161 -9.738637846e-05
-86.055071 -2.461346503e-05 12.66797361
4.100338 -2.461346503e-05 170.1823226
-245.5875 1.997219387 -9.738637846e-05
13.002298 -2.461346503e-05 48.85857261
380.843881 -62.63523461 -9.738637846e-05
-151.708045 -2.461346503e-05 107.2935056
220.233067 -2.461346503e-05 135.1558386
207.969468 -2.461346503e-05 237.3244116
265.83243 -2.461346503e-05 248.0264046
-57.44414 -2.461346503e-05 113.8665846
-168.796184 -2.461346503e-05 97.91341561
86.024957 -2.461346503e-05 83.95805361
-353.423587 -2.461346503e-05 144.0248536
55.810201 -2.461346503e-05 135.6837416
40.271984 -2.461346503e-05 152.9763356
-45.984284 -2.461346503e-05 23.32328861
347.992287 -2.461346503e-05 103.6591516
-108.608263 -2.461346503e-05 141.2432976
-344.068766 -25.95984561 -9.738637846e-05
280.845534 -2.461346503e-05 225.8079746
282.341641 -2.461346503e-05 21.98239761
-224.785301 -2.461346503e-05 75.96429061
103.241007 -2.461346503e-05 65.04670161
-177.993173 -2.461346503e-05 50.78638761
-277.486105 -2.461346503e-05 123.9410856
-334.821658 -37.57860361 -9.738637846e-05
-119.25661 -2.461346503e-05 250.4351066
-57.629185 -2.461346503e-05 165.4883706
177.954927 -2.461346503e-05 69.13727261
-340.963415 -2.461346503e-05 167.9562536
-329.843064 -2.461346503e-05 241.7125706
375.119883 -50.00002461 78.95313761
370.499971 -49.44971661 22.24366561
200.227475 -2.461346503e-05 117.3865136
177.772971 -2.461346503e-05 10.59290461
-393.657876 -52.42186261 -9.738637846e-05
313.051443 -2.461346503e-05 189.4020596
-134.800723 -2.461346503e-05 46.51025861
131.248405 -2.461346503e-05 108.6466466
-178.658344 -2.461346503e-05 13.39544061
-20.733176 -2.461346503e-05 92.79072361
-370.598452 -2.461346503e-05 83.38304761
130.204415 -2.461346503e-05 159.5038626
-125.45126 -2.461346503e-05 125.6848336
-244.090673 -2.461346503e-05 30.71011061
-357.207848 1.062278387 -9.738637846e-05
202.028155 -61.72909261 -9.738637846e-05
-256.350338 -2.461346503e-05 202.4170146
-55.983985 -2.461346503e-05 48.24842861
370.499971 -13.14580661 250.6170166
-384.956242 -2.461346503e-05 219.6469436
49.237192 -2.461346503e-05 121.6990716
-213.019334 -2.461346503e-05 249.3014646
-10.276031 -2.461346503e-05 112.7320156
370.499971 -29.25686961 8.176705614
29.329197 -30.96391261 -9.738637846e-05
-185.451158 -2.461346503e-05 188.2409926
40.152082 -2.461346503e-05 236.7079986
7.703723 -2.461346503e-05 249.5913386
-55.605338 -2.461346503e-05 236.1004476
-29.362115 -2.461346503e-05 154.3739766
218.384244 -15.15597361 -9.738637846e-05
-192.099006 -2.461346503e-05 211.4351786
-291.796148 -2.461346503e-05 127.2498626
33.330928 -2.461346503e-05 99.11274761
150.255031 -2.461346503e-05 172.1948476
229.959219 -2.461346503e-05 39.20496561
-108.289951 -2.461346503e-05 225.1317086
-227.514792 -2.461346503e-05 233.5090166
-142.199328 -2.461346503e-05 140.5000346
-147.444593 -31.04233161 -9.738637846e-05
-51.865699 -18.60190361 -9.738637846e-05
-268.55931 -2.461346503e-05 190.5966906
229.593578 -64.81525161 -9.738637846e-05
-307.207241 -68.00002461 -0.2926443864
257.788027 -2.461346503e-05 39.80268961
338.825921 -2.461346503e-05 28.76640161
109.44083 -2.461346503e-05 136.0636256
-74.539611 -2.461346503e-05 176.2153806
212.743092 -32.30856561 -9.738637846e-05
-165.70382 -52.98755761 -9.738637846e-05
-99.596556 -2.461346503e-05 238.3593436
312.602477 -2.461346503e-05 213.8723596
-125.906026 -2.461346503e-05 225.8898496
376.499971 -24.33031461 28.27943961
-362.240426 -2.461346503e-05 38.61441561
269.758491 -2.461346503e-05 69.36235261
274.818234 -2.461346503e-05 114.8729006
31.819004 -2.461346503e-05 128.2594686
161.276768 -2.461346503e-05 147.4613756
-150.165732 -2.461346503e-05 241.2070726
331.090069 -2.461346503e-05 94.64701761
376.499971 -35.12203961 211.3240766
387.409912 -2.461346503e-05 179.9468846
252.755945 -2.461346503e-05 137.5494186
290.039892 -2.461346503e-05 39.17879361
142.082454 -2.461346503e-05 94.14651161
351.267999 0.3168903865 -9.738637846e-05
301.410307 -2.461346503e-05 134.0792286
-282.30296 -1.106541613 -9.738637846e-05
115.09141 -2.461346503e-05 80.38460161
-302.742875 -43.99729961 -9.738637846e-05
150.216132 -2.461346503e-05 252.2563466
268.071458 -2.461346503e-05 207.3642186
-129.048071 -2.461346503e-05 202.6115396
66.285604 -2.461346503e-05 220.8604726
-198.407948 -2.461346503e-05 165.5670466
309.453152 -2.461346503e-05 75.85251961
224.729412 -2.461346503e-05 196.6870186
-318.849058 -2.461346503e-05 186.2638086
247.325819 0.3619353865 204.6524226
242.12211 -24.83480661 -9.738637846e-05
84.21751 -2.461346503e-05 244.4048686
249.410946 -2.461346503e-05 188.2215976
376.499971 -38.91819561 104.4641326
32.949797 -2.461346503e-05 32.34604361
362.630789 -2.461346503e-05 211.9300326
150.96715 -2.461346503e-05 83.64003161
364.458139 -44.11028861 -9.738637846e-05
184.493341 -2.461346503e-05 202.3168346
-58.281065 -39.45255961 -9.738637846e-05
192.573742 -2.461346503e-05 134.8501246
163.423007 -2.461346503e-05 172.3944416
316.223436 -2.461346503e-05 51.16541761
-252.758226 -2.461346503e-05 81.81331961
272.362872 -2.461346503e-05 174.0472786
375.474611 -10.09665261 -9.738637846e-05
174.74472 -2.461346503e-05 45.58545861
50.01334 -41.23362361 -9.738637846e-05
-114.577081 -2.461346503e-05 27.32703661
-280.488977 -2.461346503e-05 59.15707361
-242.234254 -2.461346503e-05 109.3811136
370.499971 -31.59094361 167.1884206
-130.613351 -56.24658461 -9.738637846e-05
98.77015 -2.461346503e-05 187.4348116
-351.245763 -2.461346503e-05 103.1548196
-333.41761 -2.461346503e-05 34.75706261
-71.956504 -2.461346503e-05 140.0153886
6.326237 -2.461346503e-05 130.5512826
-16.36155 -2.461346503e-05 215.6283006
-262.158889 -2.461346503e-05 152.4672826
249.128178 -2.461346503e-05 65.78797161
8.319827 -2.461346503e-05 61.45177161
83.834933 1.429304387 -9.738637846e-05
370.499971 -48.85694261 238.4817316
135.177003 -13.04998961 -9.738637846e-05
236.555824 -2.461346503e-05 139.6194506
-63.403933 -5.311653613 -9.738637846e-05
192.051265 -2.461346503e-05 31.73156461
-5.304058 -2.461346503e-05 235.6997096
109.744554 -2.461346503e-05 156.6357856
-169.331357 -2.461346503e-05 132.0411426
-184.320362 -2.461346503e-05 171.6730546
-131.066482 -2.461346503e-05 70.80087261
73.541006 -2.461346503e-05 81.01463361
325.993275 -2.461346503e-05 170.3647096
340.438677 -21.52035261 -9.738637846e-05
-272.690498 -2.461346503e-05 32.26176861
-382.259144 -2.461346503e-05 60.32045061
-33.435022 -2.461346503e-05 212.3644596
-152.101965 -2.461346503e-05 166.6000356
370.499971 -20.27490961 141.6782326
95.103849 -2.461346503e-05 43.86663561
-28.320769 -68.00002461 -2.393557386
-244.857182 -2.461346503e-05 178.9436466
81.664405 -2.461346503e-05 216.9603126
44.133551 -9.587676613 -9.738637846e-05
47.050836 -2.461346503e-05 203.4025706
279.768351 -2.461346503e-05 84.80058761
29.138119 -2.461346503e-05 58.94304461
342.536858 -2.461346503e-05 9.211199614
193.941501 -2.461346503e-05 68.61661561
192.791078 -2.461346503e-05 155.6401846
-383.675409 -2.461346503e-05 143.0681796
269.221933 -2.461346503e-05 231.3000786
-340.469311 -2.461346503e-05 205.2750196
299.688729 -2.461346503e-05 90.61794161
145.552609 -2.461346503e-05 37.78157561
182.25482 -2.461346503e-05 186.4386036
-16.600672 -2.461346503e-05 65.42829061
-318.010496 -2.461346503e-05 125.9425116
-190.45471 -10.34840761 -9.738637846e-05
-289.673094 -2.461346503e-05 10.95491161
-110.538146 -0.06786861347 -9.738637846e-05
69.588464 -2.461346503e-05 134.5743376
37.036364 -2.461346503e-05 183.3743726
-214.891195 -2.461346503e-05 234.3007356
-304.15382 -2.461346503e-05 75.14439961
-110.511962 -2.461346503e-05 53.17406561
131.344285 -2.461346503e-05 61.07381861
-21.080424 -2.461346503e-05 130.6755806
-254.43888 -2.461346503e-05 133.4805766
233.237533 -2.461346503e-05 13.62560461
-184.500982 -2.461346503e-05 119.0097546
-233.167949 -2.461346503e-05 65.50826061
108.300572 -2.461346503e-05 23.48101261
376.499971 -35.02622661 54.08245661
-358.972115 -2.461346503e-05 217.9525736
345.6914 -2.461346503e-05 154.5599296
-269.458817 -2.461346503e-05 176.2893056
-25.4587 -2.461346503e-05 246.3262366
-174.602474 -2.461346503e-05 211.4219436
-254.964748 -2.461346503e-05 49.63435761
-134.481378 -2.461346503e-05 181.3622836
368.165472 -2.461346503e-05 196.2200936
242.171845 -2.461346503e-05 248.5006626
-342.644053 -2.461346503e-05 49.13847361
-26.918514 -2.461346503e-05 7.120240614
370.499971 -12.61030861 64.61234161
160.935275 -2.461346503e-05 236.9884326
-127.637478 -2.461346503e-05 238.5334416
-205.486597 -2.461346503e-05 211.2018446
376.499971 -14.20666861 91.43534261
370.499971 -39.28859961 223.2167926
-310.621518 -2.461346503e-05 156.2654136
-358.933839 -2.461346503e-05 25.82872861
21.976597 -68.00002461 -2.292326386
376.499971 -11.01161361 136.1380316
138.866426 -64.69525361 -9.738637846e-05
-320.22322 -64.00014261 -9.738637846e-05
-326.074565 -2.461346503e-05 64.48947361
-255.324226 -2.461346503e-05 236.8727866
101.100882 -2.461346503e-05 215.7647446
-50.594841 -2.461346503e-05 3.216738614
268.579637 -2.461346503e-05 23.87668861
172.593282 -63.03783461 -9.738637846e-05
392.188102 -2.461346503e-05 69.99990261
17.38732 -2.461346503e-05 240.8691106
240.014596 -2.461346503e-05 112.7029456
-220.474001 -44.38803761 -9.738637846e-05
376.499971 -1.158087613 92.77038761
-338.650828 -2.461346503e-05 233.1929196
39.01308 -2.461346503e-05 42.99360961
48.075998 -2.461346503e-05 104.7646386
-228.364967 -2.461346503e-05 160.7128736
370.499971 -8.446480613 52.32639161
222.138458 -2.461346503e-05 184.6217896
133.205148 -41.24451261 -9.738637846e-05
336.472487 -2.461346503e-05 107.7287356
29.537217 -2.461346503e-05 160.8686636
393.662471 -2.461346503e-05 237.6136316
299.828421 -2.461346503e-05 150.0344696
370.499971 -10.26281461 211.9520476
-86.343015 -62.73742261 -9.738637846e-05
79.79688 -22.19846961 -9.738637846e-05
249.524258 -2.461346503e-05 48.74021461
29.794044 -2.461346503e-05 243.1999236
-199.226041 -2.461346503e-05 61.86303461
-228.595422 -2.461346503e-05 47.85863961
370.499971 -14.90716261 227.6032606
-151.081848 -2.461346503e-05 66.35441861
62.665669 -2.461346503e-05 100.7926126
19.75336 -2.461346503e-05 80.36099561
-365.042273 -25.81127361 -9.738637846e-05
-49.858365 -57.66366761 -9.738637846e-05
366.52835 -2.461346503e-05 170.3334286
-229.303343 -2.461346503e-05 174.8900446
-365.552062 -2.461346503e-05 156.5388106
-101.565038 -2.461346503e-05 208.3387676
386.741453 -34.35274261 -9.738637846e-05
374.727499 -2.461346503e-05 32.01038261
127.034617 -2.461346503e-05 138.7344566
-208.743376 -2.461346503e-05 175.4368216
-96.609708 -11.83217161 -9.738637846e-05
281.088003 -2.461346503e-05 157.8400516
242.213704 -2.461346503e-05 174.4603856
-108.797085 -2.461346503e-05 37.86843661
-135.066606 -2.461346503e-05 33.93677961
-315.001684 -2.461346503e-05 233.6114186
215.263926 -2.461346503e-05 87.00821661
162.565299 -40.92422461 -9.738637846e-05
-65.456966 -2.461346503e-05 60.93413761
123.658019 -2.461346503e-05 213.3947566
-107.589841 -2.461346503e-05 155.3512726
-76.137652 -2.461346503e-05 124.1295206
376.499971 -44.49939361 177.2653596
190.075511 -11.49116861 -9.738637846e-05
-78.063926 -27.21109561 -9.738637846e-05
278.790462 -10.01318061 -9.738637846e-05
395.052519 -2.461346503e-05 93.96621761
-165.507482 -31.00653561 -9.738637846e-05
370.499971 -35.86916861 121.1221506
365.882539 -2.461346503e-05 127.0180686
305.475046 -2.461346503e-05 13.14346161
361.938627 -2.461346503e-05 17.88989161
394.153132 -2.461346503e-05 14.27331361
-313.852716 -3.187577613 -9.738637846e-05
379.406671 -2.461346503e-05 209.5129306
-340.736887 -2.461346503e-05 61.73255661
63.084676 -2.461346503e-05 188.1167236
-36.151838 -2.461346503e-05 63.96473561
216.000215 0.08641638653 216.6842806
290.405462 -2.461346503e-05 171.6741726
136.717415 -2.461346503e-05 245.2516946
201.151631 -2.461346503e-05 249.0585406
287.628656 -2.461346503e-05 193.7208806
208.592645 -2.461346503e-05 58.03653461
-8.077325 -2.461346503e-05 156.2861466
-183.214852 -2.461346503e-05 92.70349061
78.544502 -2.461346503e-05 68.06521761
293.021227 -2.461346503e-05 212.3707876
348.284498 -2.461346503e-05 128.8121626
198.58569 -2.461346503e-05 210.6465656
114.469485 -51.58632661 -9.738637846e-05
-119.906698 -2.461346503e-05 10.62656061
-85.565637 -2.461346503e-05 164.2954136
192.962467 -52.30735261 -9.738637846e-05
-393.837084 -2.461346503e-05 62.57933361
-60.384254 -2.461346503e-05 142.2315296
126.440049 -50.88711961 -9.738637846e-05
-345.447031 -2.461346503e-05 87.71916061
206.450063 -2.461346503e-05 187.6765946
258.592709 -2.461346503e-05 5.196018614
-242.910183 -54.85669061 -9.738637846e-05
187.888606 -2.461346503e-05 19.66659861
-150.873525 -2.461346503e-05 205.6641966
-40.50351 -2.461346503e-05 12.93418861
370.499971 -24.11344361 153.8738096
-331.450062 -2.461346503e-05 144.2494916
-388.549851 -2.461346503e-05 35.83702261
-309.477192 -2.461346503e-05 33.32342561
380.198723 -2.461346503e-05 76.24243961
373.682168 -2.461346503e-05 10.55197261
-30.633773 -2.461346503e-05 119.4136076
350.722017 -15.92373061 -9.738637846e-05
-315.345442 -2.461346503e-05 208.3064476
152.945953 1.707235387 -9.738637846e-05
159.826877 -2.461346503e-05 189.8281416
-235.926167 -2.461346503e-05 8.483439614
-108.221055 -2.461346503e-05 167.6141686
331.284204 -2.461346503e-05 211.5285956
58.245111 -2.461346503e-05 58.52699861
370.499971 -10.73300361 159.9960646
-278.180766 -2.461346503e-05 46.50438661
376.499971 -11.18165061 116.5077016
-238.450555 -2.461346503e-05 250.2160946
40.87599 -27.89284061 -9.738637846e-05
108.716302 -2.461346503e-05 247.1967956
376.499971 -39.57421061 193.5314866
-8.732866 -2.461346503e-05 224.3185916
-112.583917 -31.04075061 -9.738637846e-05
-342.108074 -2.461346503e-05 19.53219861
-4.898492 -2.461346503e-05 80.12139561
294.182376 -28.18404461 -9.738637846e-05
-388.958167 -2.461346503e-05 161.0337126
-44.565485 -2.461346503e-05 228.1175166
383.220705 -2.461346503e-05 149.2707016
335.267364 -2.461346503e-05 70.35658861
339.058056 -39.40888661 -9.738637846e-05
-180.135245 -2.461346503e-05 30.55604861
376.499971 -45.46311961 65.98340961
21.303963 -39.48907661 -9.738637846e-05
318.283872 -2.461346503e-05 241.7439096
-206.094327 -17.52416161 -9.738637846e-05
-73.85121 -2.461346503e-05 216.0575616
-151.260234 -60.72540261 -9.738637846e-05
-181.271798 -2.461346503e-05 74.60999961
96.877586 1.814911387 -9.738637846e-05
26.230971 -0.7680836135 -9.738637846e-05
26.254489 -2.461346503e-05 219.9055796
139.976949 -2.461346503e-05 167.2388696
-203.85792 -2.461346503e-05 23.69027661
-159.852098 -2.815105613 -9.738637846e-05
-292.048558 -2.461346503e-05 96.50917761
-21.145049 -2.461346503e-05 190.2381796
-176.45087 -68.00002461 -1.009827386
-2.278479 -2.461346503e-05 37.32783561
20.438881 -2.461346503e-05 198.8483166
260.103206 -2.461346503e-05 146.1587576
204.900061 -2.461346503e-05 106.6437946
376.499971 -5.207327613 169.2853076
-330.134982 -2.461346503e-05 186.7651996
-79.567035 -50.37171461 -9.738637846e-05
160.791839 -2.461346503e-05 31.55299961
-383.852992 -44.22927861 -9.738637846e-05
-99.456575 -2.461346503e-05 134.6838256
111.070016 -2.461346503e-05 10.66760961
-225.132844 -19.27095961 -9.738637846e-05
198.201753 -2.461346503e-05 10.96629961
263.026321 -2.461346503e-05 180.2873686
211.614594 -2.461346503e-05 20.60428361
51.26992 -2.461346503e-05 80.15112761
-240.966716 -2.461346503e-05 156.6197546
20.80179 -2.461346503e-05 184.2721226
-212.789084 -2.461346503e-05 152.9946926
-179.196198 -8.524572613 -9.738637846e-05
-119.566431 -18.79632461 -9.738637846e-05
-214.270068 -2.461346503e-05 195.1332246
370.499971 -36.99860361 146.7495586
-126.513097 -2.461346503e-05 171.3352346
-378.199501 -64.76004261 -9.738637846e-05
-285.456876 -26.59004961 -9.738637846e-05
-78.366799 -2.461346503e-05 37.48414461
298.580154 -2.461346503e-05 240.6701676
111.874432 -2.461346503e-05 181.4583496
-137.449542 -2.461346503e-05 19.18324561
273.080582 -2.461346503e-05 191.3002726
15.85372 -2.461346503e-05 21.42151761
-64.812214 -2.461346503e-05 152.4037596
-165.590035 -2.461346503e-05 116.1526946
-92.162123 -2.461346503e-05 126.1155416
-306.017433 -2.461346503e-05 90.32794661
376.499971 -25.50004261 174.7856246
-155.928569 -2.461346503e-05 31.15142861
4.030667 -31.15886661 -9.738637846e-05
-89.818666 -2.461346503e-05 24.11613061
376.499971 -44.47520261 48.33754261
-152.762526 -2.461346503e-05 143.8806756
331.597296 -60.56535561 -9.738637846e-05
-63.260534 -68.00002461 -0.7482643864
-307.619952 -30.60725661 -9.738637846e-05
314.559948 -9.642730613 -9.738637846e-05
40.90681 -2.461346503e-05 24.72367361
227.18506 -2.461346503e-05 218.0691156
357.502019 -2.461346503e-05 42.29077461
91.070954 -58.88681161 -9.738637846e-05
-345.174208 -2.461346503e-05 7.676882614
328.601778 -2.461346503e-05 119.1622376
222.697357 -2.461346503e-05 247.9261326
377.736719 0.8565883865 -9.738637846e-05
229.992556 -2.461346503e-05 103.1961926
-63.832082 -2.461346503e-05 210.1111606
180.515026 -2.461346503e-05 242.3068326
-249.095288 -19.31976661 -9.738637846e-05
77.328537 -7.401065613 -9.738637846e-05
319.88879 -28.98290261 -9.738637846e-05
-275.608662 -2.461346503e-05 108.1631916
-122.801373 1.332538387 193.2062116
151.634128 -19.65352761 -9.738637846e-05
-32.194641 -2.461346503e-05 175.6270676
-41.675313 -2.461346503e-05 156.5908086
122.755504 -28.28169661 -9.738637846e-05
-191.302014 -2.461346503e-05 237.5270036
-233.443563 -2.461346503e-05 185.5639986
376.499971 -18.54688461 198.9563866
141.754186 -2.461346503e-05 221.8465416
136.218933 -2.461346503e-05 187.5543456
202.773541 -2.461346503e-05 143.6322926
64.10672 -57.61609461 -9.738637846e-05
349.34454 -2.461346503e-05 203.3946836
62.833852 -2.461346503e-05 78.24284361
-25.980892 -22.40847561 -9.738637846e-05
370.499971 -12.19513361 177.6716666
243.514386 -2.461346503e-05 235.6014446
97.16883 -2.461346503e-05 237.2488576
-297.338486 -2.461346503e-05 117.6754676
-19.007892 -2.461346503e-05 147.4733906
-187.575948 -2.461346503e-05 41.67751761
-258.524738 -2.461346503e-05 220.8590516
-382.876533 -2.461346503e-05 23.65070461
370.499971 -24.40006761 239.2531476
376.499971 -9.421483613 24.68837861
376.499971 -19.20331961 46.79981761
197.799735 -2.461346503e-05 58.40836361
345.07318 -2.461346503e-05 190.6816816
50.005668 -67.88818161 -9.738637846e-05
98.609907 -17.57235061 -9.738637846e-05
-59.163732 -2.461346503e-05 21.98588461
104.175738 -2.461346503e-05 97.79074861
333.184058 -2.461346503e-05 39.33376361
152.754352 -2.461346503e-05 140.8951886
-117.253841 -68.00002461 -1.607952386
-340.366753 -2.461346503e-05 132.2737666
-242.337464 1.010369387 59.99990261
325.723216 -2.461346503e-05 150.8297746
215.71875 -2.461346503e-05 0.5121356136
142.203314 0.9211003865 -9.738637846e-05
-94.260668 -36.32223961 -9.738637846e-05
-292.472874 -2.461346503e-05 237.3549446
-35.112337 -2.461346503e-05 103.5613726
-392.4653 -22.70119761 -9.738637846e-05
252.422734 -50.02274161 -9.738637846e-05
6.377096 -16.14493561 -9.738637846e-05
-7.698296 -8.855379613 -9.738637846e-05
-204.482037 -2.461346503e-05 84.79228161
224.831123 -2.461346503e-05 162.4147006
376.499971 -26.42139661 67.01839661
378.628871 -2.461346503e-05 194.1373216
-364.278492 -2.461346503e-05 207.1261426
-257.39551 -2.461346503e-05 92.20195461
-49.154377 -2.461346503e-05 245.3723566
-310.313651 -2.461346503e-05 171.4343586
342.532445 -2.461346503e-05 222.6155666
105.245601 -2.461346503e-05 37.95200661
-19.963425 -2.461346503e-05 118.6853896
353.155903 -2.461346503e-05 88.83730461
308.31295 -2.461346503e-05 158.4805186
-6.544864 -2.461346503e-05 169.4515416
30.126075 -2.461346503e-05 77.11217061
-235.818011 -2.461346503e-05 86.38498961
-352.656021 -2.461346503e-05 169.6595786
264.823584 -8.871418613 -9.738637846e-05
-279.25174 -63.81599861 -9.738637846e-05
259.054617 -2.461346503e-05 128.3578936
190.790548 -35.61231661 -9.738637846e-05
-368.096705 -2.461346503e-05 52.58720261
376.499971 -37.99752061 31.90949861
70.725873 -2.461346503e-05 110.1953446
-313.390115 -2.461346503e-05 112.8481146
-188.460741 -2.461346503e-05 149.4344996
46.876495 -2.461346503e-05 164.7141436
383.375216 -2.461346503e-05 233.4349946
-84.992579 -2.461346503e-05 250.2676326
-328.37705 -2.461346503e-05 211.1283286
-84.118678 -2.461346503e-05 73.89969461
198.075918 -2.461346503e-05 169.6717126
265.710337 -2.461346503e-05 13.75728161
-384.360573 -33.73660361 -9.738637846e-05
-239.609979 -2.461346503e-05 123.5431006
15.573525 -2.461346503e-05 220.0582556
-299.025367 -2.461346503e-05 34.05877561
370.499971 -42.99712461 155.3198216
316.112095 -61.16989961 -9.738637846e-05
-382.259667 -2.461346503e-05 250.8120316
-367.393773 -51.66395261 -9.738637846e-05
-221.596974 -2.461346503e-05 125.6554456
171.049861 -2.461346503e-05 33.52887861
115.906248 -67.45929261 -9.738637846e-05
196.404898 -2.461346503e-05 93.40825861
-144.443627 -2.461346503e-05 38.50073461
-137.130248 -18.30570161 -9.738637846e-05
-104.842226 -2.461346503e-05 8.727124614
-290.021683 -2.461346503e-05 176.4437816
374.463928 -2.461346503e-05 250.7643706
5.929198 -2.461346503e-05 211.9278986
263.729636 -2.461346503e-05 93.83495561
376.499971 -41.91539261 15.36743461
214.233616 -2.461346503e-05 49.33054961
-308.122497 -2.461346503e-05 252.0251136
370.499971 -37.59018961 133.1002726
-353.755794 -30.25018461 -9.738637846e-05
349.841902 -2.461346503e-05 33.65852761
-19.565639 -2.461346503e-05 23.44908061
-227.263196 -2.461346503e-05 217.8279786
-233.932639 -2.461346503e-05 32.73485261
276.547478 -2.461346503e-05 45.01154861
115.179013 -2.461346503e-05 203.6921676
277.030735 -2.461346503e-05 102.4559836
115.731197 -7.906557613 -9.738637846e-05
-293.974047 -2.461346503e-05 73.27667861
-53.782547 -2.461346503e-05 79.26685061
53.856483 -2.461346503e-05 238.5412506
376.499971 -24.01771061 127.0227656
384.106286 -49.56489561 -9.738637846e-05
104.450103 -2.461346503e-05 75.30501661
-330.366731 -2.461346503e-05 165.4947676
-320.180191 -2.461346503e-05 20.60204661
56.176028 -2.461346503e-05 70.35720461
358.813476 -2.461346503e-05 7.031471614
366.960355 -2.461346503e-05 222.4798556
394.352834 -2.461346503e-05 109.3794196
370.499971 -48.03074961 197.4528226
94.027862 -2.461346503e-05 121.9445406
-89.356819 -2.461346503e-05 56.34388161
225.281731 -42.52510761 -9.738637846e-05
-154.442628 -2.461346503e-05 17.42740661
-133.626685 -2.461346503e-05 5.658119614
-195.837519 -2.461346503e-05 191.1894556
0.2902200004 -2.461346503e-05 122.1651506
166.157573 -2.461346503e-05 22.09960061
-278.488078 -2.461346503e-05 135.2454516
-373.499785 1.297696387 119.6105556
-33.522494 -2.461346503e-05 48.07194161
370.499971 -11.13713161 187.9012836
-54.868489 -2.461346503e-05 201.5909326
-38.46983 -2.461346503e-05 33.31476761
-235.484607 -2.461346503e-05 210.4761126
77.608474 -2.461346503e-05 195.5862106
-235.652978 -18.41586161 -9.738637846e-05
139.884888 -2.461346503e-05 84.14288361
-101.495549 -49.69949561 -9.738637846e-05
324.585713 -2.461346503e-05 233.6835546
-72.944091 -2.461346503e-05 101.8689286
182.491064 -2.461346503e-05 94.12815761
-343.330851 -2.461346503e-05 215.0892366
-178.851118 -2.461346503e-05 222.1303696
175.655057 -2.461346503e-05 171.0232636
166.368429 -2.461346503e-05 101.2157066
216.198037 -2.461346503e-05 66.36612261
-257.674341 -38.68269061 -9.738637846e-05
307.219193 -50.50085661 -9.738637846e-05
221.467658 -2.461346503e-05 124.3252256
127.760508 -2.461346503e-05 80.41483461
-280.300567 -2.461346503e-05 147.3903526
278.029497 -2.461346503e-05 139.6187136
133.816824 -2.461346503e-05 18.24596561
-193.545502 -55.55592761 -9.738637846e-05
254.913426 -2.461346503e-05 74.11530661
233.2771 -0.5096366135 -9.738637846e-05
312.943156 -2.461346503e-05 110.9329956
-276.068647 -2.461346503e-05 80.59434161
76.100288 -43.65217761 -9.738637846e-05
303.648502 -2.461346503e-05 171.9816836
372.010086 2.199926387 149.3666236
251.771858 -2.461346503e-05 97.12396561
281.064719 -25.78859461 -9.738637846e-05
258.3042 -2.461346503e-05 209.8064586
376.499971 -19.05039361 160.6881766
-144.717382 -2.461346503e-05 181.8378366
111.175477 -2.461346503e-05 58.87687161
-213.697031 -57.96750061 -9.738637846e-05
-48.549661 -2.461346503e-05 121.1507776
73.009112 -2.461346503e-05 123.9628926
-46.996525 -2.461346503e-05 136.2870516
46.30455 -2.461346503e-05 179.5750476
-33.006328 -37.51411261 -9.738637846e-05
-105.594362 -2.461346503e-05 79.75700261
-123.182672 -2.461346503e-05 76.96140861
-108.199014 -2.461346503e-05 63.17399961
-211.051359 -2.461346503e-05 111.9527256
-160.371981 -2.461346503e-05 136.4769336
336.914443 -2.461346503e-05 241.9460396
-91.325594 -2.461346503e-05 150.7050696
-284.311629 -2.461346503e-05 167.8065906
125.11681 -2.461346503e-05 168.1860226
-112.101707 -2.461346503e-05 184.5334256
337.760373 -2.461346503e-05 148.4963416
136.378927 -2.461346503e-05 117.2099036
106.771986 -2.461346503e-05 107.8348346
109.515412 -2.461346503e-05 193.7059786
275.819713 -2.461346503e-05 14.45597761
120.16783 -2.461346503e-05 4.737951614
376.499971 -24.61351361 84.90558261
-224.639973 -2.461346503e-05 195.8401536
-348.029909 -2.461346503e-05 237.5062846
101.308654 -2.461346503e-05 227.9626876
376.499971 -0.04562661347 55.47391361
-11.599108 -58.17247761 -9.738637846e-05
212.381542 -2.461346503e-05 164.1445376
-166.08 -2.461346503e-05 218.5070956
41.808575 -2.461346503e-05 93.95775061
61.574621 -2.461346503e-05 44.56728761
113.324907 -31.64871661 -9.738637846e-05
174.379955 -2.461346503e-05 146.3569006
294.716077 -2.461346503e-05 73.57149261
-280.853657 -2.461346503e-05 245.9794306
-48.217439 -46.87715861 -9.738637846e-05
-72.084797 -2.461346503e-05 68.29659061
319.428085 -2.461346503e-05 139.7073786
-218.458141 -2.461346503e-05 44.87730761
125.406029 -2.461346503e-05 51.69155461
161.559204 -2.461346503e-05 199.9020886
348.136401 -2.461346503e-05 114.8734676
-221.377682 -2.461346503e-05 138.1171176
-115.655738 -2.461346503e-05 124.5353936
156.429592 -29.28521161 -9.738637846e-05
89.043982 -2.461346503e-05 170.8512146
-380.033773 -2.399931613 -9.738637846e-05
344.65061 -31.30957361 -9.738637846e-05
-273.381482 -2.461346503e-05 223.3347256
370.499971 -38.55928961 244.2744816
169.066028 -2.461346503e-05 53.61794661
376.499971 -32.97960661 93.14489561
253.497639 -2.461346503e-05 110.0477636
241.142732 -2.461346503e-05 128.5428296
-277.844055 -45.08125061 -9.738637846e-05
96.966506 -44.31284761 -9.738637846e-05
-254.038407 -2.461346503e-05 105.7345586
-188.102235 -2.461346503e-05 15.94208661
-299.981594 -2.461346503e-05 198.6377016
136.918812 -2.461346503e-05 139.3686916
-267.738461 -2.461346503e-05 124.7072756
223.937177 -2.461346503e-05 237.3892736
-150.367726 -2.461346503e-05 116.9725116
376.499971 -3.116262613 129.2701926
-339.175442 -2.461346503e-05 244.5976046
324.501667 -2.461346503e-05 10.20739061
-93.849783 -2.461346503e-05 169.4625856
206.934182 -2.461346503e-05 34.15102161
-309.537429 -2.461346503e-05 101.5239806
-321.218166 -29.34488461 -9.738637846e-05
-228.823175 -2.461346503e-05 105.7632096
358.686137 -2.461346503e-05 64.30284061
389.326831 -2.461346503e-05 22.74271361
356.570493 -2.461346503e-05 172.8784076
370.499971 -39.18171561 204.8093676
-11.072175 -2.461346503e-05 87.64616461
212.458379 -2.461346503e-05 142.6919136
-264.821414 -18.27010461 -9.738637846e-05
169.084857 -14.32396561 -9.738637846e-05
210.825066 -68.00002461 -0.9890403864
237.958265 -59.85950161 -9.738637846e-05
-252.287851 -2.461346503e-05 157.4856426
-342.511114 -54.87240061 -9.738637846e-05
318.775595 -2.461346503e-05 72.37413861
-18.063334 -2.461346503e-05 42.68795561
-178.895094 -2.461346503e-05 144.6062786
296.659981 -67.71043761 -9.738637846e-05
-266.029234 -2.461346503e-05 10.49249661
227.070363 -52.05352961 -9.738637846e-05
112.062297 -2.461346503e-05 212.8712106
-43.886493 -6.513175613 -9.738637846e-05
370.499971 -40.26406461 90.93095261
-220.497748 -2.461346503e-05 170.8482236
389.165351 -2.461346503e-05 43.45394861
330.271015 -5.372755613 -9.738637846e-05
165.685248 -2.461346503e-05 211.4501516
-358.473881 -2.461346503e-05 196.4059556
-97.556013 -2.461346503e-05 186.1658976
62.42991 -11.33029361 -9.738637846e-05
357.616988 -9.173588613 -9.738637846e-05
74.445851 -2.461346503e-05 24.78467861
-374.499785 0.1308943865 137.8271106
294.272024 -2.461346503e-05 101.5870076
-52.100788 -2.461346503e-05 105.0580086
373.316501 -50.00002461 217.4321746
269.794778 -2.461346503e-05 58.87717661
-281.297914 -2.461346503e-05 197.5379536
-120.200412 -2.461346503e-05 148.6269266
-270.983033 -2.461346503e-05 69.62610961
238.453239 -2.461346503e-05 200.9338256
-157.790826 -2.461346503e-05 59.45118961
193.383462 -2.461346503e-05 42.40365961
103.498403 -6.067753613 -9.738637846e-05
-127.661862 -12.54306061 -9.738637846e-05
376.499971 -17.46299061 219.3092136
-309.851043 -2.461346503e-05 225.5090146
-12.039811 -2.461346503e-05 204.7599446
-129.905528 -2.461346503e-05 117.1826546
272.810316 -2.461346503e-05 129.7251316
-20.815995 2.024975387 -9.738637846e-05
-289.163251 -2.461346503e-05 228.2060116
370.499971 -0.1509336135 110.6514356
-269.820566 -2.461346503e-05 143.9910816
290.283064 -2.461346503e-05 16.01161861
-154.374791 -2.461346503e-05 84.24282561
-238.182774 -2.461346503e-05 224.6527576
117.111156 -2.461346503e-05 233.0358136
370.499971 -18.55987361 115.4913856
29.10681 -2.461346503e-05 210.7810516
151.618443 -2.461346503e-05 217.8485926
200.372416 -32.32986861 -9.738637846e-05
-298.373926 -11.98382961 -9.738637846e-05
-351.236567 -2.461346503e-05 133.2430876
-70.790609 -2.461346503e-05 236.6215826
-13.894085 -2.461346503e-05 243.6689366
95.932884 -2.461346503e-05 143.9891066
322.381053 -2.461346503e-05 98.51780461
189.520401 -2.461346503e-05 180.0787336
239.237203 -2.461346503e-05 88.14312961
172.116152 -2.461346503e-05 237.8101696
370.499971 -33.02053861 190.0966296
-242.64407 -45.33762561 -9.738637846e-05
-175.716345 -2.461346503e-05 188.7970336
-137.638877 -2.461346503e-05 206.7124776
370.499971 -43.40973061 73.64856061
148.607559 -2.461346503e-05 150.2419716
-35.093511 -2.461346503e-05 201.4846426
376.499971 -22.91626261 101.8818976
229.287882 -2.461346503e-05 116.7546976
370.728125 -2.461346503e-05 75.51896361
-251.540413 -2.461346503e-05 40.51125761
390.535298 -61.24103861 -9.738637846e-05
-332.675699 -10.01891761 -9.738637846e-05
149.410807 -2.461346503e-05 227.4538456
-367.596516 -7.084401613 -9.738637846e-05
-17.776823 -2.461346503e-05 102.9093496
-298.343193 -2.461346503e-05 158.6126076
275.313835 -2.461346503e-05 247.8751306
-132.931679 -68.00002461 -0.7847423864
-387.288065 -13.00677061 -9.738637846e-05
-50.41458 -67.12086961 -9.738637846e-05
-196.947135 -2.461346503e-05 229.3689576
305.814614 -2.461346503e-05 207.0187616
394.113601 -2.461346503e-05 249.9349656
251.733303 -5.367892613 -9.738637846e-05
369.137244 -2.461346503e-05 24.01784861
-364.183904 -2.461346503e-05 76.44440261
2.615709 -2.461346503e-05 139.2324426
362.232759 -55.02418261 -9.738637846e-05
-127.742919 -2.461346503e-05 86.18172361
-150.301265 -2.461346503e-05 217.9253496
-160.370946 -2.461346503e-05 236.4068966
349.45577 -41.23103961 -9.738637846e-05
-277.498853 -2.461346503e-05 8.069826614
-96.56371 -2.461346503e-05 229.1846696
104.621735 -2.461346503e-05 127.9754156
3.00549 -2.461346503e-05 186.3133416
370.499971 -23.23180761 35.44456461
41.606987 -58.17060561 -9.738637846e-05
-373.499785 1.398079387 236.5910826
382.613766 -2.461346503e-05 85.73509361
370.499971 -8.194694613 17.58284261
-371.751156 -2.461346503e-05 92.67713761
338.628423 -2.461346503e-05 165.9715926
92.509022 -2.461346503e-05 212.0412866
-269.088709 -2.461346503e-05 204.0015016
195.617528 -2.461346503e-05 109.2398796
376.499971 -28.01430961 233.0483926
292.448355 -2.461346503e-05 231.3984296
-146.616673 -2.461346503e-05 249.8523896
92.220772 -2.461346503e-05 195.1554206
-13.934543 -2.461346503e-05 136.6889106
21.164327 -2.461346503e-05 54.09722261
-307.984682 -2.461346503e-05 23.52497261
-285.366222 -2.461346503e-05 87.62955161
67.806977 -68.00002461 -0.1100033864
-339.297319 -2.461346503e-05 188.4505476
370.499971 -1.318941613 41.04622461
209.999184 -2.461346503e-05 7.855545614
-21.416732 -48.00008961 -9.738637846e-05
202.500435 -52.44290061 -9.738637846e-05
-369.685192 -2.461346503e-05 176.4634866
1.708295 -2.461346503e-05 95.54720061
150.17448 -2.461346503e-05 10.61876761
384.615103 -2.461346503e-05 217.2071276
73.72311 -2.461346503e-05 187.0743666
147.208212 -2.461346503e-05 202.1521256
263.223934 -2.461346503e-05 32.27161861
305.257886 -2.461346503e-05 53.47608261
-17.941217 -2.461346503e-05 55.81767361
-166.479504 -2.461346503e-05 184.7019046
272.442223 -2.461346503e-05 148.9583976
-176.991976 -2.461346503e-05 237.5175316
332.175055 -2.461346503e-05 127.8998616
43.391239 -47.70384461 -9.738637846e-05
254.515522 -63.50281961 -9.738637846e-05
285.748806 -61.74411361 -9.738637846e-05
-222.19407 -2.461346503e-05 97.52904761
369.187992 -2.461346503e-05 86.30844161
40.076643 -37.09817061 -9.738637846e-05
370.499971 -21.03245661 180.3638126
-49.56462 -2.461346503e-05 14.80934261
-295.662508 -2.461346503e-05 51.92443761
180.868724 -2.461346503e-05 128.6671436
-287.817132 -2.461346503e-05 45.50855361
111.356827 -2.461346503e-05 91.98795961
-15.693411 -14.53179261 -9.738637846e-05
-160.694947 -2.461346503e-05 153.4119016
226.651658 -2.461346503e-05 141.7832056
-196.610154 -2.461346503e-05 154.0550946
293.6728 -2.461346503e-05 121.3698826
125.457311 -2.461346503e-05 129.6521626
376.499971 -32.20362561 17.41484761
-386.09676 -2.461346503e-05 181.5767776
-105.061147 -8.168226613 -9.738637846e-05
-203.387984 -2.461346503e-05 137.7333496
221.000215 1.649733387 209.1188446
145.666737 -2.461346503e-05 182.6051766
376.499971 -10.45860561 43.96057361
-259.01058 -2.461346503e-05 120.1741826
-68.696966 -2.461346503e-05 8.535942614
-45.644399 -2.461346503e-05 210.3882806
247.370162 -2.461346503e-05 11.31823561
-175.547417 -2.461346503e-05 120.9910376
-114.024125 1.613288387 17.47274661
-364.493856 -2.461346503e-05 6.115598614
117.369662 -2.461346503e-05 161.7194906
235.218047 -2.461346503e-05 49.53314661
155.184753 -2.461346503e-05 55.69289861
-233.239393 -2.461346503e-05 149.6945246
313.583859 -2.461346503e-05 35.73957761
370.499971 -38.55798561 4.226090614
-214.576983 -2.461346503e-05 29.87221461
-258.871356 -2.461346503e-05 0.9645776136
261.75878 -2.461346503e-05 118.1646076
-298.715993 -52.18804061 -9.738637846e-05
-38.694327 -28.50753861 -9.738637846e-05
-91.877539 -2.461346503e-05 178.7430816
-344.340862 -2.461346503e-05 97.20533761
-337.03495 -2.461346503e-05 3.364551614
171.90584 -25.64431061 -9.738637846e-05
222.320901 -2.461346503e-05 44.68622261
376.499971 -7.750571613 73.23335561
-150.462774 -2.461346503e-05 135.0785346
142.091435 -2.461346503e-05 65.77293661
-110.313602 -2.461346503e-05 98.83424061
-159.21879 -18.19906861 -9.738637846e-05
-383.043315 -2.461346503e-05 80.32865261
-386.901604 -2.461346503e-05 101.7918276
395.453167 -43.75780461 -9.738637846e-05
302.042174 -11.56610461 -9.738637846e-05
-327.873263 -2.461346503e-05 100.5739976
-321.777628 -2.461346503e-05 11.67304761
340.292583 -63.14091961 -9.738637846e-05
376.499971 -16.84703661 74.65288661
386.56248 -2.461346503e-05 32.89353061
272.69007 -2.461346503e-05 221.9135616
-67.235616 -59.80888561 -9.738637846e-05
264.109052 -2.461346503e-05 170.3725836
13.121835 -2.461346503e-05 39.82498161
86.144428 -2.461346503e-05 10.51940761
89.127032 -2.461346503e-05 233.1486566
147.422814 -47.05212361 -9.738637846e-05
266.754716 -32.74094261 -9.738637846e-05
-234.04578 -2.461346503e-05 116.0135636
240.29344 -7.977594613 -9.738637846e-05
120.131743 -2.461346503e-05 89.68689061
-93.272835 -2.461346503e-05 65.98509561
308.390689 -2.461346503e-05 27.17035261
372.267298 -24.52021161 -9.738637846e-05
44.905653 -18.54366561 -9.738637846e-05
-196.85745 -2.461346503e-05 41.49616361
-86.28658 -3.783835613 -9.738637846e-05
298.066087 -38.51833361 -9.738637846e-05
-268.750935 -2.461346503e-05 41.98985861
-358.945576 -38.73257061 -9.738637846e-05
-325.249637 -2.461346503e-05 77.72260061
303.312172 -58.55312561 -9.738637846e-05
-329.163296 -60.98658261 -9.738637846e-05
370.499971 -42.35952661 169.4400696
349.170216 -59.55801161 -9.738637846e-05
-94.157934 -2.461346503e-05 107.6049046
-303.03733 -2.461346503e-05 57.40363361
240.553034 -2.461346503e-05 210.4645196
70.479345 -2.461346503e-05 13.93297461
329.729131 -2.461346503e-05 191.7262576
112.59432 -2.461346503e-05 119.9667136
-149.036309 -2.461346503e-05 56.50353861
252.961927 -2.461346503e-05 163.5399966
321.447373 -2.461346503e-05 214.9884296
80.722167 -2.461346503e-05 148.4851426
-353.474671 -2.461346503e-05 41.30964061
120.195496 -2.461346503e-05 44.46563461
-2.849147 -2.461346503e-05 27.45028261
370.648053 -50.00002461 13.35830761
-247.779176 -2.461346503e-05 200.0120206
-67.373988 -2.461346503e-05 125.6903566
-227.979151 -68.00002461 -1.340127386
179.097734 0.4700223865 -9.738637846e-05
-58.35363 -2.461346503e-05 227.1669556
-226.685957 -2.461346503e-05 23.08575361
-369.606907 -2.461346503e-05 217.4699476
163.224909 -61.58396361 -9.738637846e-05
370.499971 -5.161984613 229.3439156
-359.105402 -2.461346503e-05 245.0267296
-370.211611 -2.461346503e-05 43.74623061
-192.938386 -35.07510861 -9.738637846e-05
383.441392 -2.461346503e-05 167.5314956
385.783205 -2.461346503e-05 58.98464161
370.499971 -7.639033613 93.18384561
245.97835 -56.14110961 -9.738637846e-05
-160.460715 -2.461346503e-05 169.6784616
382.412354 -2.461346503e-05 140.4745726
355.551606 -2.461346503e-05 221.6003936
88.186283 -2.461346503e-05 179.9409176
-192.586665 -2.461346503e-05 124.5663876
370.499971 -34.73209061 110.9786106
-9.56441 -37.37963361 -9.738637846e-05
-23.799049 -2.461346503e-05 84.51850861
-333.5446 -2.461346503e-05 176.1902026
157.302091 -2.461346503e-05 76.62812561
62.501543 -2.461346503e-05 156.9623246
310.577064 -2.461346503e-05 233.6008946
-168.650091 -2.461346503e-05 50.26818661
29.291374 -2.461346503e-05 169.6636136
236.553534 -2.461346503e-05 31.00189961
41.780426 -2.461346503e-05 223.9907446
