# .PCD v0.7 - Point Cloud Data file format
VERSION 0.7
FIELDS x y z
SIZE 4 4 4
TYPE F F F
COUNT 1 1 1
WIDTH 1255
HEIGHT 1
VIEWPOINT 0 0 0 1 0 0 0
POINTS 1255
DATA ascii
-131.622602 -2.461350346e-05 15.88335361
-111.856734 -2.461350346e-05 -116.5714064
-191.001006 63.39513739 96.01898761
-143.686289 -2.461350346e-05 47.63536861
-192.600697 14.95442339 148.9999026
-193.772074 -2.461350346e-05 35.90175361
-2.899996798e-05 16.40353739 38.64360461
-64.818393 -2.461350346e-05 109.0771506
-159.84647 -2.461350346e-05 133.5086486
-231.6038 55.72816939 -151.0000974
-139.036047 14.70739239 142.9999026
-191.001006 27.43984139 61.88602561
-2.899996798e-05 0.7700883865 73.17759061
-90.290042 -2.461350346e-05 -136.1514434
-195.001006 12.75634639 -99.10417739
-61.494318 -2.461350346e-05 -15.06869339
-195.001006 60.58249539 -21.88774039
-193.193949 109.7041034 148.9999026
-71.811005 63.18066739 142.9999026
-157.713925 -2.461350346e-05 -85.61878939
-152.580543 -2.461350346e-05 -123.7493524
-2.899996798e-05 52.84117139 124.0755326
-112.798351 10.74023939 -151.0000974
0.09993500003 82.02883139 -53.55880739
-195.001006 38.00212339 21.91817361
-71.378211 11.17104639 148.9999026
-2.899996798e-05 60.83313339 6.371112614
-2.899996798e-05 12.12147339 117.8582316
-2.899996798e-05 62.07412539 84.09660661
-208.128138 -2.402787614 142.9999026
0.808158 131.0613514 104.9999026
-195.001006 21.93548639 -78.30423139
-191.001006 74.09823939 18.72201561
-2.899996798e-05 51.85622639 -89.88188739
-55.979693 -2.461350346e-05 35.23688361
-121.253885 30.20284639 148.9999026
-203.539959 86.40175439 142.9999026
-195.001006 26.06173839 -92.62288739
-195.001006 28.51876639 -0.4130223859
-34.980463 -0.8374476135 -145.0000974
-2.899996798e-05 121.2470814 86.44417361
-191.001006 50.24525439 49.52346761
-90.724968 100.7725054 148.9999026
-19.546143 9.921906386 142.9999026
-116.571211 -2.461350346e-05 21.24689961
-180.848248 -2.461350346e-05 -67.88426239
-27.882501 -2.461350346e-05 -25.62796739
-161.598662 47.48024739 148.9209046
-139.108386 -1.187744614 -145.0000974
-195.001006 58.93348239 129.2786046
-140.506159 119.3161814 148.9999026
-221.308508 -2.461350346e-05 -106.9988354
-183.060615 38.04764539 -145.0000974
-191.001006 53.50274239 -63.14079239
0.139163 133.7940204 -78.83191039
-177.628459 -2.461350346e-05 -94.05187039
-41.959329 9.407118386 142.9999026
-47.111988 -2.461350346e-05 15.69948961
-223.203083 63.58040739 148.9999026
-86.161113 87.23324539 148.9999026
-75.23097 -2.461350346e-05 136.8372206
-195.001006 52.13695939 -125.2541074
-107.916803 -2.461350346e-05 74.16846761
-2.899996798e-05 9.589345386 50.92152561
-102.366819 -2.461350346e-05 26.57318261
-192.249693 105.5198584 94.11151661
-74.305145 -2.461350346e-05 13.35238761
-142.675609 40.45831939 -145.0000974
1.390318 -2.461350346e-05 113.7066846
-180.676593 91.32730139 142.9999026
-2.899996798e-05 12.20359339 -99.22944139
-145.33854 -2.461350346e-05 -24.15759539
-62.737571 56.24946739 -145.0000974
-42.953751 -2.461350346e-05 110.2176776
-50.722077 39.74315839 -145.0000974
-26.328784 22.54187139 -145.0000974
-11.86675 -2.461350346e-05 134.2478036
-220.768062 26.48713339 142.9999026
-200.289889 -2.461350346e-05 86.75478461
-195.001006 46.84789739 -2.868756386
-11.933072 52.06088939 142.9999026
-167.008609 119.4195244 148.9999026
-2.899996798e-05 13.22623439 137.1265686
-69.18749 -2.461350346e-05 35.06427161
-191.001006 85.29708339 42.57402061
-41.294445 -2.461350346e-05 -120.0973274
-166.775267 104.3347874 142.9999026
-8.960301 -2.461350346e-05 -12.02772239
-216.222671 -2.461350346e-05 21.32027261
-49.736103 -2.461350346e-05 -130.3170604
-195.001006 32.73907039 -61.68433239
-2.899996798e-05 10.56710239 5.447889614
-113.178311 -2.461350346e-05 93.01493061
-234.214231 -2.461350346e-05 -38.49148939
-71.175993 -2.461350346e-05 54.42544661
-44.833442 -1.273344614 148.9999026
-19.224609 67.35257739 -145.0000974
-73.978031 60.57440239 -151.0000974
-148.284138 105.9092124 142.9999026
-195.001006 49.69447139 72.86845461
-236.385697 -2.461350346e-05 69.26265461
-82.533198 -2.461350346e-05 60.67991561
-191.001006 40.87685739 83.32516961
-136.358297 42.60201739 142.9999026
-143.564345 -2.461350346e-05 116.3262516
-209.507016 -2.461350346e-05 -83.08655139
-2.899996798e-05 25.61552639 -138.5973814
-2.899996798e-05 32.10819539 -107.3499704
-242.066551 36.99666739 148.9999026
-135.924007 -2.461350346e-05 -96.27465439
-159.672825 80.22330039 142.9999026
-107.980047 23.47994039 -151.0000974
-65.107689 -2.461350346e-05 -103.1407204
-191.001006 6.691030386 -71.45844639
-218.728085 14.18570239 -145.0000974
-231.588218 -2.461350346e-05 25.58414661
-4.14544 -2.461350346e-05 26.84542661
-2.899996798e-05 92.03676439 79.45614661
-195.001006 16.24775539 56.96032061
-77.066046 -2.461350346e-05 110.4597426
-252.376113 26.20957039 -145.0000974
-153.920461 54.81571939 142.9999026
-175.284366 127.5852414 148.9999026
-242.438189 -2.461350346e-05 57.92376061
-170.207872 68.35118739 148.9999026
-195.001006 10.99870539 -11.39602539
-70.563091 -2.461350346e-05 -89.97560339
-95.392313 59.46899839 -151.0000974
-2.899996798e-05 20.57591739 15.85435561
-139.3401 -2.461350346e-05 -71.58050539
-71.605445 -2.461350346e-05 -133.6042524
-239.203997 -2.461350346e-05 8.683266614
-128.48525 -2.461350346e-05 -23.55337839
-111.770629 132.2982704 143.9078096
-49.753784 -2.461350346e-05 87.59666161
-152.048048 -2.461350346e-05 105.4934056
-205.05043 27.11648539 -145.0000974
-151.415231 -2.461350346e-05 79.38773961
-228.636366 -2.461350346e-05 -121.4916334
-206.098017 -2.461350346e-05 -15.41628939
-112.739017 -2.461350346e-05 51.57485461
-25.871822 -2.461350346e-05 -120.9298874
-81.532452 -2.461350346e-05 -50.93066939
-182.687635 -2.461350346e-05 -22.66963439
-241.681252 55.30736939 -145.0000974
-2.899996798e-05 23.60494439 -17.39138839
-89.236274 -2.461350346e-05 -103.3038504
-195.001006 64.26574339 56.02632061
-2.899996798e-05 52.36077039 -25.20545639
1.829022 18.14051939 -151.0000974
-195.001006 1.858939386 106.1978206
-175.963053 -2.461350346e-05 -132.7884374
-191.001006 -1.106393614 -81.99939739
-2.899996798e-05 28.50774539 138.1720596
-185.3699 76.43308839 142.9999026
-191.001006 47.63118339 113.1211616
-2.899996798e-05 97.22944939 92.48645661
-39.693464 -2.461350346e-05 122.8523196
-149.325068 -2.461350346e-05 35.69847661
-2.899996798e-05 66.86222539 -74.59590839
-191.001006 15.22404239 9.730875614
-126.252998 -2.461350346e-05 27.00343761
-36.930799 25.12446239 148.9999026
-62.987442 -2.265595614 148.9999026
-195.001006 42.74418239 94.69048661
-2.899996798e-05 73.27901439 113.2838846
-195.001006 65.88948239 1.132468614
-9.553033 -2.461350346e-05 -40.28370039
-171.924277 -2.461350346e-05 -45.36442339
-195.001006 23.08649439 -10.23874539
-116.095276 -2.461350346e-05 65.90250261
-6.697491 62.14068239 142.9999026
-169.805601 12.90868939 -151.0000974
-191.001006 48.56012439 -99.18108739
-193.205247 92.40865239 142.9999026
-2.899996798e-05 117.4196934 -71.50537539
-12.097049 -2.461350346e-05 -138.8442954
-2.899996798e-05 6.209891386 -117.2976054
-65.813161 -2.461350346e-05 -2.658088386
-243.828537 61.55347539 142.9999026
-234.366175 64.17163339 148.9999026
-48.113621 54.88225939 -151.0000974
-224.618466 -2.461350346e-05 98.05603961
-191.001006 32.88696539 -23.76130439
-158.33338 123.0111804 142.9999026
-230.356009 29.74250639 -145.0000974
-2.899996798e-05 50.48024639 -100.9332564
-84.724277 -2.461350346e-05 8.862256614
-28.932597 43.85658639 -151.0000974
-202.462182 -2.461350346e-05 -100.1490604
-29.839255 55.86481239 148.9999026
-112.702463 67.86761639 -145.0000974
-101.832174 -2.461350346e-05 130.9643726
-185.532822 121.9541024 148.9999026
-216.308346 -2.461350346e-05 125.6427386
-176.690331 49.70978439 142.9999026
-169.798687 -2.461350346e-05 44.37174661
-83.674147 68.19896239 142.9999026
0.482214 85.18598739 56.32744861
-2.899996798e-05 67.65138839 53.36826061
0.535594 -2.461350346e-05 98.86658961
-184.965561 3.912552386 142.9999026
-170.708694 -2.461350346e-05 130.3146566
-126.262754 -2.461350346e-05 -140.6496424
-87.918284 11.77572139 142.9999026
0.933493 69.99997539 -13.84688039
-2.899996798e-05 108.0033704 94.85142161
-149.82506 19.09938439 -151.0000974
-131.305156 71.34049339 142.9999026
-2.899996798e-05 37.40307439 49.26038661
-239.091312 -2.461350346e-05 90.36533461
-241.216093 -2.461350346e-05 34.65997161
-195.001006 109.0070244 107.5308106
-34.230464 54.11588639 -151.0000974
-81.277818 -2.461350346e-05 -10.67313839
-251.68862 23.18052239 142.9999026
-2.899996798e-05 33.36676539 5.309855614
-107.338617 -2.461350346e-05 -29.46093939
-2.899996798e-05 47.83078839 -62.47910839
-15.795846 40.73246839 -145.0000974
-206.707014 105.1955334 142.9999026
-2.899996798e-05 42.76244439 -48.13136339
-191.001006 1.695476386 51.30158961
-36.893672 -2.461350346e-05 60.09875661
-25.815496 -1.989900614 -151.0000974
-121.700907 7.881797386 142.9999026
-50.393249 29.25379339 142.9999026
-5.56637 6.052604386 142.9999026
-191.001006 47.61299539 -13.11604439
-102.764787 118.8301714 148.9999026
-201.185325 -2.461350346e-05 -138.8532664
-212.522823 77.90364539 142.9999026
-195.001006 8.852789386 -51.00767139
-191.001006 11.63646639 -28.21390039
-191.001006 33.94159539 -100.4286374
-172.741898 43.40157139 -145.0000974
-125.247054 -2.461350346e-05 -112.5752764
-17.542509 31.07536439 148.9999026
-2.899996798e-05 36.91428339 128.5344596
-104.222124 -2.461350346e-05 -46.45761739
-2.899996798e-05 50.24122439 43.31169761
-124.469963 -2.461350346e-05 111.1130266
-2.899996798e-05 51.28413039 -124.8985484
-27.124835 -2.461350346e-05 2.898933614
-247.59978 -2.461350346e-05 -25.47877639
-48.115478 49.43274139 148.9999026
-211.001463 39.51943739 -151.0000974
-2.899996798e-05 11.33374739 94.85606861
-222.957526 -2.461350346e-05 77.16547461
-152.372941 6.277972386 142.9999026
-62.921198 13.22459939 142.9999026
-113.461894 -2.461350346e-05 -73.36511839
-168.309236 24.40417839 148.9999026
-40.654968 -2.461350346e-05 -97.77782039
-107.708053 55.83879239 142.9999026
-103.332392 76.00289139 148.9999026
-196.661492 19.93209739 -151.0000974
-191.001006 91.75562439 68.15500661
-2.899996798e-05 41.86326739 23.66103361
-31.573109 -2.461350346e-05 139.3124886
-196.267301 126.0158134 142.9999026
-227.585159 -2.461350346e-05 -142.4871134
-77.73495 -2.461350346e-05 89.58799161
-191.001006 39.46130339 -138.2673894
-126.179365 -2.461350346e-05 -54.81393239
-224.836461 22.76444339 -151.0000974
-111.492741 87.69324939 148.9999026
-226.06888 -2.461350346e-05 2.643803614
-229.410908 -2.461350346e-05 109.5084026
1.959986 35.63174939 -141.0000974
-147.075505 59.30035539 -151.0000974
-117.94654 39.31091039 142.9999026
-115.349863 69.36696739 142.9999026
-69.034934 50.43588239 -151.0000974
-2.899996798e-05 79.91818239 -87.58847739
-56.114635 6.204528386 -151.0000974
-10.269269 -2.461350346e-05 -73.09289039
-16.877744 44.76566339 148.9999026
-2.899996798e-05 51.61603539 17.87925461
-154.841553 -2.461350346e-05 -35.16492039
-195.001006 23.81370339 -32.58644939
-20.187915 8.997589386 -145.0000974
-59.795933 33.27123639 148.9999026
-199.526234 24.34401139 142.9999026
-86.500247 35.77925039 -151.0000974
1.103211 133.7443784 78.55031461
-206.202846 -2.461350346e-05 0.1948406141
-191.001006 77.23006939 75.70721861
-247.112777 -2.461350346e-05 120.9176856
-226.528984 -2.461350346e-05 121.4839936
-94.981642 65.31092139 148.9999026
-195.001006 39.75441039 -44.47172139
-239.963935 71.13729039 142.9999026
-10.230344 -2.461350346e-05 74.33936361
-191.001006 42.47019439 141.1836406
-98.235048 -2.461350346e-05 114.7983726
-2.899996798e-05 48.65393939 62.78287861
-168.14153 5.761742386 142.9999026
0.199275 -2.461350346e-05 -50.19950539
-191.001006 27.08154039 109.6017996
-105.395415 -2.461350346e-05 -0.2074723859
-30.261363 -2.461350346e-05 113.3035076
-38.132317 -2.461350346e-05 -57.31930939
-197.592958 -2.461350346e-05 71.07981961
-121.170039 -2.461350346e-05 43.09761761
-2.899996798e-05 112.7990434 -94.90566239
-96.784364 37.87744039 148.9999026
-191.001006 80.02785239 134.3376616
-134.138667 4.077462386 148.9999026
-110.823996 43.94412439 148.9999026
-35.166158 45.06110939 142.9999026
-2.899996798e-05 59.04598239 -65.57325439
-48.905684 -2.461350346e-05 -64.46692439
1.056044 121.4216064 -105.0000974
-132.731565 61.28308739 142.9999026
-164.753535 -2.461350346e-05 -136.4481864
-20.769007 -2.461350346e-05 141.3165156
-95.053674 7.794438386 -151.0000974
-65.049633 -2.461350346e-05 -35.36939539
-122.080657 -2.461350346e-05 -31.40703139
-153.806483 37.19702739 142.9999026
-249.970623 4.938253386 142.9999026
-2.899996798e-05 40.44972939 -27.16440839
-218.191299 -2.461350346e-05 38.79191361
-102.627972 -2.461350346e-05 97.78446961
-15.492051 -2.461350346e-05 107.1921776
-222.545983 48.81276039 -151.0000974
-64.466062 9.323182386 -145.0000974
-8.078709 23.72520439 -151.0000974
-200.977514 59.52563739 142.9999026
-222.232869 57.79793339 -145.0000974
-161.247704 7.723293386 -145.0000974
-151.794149 -2.461350346e-05 -15.24147839
-112.299269 44.97825339 -151.0000974
2.464975 -2.461350346e-05 -83.72312839
-2.899996798e-05 7.533349386 -134.5404584
-195.001006 71.62575639 34.47425561
-2.899996798e-05 7.718192386 -57.65346439
-177.370872 18.99738239 -145.0000974
-214.619445 31.88396239 148.9999026
-165.6534 66.99770039 -145.0000974
-182.327562 -2.461350346e-05 15.71617861
2.458377 138.3444644 -65.65392939
-78.031743 33.77450139 142.9999026
-159.909111 -2.461350346e-05 -110.8154574
-191.001006 18.99030639 34.62769761
-2.899996798e-05 66.36796739 -115.0503634
-2.899996798e-05 44.44632139 -7.352739386
-235.650575 -2.461350346e-05 -15.09766339
-195.001006 51.09975639 10.93133561
-213.115254 58.77670239 142.9999026
-195.001006 84.20711239 60.65738661
-122.289446 -2.461350346e-05 -14.35766039
-175.047461 57.48909839 148.9999026
-51.566609 -2.461350346e-05 -14.32459539
1.784389 55.79395639 -145.0000974
-2.899996798e-05 78.44691339 -67.42590639
-46.374225 -2.461350346e-05 -36.00953839
-2.899996798e-05 103.5988934 -98.82499439
-80.805941 8.152782386 148.9999026
-60.940365 -2.461350346e-05 60.05128261
-23.938764 61.03817439 142.9999026
-135.502047 -2.461350346e-05 41.62415061
-187.537292 -2.461350346e-05 -95.64778439
-183.004949 54.38151539 -145.0000974
-191.001006 14.06795939 77.43239461
-131.131239 132.7392654 142.9999026
-8.143313 -2.461350346e-05 -123.0258164
-191.001006 43.01868339 -34.41250039
-190.500029 -1.984171614 -66.81423539
-2.899996798e-05 11.76282039 -21.27711939
-195.001006 55.64299139 32.69829461
-191.001006 45.73603239 60.34959461
-238.066135 12.33317339 148.9999026
-2.899996798e-05 135.3709464 -90.20284839
-21.169436 21.67899339 148.9999026
-194.983066 -2.461350346e-05 -113.2068414
-191.001006 76.55045139 114.9665316
-79.97397 82.53413039 142.9999026
-195.001006 95.13422839 89.33531361
-210.484507 -2.461350346e-05 -73.32897239
-134.558225 -2.461350346e-05 109.6190296
-59.370668 29.22209039 -151.0000974
-245.676514 -2.461350346e-05 -72.65158039
-130.035717 60.12633139 -151.0000974
-189.943218 -2.100793614 -151.0000974
-2.899996798e-05 115.5424344 74.76560161
-158.40404 29.63551639 -145.0000974
-4.687772 8.940315386 -145.0000974
-228.809286 10.47661039 142.9999026
-111.281404 -2.461350346e-05 -96.55310739
-185.52344 99.79526539 142.9999026
-191.505343 66.40322139 -41.07774239
-153.260074 -2.461350346e-05 56.64606361
-22.235576 -2.461350346e-05 13.87605761
-186.947268 114.1431374 142.9999026
-120.839614 95.05289739 142.9999026
-195.001006 49.09942139 -116.0104854
-14.287012 -2.461350346e-05 -20.16378239
-191.001006 44.05727939 -65.40771939
-169.977688 23.34813839 -151.0000974
-195.001006 14.10458239 18.50336561
-182.497256 -2.461350346e-05 27.64229761
-240.550884 -2.403891614 148.9999026
-124.872968 51.47941839 -145.0000974
-84.045833 43.78875239 148.9999026
-38.870226 -2.461350346e-05 -12.90332539
-251.147761 -2.461350346e-05 -50.14163239
-2.899996798e-05 41.63010139 -124.3445714
-191.001006 42.29626039 29.60269761
-110.051184 60.22323539 -151.0000974
-82.260458 -2.461350346e-05 125.3325716
-144.986801 -2.461350346e-05 25.00396861
-106.258341 -2.461350346e-05 -64.37766439
-173.7831 10.79525939 148.9999026
-149.488091 73.32731239 148.9999026
-96.603682 38.50960339 -145.0000974
0.301847 140.6263934 -103.1796034
-30.822907 60.82423739 -145.0000974
-41.841632 -2.461350346e-05 80.29112361
-18.346713 56.02109739 148.9999026
-92.293611 67.99997539 -147.8339224
-131.211496 99.57133539 148.9999026
-198.676952 115.8645054 142.9999026
0.169124 70.65205539 31.77894261
-114.359904 59.23260839 148.9999026
-7.482644 25.92083539 148.9999026
-94.287989 -2.461350346e-05 9.216350614
-182.65386 -2.461350346e-05 -4.886119386
-191.001006 34.23509439 99.82446461
-191.001006 113.2333764 128.3916806
-130.766451 -2.461350346e-05 6.055675614
-72.408993 45.77164639 142.9999026
-1.570744 66.79866939 -145.0000974
-120.005307 119.5902554 142.9999026
-103.839718 36.05454139 -151.0000974
-195.001006 23.48314439 -113.1345404
-195.001006 7.912642386 -138.0935604
-73.222786 -2.461350346e-05 -121.6339924
-208.580972 94.58276839 148.9999026
-202.098528 -2.461350346e-05 -50.21438039
1.326644 69.99997539 8.401565614
-202.959924 44.53047739 -151.0000974
-80.646627 -2.461350346e-05 39.38287861
-191.001006 39.12350239 117.2811146
-50.921801 -2.461350346e-05 48.72354661
-27.145682 -2.461350346e-05 21.96325261
-2.899996798e-05 29.75013739 105.4169886
-88.626974 -0.1974336135 -151.0000974
-159.858779 10.30197439 148.9999026
-82.660576 -2.461350346e-05 -73.00699939
0.21483 -2.461350346e-05 49.26459461
-86.151072 -2.461350346e-05 -114.8913364
-133.449145 -2.461350346e-05 -129.4696704
-195.001006 34.16155139 9.299116614
-2.899996798e-05 89.03978639 -85.25813639
-165.994823 -2.461350346e-05 -81.15077039
-185.354778 14.81258139 142.9999026
-142.412671 48.54488039 -151.0000974
-60.610907 -2.461350346e-05 -82.02004539
-154.176701 42.98418139 -145.0000974
-236.823469 41.97286139 142.9999026
-248.919968 -2.461350346e-05 -123.6173304
-2.899996798e-05 44.20197339 103.0540346
-2.899996798e-05 21.98778439 54.29333961
-64.763957 61.65189539 148.9999026
-154.661163 132.9999754 145.8972226
-191.001006 21.85191139 -131.4835074
-81.378572 15.90299039 -145.0000974
-100.356351 29.33959139 142.9999026
-199.694804 74.28346439 142.9999026
-143.240008 -2.461350346e-05 -123.4127374
-159.773716 -2.461350346e-05 -56.21605239
-195.001006 0.2500593865 23.02190261
-102.31086 27.82397039 -145.0000974
-225.828879 -2.461350346e-05 -46.70310739
-60.090741 -2.461350346e-05 -61.27486639
-2.899996798e-05 48.61450039 92.37353061
-191.001006 72.54602039 -6.464459386
-172.869862 109.6700954 148.9999026
-132.490116 24.73036039 142.9999026
-85.285577 -2.461350346e-05 -1.892235386
-188.308045 61.94263739 142.9999026
-200.489019 13.82899839 -145.0000974
-176.579782 -2.461350346e-05 112.4666216
-74.296392 -2.461350346e-05 -101.7025574
-206.041612 5.016983386 -145.0000974
-2.899996798e-05 76.60201939 50.89831361
-250.759538 -2.461350346e-05 77.08449861
-98.986112 -2.461350346e-05 54.89515461
-166.517703 -2.461350346e-05 -19.43602839
-95.601384 52.40349539 -145.0000974
-44.177331 -2.461350346e-05 -137.7334844
-186.875905 -2.461350346e-05 65.22499061
-191.001006 63.68713239 68.31612161
-192.381306 28.27856039 -151.0000974
-2.899996798e-05 71.19399939 92.91125761
-191.001006 21.45936339 116.9476836
-199.728855 -2.461350346e-05 -6.946355386
-135.862161 127.3101874 148.9999026
-156.763178 50.16601139 -151.0000974
-17.124295 -2.461350346e-05 -4.810584386
-141.288933 -2.461350346e-05 133.9244196
-2.899996798e-05 16.50200239 -139.9383464
-47.108324 38.41968739 142.9999026
-48.159895 59.64567839 142.9999026
-208.740719 -2.461350346e-05 -133.6324154
-149.394326 -2.461350346e-05 -97.40458439
-2.899996798e-05 63.93206039 -51.01167639
-236.110352 52.74535939 148.9999026
-94.255409 46.28839439 142.9999026
-201.183034 31.35259439 148.9999026
-39.320318 37.28519839 -151.0000974
-195.001006 54.48655839 2.421882614
-195.001006 9.543392386 95.55003861
-194.804494 61.72254939 -64.43905739
-36.196791 -2.461350346e-05 97.84878861
-129.82211 24.50228539 -145.0000974
-2.899996798e-05 65.06686139 109.2719276
-14.872004 -2.461350346e-05 30.08389161
-128.141677 115.4063344 148.9999026
-205.74114 17.66695439 142.9999026
-191.001006 33.37900339 42.03858061
-88.430652 94.16653739 142.9999026
-191.001006 35.63032739 -117.9121294
-2.899996798e-05 89.42075839 102.8212116
-191.001006 52.32536839 -82.12785239
-149.701383 -2.461350346e-05 0.7670596141
-108.686274 5.289565386 -145.0000974
-212.329575 1.446580386 -151.0000974
-163.493195 -2.461350346e-05 -30.38775339
-2.899996798e-05 8.417034386 -42.17004939
-225.325231 -2.488082614 142.9999026
-125.095655 81.73609339 142.9999026
-244.824883 -2.461350346e-05 -84.76878739
-195.61504 55.37846339 148.9999026
-172.758876 91.56305139 148.9999026
-204.64009 -2.461350346e-05 61.75068661
-116.791297 25.53058639 -151.0000974
-111.509782 103.2289464 148.9999026
-69.251047 -2.461350346e-05 -142.7770274
-191.001006 19.81123539 -45.88222239
-191.001006 40.37929539 -80.17948339
-131.987981 6.692741386 -145.0000974
-143.571929 53.66529939 142.9999026
-243.484191 4.495164386 -145.0000974
-101.63777 -2.461350346e-05 -143.1025574
-5.911781 -2.461350346e-05 -132.3067044
-217.442628 67.35462139 142.9999026
-2.899996798e-05 70.25205939 -105.2967354
-2.899996798e-05 23.56355039 -54.15093739
-143.798371 25.79145439 142.9999026
-191.001006 54.66502739 -53.19982939
-121.248911 -2.461350346e-05 89.12540961
-191.001006 57.73708239 -29.38164539
-89.466393 -2.461350346e-05 -14.30398639
-45.37396 -2.461350346e-05 -45.77265439
-2.899996798e-05 62.38741539 72.80963761
-154.138036 58.47149239 -145.0000974
-2.899996798e-05 61.62619139 -82.28952639
-20.084359 -2.461350346e-05 92.15399061
-168.974391 -2.461350346e-05 64.60013461
-84.396634 -2.461350346e-05 -83.15158039
-193.581084 -2.461350346e-05 -40.36619639
-174.400427 -1.564065614 -118.9714614
-10.792923 42.24730339 142.9999026
0.839327 -2.461350346e-05 124.3870886
-56.317652 -2.461350346e-05 -136.3158804
-191.001006 76.09679339 41.05191561
-2.899996798e-05 4.449673386 -32.25401339
-185.783883 85.92317539 148.9999026
-145.347233 2.934786386 148.9999026
-171.93931 36.88799839 -151.0000974
-8.107996 -2.461350346e-05 -81.71434539
-241.605268 -2.461350346e-05 -106.8820734
-195.001006 102.4987884 141.2266546
-105.001971 -2.461350346e-05 -87.55308039
-172.321406 -2.461350346e-05 99.99303361
-191.001006 9.841912386 65.77690461
-2.899996798e-05 22.09417139 -76.30900039
-195.001006 10.70876939 -62.02271839
-195.001006 36.76725439 125.0335686
-106.711876 38.89444239 142.9999026
-2.899996798e-05 83.63539239 76.73544561
-154.38161 14.49942939 -145.0000974
-145.568037 -0.8455496135 -151.0000974
-81.712835 56.33476739 -151.0000974
-139.037051 20.09327139 -151.0000974
-194.830367 81.77283639 20.71870861
-88.00156 8.932443386 -145.0000974
-1.927633 41.86649739 142.9999026
-139.097243 35.10248839 -151.0000974
-25.850042 8.612927386 148.9999026
-114.932326 -2.141549614 148.9999026
-191.001006 19.23699539 24.41081461
-116.446056 -2.461350346e-05 114.6889206
-41.711868 30.49963739 142.9999026
-103.213524 -2.461350346e-05 -103.4500544
-164.281452 -2.461350346e-05 24.84076261
-195.001006 14.55202339 -73.59245639
0.714046 58.98009439 148.9999026
-245.908879 46.91305339 -145.0000974
-85.635445 30.92755839 148.9999026
-28.732579 35.26212239 -145.0000974
-28.557887 19.69992039 142.9999026
-2.899996798e-05 39.78442039 -111.5263404
-2.899996798e-05 14.94266439 -117.0504094
-107.5472 17.92213739 142.9999026
-215.240183 59.03288639 -151.0000974
-2.899996798e-05 9.280207386 -89.36128639
-136.244595 67.99997539 -150.9845314
-191.001006 23.74411139 7.425292614
2.277631 108.1076284 105.1023106
-48.692012 -2.461350346e-05 -82.74325939
-195.001006 37.20831839 -0.04349438587
-38.015706 -2.461350346e-05 72.01471261
-195.001006 89.68719639 121.3957406
-195.001006 24.34306939 87.91280861
-66.505122 2.902743386 142.9999026
-80.127817 -1.868803614 -151.0000974
-165.16602 77.24463139 148.9909696
-55.736353 -2.461350346e-05 126.5816216
-80.875573 -2.461350346e-05 72.08219261
-126.71255 55.66865639 148.9999026
-6.668378 -2.461350346e-05 54.48436461
-50.26169 11.76866739 142.9999026
-233.659061 33.05192139 142.9999026
-195.001006 29.45893239 -130.8035894
-249.440545 42.40396439 142.9999026
-2.899996798e-05 18.08278339 103.1810776
-177.655662 25.87682739 142.9999026
-65.91382 74.25484339 148.9999026
-191.001006 31.22360939 51.27768861
-2.899996798e-05 53.50012839 -44.14094739
-149.799654 124.0190814 142.9999026
-227.726829 17.33502539 -145.0000974
-195.001006 51.39882339 137.1174076
-129.876176 -2.461350346e-05 -64.03660039
-195.001006 58.90972139 17.80859061
-47.675385 47.74096639 -145.0000974
-195.001006 9.042354386 -19.72713139
-121.50927 74.73484539 148.9999026
-26.905366 -2.461350346e-05 -35.99056539
-66.469112 41.66338339 -151.0000974
-215.384311 2.445418386 142.9999026
-191.001006 1.466131386 -131.3475844
-99.160673 -2.461350346e-05 67.44620161
-115.892626 24.52374239 142.9999026
-2.899996798e-05 -0.0249136135 -64.51369339
-81.108575 -0.6224716135 142.9999026
-52.79922 21.12186939 -145.0000974
-218.885953 19.03338539 148.9999026
-230.296708 -2.461350346e-05 89.75953561
-103.251801 -2.461350346e-05 -9.573404386
-40.139542 58.05193339 -145.0000974
-2.899996798e-05 113.5213914 -84.92333639
-182.925849 -2.461350346e-05 -35.33314039
-69.531015 21.32277239 142.9999026
-195.001006 82.50937539 101.2504506
-245.554159 -2.461350346e-05 42.64747161
-57.473135 59.20275239 -151.0000974
-138.082888 -2.461350346e-05 -84.78215239
-53.265916 19.74752839 142.9999026
-2.899996798e-05 53.50524839 26.89728861
-120.639237 61.61910739 -145.0000974
-243.684247 -2.461350346e-05 -33.59956039
-191.001006 78.99056839 11.77541561
-195.001006 6.445186386 -122.0050254
-195.001006 53.41393539 118.2210846
-216.30702 90.23865639 142.9999026
-63.127087 -2.461350346e-05 94.95233961
-198.401648 61.36190539 -145.0000974
-86.696221 50.67030439 142.9999026
-94.956661 15.24609239 148.9999026
-191.001006 26.78763439 -69.17283639
-181.507485 71.89244139 148.9999026
-2.899996798e-05 26.24424539 -99.88040239
-2.899996798e-05 38.68085639 14.34185561
-147.578139 94.22469639 148.9999026
-2.899996798e-05 103.3364624 -89.53995339
-2.899996798e-05 10.14956939 129.2580436
-142.018677 40.78765039 148.9999026
-180.824796 106.8055174 142.9999026
-53.112339 -2.461350346e-05 -73.94814239
-217.167208 -2.461350346e-05 -86.62064539
-2.899996798e-05 99.43478939 -69.12183339
-191.001006 7.807401386 87.66240961
-56.869514 -2.461350346e-05 -101.3905724
-4.027826 50.43085639 -151.0000974
-2.899996798e-05 21.12268439 -123.4337704
-191.001006 68.34073539 108.4428236
-127.673259 105.6297584 142.9999026
-94.419635 24.90770139 -145.0000974
-153.249178 -2.461350346e-05 71.17755561
-192.64677 3.139436386 -145.0000974
-66.472519 46.32652039 148.9999026
-36.120339 7.955274386 -145.0000974
-191.001006 18.96661539 -122.4985884
-207.191725 -2.461350346e-05 -121.9981314
-35.122553 -2.461350346e-05 28.51484861
0.724346 124.7219004 -94.96281039
-69.048791 -2.461350346e-05 5.874213614
-195.001006 19.27233439 109.5284086
-195.001006 41.07144939 -17.24278239
-2.899996798e-05 52.68371239 4.407682614
-135.962272 -2.461350346e-05 127.4580686
-62.256731 19.17451039 148.9999026
-82.12265 -2.461350346e-05 101.5907906
-155.441718 -2.461350346e-05 122.0342646
-4.938782 -2.461350346e-05 108.2248326
-101.658228 95.00614939 148.9999026
-123.881716 123.9532744 148.9999026
-195.001006 28.32835339 130.6709186
-137.912699 -2.461350346e-05 91.63919361
-209.914131 67.99997539 -150.6194414
-131.037332 -2.461350346e-05 85.21637361
1.418735 53.93445339 85.30826861
-195.001006 59.93658239 102.4768906
-195.001006 59.94482239 89.34041861
-208.606446 -2.461350346e-05 87.36739861
-160.62483 -2.461350346e-05 39.41956261
-24.388082 41.18120039 148.9999026
-51.602837 34.05746639 -151.0000974
-36.211879 -2.461350346e-05 38.76774861
-2.899996798e-05 24.84277639 -9.172044386
-194.162737 43.17048039 -145.0000974
-120.820912 12.90580639 -151.0000974
-112.869987 50.69855739 -145.0000974
-191.001006 27.27477339 -56.58972939
2.458906 144.9999754 -84.24992639
-2.899996798e-05 18.50396339 27.79066661
-195.001006 69.49650339 13.11056761
-2.899996798e-05 19.89161239 69.06341861
-108.030458 17.69337739 -145.0000974
-239.218297 -2.461350346e-05 0.4025726141
-134.292056 51.35941139 -145.0000974
-188.910945 -2.461350346e-05 125.8303476
-54.848073 25.69333139 148.9999026
-195.001006 33.82035139 -86.40407739
-2.899996798e-05 52.52904639 -33.73267139
-220.41896 -2.461350346e-05 30.82892361
-82.021345 -2.461350346e-05 -33.65136439
-116.942959 -2.461350346e-05 106.0551196
-208.052161 -2.461350346e-05 20.12512361
-195.001006 40.74165839 -97.99588939
-132.922898 35.09779539 142.9999026
-141.790392 68.55710139 148.9999026
-250.905229 74.81267539 142.9999026
-180.201595 60.96175739 -151.0000974
-98.95146 -2.461350346e-05 -119.8609994
-13.42497 52.81837139 -151.0000974
-165.353765 -2.461350346e-05 84.56763061
-2.899996798e-05 35.28490739 120.4630066
-249.745183 28.45717039 148.9999026
-244.066851 -2.461350346e-05 111.4599246
-165.142222 52.95903139 -151.0000974
-233.340137 17.25553439 -151.0000974
-184.804209 67.99997539 -147.4313664
-191.001006 89.95508139 84.38618261
-220.679483 -2.461350346e-05 8.828324614
-181.008341 -2.461350346e-05 -126.3260014
-128.874314 0.7563873865 142.9999026
-175.006209 10.87936339 -145.0000974
-197.719111 -2.461350346e-05 -62.67328339
-146.930045 29.72296639 -151.0000974
-86.24583 -2.461350346e-05 26.36649361
-191.001006 32.22135039 140.9821736
-133.326763 80.41911739 148.9999026
-175.78679 39.33196239 142.9999026
-195.001006 5.660962386 -95.02452639
-220.004444 -2.461350346e-05 -136.3227414
-133.667696 16.16538939 148.9999026
-82.208235 -2.461350346e-05 -137.4213824
-96.250287 100.1647664 142.9999026
-51.004136 -2.461350346e-05 133.4698206
-163.993575 62.31411139 148.9999026
-162.328752 38.97505239 -145.0000974
-76.212901 52.91983039 -145.0000974
-237.619522 40.03818739 -145.0000974
-247.920674 11.33210839 -145.0000974
-195.001006 34.44043139 35.01747061
-2.899996798e-05 10.63173039 -125.3344804
-195.001006 105.1594164 115.0477766
-110.473522 -2.461350346e-05 -127.6376274
-2.899996798e-05 79.79127739 101.8949276
-34.745599 67.99997539 -145.3061234
-142.744503 -2.461350346e-05 -5.570464386
-102.685497 -2.461350346e-05 140.9679446
-2.899996798e-05 102.0437904 75.38134661
-152.770483 116.4560404 142.9999026
-219.734598 -2.461350346e-05 69.71093661
-152.15654 -2.461350346e-05 -6.965492386
-86.377462 45.33436239 -151.0000974
-135.445007 -2.461350346e-05 101.5695576
-83.040122 102.7106024 147.3404106
-24.243043 -2.461350346e-05 62.90858261
-191.001006 28.79608539 -41.69918739
-114.994468 -2.461350346e-05 78.07498961
-2.899996798e-05 18.99374439 -60.81047839
-184.671822 -2.461350346e-05 135.9418926
-74.973451 4.403734386 -151.0000974
-191.001006 7.560362386 35.39850861
-228.535511 24.30815439 142.9999026
-191.001006 29.87107739 -110.2612774
-211.260661 51.81018339 -151.0000974
-247.188593 20.03570939 -145.0000974
-145.532588 14.57262039 -145.0000974
-87.35206 59.00236839 148.9999026
-93.176325 20.72450939 142.9999026
-203.86468 110.0376674 148.9999026
-16.571382 24.28380339 -145.0000974
-146.667779 78.76489939 142.9999026
-2.899996798e-05 11.98266839 13.36817361
-210.570641 -2.461350346e-05 7.476854614
-6.99367 -2.461350346e-05 81.69953461
-70.415861 81.55785339 146.7224736
-2.899996798e-05 26.03502639 -36.04604339
-189.109627 42.11769239 148.9999026
-2.899996798e-05 9.869388386 -76.05833439
-223.692241 38.07767039 142.9999026
-191.001006 64.79011539 46.58800161
-96.484365 5.901727386 142.9999026
-187.085562 27.75794339 -145.0000974
-195.001006 83.50288839 49.26865361
-158.283169 -2.461350346e-05 -68.31246539
-208.906824 113.4658214 142.9999026
-232.222852 45.75914339 148.9999026
-181.671585 114.3501504 148.9999026
-240.514775 -2.461350346e-05 80.50365461
2.247578 69.99997539 -21.72324939
-53.356656 -2.461350346e-05 4.425497614
-225.528639 -2.461350346e-05 -9.328392386
-2.899996798e-05 21.50940039 -42.76112739
-33.325345 -2.461350346e-05 -7.173960386
-19.986931 -2.461350346e-05 45.18786161
-165.760283 17.72642439 -145.0000974
-222.851305 43.03595739 -145.0000974
-142.227056 107.9207754 148.6187026
-234.557265 73.45573639 148.9999026
-155.759873 -2.461350346e-05 10.95601261
-104.548019 26.21057039 148.9999026
-11.528792 -2.461350346e-05 -110.6429374
-145.488696 -2.461350346e-05 -115.7778904
-2.899996798e-05 58.55974639 -15.82385439
-195.001006 111.6698494 135.0909156
-86.500061 30.55410539 -145.0000974
-192.569355 9.731471386 142.9999026
-195.001006 51.91074739 -33.02031039
-195.001006 6.986722386 73.84134861
-195.001006 26.31855839 95.60031961
-21.065529 44.89168639 -151.0000974
-67.946178 -2.461350346e-05 -62.34937939
-195.001006 55.72068639 -13.44415039
-145.168045 -2.461350346e-05 -66.20980739
-138.730131 -2.461350346e-05 11.73292461
-106.585402 -2.461350346e-05 -110.6166844
-35.564073 63.10208639 148.9999026
-169.272235 114.7809534 142.9999026
-158.695585 -2.461350346e-05 -1.965937386
-44.252642 64.80536239 -145.0000974
-195.001006 46.96627139 -47.70958539
-195.001006 103.3603494 123.9085746
-195.001006 34.28096339 -52.72370839
-55.573579 11.67198639 -145.0000974
-59.33291 1.303927386 -145.0000974
-203.708274 123.4744224 143.5805596
-191.001006 20.90516739 -97.03941839
-10.196031 12.78126539 -151.0000974
-112.102944 -2.461350346e-05 3.919434614
-177.781405 -2.461350346e-05 33.94273061
-2.899996798e-05 44.70802039 1.558093614
-2.899996798e-05 66.25368839 -96.00974039
-108.613368 0.2113883865 -151.0000974
-50.935349 67.99997539 -150.8763964
-2.899996798e-05 32.18827939 -134.2151274
-185.888781 106.5038984 148.9999026
-2.899996798e-05 12.36742239 74.21262061
-191.001006 6.551295386 -80.25038539
-33.479159 -2.461350346e-05 -124.5355844
-156.766615 -2.461350346e-05 -130.3892894
-195.001006 39.30892539 -25.84722439
-7.032194 57.09389839 148.9999026
-225.15183 29.00876439 148.9999026
-191.001006 19.05153739 47.96906661
-69.565972 -2.461350346e-05 83.99933061
-2.899996798e-05 10.60321039 32.60810061
-165.561808 -0.3205956135 50.94892161
-2.899996798e-05 109.1866904 -74.41088339
-118.650543 83.79019139 148.9999026
-38.055289 3.318800386 -151.0000974
-191.001006 1.029824386 -48.13718339
-2.899996798e-05 74.26431439 -93.51668739
-2.899996798e-05 45.17328439 125.5301206
-231.679907 68.37030339 142.9999026
-241.854751 -2.461350346e-05 -46.31241539
-189.247248 -2.461350346e-05 10.33811161
-223.889247 -2.461350346e-05 22.75140461
-173.890035 58.53140339 -145.0000974
-36.867929 8.268280386 148.9999026
-21.651261 13.73949339 -151.0000974
-99.857864 23.51638939 -151.0000974
-15.636977 -2.461350346e-05 -79.76225539
-175.788195 31.81852639 -145.0000974
-123.728517 -2.461350346e-05 18.21529561
-97.871294 -2.461350346e-05 -17.48544339
-220.212483 78.98836639 142.9999026
-66.651456 -2.461350346e-05 132.6895976
-14.7174 10.89902639 148.9999026
-233.941762 7.280036386 -151.0000974
-195.001006 45.56608839 104.0500046
-64.573731 -2.461350346e-05 14.10214561
-195.001006 76.26288839 94.48723761
-176.359432 14.97466139 142.9999026
-197.713794 16.80899139 142.9999026
-141.35475 60.82594639 148.9999026
-34.831056 -2.461350346e-05 -46.92452639
-92.228533 17.04043139 -145.0000974
-219.427006 54.30141239 142.9999026
-191.738036 82.84725639 141.4999026
-34.697046 -2.461350346e-05 -31.45314639
1.514627 -2.461350346e-05 32.11058461
-191.001006 68.59544839 86.19503361
-50.952954 2.596616386 142.9999026
-62.555465 -2.461350346e-05 31.11312661
-191.001006 41.53253039 131.0448386
-163.036515 36.67240039 148.9999026
-150.483238 21.94443439 142.9999026
-179.66348 129.6596264 142.9999026
-209.605821 16.28328539 -145.0000974
-195.001006 4.882982386 7.611465614
-121.232103 127.9930814 142.9999026
-148.202329 -2.461350346e-05 141.4483126
-72.4444 37.02177239 -145.0000974
-35.995225 51.01673839 148.9999026
-75.547025 89.73219839 145.9701336
-2.899996798e-05 19.08325839 -90.36060039
-195.001006 53.85124639 107.1570086
-233.34169 -2.461350346e-05 -103.3370044
-199.677926 91.24143539 148.9999026
-241.085638 -2.461350346e-05 -139.2616864
-191.001006 35.94052539 15.59577061
-58.756998 36.86589639 -151.0000974
-2.899996798e-05 7.610130386 40.72365561
-50.89505 -2.461350346e-05 26.04874661
-105.905251 -2.461350346e-05 -72.13427739
-35.131906 -2.461350346e-05 105.4294966
-96.078765 78.44391539 148.9999026
-210.670953 -2.461350346e-05 -40.37996539
-130.207563 -2.461350346e-05 -105.3404084
-22.842382 -2.461350346e-05 117.3816476
-160.665728 67.99997539 -150.7093234
-220.424649 -2.461350346e-05 -94.34491439
-2.899996798e-05 136.6722444 92.02608261
-191.001006 7.467452386 -0.1341903859
-107.274542 62.70180539 148.9999026
-144.202175 46.05015539 142.9999026
-195.001006 67.48151139 101.2801906
-189.336464 69.50992039 142.9999026
-2.899996798e-05 43.07369739 40.67700761
-117.44373 47.74945939 148.9999026
-159.258289 84.92399839 148.9999026
-82.170907 22.87868639 148.9999026
-168.558538 -1.858697614 142.9999026
-88.172225 -2.461350346e-05 118.3399796
-92.888351 1.810838386 -145.0000974
-94.033024 50.98829139 148.9999026
-2.899996798e-05 11.54649039 -2.984658386
-168.283613 -2.461350346e-05 -52.05099939
-88.435481 7.119451386 148.9999026
-62.391057 48.61593439 142.9999026
-241.388711 -2.461350346e-05 -114.4872124
-76.888507 -2.461350346e-05 47.76019761
-201.363276 1.049677386 142.9999026
-79.23498 61.59849839 142.9999026
-194.87414 -2.461350346e-05 -100.2382584
-198.313726 38.37711039 148.9999026
-70.423849 -2.461350346e-05 21.54410161
-184.097044 -2.461350346e-05 48.63098461
-90.576564 85.83268939 142.9999026
-114.899644 18.19087039 -151.0000974
-73.874523 19.74232039 148.9999026
-216.906982 -2.461350346e-05 104.7363096
-47.455608 -2.461350346e-05 -20.68042139
-128.079777 26.07745939 148.9999026
-51.755606 44.34721639 -151.0000974
-246.200061 16.37575939 142.9999026
-116.4559 -2.461350346e-05 130.4044756
-3.067344 23.55787239 142.9999026
-98.464173 -2.461350346e-05 91.47369261
-195.001006 58.63217339 -43.90241039
-191.001006 25.58338239 71.98659761
-162.756839 28.16655039 -151.0000974
-18.577744 -2.461350346e-05 -100.0559084
-203.680206 67.20638239 148.9999026
-144.39451 67.99997539 -148.0654464
-156.37415 64.70840439 142.9999026
-2.899996798e-05 38.11205139 -40.18874639
-251.209361 -2.461350346e-05 23.34739461
-195.001006 59.19692939 50.44859661
-218.35741 42.30070239 -151.0000974
-2.899996798e-05 86.57484439 86.83138561
-195.001006 47.95680839 82.73322661
-182.523512 -0.1715036135 148.9999026
-11.005202 32.64526239 142.9999026
-241.956989 50.79866339 -151.0000974
-102.92024 -2.461350346e-05 37.23905961
-98.436974 120.1035234 142.9999026
-19.960252 -2.461350346e-05 -54.26991839
-0.862819 44.90273439 -145.0000974
-73.126954 31.87722639 148.9999026
-2.899996798e-05 27.76612339 64.28270161
-81.793657 -2.461350346e-05 -102.3916794
-152.599684 3.375628386 -151.0000974
1.966779 49.95806739 142.9999026
-51.35274 52.53239439 142.9999026
-236.252465 66.21160739 -145.0000974
-195.001006 70.35366239 77.85484061
-195.001006 17.20090739 -51.64605539
-77.052237 -2.461350346e-05 -93.70564839
-223.317848 18.41875839 142.9999026
1.275577 -2.461350346e-05 20.48567461
-191.001006 68.81068639 129.7202156
-191.001006 79.03851039 57.04415061
-90.825918 53.56645039 -151.0000974
-207.669302 -2.461350346e-05 -106.0673024
-119.288316 -0.6944266135 142.9999026
-191.001006 83.55118739 67.34344861
-191.001006 46.46221139 -41.44696339
-185.995101 -2.461350346e-05 -60.50690939
-165.363544 98.98022339 148.9999026
-2.842262 21.16377039 -145.0000974
-195.001006 58.83643839 137.3298476
-140.320929 82.86194139 142.9999026
-195.001006 0.8690393865 -20.70629539
-191.001006 96.55233939 98.96222661
-251.304602 33.52653339 -151.0000974
-116.061334 129.0127434 148.9999026
-163.053933 125.7037384 148.9999026
-183.792256 -2.461350346e-05 -89.25206239
-249.814305 63.97994239 -145.0000974
-2.899996798e-05 68.84879939 -35.12291639
-151.042043 -2.461350346e-05 20.28138561
-219.697028 29.63041839 -151.0000974
-151.223668 58.20066639 148.9999026
-196.342207 121.6899004 148.9999026
-105.692946 8.689154386 -151.0000974
-60.29785 -2.461350346e-05 -45.99705839
-82.147105 78.82091339 148.9999026
-41.778511 -2.461350346e-05 53.92672861
-2.899996798e-05 111.3924464 85.94786461
-191.001006 32.83649939 -5.314804386
-227.578441 -2.461350346e-05 -70.30735839
-246.601919 -0.3442036135 -151.0000974
-44.050093 -2.461350346e-05 98.42469661
-191.001006 65.30386839 -13.14863739
-211.875471 46.70177439 142.9999026
-125.545089 31.00530539 -145.0000974
-6.505293 -2.461350346e-05 93.07879061
-124.794132 25.99665139 -151.0000974
-171.096419 -2.461350346e-05 -6.223377386
-217.369994 59.05604839 148.9999026
-192.202388 -0.3291926135 86.28615961
-195.001006 67.33102539 -24.79558939
-226.188722 77.70123439 148.9999026
-130.77941 18.62602839 -151.0000974
-191.001006 54.35429839 68.84948561
-6.505892 0.4828753865 -145.0000974
-151.212559 -2.461350346e-05 112.7796936
-41.539812 47.01943839 -151.0000974
-67.828194 25.16480839 148.9999026
-96.888487 -2.461350346e-05 -53.15032639
-2.899996798e-05 87.44052239 -66.32210339
-138.424132 132.9999754 143.3601186
-2.899996798e-05 64.60465139 96.06450261
-226.801498 -2.461350346e-05 44.01602061
-74.798136 20.95851039 -145.0000974
0.560381 58.58898639 128.5294666
-191.001006 6.319637386 23.61125261
-41.83048 2.116209386 142.9999026
-122.816379 -2.461350346e-05 -92.08540839
-102.392801 61.50498539 -151.0000974
-195.001006 3.828593386 41.98089361
-212.48732 28.33910939 142.9999026
-185.448707 30.71183439 148.9999026
-84.795547 -2.461350346e-05 19.20332361
-96.065636 87.38111439 148.9999026
-2.141255 -2.461350346e-05 -99.74711139
-2.899996798e-05 45.59399239 -107.1399474
-2.899996798e-05 52.09804839 116.8409046
-24.58336 -2.461350346e-05 -67.78100739
-195.001006 18.99494439 130.3080146
-123.855557 -2.461350346e-05 130.6607476
-181.01433 -2.461350346e-05 -53.21212139
-2.899996798e-05 18.71320339 -1.915203386
-191.001006 7.536976386 115.3943556
-2.899996798e-05 63.52338139 30.49326661
-195.001006 6.920886386 -103.3988904
-218.09277 -2.461350346e-05 -120.3767794
-188.190664 96.73717239 148.9999026
-195.001006 51.35867639 -69.77054339
-247.256092 -2.461350346e-05 102.1977736
-195.001006 8.741894386 124.9025046
-83.921374 59.72517839 -145.0000974
-215.017107 39.99700039 -145.0000974
-104.569302 49.27952239 142.9999026
-207.900503 34.55703939 148.9999026
-195.001006 35.42497539 85.88027561
-2.899996798e-05 31.26017839 53.06758161
-210.659095 104.4382284 148.9999026
-117.167572 11.23444939 -145.0000974
-54.139973 -2.461350346e-05 -50.60401139
-191.001006 50.04837139 -132.2201354
-163.377777 106.4521994 148.9999026
-195.001006 90.57897939 50.72206761
-2.899996798e-05 22.08621939 85.68581961
-195.001006 76.71019239 129.3435136
-202.803437 -2.461350346e-05 38.11742761
-138.583783 75.66606839 142.9999026
-16.867401 -2.461350346e-05 -12.00810339
-58.052373 67.99997539 -147.3726024
-201.940003 94.51866439 142.9999026
-191.001006 20.56615339 -138.5658054
-163.011395 -2.461350346e-05 -144.9644734
-2.899996798e-05 68.43783739 -65.49906439
-8.68552 -2.461350346e-05 -64.91600339
-69.905657 75.42501539 142.9999026
1.803494 -2.461350346e-05 -8.684186386
-233.080355 -2.461350346e-05 4.234267614
-205.832451 47.24651039 -145.0000974
-188.850586 8.397411386 148.9999026
-30.535462 -2.461350346e-05 56.75547461
-191.001006 93.62085239 75.09161161
-192.675771 71.74351239 148.9999026
-2.899996798e-05 35.68501739 138.0325346
-134.994337 7.922600386 142.9999026
-195.001006 16.52698939 -134.1848354
-236.543089 -2.461350346e-05 62.01314661
-24.712673 -2.461350346e-05 -18.86706639
-91.201589 -2.461350346e-05 -80.90762139
-62.076656 -2.461350346e-05 79.56864361
-132.940595 2.689718386 -151.0000974
-195.001006 15.17143939 103.6580476
-76.043715 43.89643139 -145.0000974
-4.276206 -2.461350346e-05 138.4502116
0.120326 64.61780239 -7.924657386
-103.74894 16.16526439 -151.0000974
-142.840827 125.6790104 142.9999026
-223.793058 9.133544386 -145.0000974
-48.045414 -2.461350346e-05 -28.29287539
-53.246827 24.98692139 -151.0000974
-117.628913 -2.461350346e-05 -112.3524284
-56.788047 -2.461350346e-05 52.81013661
-189.946745 120.6318164 142.9999026
-2.899996798e-05 48.82871139 52.03750661
-49.754181 -2.461350346e-05 -95.24737539
-149.308591 -2.461350346e-05 -83.18170839
-138.225623 67.04939239 142.9999026
-2.899996798e-05 125.3743054 96.65913161
-2.899996798e-05 100.8726744 -76.11498239
-191.001006 53.76990239 126.4031096
-2.899996798e-05 26.81497839 28.29725361
-53.995254 -2.461350346e-05 112.6258666
-247.811189 7.475808386 -151.0000974
-195.001006 49.09067939 91.43487561
-27.147623 4.206005386 142.9999026
-108.553099 107.5125674 142.9999026
-70.402827 59.14174939 -145.0000974
-16.31184 -2.461350346e-05 37.06408461
-211.124451 -2.461350346e-05 136.9994516
-26.395444 -2.461350346e-05 79.91872661
-161.144105 21.44045439 142.9999026
-126.834364 -2.461350346e-05 59.53499561
-28.185262 41.67162339 142.9999026
-72.586088 -2.461350346e-05 -56.95723839
-25.46861 13.87587839 -145.0000974
-43.463913 66.01054739 142.9999026
-109.299479 125.7039944 142.9999026
-195.001006 73.48542339 27.62329361
-220.974973 7.100110386 142.9999026
-152.604929 121.4668354 148.9999026
-191.001006 40.62102839 76.23260361
-51.871461 60.38636639 148.9999026
-2.899996798e-05 25.71818739 -112.8823644
-219.111539 92.75682839 148.9999026
-116.674246 67.99997539 -150.8659864
-191.001006 93.52318539 125.7939636
-164.833055 36.18514839 -151.0000974
-140.790654 -2.461350346e-05 -101.4077724
-153.546418 63.57017439 -151.0000974
-105.445745 -2.461350346e-05 117.6705876
-250.874203 -2.461350346e-05 -65.22575139
-205.620585 43.40827739 142.9999026
-199.305166 -2.068331614 148.9999026
-68.989301 34.08772239 -151.0000974
-146.245875 101.1571224 148.9999026
-162.830191 11.82385039 -151.0000974
-26.158418 -2.461350346e-05 -45.72749739
-89.965308 -2.461350346e-05 -50.04715439
-149.173921 30.35406539 142.9999026
-92.750863 -2.461350346e-05 136.5363456
-239.685911 53.66981239 142.9999026
-8.945711 -2.461350346e-05 6.083682614
-58.554811 36.74353139 142.9999026
-38.194966 -2.461350346e-05 -80.89133639
-207.47291 23.53738839 -151.0000974
-243.007805 19.88224639 -151.0000974
-112.636499 26.05165239 -145.0000974
-195.001006 38.92135139 -72.71626139
-195.001006 29.96979439 -18.75652239
-99.92425 7.605421386 148.9999026
-133.458182 52.82009739 142.9999026
-6.33889 67.99997539 146.8793236
-79.306666 30.87153639 -151.0000974
-95.205657 -2.461350346e-05 30.99618761
-46.213249 -2.461350346e-05 -112.0281574
-217.597781 -2.461350346e-05 -33.50778439
-57.791975 4.212825386 142.9999026
-191.001006 5.806671386 -116.2642564
-190.779623 9.582668386 -151.0000974
-76.068525 -2.461350346e-05 -141.0958074
-238.610116 28.90291839 148.9999026
-2.899996798e-05 15.33372339 124.0985926
-191.001006 6.903391386 56.00480361
0.06243900003 54.65343439 -83.07543639
-196.419187 47.34724839 -151.0000974
-184.696629 44.95010939 142.9999026
-191.001006 34.69236339 -143.4096974
-127.335474 92.40945239 142.9999026
-195.001006 43.57861539 -120.3321434
-195.001006 44.73099339 66.01382961
-12.606822 45.87304439 -151.0000974
-166.985439 27.74152339 142.9999026
-191.001006 93.55817439 108.6239036
-2.899996798e-05 55.41998939 67.43197161
-161.682296 40.72853439 142.9999026
-105.62904 42.89343739 -151.0000974
-7.445543 43.52141039 148.9999026
-41.454495 15.66494839 -151.0000974
-234.222743 -0.9529416135 142.9999026
-58.894595 -2.461350346e-05 -1.730815386
-89.055973 63.14823639 142.9999026
-237.991845 -2.461350346e-05 126.7263306
-112.736674 75.77289439 148.9999026
-191.001006 49.03224239 -106.3443764
-100.932231 68.92671039 148.9999026
-42.555281 12.88155639 148.9999026
-119.064314 -2.461350346e-05 -132.2280894
-31.647109 44.89754639 148.9999026
-165.513756 -2.461350346e-05 -38.61309339
-2.899996798e-05 6.778502386 69.68243661
-2.899996798e-05 2.188455386 6.625671614
-191.001006 5.005553386 -35.08650739
-191.001006 57.94641739 27.50602161
-72.938853 -2.461350346e-05 -21.43565039
-170.333378 -2.461350346e-05 73.98500761
