# .PCD v0.7 - Point Cloud Data file format
VERSION 0.7
FIELDS x y z
SIZE 4 4 4
TYPE F F F
COUNT 1 1 1
WIDTH 1161
HEIGHT 1
VIEWPOINT 0 0 0 1 0 0 0
POINTS 1161
DATA ascii
-276.9370699 1.751739386 -9.738633798e-05
-198.3090889 -2.461374788e-05 134.7841256
217.042526 -18.87208661 -9.738633798e-05
79.80711309 -2.461374788e-05 24.38426061
150.013836 -2.461374788e-05 24.88570461
-313.4893339 -2.461374788e-05 59.38894161
114.007187 -2.461374788e-05 90.28976461
-4.599834907 -2.461374788e-05 79.43946061
244.4062411 -51.40810261 -9.738633798e-05
111.7120167 -4.660653614 -9.738633798e-05
-125.4297959 -67.95741161 -9.738633798e-05
-318.5000029 -21.86041461 176.3044236
119.3220531 -2.461374788e-05 114.4174056
227.0212426 -2.461374788e-05 35.96447261
-151.6658599 -2.461374788e-05 122.0828566
246.3925417 -2.461374788e-05 61.87274661
-176.0154349 -2.461374788e-05 18.56719161
-312.5000029 -46.20411361 132.5282816
313.3542213 -2.461374788e-05 22.69937261
-129.5656909 -2.461374788e-05 157.1685046
-336.6848429 -28.50964661 233.9999026
-91.60665991 -45.34705361 -9.738633798e-05
287.4842092 -2.461374788e-05 52.92684061
-216.0808539 -2.461374788e-05 84.78629761
220.1438115 -43.32301361 -9.738633798e-05
-317.3307789 -2.461374788e-05 131.4330916
-123.4980539 -8.341554614 -9.738633798e-05
292.2398859 -10.20786661 -9.738633798e-05
27.79895909 -67.34988561 -9.738633798e-05
-21.88551991 -57.27351161 -9.738633798e-05
-193.5408549 1.856236386 199.9999026
-101.1200029 -2.461374788e-05 189.3185376
37.22117909 -2.461374788e-05 49.38648061
-242.1080729 0.3627323863 199.9999026
31.36582509 -19.69748461 -9.738633798e-05
199.5613905 0.8489263863 80.76575161
-104.5859099 -2.461374788e-05 142.8403536
-56.69822591 -2.461374788e-05 135.9225206
-147.0122749 -2.461374788e-05 68.24742861
-4.524708907 -1.444698614 -9.738633798e-05
-30.54540591 -2.461374788e-05 59.83122661
-98.84445991 -2.461374788e-05 39.45193161
-66.36114291 -2.461374788e-05 30.91199061
-171.5353499 -2.461374788e-05 110.8791066
134.3159359 -15.00216561 -9.738633798e-05
136.8187341 -51.34156561 -9.738633798e-05
-141.9359279 -2.461374788e-05 23.17090861
220.2062745 -2.461374788e-05 125.7879766
-262.5422989 -2.461374788e-05 65.05570561
-316.7883949 -44.12997161 20.09594561
-58.09215391 1.748448386 199.9999026
-148.1079409 -2.461374788e-05 194.6296216
9.316265093 -22.44978361 -9.738633798e-05
-246.3632199 -2.461374788e-05 143.5500566
74.14776809 -15.58350761 -9.738633798e-05
177.9150137 -20.10666661 -9.738633798e-05
-312.5000029 -21.84400961 95.57086861
-314.5963369 -55.28459961 228.6516106
-268.0341789 -2.461374788e-05 128.8753646
184.1997063 -2.461374788e-05 23.64436761
-238.6749299 -15.50729461 -9.738633798e-05
-312.3429809 -68.00002461 -2.169306386
-312.5000029 -19.21049761 198.9364426
273.847407 1.832185386 123.2540206
267.7307946 -2.461374788e-05 23.38755861
-231.0050199 -2.461374788e-05 121.2269196
59.10838109 -2.461374788e-05 83.09485961
-312.5000029 -2.527563614 216.4563776
-269.8244749 -2.461374788e-05 25.43627261
-2.620898907 -2.461374788e-05 27.75747461
-176.7706149 -2.461374788e-05 156.0762906
-19.79408491 -2.461374788e-05 102.8300476
-34.65300791 -2.461374788e-05 174.1204106
-221.1795329 -2.461374788e-05 178.6427366
-128.1285589 -2.461374788e-05 111.8643606
-182.6193059 -2.461374788e-05 48.06687861
-80.45834491 -12.18774961 -9.738633798e-05
-286.0608939 -66.37663661 -9.738633798e-05
186.5997309 -2.461374788e-05 62.84750761
18.34407509 -2.461374788e-05 169.2957906
-15.12783991 -2.461374788e-05 149.7737156
287.2714077 -52.59666261 -9.738633798e-05
-309.7327999 -2.461374788e-05 110.0718106
21.52415109 -2.461374788e-05 100.1130536
-42.33082691 -2.461374788e-05 100.0537136
9.919614093 -2.461374788e-05 124.6924876
-57.97525891 -2.461374788e-05 114.6752326
-169.7622179 -48.25276361 -9.738633798e-05
107.2444971 -53.54702761 -9.738633798e-05
-318.5000029 -20.14551761 17.27522761
99.53858709 0.6285963863 19.36357761
66.57038609 -47.67687461 -9.738633798e-05
-103.9965399 -2.461374788e-05 10.98740461
-334.0414689 -2.461374788e-05 67.83217461
-252.5219269 -2.461374788e-05 94.19704961
-166.2835349 1.035467386 -9.738633798e-05
107.4497571 0.8524083863 65.15951361
314.1813035 -2.461374788e-05 67.86726961
118.397227 -2.461374788e-05 42.52874361
-229.1136689 -47.42526961 -9.738633798e-05
-14.47258991 -2.461374788e-05 192.2429346
-162.3697519 -2.461374788e-05 83.61418861
-270.9792999 -2.461374788e-05 105.9699166
42.50877009 -52.61135561 -9.738633798e-05
-322.6027839 2.086039386 -9.738633798e-05
-211.7410089 -0.3100956137 -9.738633798e-05
-243.9120589 -2.461374788e-05 26.91979261
-312.5000029 -3.683849614 40.04111761
225.9073522 -1.435877614 -9.738633798e-05
-35.99012491 0.4732323863 -9.738633798e-05
260.5098315 -40.74352061 -9.738633798e-05
262.1276542 -2.461374788e-05 102.5726916
-105.5901589 -2.461374788e-05 68.37104161
146.4664888 -2.461374788e-05 43.69847561
38.11432809 1.815617386 -9.738633798e-05
77.61062409 -2.461374788e-05 138.3743346
39.79246309 -2.461374788e-05 69.97020061
-260.3778149 -20.57321761 -9.738633798e-05
6.742354093 -2.461374788e-05 56.98660061
-28.27807891 -2.461374788e-05 35.95014061
198.2617169 -16.60566561 -9.738633798e-05
-295.6522359 -2.461374788e-05 1.395714614
-28.75851291 -37.73374161 -9.738633798e-05
-318.5000029 -49.80302361 206.9337786
266.5241383 -2.461374788e-05 56.01322461
166.9297577 -2.461374788e-05 16.73937261
-127.3075719 -2.461374788e-05 82.71433861
-260.6488059 -2.461374788e-05 174.8225906
44.75999409 -2.461374788e-05 184.9193186
-231.9555389 -2.461374788e-05 102.8204806
142.6532161 2.166396386 -9.738633798e-05
-140.7699239 -2.461374788e-05 41.52220161
-318.5000029 -5.967853614 186.9100086
143.0671576 -2.461374788e-05 116.6775866
-114.6648489 -2.461374788e-05 48.94422261
-318.5000029 -25.18005761 56.35613261
-105.4011629 -2.461374788e-05 116.4354536
295.0509533 -2.461374788e-05 117.1153866
-190.2539879 -2.461374788e-05 107.9492986
-299.9358599 -2.461374788e-05 71.38404261
-84.85374991 -2.461374788e-05 159.9340216
62.78768909 -2.461374788e-05 35.34424361
-51.19949991 -32.46809061 -9.738633798e-05
-271.3438819 -2.461374788e-05 47.64090161
206.5676638 -64.45502761 -9.738633798e-05
-121.5957459 -2.461374788e-05 173.2224636
-22.30454791 -11.03578761 -9.738633798e-05
311.2822278 -23.24081261 -9.738633798e-05
267.2418477 -15.69435761 -9.738633798e-05
180.1194427 -50.35513561 -9.738633798e-05
-151.4162999 -2.461374788e-05 139.7585346
-0.07230190656 -46.24275561 -9.738633798e-05
-189.6290519 -2.461374788e-05 180.8891176
-44.51989091 -68.00002461 -1.021603386
34.34406409 -2.461374788e-05 143.7243616
208.3705699 -2.461374788e-05 65.37767761
-135.3792989 -21.17695461 -9.738633798e-05
-201.1926089 -2.461374788e-05 14.79853461
158.0782835 -2.461374788e-05 82.58845361
-108.0296179 -39.59448661 -9.738633798e-05
-52.94508191 -2.461374788e-05 175.5806326
-309.6281269 -2.461374788e-05 147.0121116
249.4139317 -68.00002461 -0.6524543863
-159.2589359 -2.461374788e-05 23.14567461
-46.48082391 -2.461374788e-05 22.26621961
72.57981309 -2.461374788e-05 93.83530561
51.51867409 -2.461374788e-05 118.3330236
-91.00419691 1.852149386 -9.738633798e-05
-325.1472749 -68.00002461 233.0685466
-336.0393579 -2.461374788e-05 26.65043061
226.0920557 2.346547386 16.66389061
171.324459 -65.06312961 -9.738633798e-05
-286.2198409 -2.461374788e-05 196.0375276
30.31028509 -2.461374788e-05 85.51462161
-224.8583579 -2.461374788e-05 162.0427066
182.8001915 0.9652873863 118.7521406
-113.5917199 -55.92456161 -9.738633798e-05
-318.5000029 -62.64454461 195.0679076
200.5984733 2.259325386 -9.738633798e-05
-221.1881629 -2.461374788e-05 65.90664161
-318.5000029 -11.97281461 159.7291356
-82.67675491 -2.461374788e-05 35.00214161
136.7278729 -34.58130061 -9.738633798e-05
99.76102609 -22.53611861 -9.738633798e-05
230.5326543 -2.461374788e-05 56.91737661
-237.1326199 -2.461374788e-05 57.67899361
-214.1651999 -37.92134061 -9.738633798e-05
-284.2850459 -43.30802561 -9.738633798e-05
-318.5000029 -35.86029661 121.0381606
277.2449791 -2.461374788e-05 39.80073761
169.0387152 -2.461374788e-05 57.19633561
-320.1170649 -2.461374788e-05 76.76905361
127.946494 -2.461374788e-05 7.229505614
-212.6693029 -2.461374788e-05 126.6750416
54.33939309 -15.20985361 -9.738633798e-05
-67.84746191 -2.461374788e-05 186.8658566
10.53163809 -2.461374788e-05 85.90137361
50.27610509 -2.461374788e-05 153.2482366
-285.3644409 -2.461374788e-05 158.9305666
-209.3733719 -2.461374788e-05 153.1964896
-199.7889969 -2.461374788e-05 89.68803361
-335.1580429 -13.32506961 227.9999026
-312.5000029 -51.59429061 178.8497186
-28.56747791 -2.461374788e-05 134.7382176
138.8020175 -2.461374788e-05 74.70028061
73.25559809 -2.461374788e-05 61.12062161
-225.0507759 -2.461374788e-05 29.48975161
-312.5000029 -32.86841161 207.7530766
34.73666709 -2.461374788e-05 15.81637261
159.7358368 2.426761386 132.1690006
-303.3748569 -32.35413861 -9.738633798e-05
-266.8011089 -39.91081161 -9.738633798e-05
87.44296309 -2.461374788e-05 121.0106066
-330.1248709 -2.461374788e-05 165.1669756
-84.30080591 -63.07605361 -9.738633798e-05
298.3929515 -2.461374788e-05 70.89788761
-318.5000029 -62.78103861 163.8488046
-205.7895819 -2.461374788e-05 183.2320146
54.47987509 -2.461374788e-05 171.1545696
-200.9942839 -22.37491061 -9.738633798e-05
-70.07325091 -2.461374788e-05 0.4782546137
-286.2933089 -2.461374788e-05 94.75293061
-323.1647009 -39.93678961 227.7883856
204.5876143 -48.63861161 -9.738633798e-05
-312.5000029 -50.90804761 147.7562876
-200.7252979 -2.461374788e-05 49.73509161
78.94227509 -57.61079561 -9.738633798e-05
-335.1593609 -50.92217061 -9.738633798e-05
-320.3666059 -13.95582061 233.1871956
207.7937316 -31.52721561 -9.738633798e-05
288.8650355 -2.461374788e-05 11.40608261
234.7688984 -2.461374788e-05 111.4743316
-318.5000029 -21.29941961 131.7603506
15.59623709 -2.461374788e-05 184.6704986
-289.0342799 -2.461374788e-05 40.11675061
-319.7036049 -52.81990461 -9.738633798e-05
137.3221742 -66.88045961 -9.738633798e-05
175.9516794 -2.461374788e-05 99.34974161
-248.4127649 -58.26637761 -9.738633798e-05
-151.6001079 -2.461374788e-05 175.9593226
-157.5125549 -13.79224061 -9.738633798e-05
0.6623690934 -2.461374788e-05 159.9190356
-62.95371991 -2.461374788e-05 150.0885966
233.0039114 -2.461374788e-05 85.75055561
-162.7829459 -2.461374788e-05 199.4903516
-49.28674391 -2.461374788e-05 86.30694761
-312.5000029 -35.99626261 175.2195716
-190.5095299 -2.461374788e-05 149.1333496
124.2500578 2.140833386 78.79988861
-273.9261719 -13.18238561 -9.738633798e-05
250.1996855 -12.20381761 -9.738633798e-05
-139.0559629 -45.72612561 -9.738633798e-05
-234.0074269 -0.4831866137 -9.738633798e-05
217.1279045 -2.461374788e-05 49.77047461
-302.1772109 -2.461374788e-05 132.2724586
72.74292809 -2.461374788e-05 10.97012561
-90.32765591 -2.461374788e-05 64.25882961
-246.7156639 -2.461374788e-05 161.9347106
303.8840748 -2.461374788e-05 6.801204614
-59.28879591 -53.28343661 -9.738633798e-05
-305.7405599 -2.461374788e-05 12.60223961
5.165696093 -2.461374788e-05 42.05640061
-318.5000029 -8.258192614 101.1152646
277.1345007 -2.461374788e-05 89.43588161
206.8200246 -2.461374788e-05 93.80085961
-76.91533491 -48.03206861 -9.738633798e-05
-119.7246219 -24.96374961 -9.738633798e-05
-180.4278439 -2.461374788e-05 32.74962161
204.7968842 -2.461374788e-05 116.2728396
45.53250809 -2.461374788e-05 132.0698736
39.06801809 -35.69552261 -9.738633798e-05
-243.5867689 -2.461374788e-05 128.9846536
30.29599309 -2.461374788e-05 181.9358096
-318.5000029 -29.02405861 160.1397346
-217.6686909 -59.06895561 -9.738633798e-05
-86.58953891 -2.461374788e-05 186.7052836
-86.47443591 -30.71112361 -9.738633798e-05
61.18425109 -2.461374788e-05 20.04591261
-185.0667319 -2.461374788e-05 121.6766066
-318.5000029 1.978033386 203.0694076
-231.1715509 -28.11070361 -9.738633798e-05
93.45344009 -48.58495461 -9.738633798e-05
-318.5000029 -11.28277861 85.93475761
298.4662064 -2.461374788e-05 38.94139561
-97.33876991 -2.461374788e-05 24.22147861
-142.0564029 -2.461374788e-05 81.88632061
104.7819021 -37.48270761 -9.738633798e-05
-51.92125391 -2.461374788e-05 161.2209856
-168.1687709 -2.461374788e-05 167.6000726
-57.79002491 -2.461374788e-05 53.21657661
97.43544909 -2.461374788e-05 82.74466661
57.27988309 -2.461374788e-05 99.31304161
101.2278721 -2.461374788e-05 33.54528961
89.27632709 -12.85193561 -9.738633798e-05
-284.7101489 -2.461374788e-05 69.97493761
-68.89648591 -2.461374788e-05 16.88429861
10.09761409 -2.461374788e-05 12.86825061
-177.8562669 -7.240249614 -9.738633798e-05
-158.6047179 -2.461374788e-05 59.53788861
-114.0311109 -2.461374788e-05 158.3237716
-21.19790091 -2.461374788e-05 178.6502526
191.776706 -2.461374788e-05 35.63458761
-66.23223491 -2.461374788e-05 73.30613161
138.4172128 -2.461374788e-05 16.79867061
257.9435235 -2.461374788e-05 69.98190161
-318.5000029 -11.26457061 52.54198961
237.5402977 -2.461374788e-05 24.51162561
104.8078231 -68.00002461 -0.4289393863
-45.59320591 -2.461374788e-05 187.5785566
36.12501309 -2.461374788e-05 35.36533161
69.98208409 -28.98687261 -9.738633798e-05
-129.7813989 -2.461374788e-05 16.16143761
-318.5000029 -9.567985614 141.8610936
-318.5000029 -14.20112961 211.5173626
-312.5000029 -54.10937061 119.3809766
234.5041597 -2.461374788e-05 125.4544406
130.3533448 -2.461374788e-05 35.27995261
-312.5000029 -59.83863061 135.6223196
-318.5000029 -20.87880261 3.329229614
-192.6736079 -62.43618961 -9.738633798e-05
293.2995175 -29.45711761 -9.738633798e-05
-131.7121639 -2.461374788e-05 96.12214561
18.51585609 -2.461374788e-05 45.88960061
208.1417149 -2.461374788e-05 35.67076761
-318.5000029 -14.07273461 32.04900361
29.14455309 -2.461374788e-05 156.5572466
156.1369064 -25.46257061 -9.738633798e-05
150.4804361 -53.48208861 -9.738633798e-05
244.4356436 -2.461374788e-05 101.6013116
-112.3435529 0.6458273863 -9.738633798e-05
-159.1216059 -2.461374788e-05 100.0356626
153.3438611 -2.461374788e-05 8.998958614
-186.7200859 -2.461374788e-05 65.21037861
170.0740979 1.222703386 -9.738633798e-05
16.63067909 -55.95228261 -9.738633798e-05
-303.9250269 -2.461374788e-05 181.6190956
-281.5902569 -2.461374788e-05 127.0203666
259.2731794 -2.461374788e-05 12.70632261
182.8008757 -2.461374788e-05 46.05639961
-89.59063391 -2.461374788e-05 92.73017161
-312.5000029 -36.77967661 9.489198614
312.8818221 -2.461374788e-05 101.8072826
173.2142597 1.248643386 131.1159976
-181.3583549 -2.461374788e-05 77.66547361
75.41024209 -2.461374788e-05 40.24252061
313.7928445 -50.71363061 -9.738633798e-05
-138.5910699 -59.21271361 -9.738633798e-05
-162.6004079 -68.00002461 -0.01683538634
-330.6486189 -25.70294961 -9.738633798e-05
140.0370437 -2.461374788e-05 58.72541461
-73.30790491 -2.461374788e-05 116.1035136
-8.408846907 -57.18412361 -9.738633798e-05
-155.9880549 -2.461374788e-05 10.08882261
-322.9720319 -2.461374788e-05 112.4021316
-183.7320369 -35.31495261 -9.738633798e-05
-136.4015269 -2.461374788e-05 122.4427056
-87.84660891 -2.461374788e-05 127.6896086
-10.27609891 -2.461374788e-05 91.58873261
87.25705409 -2.461374788e-05 13.23705561
-180.1539019 2.373089386 199.9999026
-163.4220219 -2.461374788e-05 150.5594376
-237.8708469 -2.461374788e-05 38.85864161
282.1775299 1.979864386 -9.738633798e-05
219.1465282 -2.461374788e-05 88.67309461
151.7280372 -2.461374788e-05 99.74273561
-317.2556629 -2.461374788e-05 174.5331616
-260.6048999 -2.461374788e-05 82.67884161
68.74767009 -2.461374788e-05 128.4387116
-312.5000029 -42.61440661 216.7967376
-318.5000029 -31.24497161 24.58471761
-264.2469629 -2.195336614 -9.738633798e-05
68.74055209 -68.00002461 -0.5244963863
-213.7936829 -2.461374788e-05 18.99562061
-308.8536849 -2.461374788e-05 25.96595761
120.475394 -53.78268761 -9.738633798e-05
107.0957071 -2.461374788e-05 103.4820076
87.82410609 -2.461374788e-05 35.66366061
-3.414541907 -2.461374788e-05 118.1629096
-2.475493907 -2.461374788e-05 140.4820996
20.72873509 -2.461374788e-05 117.2436516
178.8617605 -37.23262761 -9.738633798e-05
-233.6708099 -2.461374788e-05 152.3173736
-20.69868491 -2.461374788e-05 74.36824561
224.9708611 -31.12687961 -9.738633798e-05
116.8812204 -16.71440861 -9.738633798e-05
-310.0729199 -1.778369614 -9.738633798e-05
-318.5000029 -31.05365461 108.8625346
-68.14312991 -2.461374788e-05 129.6022486
-318.5000029 -29.40001961 192.5536546
-284.3794539 -2.461374788e-05 10.55200861
66.63539409 -2.461374788e-05 49.92000361
80.13090909 -44.66032561 -9.738633798e-05
-314.1776079 -68.00002461 225.9760776
-15.60985791 -2.461374788e-05 27.99857461
-92.58464191 -2.461374788e-05 147.7750436
-77.25657591 -2.461374788e-05 86.49196861
-206.2962099 -50.74613861 -9.738633798e-05
-291.0872039 -28.55113661 -9.738633798e-05
-201.9423439 -9.557081614 -9.738633798e-05
-249.9807119 -2.461374788e-05 57.53657361
-224.7884969 -9.420184614 -9.738633798e-05
-108.7476369 -2.461374788e-05 176.6951656
169.5830104 -2.461374788e-05 70.01148761
-116.4781279 -2.461374788e-05 122.8851076
-275.6173029 -2.461374788e-05 139.2060126
-253.2294619 -46.33939361 -9.738633798e-05
-133.0981269 -2.461374788e-05 1.495902614
0.9530510934 -2.461374788e-05 188.6997736
167.3500929 -49.43138061 -9.738633798e-05
12.33187209 -34.89147861 -9.738633798e-05
163.6780442 -2.461374788e-05 104.3035266
35.63098609 -2.461374788e-05 114.2547636
-230.9288829 -2.461374788e-05 193.8399486
20.50976109 -12.97843261 -9.738633798e-05
78.50175509 -2.461374788e-05 105.6206096
-252.3769219 -2.461374788e-05 192.4688096
-16.52706191 -45.72318761 -9.738633798e-05
-78.24677891 -2.461374788e-05 69.14096761
264.3237969 -2.461374788e-05 37.11560161
26.84274609 -31.57325361 -9.738633798e-05
-312.5000029 -12.82586161 66.15982161
71.56252209 -2.461374788e-05 74.96715161
110.1986368 -2.461374788e-05 127.1784406
31.21480009 -2.461374788e-05 60.55689361
-258.8449549 -2.461374788e-05 137.5978376
-318.5000029 -37.46781361 139.4340826
126.0869694 -2.461374788e-05 100.7140596
195.810091 -2.461374788e-05 17.23980561
-298.4464979 -63.91907661 -9.738633798e-05
-324.0636419 -28.87283161 233.9507516
-182.3634849 -48.34650261 -9.738633798e-05
-229.4452589 -2.461374788e-05 82.77430761
-50.31200091 -2.461374788e-05 125.0737946
-300.5523099 -2.461374788e-05 119.7922726
245.5837293 -2.461374788e-05 48.77303661
-249.5398209 -9.177732614 -9.738633798e-05
261.4965538 -2.461374788e-05 82.04273661
-34.20557491 -2.461374788e-05 16.21323261
-256.2571899 -68.00002461 -1.106045386
46.81259309 -2.461374788e-05 197.2611086
257.868555 -52.97245861 -9.738633798e-05
-182.8711229 -2.461374788e-05 170.3606096
-50.64410791 -19.97238761 -9.738633798e-05
238.0228576 -9.396088614 -9.738633798e-05
-16.52327991 -2.461374788e-05 3.051565614
235.9605945 -62.37292661 -9.738633798e-05
-139.0204959 -2.461374788e-05 186.1275466
-68.75488691 -19.34112061 -9.738633798e-05
-4.785482907 -2.461374788e-05 15.52618061
276.2209032 -46.93356261 -9.738633798e-05
-14.80945991 -2.461374788e-05 162.1827856
53.10325709 -44.52269061 -9.738633798e-05
-157.3945969 -47.43339261 -9.738633798e-05
-113.6701609 -2.461374788e-05 77.75049061
131.1910732 -2.461374788e-05 122.7792246
86.76132509 -2.461374788e-05 57.79826861
59.49999709 1.725646386 183.5248936
-80.88338691 -2.461374788e-05 175.7594416
301.2128019 -2.461374788e-05 105.8032096
-312.5000029 -8.062967614 122.1226326
-335.9568139 -42.16760661 227.9999026
-189.0203089 -2.461374788e-05 13.07306461
21.00885609 -2.461374788e-05 142.6306616
-73.39270591 -2.461374788e-05 103.5111186
178.4931068 -2.461374788e-05 12.73428661
-27.94840991 -2.461374788e-05 161.5061246
251.5185731 -2.461374788e-05 25.51510461
-99.29013291 -2.461374788e-05 56.02410861
-334.2254929 -2.461374788e-05 224.1335646
-54.14601891 -2.461374788e-05 33.08087161
20.99940609 -2.461374788e-05 197.8672696
-258.6815989 -2.461374788e-05 20.68857961
-63.02524491 -39.74808061 -9.738633798e-05
-269.7205139 -2.461374788e-05 186.7839326
-312.5000029 -19.98632061 46.71154861
-134.7222879 -2.461374788e-05 72.29550861
310.1542355 -2.461374788e-05 35.91565261
-125.8908429 -55.89927761 -9.738633798e-05
-220.8387119 -2.461374788e-05 95.86151761
276.7133689 -2.461374788e-05 10.54921561
-200.0273909 -2.461374788e-05 114.9879926
-298.9804499 -2.461374788e-05 153.0720436
-171.3976849 -2.461374788e-05 52.38682661
-119.9955609 -2.461374788e-05 143.0892146
-31.05513991 -2.461374788e-05 106.9684536
-298.7654399 -2.461374788e-05 51.43503861
172.8663563 -2.461374788e-05 27.51587461
-109.1780479 -2.461374788e-05 21.80254561
-314.3995639 -25.50002461 84.33863461
-312.5000029 -9.617518614 14.81216261
46.67817209 -2.461374788e-05 42.07002161
153.8626294 -2.461374788e-05 111.5028636
214.877185 -2.461374788e-05 25.09170261
-119.7603509 -2.461374788e-05 9.333323614
-285.5737749 -10.58265761 -9.738633798e-05
106.9501681 -2.461374788e-05 53.27749361
-190.1590539 -17.42248961 -9.738633798e-05
-243.8486559 -2.461374788e-05 103.1568436
-44.83675291 -2.461374788e-05 113.2340616
103.2767341 -2.461374788e-05 8.109518614
214.325853 1.189227386 -9.738633798e-05
-314.1806589 -50.47481461 10.41787561
-145.6880189 -14.53249961 -9.738633798e-05
-41.83138491 -2.461374788e-05 63.42224861
-209.6151709 1.702546386 39.25734561
-169.4967229 -2.461374788e-05 93.05298561
277.1531226 -8.724226614 -9.738633798e-05
-4.181943907 -13.24350361 -9.738633798e-05
298.4294767 -2.461374788e-05 59.10049261
-323.6507009 -2.461374788e-05 154.3960636
-280.7638599 -2.461374788e-05 31.73339361
-51.05138691 -2.461374788e-05 149.4872006
315.3308355 -2.461374788e-05 9.509356614
-104.0801459 -2.461374788e-05 128.1163926
-259.3448479 -2.461374788e-05 162.9134056
246.0598805 -36.15654961 -9.738633798e-05
-97.92016091 -56.64729361 -9.738633798e-05
158.0235095 -2.461374788e-05 53.29458161
-310.7997639 -43.37440061 -9.738633798e-05
-190.7366529 -2.461374788e-05 25.68470461
181.1657858 -2.461374788e-05 73.63828261
-142.3167739 -34.51744161 -9.738633798e-05
243.3335923 -2.461374788e-05 73.12610361
-165.2149519 -29.03006261 -9.738633798e-05
184.2644905 -10.33621661 -9.738633798e-05
-137.8796809 1.420566386 199.9999026
285.4794096 -19.66900861 -9.738633798e-05
-61.94032491 -2.461374788e-05 41.70149161
94.66127409 -2.461374788e-05 71.46095961
-273.0952349 -2.461374788e-05 70.19982861
7.493843093 -2.461374788e-05 176.3756996
-186.7193339 -2.461374788e-05 134.6798216
-134.0924549 -2.461374788e-05 141.7000846
289.949722 -41.35877761 -9.738633798e-05
-208.5483229 -2.461374788e-05 97.17521061
-312.5000029 -40.27324261 152.1693256
-313.7594299 1.074110386 227.3197916
50.81362809 -2.461374788e-05 14.78795561
-23.30674591 -2.461374788e-05 119.4924716
-312.5000029 -52.41866961 190.3245826
-196.3626839 -2.461374788e-05 76.39748261
-312.5000029 -15.18002661 183.6036476
-112.3988629 -2.461374788e-05 191.4594316
-212.2449419 -2.461374788e-05 171.4726706
228.9590939 -50.62924761 -9.738633798e-05
-150.9810419 -2.461374788e-05 108.0607276
-107.3542519 -2.461374788e-05 87.45387061
-253.6702199 -2.461374788e-05 152.3355116
30.39281009 -6.601667614 -9.738633798e-05
190.4507417 -25.75122661 -9.738633798e-05
-25.70665791 -2.461374788e-05 190.2737116
286.9904902 -2.461374788e-05 70.85969861
156.8915179 -2.461374788e-05 39.08920961
-9.770280907 -2.461374788e-05 69.28385461
-316.6341349 -2.461374788e-05 90.30044661
-325.8159699 -49.69164461 233.9999026
-257.6132619 -2.461374788e-05 124.2856586
41.73616009 -24.63503461 -9.738633798e-05
75.97261909 -2.461374788e-05 0.06656661366
-312.5000029 -57.99142761 217.8108196
231.4125669 -2.461374788e-05 98.06103761
-312.8570019 -12.38236261 224.8306356
-138.4672719 -2.461374788e-05 107.1948296
256.9836755 -0.1364056137 -9.738633798e-05
-313.6334879 -32.75435061 98.41375761
-308.5276479 -2.461374788e-05 78.72772161
-161.0774299 -2.461374788e-05 128.3227336
42.24974809 -2.461374788e-05 87.75845061
-130.9951499 -2.461374788e-05 55.22270961
-300.5857109 -2.461374788e-05 33.62487661
-254.9291789 -2.461374788e-05 31.31090861
-170.4328209 -2.461374788e-05 122.0743806
302.3009455 -2.461374788e-05 24.74151161
111.7500578 2.217085386 22.85261661
-68.88444191 -2.461374788e-05 51.13783661
-231.9834629 -2.461374788e-05 171.8460346
-320.6307599 -2.461374788e-05 46.83902961
9.582595093 -5.493686614 -9.738633798e-05
-312.5000029 -19.91187861 164.8467826
-245.0231039 1.459373386 -9.738633798e-05
-275.6562859 -53.15255961 -9.738633798e-05
22.62744609 -2.461374788e-05 12.50885361
184.6540762 -2.461374788e-05 107.8069916
-99.04988591 -28.89000661 -9.738633798e-05
-111.2854679 -13.73251161 -9.738633798e-05
220.0091408 -2.461374788e-05 114.3956836
-98.03556591 -2.461374788e-05 99.91111661
-28.75919791 -2.461374788e-05 47.02357761
-144.9216819 -2.461374788e-05 10.62598061
-149.7354889 -2.461374788e-05 31.03681861
-53.16971991 -9.197958614 -9.738633798e-05
-324.5409899 -2.461374788e-05 59.87630861
145.8721809 -13.10335861 -9.738633798e-05
-223.2073299 1.797163386 -9.738633798e-05
-324.4924289 -64.15423561 -9.738633798e-05
-144.3951809 -2.461374788e-05 157.1396986
167.7639983 -2.461374788e-05 91.98290061
-204.4305209 -2.461374788e-05 194.1573726
-95.32552391 -2.461374788e-05 136.8964896
-194.0342849 -31.50933761 -9.738633798e-05
-21.25855491 -2.461374788e-05 91.58071661
263.5689185 -30.21119961 -9.738633798e-05
-318.5000029 -38.44127961 200.0919526
-38.91707791 -33.62415261 -9.738633798e-05
-30.46313191 -48.55538361 -9.738633798e-05
-41.45118491 -10.09225061 -9.738633798e-05
-112.2820739 -66.78447461 -9.738633798e-05
-294.6439889 -2.461374788e-05 187.3739256
101.6836481 -2.461374788e-05 92.78482561
-36.25839991 -2.461374788e-05 28.53371061
-238.4048749 -2.461374788e-05 113.2369966
50.79772809 -2.461374788e-05 76.12591961
2.653047093 -2.461374788e-05 67.02597461
191.7111309 -2.461374788e-05 93.16183861
-236.2188169 -55.58967161 -9.738633798e-05
-14.06999391 -2.461374788e-05 113.8818116
275.8998303 -2.461374788e-05 50.51669361
-177.0217629 -2.461374788e-05 145.3047286
-173.5287219 -2.461374788e-05 7.898222614
160.6009974 -2.461374788e-05 26.83743561
-59.15274791 -2.461374788e-05 21.45881861
-312.5000029 -10.10119761 150.7808936
232.199942 -18.44388861 -9.738633798e-05
-251.3151469 -26.36750161 -9.738633798e-05
111.7500578 1.696306386 74.98228061
97.73801509 -2.461374788e-05 123.9886956
-187.3213549 -2.461374788e-05 159.3642236
304.8259131 -2.461374788e-05 48.79245961
135.2264397 -2.461374788e-05 84.78144361
122.219295 -7.447214614 -9.738633798e-05
-318.5000029 -11.74635461 172.8300256
-331.7867819 -2.461374788e-05 125.9990596
9.030803093 -2.461374788e-05 96.47629661
-318.5000029 -8.110853614 199.5714816
298.0311596 -2.461374788e-05 83.25122861
-18.69259391 -25.05089461 -9.738633798e-05
-129.5361569 -2.461374788e-05 180.3299796
-95.17835291 -2.461374788e-05 119.3711676
45.62535409 -2.461374788e-05 55.89686261
-244.2963379 -2.461374788e-05 16.31510661
-40.52872691 -2.461374788e-05 165.2893096
21.08930409 -2.461374788e-05 57.42096061
-231.6725679 -2.461374788e-05 67.44123061
-312.5000029 -20.79657761 26.52075761
-98.24731491 -2.461374788e-05 81.54404061
-274.5879499 -2.461374788e-05 159.9281586
-318.5000029 -21.13475061 104.2192546
-130.2747309 -2.461374788e-05 40.54796961
-318.5000029 -57.18338361 154.9348406
205.3677983 -2.461374788e-05 105.6340886
-199.5804529 -2.461374788e-05 102.6536186
-312.5000029 -44.33517261 115.5430766
-281.3123169 -2.461374788e-05 104.2130646
-312.5000029 -10.09617561 111.8454416
198.9175058 -2.461374788e-05 60.88682861
-116.9700049 -2.461374788e-05 38.74438261
100.0116581 -12.09477061 -9.738633798e-05
-151.6099329 -2.461374788e-05 51.79238561
-167.4201269 -2.461374788e-05 33.67766761
-39.61170691 -2.461374788e-05 53.23163361
-90.00765591 -2.461374788e-05 44.98998961
-168.5408849 -59.44484361 -9.738633798e-05
232.65236 -2.461374788e-05 7.797927614
14.74573609 -66.18999961 -9.738633798e-05
169.2478054 -25.86640861 -9.738633798e-05
8.533251093 -2.461374788e-05 28.08699661
151.7346688 -2.461374788e-05 125.9940086
136.7500578 1.006178386 27.16942661
-161.1691189 -2.461374788e-05 110.7134136
124.8358503 -2.461374788e-05 130.9473106
-275.6250159 -2.461374788e-05 16.05825761
62.74169109 -57.27973861 -9.738633798e-05
14.10600809 -2.461374788e-05 107.2980336
-318.5000029 -59.67967861 176.2181396
282.3288079 -2.461374788e-05 113.7650656
-266.5936499 -2.461374788e-05 35.20898161
-310.0865109 -2.461374788e-05 99.78696461
-117.5982059 -2.461374788e-05 112.6654406
87.70184809 1.806447386 137.7966636
-102.0804339 0.6352643863 -9.738633798e-05
211.7305234 -2.461374788e-05 81.59048861
-296.1117339 -12.80462561 -9.738633798e-05
161.8697341 -58.08059061 -9.738633798e-05
295.6627694 -2.461374788e-05 0.7026726137
-318.5000029 -48.08775161 171.3521536
-14.42580891 -2.461374788e-05 57.18358861
-325.1806919 -57.90531861 227.9999026
-112.0226359 -2.461374788e-05 60.48473361
217.4507204 -8.490941614 -9.738633798e-05
-106.1412679 -2.461374788e-05 199.4677246
194.6752541 -60.26290761 -9.738633798e-05
-78.69332291 -2.461374788e-05 25.43541561
101.4576791 -2.461374788e-05 113.4134896
302.0011153 -19.21332361 -9.738633798e-05
-296.4036359 -2.461374788e-05 61.90503561
132.3576237 -25.46002861 -9.738633798e-05
-312.5000029 -30.35026561 184.4767076
-55.53436391 -2.461374788e-05 185.8322886
-282.6565189 -2.461374788e-05 148.6130616
-34.30033191 -2.461374788e-05 70.13153161
-109.1283689 -28.63440661 -9.738633798e-05
-61.46184691 -2.461374788e-05 105.2255046
-309.0049439 -58.75745161 -9.738633798e-05
-318.5000029 -67.52990761 133.2026326
-291.0608369 -2.461374788e-05 133.6407056
-320.5252919 -2.461374788e-05 35.25308361
-316.7252069 -63.59142661 113.1738316
-261.2042299 -2.461374788e-05 111.0615606
-312.5000029 -22.18453161 212.4046206
-75.08284791 -2.461374788e-05 147.2404226
-122.3463769 -2.461374788e-05 92.57743561
-80.73048791 -22.51665361 -9.738633798e-05
-312.5000029 -27.81850861 127.1140566
-81.18166891 -2.461374788e-05 0.3335516137
241.4424407 -2.461374788e-05 0.06561461366
-11.48783391 -2.461374788e-05 182.7003166
-262.8469449 -2.461374788e-05 92.41240461
66.93699509 -8.682778614 -9.738633798e-05
-204.6995999 -2.461374788e-05 144.3850116
256.6664048 -2.461374788e-05 92.61045061
-295.8585529 -2.461374788e-05 80.48097461
-274.7342109 -2.461374788e-05 173.7766776
-31.02373991 -2.461374788e-05 144.3928686
-212.1437389 -2.461374788e-05 70.07309561
-213.2529219 2.392939386 28.64183161
-199.1170699 -2.461374788e-05 154.0973886
-276.1405429 -2.461374788e-05 197.0783256
81.66548209 -2.461374788e-05 89.84987461
-318.5000029 -16.72985961 191.4373636
-40.69085391 -2.461374788e-05 81.38152261
-326.4844319 -2.461374788e-05 197.5667086
-250.7975519 -2.461374788e-05 83.93926861
149.2234649 -2.461374788e-05 86.98636561
84.92739409 -2.461374788e-05 68.72417161
20.77099809 -2.461374788e-05 127.1058056
234.1509201 1.012985386 66.02858061
221.2249744 -57.48730861 -9.738633798e-05
-72.33855091 -56.75897861 -9.738633798e-05
-63.56586491 -2.461374788e-05 61.19470261
-232.5718509 -2.461374788e-05 47.67842161
-190.7193689 -2.461374788e-05 97.77296961
180.8219515 -2.461374788e-05 33.29837961
-165.2188069 -2.461374788e-05 13.45357661
207.2490189 -20.57167161 -9.738633798e-05
-318.5000029 -9.462867614 22.57458361
-58.98052391 -2.461374788e-05 84.82995861
-91.64431691 -14.98328261 -9.738633798e-05
-59.99040391 -2.461374788e-05 167.4638366
-221.2082719 -2.461374788e-05 131.4248706
-47.41399391 2.365963386 -9.738633798e-05
-162.2888129 -2.461374788e-05 189.7330306
-318.5000029 -38.77595761 183.8550676
146.2231556 -32.33296461 -9.738633798e-05
-134.0403429 1.835115386 28.59877961
61.04999709 -2.461374788e-05 122.5091396
-312.5000029 -63.58999461 202.9837016
43.97622909 -2.461374788e-05 145.9023146
-29.70429491 -62.95819961 -9.738633798e-05
-169.6459059 -38.58913761 -9.738633798e-05
192.0002694 -2.461374788e-05 4.539359614
-152.8268099 -2.461374788e-05 185.5379646
75.43076309 -2.461374788e-05 121.4857026
232.6774552 -2.461374788e-05 47.51486961
-268.3746929 -30.03729361 -9.738633798e-05
185.1270737 -2.461374788e-05 82.39267461
99.53952209 -2.461374788e-05 59.39177161
-236.6635619 -2.461374788e-05 10.48088961
-21.17755191 -2.461374788e-05 140.8722066
-312.5000029 -17.74494561 57.26514361
270.1793459 -2.461374788e-05 97.36592561
-318.5000029 -30.40327661 5.586595614
-113.4848399 -2.461374788e-05 136.0540366
122.6357602 -2.461374788e-05 51.11637261
-270.9475029 -2.461374788e-05 115.5463956
-183.0039279 -2.461374788e-05 188.8233766
-318.5000029 -59.39961561 144.4647386
-151.8217099 -2.461374788e-05 90.67512361
293.6040877 -2.461374788e-05 100.0479706
118.7537276 1.768210386 -9.738633798e-05
-40.14070191 -58.88992461 -9.738633798e-05
-257.5704089 -54.81301161 -9.738633798e-05
114.7392073 -61.35139361 -9.738633798e-05
-173.7487869 -2.461374788e-05 101.5342206
-312.5000029 -62.51532461 187.0913966
-179.2788089 2.120610386 -9.738633798e-05
-312.5000029 -8.161001614 92.67440361
109.0308081 -2.461374788e-05 41.37555461
-330.3602479 -21.44284261 227.9999026
-312.5000029 -15.11359661 78.58034161
-293.3519329 -40.73761661 -9.738633798e-05
-310.9107799 -25.35768061 -9.738633798e-05
-254.3856859 -2.461374788e-05 0.02112061366
-318.5000029 -50.91191261 197.5843506
-92.93518491 -2.461374788e-05 193.9645466
-290.1003389 -57.87962461 -9.738633798e-05
150.9759017 -2.461374788e-05 73.66156561
207.9107125 -5.688173614 -9.738633798e-05
-220.5335959 -68.00002461 -0.6610113863
-334.8812549 -2.461374788e-05 80.07839061
-164.0325239 -2.461374788e-05 139.1012506
118.192454 -2.461374788e-05 65.50097461
139.8460275 -2.461374788e-05 35.98817761
-207.0302999 -2.461374788e-05 82.24809261
26.30063109 -2.461374788e-05 21.15864161
9.762968093 -2.461374788e-05 162.1933236
2.680702093 -2.461374788e-05 132.6500716
-234.6582289 -2.461374788e-05 185.2499516
-93.10639991 -2.461374788e-05 13.25504061
-318.5000029 -50.80530161 112.4455696
-331.8315219 -61.53504061 233.9999026
-312.5000029 -1.202647614 194.5570516
-99.43709391 -2.461374788e-05 177.2986846
213.7715009 -50.27096361 -9.738633798e-05
2.135156093 -2.461374788e-05 89.95780261
-276.9912739 -64.20988961 -9.738633798e-05
-49.15561791 -2.461374788e-05 196.1733176
-300.7417169 -2.461374788e-05 20.44850661
-318.5000029 -22.83718061 205.0448716
-48.42466091 -2.461374788e-05 56.15864661
-312.5000029 -13.01503161 129.9722156
262.6827919 -68.00002461 -0.02644038634
276.3172163 -17.96163061 -9.738633798e-05
43.24345809 -15.48758461 -9.738633798e-05
-143.8013949 -2.461374788e-05 134.4765466
-319.1384239 -47.61495761 224.5307506
-218.7486889 0.2964653863 39.79110461
80.30240009 -8.691460614 -9.738633798e-05
-300.8532419 -2.461374788e-05 141.4109526
44.23784009 -2.461374788e-05 6.666764614
-230.6716309 -2.461374788e-05 130.4457806
-76.09002291 -2.461374788e-05 41.45995961
62.94196409 -39.20581461 -9.738633798e-05
-312.5000029 -7.475283614 208.6859736
-243.0387249 -44.97959061 -9.738633798e-05
-245.2309219 -2.461374788e-05 186.6767756
-13.72593491 -2.461374788e-05 38.60993661
-312.5000029 -36.81179861 160.7733816
-93.50829691 -2.461374788e-05 169.4280126
132.504373 -2.461374788e-05 53.46742161
-102.2121139 -8.546220614 -9.738633798e-05
-26.81972891 0.5450323863 -9.738633798e-05
-211.7713209 -2.461374788e-05 9.152711614
287.8226151 -2.461374788e-05 43.78499661
276.8369983 -2.461374788e-05 24.22727361
280.1911968 -2.461374788e-05 64.75432161
-49.64832791 -2.461374788e-05 75.20303061
-281.1474839 -2.461374788e-05 167.0316226
-64.01886291 -2.461374788e-05 7.314632614
-51.20228991 -2.461374788e-05 102.1890396
215.6959317 -2.461374788e-05 8.939772614
113.272114 -2.461374788e-05 135.7630476
48.47409809 -2.461374788e-05 65.16987161
-327.5073779 -2.461374788e-05 7.385167614
-318.5000029 -1.886921614 68.00790861
-318.5000029 -18.72375761 150.8840806
-324.9702819 -2.461374788e-05 86.10934161
-164.8688219 -7.951348614 -9.738633798e-05
141.8284725 -58.97798361 -9.738633798e-05
-312.5000029 -50.09265561 159.7027936
-318.5000029 -50.26662161 127.0538516
152.3348542 0.5393433863 -9.738633798e-05
-98.99587491 -38.83323561 -9.738633798e-05
-318.5000029 -36.03875061 16.24177761
6.004278093 -52.96086361 -9.738633798e-05
192.9410994 -46.06301361 -9.738633798e-05
-67.78000191 -2.461374788e-05 195.9139906
-81.83860191 -2.461374788e-05 119.1089606
-235.1107049 -2.461374788e-05 29.00150161
-168.7950639 -2.461374788e-05 24.74190661
-242.9955299 -2.461374788e-05 46.30590161
30.78420309 -49.58580261 -9.738633798e-05
-312.5000029 -23.57868961 9.510645614
-9.863437907 -23.18019361 -9.738633798e-05
-198.1161689 -55.23922661 -9.738633798e-05
273.3134916 -2.461374788e-05 113.4936266
106.3659111 0.9180383863 85.15493261
-325.3486219 -2.461374788e-05 188.6403836
39.58756509 -2.461374788e-05 122.4420716
120.8722434 -2.461374788e-05 33.88050461
-317.4035599 -23.29762861 231.6241456
-52.01124991 -63.13548861 -9.738633798e-05
-308.6414579 -2.461374788e-05 155.9466426
-137.0946129 -2.461374788e-05 61.82353761
-312.5000029 -63.93569661 170.4377466
-228.7670359 -60.55969261 -9.738633798e-05
106.6497761 -28.72525961 -9.738633798e-05
66.75283209 0.2577653863 -9.738633798e-05
-312.5000029 -23.93073661 63.72283961
242.1017592 -2.461374788e-05 116.5821726
18.08085909 -24.18884461 -9.738633798e-05
79.84825909 -66.48966161 -9.738633798e-05
192.4893989 -2.461374788e-05 54.69730761
-193.8197129 -2.461374788e-05 55.38642261
49.26346209 -7.871662614 -9.738633798e-05
-328.6545399 -10.75883261 233.9999026
-280.3980069 -19.31380761 -9.738633798e-05
-318.5000029 -20.00077661 140.9674686
-121.1561749 -2.461374788e-05 164.3284736
-280.3384859 -2.461374788e-05 113.0540856
-138.7022859 -68.00002461 -1.329300386
191.5954359 -2.461374788e-05 119.5928266
-76.10040391 -2.461374788e-05 161.4383956
-205.2468359 -2.461374788e-05 25.69786161
0.9568010934 -2.461374788e-05 148.8419236
-279.8350019 -2.461374788e-05 45.14613461
273.7934189 -37.02801761 -9.738633798e-05
-210.9089699 -29.69382061 -9.738633798e-05
129.5937425 -39.81280961 -9.738633798e-05
-293.2106149 -2.461374788e-05 89.24606861
166.5362935 -2.461374788e-05 80.02931961
-335.1756579 -2.461374788e-05 188.7880246
-327.8046469 -11.15134561 -9.738633798e-05
-312.5000029 -35.30695361 114.5846826
-137.6501859 -10.88214361 -9.738633798e-05
-69.37766991 -10.54476861 -9.738633798e-05
-312.5000029 -6.175001614 136.3623776
-25.64959891 -2.461374788e-05 170.0072586
137.2758298 -4.807259614 -9.738633798e-05
283.3305397 0.1240703863 122.5131506
13.29158009 -2.461374788e-05 76.83112161
-199.4655839 -2.461374788e-05 177.1214806
-312.5000029 -31.04287661 139.4730716
-318.5000029 -23.81893461 218.6132446
-90.60040991 -2.461374788e-05 54.72161961
52.73450009 -2.461374788e-05 106.8249216
251.4863228 -2.461374788e-05 76.37641761
-43.78035591 -2.461374788e-05 13.92734161
-36.27582491 -2.461374788e-05 93.72980561
94.62208509 -5.196314614 -9.738633798e-05
195.456047 -2.461374788e-05 25.98200061
-200.7916609 1.000306386 -9.738633798e-05
-321.4313279 -2.461374788e-05 164.2015696
251.782755 -2.461374788e-05 55.00711961
266.076044 -2.461374788e-05 89.66262961
-67.88075591 -2.461374788e-05 142.3148856
285.2463537 -2.461374788e-05 92.61694761
-14.24984691 -14.35810261 -9.738633798e-05
177.7480785 -2.461374788e-05 57.10827561
25.26432809 -2.461374788e-05 109.8098356
-312.5000029 -6.460590614 48.29026761
-271.5112119 -21.54124761 -9.738633798e-05
-305.0416009 -2.461374788e-05 62.94258961
50.76967909 -2.461374788e-05 85.99808861
251.3341208 -46.15038261 -9.738633798e-05
-85.61089891 -54.49448961 -9.738633798e-05
96.37604709 -39.63786261 -9.738633798e-05
132.6435477 -2.461374788e-05 106.3805436
-181.5758599 -2.461374788e-05 105.2362306
-280.7340139 -2.461374788e-05 23.04776161
-314.7196889 -2.461374788e-05 7.079651614
-259.6258679 -2.461374788e-05 74.08221661
-242.9886539 -24.01809761 -9.738633798e-05
-292.3113109 -2.461374788e-05 13.99976061
-5.033803907 -2.461374788e-05 53.46054161
-208.1403539 -2.461374788e-05 117.9604306
-22.61540791 -2.461374788e-05 154.0845046
31.83545709 -2.461374788e-05 27.87044261
200.1600004 -2.461374788e-05 9.784347614
-146.7782209 -52.61973961 -9.738633798e-05
3.767132093 -33.88569261 -9.738633798e-05
-21.49605991 -2.461374788e-05 42.34807861
-312.5000029 -42.27026961 168.0451076
0.7588290934 -2.461374788e-05 169.2072606
115.037888 -2.461374788e-05 56.23584861
-7.994358907 -2.461374788e-05 156.9313456
-244.6262339 -68.00002461 -0.9688123863
229.4339828 -9.814951614 -9.738633798e-05
315.5000578 -42.29901061 -0.4088533863
-312.5363559 -35.01636161 0.9999026137
-47.04392791 -42.19883061 -9.738633798e-05
-318.5000029 -7.098920614 221.0829106
205.5801448 -2.461374788e-05 126.2428766
118.2637995 -2.461374788e-05 15.77070961
-117.4531749 -2.461374788e-05 85.54513761
13.00772209 -2.461374788e-05 194.5907556
111.6513408 -46.21141161 -9.738633798e-05
-259.5330749 -2.461374788e-05 183.3061076
-160.0262759 -2.461374788e-05 50.25489361
-117.6079459 -41.59335461 -9.738633798e-05
-241.6808999 -2.461374788e-05 94.89911661
-128.9445709 -46.47820061 -9.738633798e-05
-155.5337509 -2.461374788e-05 147.3059006
-318.5000029 -40.39595261 110.9397336
170.7726459 -2.461374788e-05 109.0291886
237.5429601 -46.35637061 -9.738633798e-05
-312.5000029 -27.92495861 172.5170026
-214.6797999 -49.29020061 -9.738633798e-05
307.2140425 -2.461374788e-05 62.99994061
-230.4465859 -19.64347261 -9.738633798e-05
-318.5000029 -29.66606461 133.6277336
-167.5023259 -2.461374788e-05 44.84509761
62.64561409 -16.94911461 -9.738633798e-05
-120.9078219 -2.461374788e-05 104.8518796
-318.5000029 -33.06674961 213.7473526
-269.0034119 -2.461374788e-05 55.79113761
-210.4147909 -2.461374788e-05 161.6012686
270.5980545 -2.461374788e-05 31.42812461
-312.5000029 -44.40270861 204.3982056
-336.8886739 -2.461374788e-05 35.06492961
-312.5000029 -31.84890061 152.8867576
-97.05439691 -2.461374788e-05 154.9503916
-329.4259929 -2.461374788e-05 21.38681461
29.65486509 -2.461374788e-05 102.4118866
128.1735276 2.483185386 15.29666561
-58.79255791 2.039881386 -9.738633798e-05
-262.1858189 -2.461374788e-05 146.0468716
-316.0947129 -13.10695061 8.025567614
-86.08267891 -2.461374788e-05 8.591551614
26.78090109 -2.461374788e-05 44.24538961
-124.8802419 -2.461374788e-05 122.2711776
-329.8795289 -2.461374788e-05 107.5831576
269.6333177 -24.36951761 -9.738633798e-05
11.13294909 -14.23060161 -9.738633798e-05
-315.1792649 -37.93967761 229.5430556
-318.5000029 -57.79715161 203.9861196
-192.0847539 -2.461374788e-05 170.7134696
-318.5000029 -48.33969061 215.5015696
69.22920209 -2.461374788e-05 137.9300736
26.08161009 -2.461374788e-05 172.5400486
-312.5000029 -38.07981761 130.4481226
-248.8670339 -2.461374788e-05 37.10561261
-193.2313649 -2.461374788e-05 84.17248961
-312.5000029 -9.000777614 167.6617656
-69.60659591 -2.461374788e-05 178.4282646
-30.66535391 -11.56180161 -9.738633798e-05
122.6127379 -22.82286461 -9.738633798e-05
175.1996124 -5.400364614 -9.738633798e-05
-144.1025179 -2.461374788e-05 118.4908636
234.4352852 1.777288386 16.26720361
88.65107309 -2.461374788e-05 129.2867306
-240.0821059 -2.461374788e-05 138.0325296
-299.6950499 -22.13418461 -9.738633798e-05
106.7708031 -17.99442061 -9.738633798e-05
-159.7674439 -2.461374788e-05 174.2474486
47.23443209 -2.461374788e-05 175.2926126
-157.3668579 -2.461374788e-05 76.93740961
-314.4377809 -2.461374788e-05 123.0275986
31.69456609 -2.461374788e-05 8.074342614
-227.1741899 -2.461374788e-05 74.43819861
-76.13116891 -2.461374788e-05 187.5436946
315.1334146 -2.461374788e-05 59.61197561
-151.3038079 -39.78220261 -9.738633798e-05
-318.5575949 -35.49069961 222.3635016
-275.9336789 -2.461374788e-05 62.39884761
-275.0992069 -39.90019861 -9.738633798e-05
208.22797 -2.461374788e-05 57.08436861
-23.34775791 -2.461374788e-05 25.01906361
-317.9955089 -4.795783614 -9.738633798e-05
-318.5000029 -14.44188861 120.1515896
164.5742607 -2.461374788e-05 34.09355761
-28.79089491 -2.461374788e-05 126.4701526
-323.8859529 -2.461374788e-05 179.4716766
306.2670812 -2.461374788e-05 73.40667661
24.01931009 -2.461374788e-05 134.7024766
-89.26830691 -2.461374788e-05 25.93682461
72.77647009 -2.461374788e-05 28.69966961
-12.54131391 -2.461374788e-05 81.66285661
-279.5044009 -2.461374788e-05 183.0089006
-318.5000029 -54.31356561 136.8358216
-141.8873259 -26.28827761 -9.738633798e-05
-329.8300909 -2.461374788e-05 216.1750926
-312.5000029 -16.19849061 37.26543261
188.0468827 -2.461374788e-05 14.51187861
-317.9660529 -63.84822061 231.9776126
-126.7064999 -2.461374788e-05 31.82647361
194.2103513 -2.461374788e-05 74.59578461
-251.7476499 -2.461374788e-05 133.4695776
-129.6917359 2.020712386 199.9999026
-318.5000029 -44.78929261 143.1440436
15.26226209 -2.461374788e-05 63.19727961
-139.1990929 -2.461374788e-05 150.7920876
270.2103875 -52.57432061 -9.738633798e-05
268.5629739 -2.461374788e-05 11.43087561
32.45833209 -2.461374788e-05 191.6713726
-8.711627907 -2.461374788e-05 198.0570376
-123.1968249 -2.461374788e-05 150.6123266
4.565408093 -2.461374788e-05 6.849474614
298.9574541 -46.37146161 -9.738633798e-05
-318.5000029 -49.13989061 153.0003766
-329.4163259 -35.02177161 233.9999026
-318.5000029 -61.61064861 120.8722066
308.1559018 -1.332618614 -9.738633798e-05
2.316622093 -2.461374788e-05 34.21363761
-260.9273189 -2.461374788e-05 7.953328614
-318.5000029 -9.156841614 40.32814261
-325.1033819 -2.461374788e-05 120.2436656
132.2190807 -58.04045761 -9.738633798e-05
-149.8438509 -2.461374788e-05 21.32552561
79.90122609 -30.06941261 -9.738633798e-05
-312.5215859 -68.00002461 162.1870046
122.1335313 -2.461374788e-05 93.65275261
216.5130908 -2.461374788e-05 72.79610661
-327.9178659 -47.32616361 -9.738633798e-05
-223.3151429 -30.01325861 -9.738633798e-05
136.0012609 -2.461374788e-05 7.764752614
222.9186358 -2.461374788e-05 24.41027561
-312.5000029 -56.31958761 164.8361996
-84.82900991 -2.461374788e-05 149.9787896
-312.5000029 -20.74464261 155.8733156
-221.7117729 -2.461374788e-05 108.3017366
-182.8279039 -14.08311061 -9.738633798e-05
287.5928684 -2.461374788e-05 61.57806261
-218.4986169 -2.461374788e-05 75.02024661
217.9122551 -2.461374788e-05 17.63215961
-215.0236729 -2.461374788e-05 47.31538261
302.7395658 -2.461374788e-05 119.4810826
10.85521309 -2.461374788e-05 116.7054426
-240.1166239 -2.461374788e-05 121.0932066
108.5093201 1.362008386 15.54517861
299.7436957 -7.322900614 -9.738633798e-05
24.06451409 -58.98872161 -9.738633798e-05
224.7801193 -21.50535261 -9.738633798e-05
197.6956434 -29.19569561 -9.738633798e-05
-0.4227019066 -2.461374788e-05 196.5964396
39.99520109 -2.461374788e-05 106.7614876
-273.0015749 -2.461374788e-05 98.21639361
-49.32221591 -2.461374788e-05 139.0343536
95.54891009 -2.461374788e-05 27.90832961
145.4578707 -2.461374788e-05 7.650070614
-312.5000029 -35.85541561 22.05746561
-323.4994889 -8.937001614 227.8414176
111.4677627 -2.461374788e-05 110.1490526
215.1089616 -2.461374788e-05 61.12364761
-66.40503591 -2.461374788e-05 157.2697166
268.7427089 -2.461374788e-05 43.74094561
163.6439662 -3.453223614 -9.738633798e-05
-318.5000029 -17.23445061 91.19573561
65.46565509 -2.461374788e-05 59.58555961
-212.1949469 -15.26208961 -9.738633798e-05
57.16912909 -2.461374788e-05 149.3457566
-170.1966609 -2.461374788e-05 82.54940561
252.2906659 -2.461374788e-05 100.8274146
34.35251909 -2.461374788e-05 135.8389916
-180.6717259 -2.461374788e-05 11.23463861
-77.05834491 -37.23976461 -9.738633798e-05
-122.3072259 -2.461374788e-05 19.83353861
-150.8153179 -2.461374788e-05 60.65179961
-312.5000029 -57.51424261 197.9944866
-318.5000029 -37.43300461 169.5906756
26.88013209 -2.461374788e-05 67.62335461
-23.54283291 -2.461374788e-05 63.37753161
-318.5000029 -15.36720961 61.72619361
-226.1219309 -2.461374788e-05 184.7319206
-318.5000029 -56.94480061 188.0851986
223.7122019 -2.461374788e-05 95.88994061
-6.384799907 -41.59928561 -9.738633798e-05
-78.11469491 -2.461374788e-05 78.70399161
-93.99864791 -2.461374788e-05 184.1677406
-63.76090291 -59.70243761 -9.738633798e-05
-284.5148879 -2.461374788e-05 140.0726166
178.891376 -2.461374788e-05 92.10231761
-43.65613191 -27.40288161 -9.738633798e-05
-335.7214189 -2.461374788e-05 156.1975686
92.39250009 -25.14218361 -9.738633798e-05
-243.4316239 -2.461374788e-05 154.8450256
-318.5000029 -7.567309614 75.69107661
-65.70729291 -2.461374788e-05 122.1840126
-318.5000029 -31.37521461 177.1179896
95.94161409 -2.461374788e-05 10.75535961
-247.6283749 -2.461374788e-05 73.56135961
-293.1234579 -2.461374788e-05 126.1259766
