# .PCD v0.7 - Point Cloud Data file format
VERSION 0.7
FIELDS x y z
SIZE 4 4 4
TYPE F F F
COUNT 1 1 1
WIDTH 1208
HEIGHT 1
VIEWPOINT 0 0 0 1 0 0 0
POINTS 1208
DATA ascii
-40.25016128 -90.93038569 -17.50781539
-36.25016128 -211.7999899 -130.5923774
-36.20326828 -217.4026635 -148.2964114
-40.25016128 -86.17193694 -169.7302144
-10.25648228 -99.51018091 -9.738629888e-05
-36.25016128 -13.02829417 -95.72305739
37.74983872 -180.0934563 -155.4851914
-40.25016128 -21.08258243 -174.5941154
-6.714980275 -15.77130492 -9.738629888e-05
-4.548039275 -63.20095212 -156.0000974
-40.25016128 -166.2227282 -40.58179639
-40.25016128 -148.9065389 -124.4048854
-22.84839828 -2.498792628e-05 -15.06958739
-36.25016128 -174.48088 -9.412019386
26.48674272 -97.75742046 -152.0000974
-39.66989928 -15.25492228 -9.292614386
-40.25016128 -116.4029895 -38.46065139
-26.39507528 -15.83668977 -152.0000974
19.43629672 -2.498792628e-05 -12.46288039
-5.647710275 -219.0552627 -152.0000974
-15.32177128 -76.89184774 -9.738629888e-05
-40.25016128 -64.73821573 -178.9023584
37.74983872 -91.97810037 0.8586196137
-39.33387028 -17.32827546 -250.0000974
-32.90658728 -137.795604 -0.1234143863
-40.25016128 -100.9662816 -98.15511339
-36.25016128 -155.3421969 -138.3315694
-40.25016128 -72.27389622 -90.77930539
35.95245772 -2.498792628e-05 -110.3556234
-40.25016128 -29.7440966 -146.5791394
24.90973972 -10.76614114 -156.0000974
-31.48541428 -109.1130906 -152.0000974
-39.90848228 -97.67214048 -1.788740386
-40.23423728 -64.07210912 -148.1619274
-36.25016128 -61.23939736 -60.50148839
-15.32699828 -217.7455878 -9.738629888e-05
-40.25016128 -35.00710749 -23.34390639
-40.25016128 -252.0724733 -27.53582939
24.90318772 -2.498792628e-05 -95.07795639
-36.25016128 -177.425191 -107.6173264
-36.25016128 -202.0530363 -105.0897164
-9.902489275 -169.4795316 -156.0000974
17.19538072 -177.5368239 -156.0000974
-25.11884628 -2.498792628e-05 -201.0947784
5.135177725 -190.9144209 -156.0000974
-40.25016128 -41.84795559 1.399719614
-36.25016128 -47.23339554 -71.01674039
29.28581472 -13.5529117 0.5999446137
-36.25016128 -231.4718932 -12.27884239
-40.08021928 -184.9718861 -149.6238894
-36.25016128 -63.81069252 -25.55244539
-40.25016128 -40.48070935 -131.6896834
13.38160672 -155.3991394 -9.738629888e-05
-40.25016128 -25.73281746 -84.44736539
-36.25016128 -245.8300787 -141.6851484
-33.26136828 -52.89185704 -155.8830604
27.61356472 -234.3559867 -9.738629888e-05
37.74983872 -123.4970724 -153.8284684
-6.395261275 -92.42848515 -156.0000974
-19.73120128 -123.4793333 -156.0000974
24.64303772 -148.125475 -156.0000974
-40.25016128 -44.58847508 -41.58022839
4.803723725 -42.7281727 -244.0000974
-14.08621828 -54.90237418 -244.0000974
-40.25016128 -102.8888338 -80.98127339
37.74983872 -202.7386984 1.414256614
-36.25016128 -215.5329393 -52.12103839
-27.84368328 -161.7903154 -156.0000974
-36.25016128 -217.0072675 -81.47874539
-36.25016128 -41.39900145 -106.6302314
-12.83750428 -2.498792628e-05 -192.9076224
-40.25016128 -230.5299462 -109.6755474
-36.25016128 -198.5598939 -125.9190514
-36.25016128 -15.25624625 -141.4587014
31.11187572 -47.85092508 -244.0000974
28.79968572 -67.13640076 -156.0000974
6.957846725 -76.73909431 -156.0000974
-26.63332628 -2.498792628e-05 -134.9188334
-36.25016128 -193.2616306 -64.51146039
-40.25016128 -58.76524432 -131.7484554
-39.65519028 -203.3244203 -1.056311386
23.84760172 -30.07504419 -244.0000974
4.995216725 -243.2591095 -152.0000974
-36.25016128 -194.6029928 -34.16897139
-29.34234828 -2.498792628e-05 -35.35094039
16.75817772 -75.47063338 -9.738629888e-05
28.32847172 1.329325422 -128.4017164
9.975573725 -203.8986389 -9.738629888e-05
7.531676725 -2.498792628e-05 -103.5609764
-5.898909275 -192.3030941 -9.738629888e-05
-24.70400428 -35.32928135 -244.0000974
-0.2768562752 -2.498792628e-05 -80.60154639
-28.38170228 -2.498792628e-05 -74.00390539
-11.12069528 -34.35624319 -152.0000974
39.12665272 -66.91166568 -250.0000974
-9.292310275 -231.8643975 -152.0000974
-19.59670328 -94.12061891 -156.0000974
-36.25016128 -133.6777877 -44.42210339
-32.97838128 -2.498792628e-05 -239.0140264
24.50991372 -9.829559838 -244.0000974
1.253202725 -163.4668739 -152.0000974
32.79751472 -47.27437655 -9.738629888e-05
-23.19377228 -2.498792628e-05 -116.1161354
-40.25016128 -41.12811235 -239.3485654
-36.25016128 -174.2497949 -140.8044854
-4.288168275 -137.1077281 -9.738629888e-05
24.62211472 -33.25667691 -9.738629888e-05
11.58915272 -2.498792628e-05 -202.2075614
-40.25016128 -84.66112075 -146.4720404
18.18191072 -2.498792628e-05 -171.1332544
-20.47437328 -51.40191628 -152.0000974
-36.25016128 -120.4766783 -13.48923239
-40.25016128 -35.18732488 -197.1814174
-34.79336128 -195.3628158 -155.5445784
35.03160072 -155.007428 -152.0000974
-40.25016128 -38.74209922 -223.5316724
-40.25016128 -52.87370009 -209.2380884
15.03935572 -112.4039491 -152.0000974
33.87636172 -2.498792628e-05 -14.36077439
-9.490917275 -65.30725377 -9.738629888e-05
-36.25016128 -126.9942694 -124.8178204
22.24413672 -1.356187428 2.260781614
30.50273472 -21.73421506 -152.0000974
-0.3560752752 -10.82857368 -152.0000974
-3.505845275 -119.1793506 -9.738629888e-05
-0.4571482752 -235.7874429 -9.738629888e-05
5.576175725 -212.7696286 -152.0000974
-14.60914128 -210.6320686 -156.0000974
-6.348192275 -2.498792628e-05 -167.4247024
-40.25016128 -32.32975668 -58.35365239
-36.25016128 -110.3323396 -108.7572034
36.65927472 -2.498792628e-05 -72.13363239
-11.56513828 -180.8122786 -9.738629888e-05
-40.25016128 -77.39275735 -57.48586439
9.066858725 -2.498792628e-05 -3.593387386
43.10067072 -2.498792628e-05 -232.0345184
24.86957772 -35.73162184 -152.0000974
-36.25016128 -218.4923199 -102.2595854
-36.25016128 -187.7648602 -13.07871539
-40.20263428 -0.5000249879 -69.48297039
-40.25016128 -202.2318333 -83.06681539
-40.25016128 -232.7177285 -72.37214739
-40.25016128 -177.6026783 -79.19320039
-9.652994275 -2.498792628e-05 -18.22656639
30.08049372 -173.7171114 -9.738629888e-05
-40.25016128 -7.175513038 -157.3652764
-40.25016128 -147.4159304 -28.82027339
-25.88306728 -39.25912254 -9.738629888e-05
-27.69965328 -2.498792628e-05 -165.5553144
-3.042621275 -36.72006541 -9.738629888e-05
14.81488572 -182.9116342 -9.738629888e-05
-5.716571275 -2.498792628e-05 -91.76503039
-40.25016128 -114.6499039 -145.2350354
-27.05413428 -11.87586547 -250.0000974
-28.41999428 -156.6329802 -9.738629888e-05
14.79041172 -140.8011777 -152.0000974
19.26418772 -221.4046618 -152.0000974
9.700339725 -123.2334586 -9.738629888e-05
-40.25016128 -42.96274247 -152.7014204
5.762672725 -2.498792628e-05 -52.25494239
-31.21930328 -2.498792628e-05 -88.15706339
-40.25016128 -42.97361104 -12.80609539
-40.25016128 -8.788492408 -124.4411684
-36.25016128 -78.90268141 -79.20890539
31.06083072 2.088723302 -244.0000974
-16.05930928 -2.498792628e-05 -239.1687054
13.41832472 -167.5916124 -9.738629888e-05
11.78061372 -31.7721703 -244.0000974
25.56992372 -192.3347152 -9.738629888e-05
-40.25016128 -8.445162868 -183.5540124
-40.25016128 -116.1548236 -26.22375439
11.51953972 -2.498792628e-05 -30.52046739
-40.25016128 -123.4301999 -136.6725424
27.15140772 -149.7227604 -9.738629888e-05
-40.25016128 -206.5148476 -12.98520239
-30.28528228 -179.8629592 -9.738629888e-05
-20.68816428 -2.498792628e-05 -43.80561039
1.011136725 -143.9630538 -156.0000974
36.46218872 -104.4151813 -152.0000974
-40.25016128 -180.9533692 -121.0042394
-36.25016128 -123.3140284 -66.12039939
-40.25016128 -144.3894481 -144.3565564
42.64370972 -25.40664945 -250.0000974
-23.73006228 -74.98329783 -156.0000974
35.08488572 -119.4818592 -9.738629888e-05
-6.193813275 -119.8856686 -156.0000974
-16.34652728 -47.33794947 -9.738629888e-05
-42.38254628 -159.8097945 -119.5501154
-40.25016128 -21.91786846 0.4737826137
-40.25016128 -133.0089562 -9.068330386
42.76297672 -2.498792628e-05 -173.7811124
-30.94447628 -26.41409868 -156.0000974
27.50320772 -2.498792628e-05 -64.28158439
-40.25016128 -230.9342224 -55.08065539
-40.25016128 -5.838393238 -104.0828184
-40.25016128 -238.2925637 -100.8830514
29.84488372 -2.498792628e-05 -153.5666324
16.70534672 -2.498792628e-05 -128.2494084
-36.25016128 -20.92201575 -104.8803924
-36.25016128 -158.7823869 -50.50844239
-40.25016128 -30.99776011 -180.7569274
-40.25016128 -10.96996851 -197.3050114
-1.198019275 -149.351357 -9.738629888e-05
-40.25016128 -132.6493201 -144.7172054
26.35066972 -110.0593075 -9.738629888e-05
-12.17472928 1.430442752 -226.6025304
-30.93429028 -207.8068172 -156.0000974
-40.25016128 -56.90350644 -170.3476514
30.53660972 -207.2369155 -152.0000974
2.275370725 -2.498792628e-05 -209.0960684
-36.25016128 -169.1391999 -20.16745739
-40.25016128 -76.1500979 -155.5430464
-36.25016128 -55.81669778 -35.08061039
8.834828725 -2.498792628e-05 -235.0693144
-36.25016128 -182.0241988 -67.09102239
-36.25016128 -130.7927904 -107.3167694
-33.50940828 -251.8027805 -0.2364473863
-8.640982275 -169.1212187 -9.738629888e-05
40.84910672 -2.498792628e-05 -157.3951154
-36.25016128 -135.1219537 -83.88168239
34.03273972 -2.498792628e-05 -84.86659239
6.780520725 -18.78467414 -156.0000974
-4.277246275 -2.498792628e-05 -30.28121239
-1.476534275 -73.91548419 -9.738629888e-05
32.28810072 -46.44008191 -156.0000974
-18.33700828 -2.498792628e-05 -95.89749139
-40.25016128 -14.0113393 -83.57143039
-40.25016128 -100.601278 -150.0399214
42.79548372 -45.55483423 -250.0000974
-40.25016128 -76.95586988 -176.2408984
3.597024725 -9.301283748 -244.0000974
-4.749135275 -56.88523199 -250.0000974
-40.25016128 -35.5841239 -161.2259334
30.75719172 -2.498792628e-05 -178.8767284
-40.25016128 -119.6474414 -101.6572554
-21.07353428 -135.7425755 -9.738629888e-05
-22.66088228 -2.498792628e-05 -54.86785339
-43.21748728 -75.00104769 -201.9644654
-36.25016128 -154.4251834 -71.49970839
-40.25016128 -70.84941723 -105.1059374
10.02845572 -68.00002403 -249.4689654
-0.05948527523 -224.2146196 -9.738629888e-05
-40.25016128 -50.19605264 -221.2440384
-13.11141828 -110.3063809 -9.738629888e-05
15.01232772 -234.6371078 -152.0000974
-31.16897128 -96.9327946 -156.0000974
-40.25016128 -96.3682689 -125.5625154
-40.25016128 -81.97531002 -8.279988386
-7.806758275 -2.498792628e-05 -179.1084624
-40.25016128 -112.724776 -120.3258244
16.18031872 -162.4110244 -156.0000974
-13.78565128 -2.901428298 -9.738629888e-05
-40.18331728 -57.54967576 -244.0000974
-5.110329275 -103.0241857 -152.0000974
30.55560072 -2.498792628e-05 -49.22476639
-40.25016128 -41.00839042 -185.4855574
-40.25016128 -94.24224469 -54.77066039
11.57119272 -199.5425108 -152.0000974
-36.25016128 -114.5507958 -81.11673139
-40.64153528 -26.48115232 -241.0000974
-40.96089928 -2.498792628e-05 -15.45996339
-38.83342328 -170.5028814 0.5318426137
-33.40464328 -2.498792628e-05 -213.6478064
-25.06089128 -44.56096158 -250.0000974
15.77716672 -104.2424583 -9.738629888e-05
-20.03005928 -252.0311881 -152.0000974
31.51987172 -2.498792628e-05 -213.6633424
-40.25016128 -252.4222283 -62.88001739
21.73168272 -53.78548135 -156.0000974
-36.25016128 -91.09570505 -109.6380134
-40.25016128 -38.61819125 -79.47250539
-5.295099275 0.4643414921 -217.2605234
-20.96160528 -172.0431917 -152.0000974
-36.25016128 -9.137480798 -62.65492939
27.08731172 -175.4452267 -152.0000974
-25.84223428 -151.1051277 -156.0000974
-7.580868275 -30.7378741 -250.0000974
19.32862672 -50.36925988 -244.0000974
-40.25016128 -159.9397892 -14.30282239
-40.25016128 -1.796750418 -45.76610739
21.67780072 -21.28209312 -250.0000974
-36.25016128 -222.0757992 -127.2971584
19.66613372 -89.39806634 -152.0000974
-40.25016128 -61.49030193 -190.0110064
-40.25016128 -108.0909718 -4.544389386
6.810345725 -2.498792628e-05 -165.4490044
-40.25016128 -226.7461031 -31.84027739
-16.31582928 -9.232446798 -156.0000974
-39.87083328 -64.67600663 -1.683401386
17.77071672 -213.4786489 -9.738629888e-05
27.32918872 -251.5774125 -9.738629888e-05
-40.25016128 -54.00893018 -180.6785284
-36.25016128 -141.5761491 -95.43322539
-32.60449328 -51.03779326 -0.0685543863
28.93379372 -245.1654329 -152.0000974
0.9719987248 -2.498792628e-05 -155.9535624
-14.02379628 -89.53056461 -9.738629888e-05
-40.25016128 -75.53198312 -45.38768339
-40.25016128 -29.25093299 -214.6450934
-23.57554628 -187.4746569 -152.0000974
15.18567272 -249.3939029 -9.738629888e-05
-40.25016128 -88.51739994 -96.35137539
34.99590572 -33.02222686 -250.0000974
-16.31042728 -12.48058962 -250.0000974
6.237933725 -44.75041872 -9.738629888e-05
7.846617725 -128.98261 -152.0000974
-36.25016128 -20.43656592 -44.78823739
-19.82964828 -2.498792628e-05 -218.0359764
23.61696672 -139.7924961 -9.738629888e-05
-36.25016128 -229.042271 -144.6296354
-40.25016128 -85.09038364 -135.9533164
-40.25016128 -241.240392 -16.35084239
-41.55382628 -0.5000249879 -194.6527384
-36.25016128 -22.30537614 -74.91621339
20.51734972 -59.86474728 -250.0000974
-36.25016128 -192.1704863 -47.00219039
-35.37179428 -152.301583 -150.3939504
-22.59046728 -122.6591968 -9.738629888e-05
-36.25016128 -106.7431984 -38.61246239
-40.25016128 -56.50705177 -16.73486939
-36.25016128 -153.8422607 -104.3187794
-30.72566328 -2.498792628e-05 -5.241274386
-40.25016128 -10.97373444 -169.1330124
4.507328725 -47.0165037 -156.0000974
-36.25016128 -82.29566106 -66.93537139
31.45402972 -2.498792628e-05 -191.8529344
37.74983872 -240.8229179 -155.4102624
28.87376072 -191.4385819 -156.0000974
-18.11921428 -29.97564357 -250.0000974
-36.54282228 -242.1984547 -124.4229904
-36.25016128 -89.57552622 -75.37508339
-14.72901028 -60.59178033 -152.0000974
-14.13069728 -246.1143655 -9.738629888e-05
-40.25016128 -72.52714153 -128.7812044
-40.67133128 -137.8796326 -24.11623139
9.861569725 -49.42704796 -250.0000974
24.65006472 -2.498792628e-05 -37.88017939
-40.25016128 -12.52416618 -224.8697654
3.994097725 -59.10782292 -152.0000974
-40.25016128 -48.68931911 -81.60071439
37.93050972 -9.098240268 -250.0000974
-36.25016128 -138.632835 -117.9441774
-36.25016128 -28.87030371 -30.45545239
-30.97478628 -58.88426294 -250.0000974
-40.25016128 -104.9934007 -62.63346239
-22.80443528 -2.498792628e-05 -189.0961184
-15.22089328 -63.2182629 -250.0000974
-28.71824928 -131.0490446 -156.0000974
-2.780608275 -73.7989776 -156.0000974
37.74983872 -234.9764827 0.5259156137
-5.963008275 -2.498792628e-05 -114.0031394
-36.25016128 -67.90986748 -78.39923039
-36.25016128 -11.26506488 -17.94942039
-36.25016128 -179.1422075 -18.59646239
-36.25016128 -178.6343388 -56.95194739
-40.19083828 -242.4365808 -3.447060386
-31.30424928 -2.498792628e-05 -64.33571639
-36.25016128 -221.5585534 -10.42562039
29.75702472 -129.3663307 -152.0000974
-40.25016128 -11.88055768 1.164378614
-36.25016128 -63.06669058 -90.75821439
4.068315725 -9.801698258 -9.738629888e-05
-40.25016128 -59.73753239 -120.8225154
-40.25016128 -154.4946418 -83.97327539
-36.25016128 -241.8593677 -39.38284639
28.31590772 -58.06587869 -244.0000974
-40.25016128 -202.2329501 -29.09482139
-36.25016128 -48.62235374 -127.5328854
-40.25016128 -146.3050363 -52.79768139
-40.25016128 -157.3500468 -34.78342239
7.875745725 -98.18806513 -9.738629888e-05
-12.30961728 -145.0041847 -152.0000974
6.575472725 -119.9976119 -156.0000974
17.68509972 -2.498792628e-05 -210.0182134
11.80045972 -2.498792628e-05 -80.43520439
-40.25016128 -93.66517188 -43.40229739
-40.25016128 -193.2299945 -103.1421224
12.32841072 -2.498792628e-05 -146.4969154
-34.50330828 -34.41377058 -244.0000974
-19.89891928 -23.20376984 -152.0000974
-6.293855275 -192.1364522 -156.0000974
-40.25016128 -169.413704 -103.5913394
3.727508725 -2.498792628e-05 -223.8903184
-40.25016128 -124.6181864 -88.69612539
-36.25016128 -218.7487218 -92.00030739
-1.589635275 -152.4872168 -152.0000974
-36.25016128 -135.6774807 -68.84062239
-34.10109528 -25.55437395 -250.0000974
-40.25016128 -66.60824478 -33.98891639
-41.95725928 -18.9551252 -34.23429539
-36.25016128 -167.3554163 -55.13924139
-40.25016128 -55.77642102 -49.61558939
-36.25016128 -138.7410057 -32.71985439
-40.82957028 -108.491881 -155.8882134
-40.25016128 -86.74324426 -160.0556864
-40.08677628 -241.7660674 -149.6022454
-34.50805628 -173.0852401 -151.2301514
-36.25016128 -87.57078959 -36.16052139
-40.25016128 -230.0649962 -21.46940439
-27.20354428 -197.8317843 -9.738629888e-05
-40.25016128 -44.46227792 -199.6995274
-40.25016128 -9.411570418 -53.93174939
-36.25016128 -39.59809914 -34.43344039
20.24983872 2.197328372 -104.6443564
30.92233672 -2.498792628e-05 -143.4626384
-40.25016128 -192.627522 -142.9084704
-36.25016128 -25.26547069 -18.37927639
-37.81458628 -89.04221039 1.732135614
-40.25016128 -105.4000901 -137.1844634
7.203609725 -87.74289938 -9.738629888e-05
-24.78594228 -2.498792628e-05 -26.55591439
-40.25016128 -88.75501845 -178.9096154
-13.47252828 -2.498792628e-05 -9.038728386
9.266895725 -2.498792628e-05 -69.27859039
22.36241472 -156.4282887 -152.0000974
29.78781672 -2.498792628e-05 -117.5590884
23.17609472 -201.2614192 -152.0000974
-40.25016128 -43.6267344 -119.0091024
-40.25016128 -56.76340073 -108.8787924
33.91967472 -75.0869082 -156.0000974
11.77592572 -2.498792628e-05 -136.8127094
-19.41088728 -159.390703 -9.738629888e-05
-40.25016128 -62.29942542 -68.96171539
-31.18081328 -2.498792628e-05 -143.1603554
-36.25016128 -34.29930716 -49.83541839
-36.25016128 -201.2045172 -95.71692539
-35.80938428 -21.35313216 -149.7346504
-40.25016128 -66.82932249 -138.0724724
-40.25016128 -50.42569295 -100.8698074
6.300228725 -55.94294931 -9.738629888e-05
-40.25016128 -170.4170447 -113.3990374
-40.25016128 -126.8617073 -39.37173239
-36.25016128 -233.6935997 -63.09809639
-40.25016128 -89.03137305 -27.60472239
-32.32856428 -127.9443597 -0.009215386299
-36.25016128 -53.28674276 -88.98886739
-40.25016128 -99.9861783 -19.77971739
6.427439725 -212.5258331 -9.738629888e-05
0.6401477248 -2.498792628e-05 -127.7604444
-39.31843528 -206.3548204 -151.6733884
24.66026672 -122.6790517 -156.0000974
-40.25016128 -58.4168197 -158.5346174
-21.37044628 -145.0309893 -9.738629888e-05
-36.25016128 -210.7177415 -108.3992574
-40.25016128 -45.45791701 -161.6320574
-40.25016128 -73.39994557 -146.6921024
36.23528172 -151.5057555 -9.738629888e-05
26.36717972 -24.17142611 -9.738629888e-05
-34.97163128 -7.526043398 -244.0000974
-40.25016128 -28.44786022 -108.4586774
21.19970172 -2.173510448 -156.0000974
-40.25016128 -40.41193801 -62.82274739
-8.604553275 -136.0131754 -152.0000974
-15.69319728 -17.83751058 -9.738629888e-05
-30.37846628 -219.8640764 -156.0000974
-40.25016128 -213.1735195 -29.80951639
-31.19010628 -118.0727979 -9.738629888e-05
-36.25016128 -161.6095785 -64.68298539
-40.25016128 -241.1492959 -82.67586539
-1.831390275 -50.57287101 -244.0000974
-26.72635928 -82.49067508 -9.738629888e-05
-36.25016128 -147.4010152 -6.717661386
-36.25016128 -150.8180441 -18.73798039
-42.20242628 -181.7286895 -87.13857939
9.506537725 -182.8645474 -156.0000974
9.580499725 -171.5220131 -152.0000974
-36.25016128 -106.9612043 -89.63487039
-40.25016128 -110.9429635 -45.80764739
34.56623072 -194.2774723 -9.738629888e-05
-36.25016128 -144.9285118 -136.1446114
-40.25016128 -129.9151631 -51.80302439
-1.404578275 -185.3966815 -152.0000974
8.918885725 -2.983719468 -250.0000974
-36.25016128 -16.11548089 -128.1543954
-40.25016128 -109.9382846 -99.86181239
-36.25016128 -111.4083231 -54.96493939
-17.88984828 -41.89455632 -156.0000974
-40.25016128 -241.6594738 -92.40971339
-19.67874228 -2.498792628e-05 -151.2572214
-40.25016128 -53.5767316 -63.35295539
0.9210097248 0.8384009721 -244.0000974
6.248875725 -247.7031788 -9.738629888e-05
1.479413725 -62.71543028 -244.0000974
-36.51419728 -236.4152354 -115.5000974
35.41817572 -2.498792628e-05 -227.1935754
-27.59287228 -236.268046 -152.0000974
-40.25016128 -61.35574763 -232.5666704
-14.04614528 -19.72863469 -244.0000974
-40.25016128 -252.4332228 -50.37280239
-40.25016128 -188.2347556 -39.88633039
-40.25016128 -226.5117281 -100.9400854
-40.25016128 -150.4065426 -111.6833534
-40.25016128 -69.69689771 -193.8429274
-40.25016128 -14.60452107 -216.0567104
-11.41921228 -6.091798628 -244.0000974
-40.25016128 -207.8538226 -56.95016139
-31.85724628 -67.39300179 -156.0000974
-40.25016128 -228.2058158 -81.02031439
-40.25016128 -36.14397434 -91.71444839
34.46236672 -214.3257651 -156.0000974
32.76145472 -2.498792628e-05 -26.97176939
11.95671672 -22.76623287 -244.0000974
-11.71866128 -70.51647812 -152.0000974
17.46373872 -38.70594673 -9.738629888e-05
33.49884972 -26.51180147 -244.0000974
15.31977072 -9.456239098 -152.0000974
13.69740172 -53.90148152 -152.0000974
25.76472172 -93.17701433 -9.738629888e-05
-40.25016128 -107.2175972 -25.49408139
14.18958172 -32.84505343 -156.0000974
3.037724725 -191.6069414 -9.738629888e-05
-5.003382275 -2.498792628e-05 -187.7320074
11.24527672 -112.9467264 -9.738629888e-05
19.38977272 -60.71893412 -9.738629888e-05
-40.25016128 -20.97951873 -95.53755239
-36.25016128 -194.0825739 -6.807228386
-40.25016128 -64.75940163 -12.20741839
-36.25016128 -82.98189936 -115.5314924
-36.25016128 -191.0293433 -55.89794639
-27.19984228 -2.498792628e-05 -181.3660724
-40.25016128 -28.3633002 -169.5091624
-36.25016128 -126.8664532 -19.97813239
-36.25016128 -209.3609223 -139.1010644
-36.25016128 -173.1445265 -122.1587924
-32.17205228 -243.6593171 -156.0000974
-36.25016128 -198.6913449 -115.2746974
-31.19809528 -68.00002403 -248.4242644
-40.25016128 -4.114377338 -149.0826824
-36.25016128 -76.49167293 -24.28954339
36.20441372 -172.1378355 -152.0000974
35.51251772 -233.0023402 -152.0000974
25.74026072 -215.4248986 -152.0000974
-3.083963275 -236.67599 -156.0000974
-40.25016128 -106.1130933 -128.1684204
-43.26370828 -45.98063063 -250.0000974
-11.79488328 0.2717872621 -41.46855339
-10.12348628 -56.52330153 -9.738629888e-05
-40.25016128 -166.5239939 -8.457174386
-40.25016128 0.8017105721 -127.9225714
-40.90371128 -0.5000249879 -179.0201654
-25.33682528 -113.9501099 -156.0000974
26.96379172 -227.1218569 -156.0000974
-40.25016128 -161.6638139 -94.74380839
18.51606072 -129.403796 -9.738629888e-05
-36.25016128 -4.198944798 -82.34922539
-36.25016128 -95.2584269 -9.368205386
33.21571672 -99.39961292 -9.738629888e-05
-5.241289275 -2.498792628e-05 -136.4199584
-36.25016128 -245.1596872 -31.30998939
-23.51154428 -104.3879143 -156.0000974
32.03214372 -241.8699533 -9.738629888e-05
10.77467572 -2.498792628e-05 -182.4051654
-40.25016128 -1.172788228 -111.4450294
30.64552572 -183.7012808 -152.0000974
-20.13133728 -161.4587988 -152.0000974
-7.739378275 -48.43022094 -250.0000974
-40.25016128 -26.86903444 -123.1805644
25.08347072 -140.4367747 -152.0000974
12.87372272 -215.21561 -156.0000974
-2.353131275 -2.498792628e-05 -146.7817094
-40.25016128 -203.269046 -132.0034504
-36.25016128 -173.137689 -72.94312739
-13.61109928 -87.65373116 -156.0000974
-40.25016128 -178.9425311 -98.70380939
36.92205772 -95.78146423 -152.0000974
-40.39735228 -0.5000249879 -234.6102364
-40.25016128 -200.8491793 -63.47762239
-40.25016128 -250.2528669 -120.2381144
8.374139725 -87.81164634 -152.0000974
0.8052817248 -2.498792628e-05 -6.249613386
-21.14155328 -2.498792628e-05 -5.096680386
-36.25016128 -130.1293486 -116.5195864
-40.25016128 -8.416118118 -33.02023039
0.2726357248 -94.14422986 -9.738629888e-05
29.45244072 -61.81901574 -9.738629888e-05
27.74228272 -4.574215308 -250.0000974
14.06190872 -121.616084 -152.0000974
-7.809310275 -2.498792628e-05 -70.54707639
-36.25016128 -80.86004233 -87.57620939
-22.18603028 -82.4270831 -152.0000974
22.81047472 -169.1432742 -9.738629888e-05
-40.25016128 -174.8086214 -40.52941939
-7.791038275 -54.64565802 -152.0000974
-36.25016128 -99.69551839 -68.06542039
-21.92386428 -51.43743953 -244.0000974
18.75025572 -2.498792628e-05 -227.4851294
-40.25016128 -138.7049491 -125.5118614
30.15859772 -57.91983025 -152.0000974
-40.25016128 -79.59386611 -96.68827939
-36.25016128 -246.8127961 -67.95418939
-36.25016128 -211.7318661 -18.45467539
13.92852272 -104.9475792 -156.0000974
32.07751172 -127.755441 -9.738629888e-05
-32.00155628 -2.498792628e-05 -122.2409554
13.92901572 -2.498792628e-05 -194.0129804
-40.25016128 -195.0057856 -87.57622439
-36.25016128 -45.28717291 -49.21407839
37.74983872 -170.508295 1.808872614
-36.25016128 -11.43634856 -109.0828804
-40.25016128 -58.77398338 -220.6313314
2.531045725 -68.53763269 -152.0000974
-9.307678275 -127.5692257 -152.0000974
-36.25016128 -224.9433039 -74.30938139
16.27246672 -7.604255738 -250.0000974
-11.40135828 -38.02933353 -9.738629888e-05
-36.25016128 -223.494487 -55.35486439
-40.25016128 -162.3293358 -135.7925714
-1.685526275 -40.03261414 -156.0000974
-41.97549728 -2.498792628e-05 -77.79350139
-36.25016128 -86.85712118 -55.46645439
-36.25016128 -74.40339884 -7.813826386
-40.25016128 -199.6199416 -72.76304739
25.33800472 -2.498792628e-05 -86.71527839
0.3984157248 -35.60932823 -244.0000974
-40.25016128 -12.5215281 -134.6333734
32.99073972 -147.5729102 -156.0000974
-4.617216275 -243.1186911 -9.738629888e-05
17.77831372 -198.4532044 -9.738629888e-05
-16.14194128 -2.498792628e-05 -184.0535434
-40.25016128 -15.87296255 -65.52188539
-37.62698428 -112.6942559 1.887033614
-36.25016128 -64.22614955 -126.5879464
-40.25016128 -140.5271951 -41.89164739
-18.42856428 -30.34962728 -156.0000974
-31.08759228 -2.498792628e-05 -16.21576639
-36.25016128 -171.8055017 -83.61209339
-13.53956228 -244.6474771 -156.0000974
-40.25016128 -9.557325898 -208.7304374
-36.25016128 -214.8111963 -68.90969539
-36.25016128 -80.29461397 -130.4903684
-20.60411428 -2.498792628e-05 -161.2624174
-36.25016128 -107.4092135 -144.9491034
-40.25016128 -194.9145039 -14.23862839
-40.25016128 -27.47320016 -204.7612844
-40.25016128 -235.7974709 -128.1400884
-40.25016128 -99.73733876 -89.85854939
-36.25016128 -154.8094765 -128.5657804
-40.25016128 -246.3508113 -132.0932354
-36.25016128 -216.4917763 -43.92408339
24.42826472 -226.7485768 -9.738629888e-05
30.28234972 -30.96863602 -156.0000974
-36.25016128 -66.96684265 -53.11913339
31.88992372 -139.1823208 -9.738629888e-05
20.68045672 -64.6726306 -152.0000974
-28.94338728 -43.64286939 -152.0000974
-0.3429982752 -86.86112357 -156.0000974
-36.25016128 -170.2122869 -33.15808039
19.41381972 -234.0330507 -9.738629888e-05
-40.25016128 -101.0256389 -106.8897734
-17.34406928 -193.5835082 -156.0000974
-40.25016128 -34.86614378 -234.0562344
7.139195725 -137.8723204 -152.0000974
-14.60603528 -40.89362919 -250.0000974
-36.25016128 -62.81619725 -112.6698304
-3.912251275 -29.33771058 -156.0000974
-40.25016128 -76.19552026 -113.2040484
-33.23151928 -185.4843705 -155.8894604
-40.25016128 -183.6089529 -25.73955439
-40.25016128 -76.93118465 -184.3920924
-40.25016128 -222.8065484 -141.2348834
-40.25016128 -120.6727828 -128.0400934
7.122626725 -37.73211547 -250.0000974
23.38139672 -44.36368299 -9.738629888e-05
-9.585490275 -113.6576269 -152.0000974
-14.88569228 -2.498792628e-05 -110.0367704
-40.35391628 -2.498792628e-05 -61.36469039
1.035672725 -20.21192752 -250.0000974
-40.25016128 -22.33583684 -143.0013704
-3.160485275 -2.498792628e-05 -13.32791039
-40.25016128 -248.3508076 -20.33362839
-34.51314628 -33.6774607 -155.6383544
-25.98632628 -102.4293151 -9.738629888e-05
38.31381972 -2.498792628e-05 -167.0273764
-40.25016128 -239.4270125 -136.7280604
-36.25016128 -238.3292033 -51.86100639
-36.25016128 -83.53437108 -15.11120939
-15.59054228 -130.663842 -156.0000974
17.75608372 -2.498792628e-05 -22.22262539
-7.519919275 -30.01907167 -9.738629888e-05
-1.666474275 1.248805672 -49.39707039
15.00244172 -82.83665442 -152.0000974
21.73949672 -19.17448687 -152.0000974
-22.60744328 -209.8048331 -156.0000974
-39.65594028 -55.65218183 -151.0154344
-36.16692328 -93.87525804 -148.4419334
-26.06922928 -243.7756378 -9.738629888e-05
-0.3916942752 -225.1181625 -152.0000974
33.11678372 -37.98572781 -244.0000974
30.24866472 -86.86435907 -156.0000974
-36.25016128 -134.7209091 -15.78391239
-40.25016128 -240.404725 -64.80830139
-34.13829328 -2.498792628e-05 -159.6940324
-40.25016128 -204.7276589 -111.8579024
-40.25016128 -18.86372438 -232.7562824
-27.82539828 -141.2664889 -156.0000974
-30.76942928 -229.0486139 -9.738629888e-05
-18.41474228 -239.4104917 -9.738629888e-05
-9.802303275 -161.5263497 -156.0000974
-30.51546228 -41.26125771 -244.0000974
19.03613472 -64.8206012 -244.0000974
-40.25016128 -67.84572964 -97.33582139
-24.19718128 -48.29885626 -9.738629888e-05
-1.915265275 -199.1333103 -9.738629888e-05
-36.25016128 -36.41703166 -145.2162434
-32.28370428 -2.498792628e-05 -42.68113439
3.100061725 -172.1150923 -9.738629888e-05
-36.25016128 -4.508195248 -92.23206739
-40.25016128 -113.3472025 -10.42711239
-36.25016128 -72.33934406 -62.55720039
6.178344725 -146.5593578 -9.738629888e-05
-40.25016128 -183.5426565 -110.5696004
-40.25016128 -55.82130727 -74.51770439
-23.75236928 -4.735071468 -244.0000974
-40.25016128 -192.1980818 -130.1678854
-36.52929528 -224.585682 -154.7305394
-36.25016128 -129.3823125 -133.4775684
-40.25016128 -235.9141938 -143.7451234
-39.68833328 -228.3555333 -1.149331386
-40.25016128 -175.8535965 -129.9225794
-30.70423928 -2.498792628e-05 -226.6515264
0.8863707248 -124.8909389 -152.0000974
-40.25016128 -80.16838117 -164.7147724
-36.25016128 -33.43255632 -83.75003539
-42.71248128 -25.50002499 -61.25791539
-5.345401275 -210.5908184 -152.0000974
-1.097702275 -54.33095574 -156.0000974
-14.88842528 -178.2189586 -152.0000974
-36.25016128 -203.9630468 -42.25881939
15.36599372 -2.498792628e-05 -239.3138064
-6.198010275 -229.0051207 -9.738629888e-05
-29.26670328 -169.4442651 -156.0000974
-22.74944428 -181.8083919 -9.738629888e-05
6.907970725 -8.044550688 -152.0000974
6.947642725 -233.4086241 -9.738629888e-05
-40.25016128 -49.12045309 -134.1821654
39.90571172 -2.498792628e-05 -51.66129639
-36.25016128 -244.5328825 -46.67606239
-40.25016128 -59.62393232 -140.9399374
8.589920725 -160.8315376 -156.0000974
30.54470572 -2.498792628e-05 -205.2934714
-40.25016128 -92.79251099 -164.9003504
-29.72245128 -229.9865762 -156.0000974
-13.98425028 -218.3514256 -156.0000974
-7.070953275 -6.741782318 -9.738629888e-05
-31.59882128 -163.6775163 -9.738629888e-05
-42.38926428 -15.96977857 -120.5711024
-36.25016128 -27.239845 -90.87649739
-0.2621072752 -169.8841651 -156.0000974
-29.33537828 -17.66680293 -244.0000974
-40.25016128 -44.55261285 -215.9415784
-40.25016128 -170.3088146 -49.25627539
-5.199730275 -2.498792628e-05 -198.3673174
-32.42184428 -97.33571125 -0.0294373863
43.24070972 -2.498792628e-05 -68.14113139
-33.24739128 -2.498792628e-05 -114.4181664
31.64225572 -119.1940748 -152.0000974
6.616406725 -101.3692595 -152.0000974
-18.09230128 -234.7139416 -156.0000974
-17.85935128 -148.4942167 -156.0000974
-24.45121728 -27.78264672 -9.738629888e-05
14.35222372 -2.498792628e-05 -162.6126014
-35.09992428 -135.3721397 -155.4359854
-36.25016128 -20.06365632 -87.68987839
-40.25016128 -97.77131458 -75.28847439
-6.123292275 -2.498792628e-05 -124.1839014
-40.25016128 -32.46669973 -133.0744444
-33.88023728 -69.2438091 -0.3694543863
-17.18025828 -204.4893898 -152.0000974
-36.25016128 -189.2581307 -71.01453039
-36.25016128 -125.876101 -45.79641139
-40.25016128 -48.75096525 -35.18352739
-40.25016128 -146.9459435 -103.6579574
-36.25016128 -23.39499708 -36.66771739
-40.25016128 -167.2591364 -69.31737639
8.668323725 -235.9707728 -156.0000974
17.30174172 -2.498792628e-05 -3.371954386
-36.12667728 -158.3401765 -154.9655434
-40.25016128 -211.3004652 -115.6849304
-40.25016128 -251.8714726 -139.3734624
9.585292725 1.639569682 -244.0000974
14.17685072 -84.7586246 -9.738629888e-05
10.39297372 -208.0480222 -156.0000974
-40.25016128 -53.15815648 -42.49753739
5.449437725 -219.6153565 -155.2477844
2.453934725 -206.6642788 -156.0000974
-17.47837528 -101.7284653 -9.738629888e-05
-36.25016128 -23.61951426 -112.8823204
9.553555725 -25.80567348 -156.0000974
-36.25016128 -7.186914998 -130.6344814
35.55254872 -43.45988599 -250.0000974
-36.25016128 -162.9901659 -100.9943564
-36.25016128 -232.6431953 -34.29109439
-36.25016128 -56.05758785 -26.50324239
-40.25016128 -137.2449213 -49.68566539
-40.25016128 -218.6373145 -75.10332439
12.83583472 -2.498792628e-05 -16.04033139
-3.965067275 -109.2693994 -156.0000974
17.49805472 -150.3957141 -156.0000974
-34.93203228 -2.468379858 -250.0000974
12.61243972 -134.7095789 -156.0000974
-28.20941728 -195.2774932 -152.0000974
37.74983872 -68.68856761 -155.4927704
-40.25016128 -123.7644043 -146.8445074
-3.396286275 -214.0203174 -9.738629888e-05
-36.25016128 -35.97596696 -100.8849494
-40.25016128 -115.4016168 -137.4887724
28.13113372 -29.06007453 -250.0000974
-40.25016128 -88.60723587 -152.8533714
-25.11840328 -2.498792628e-05 -236.6190504
37.70308972 -186.6572794 -152.0000974
19.68949672 -243.4872633 -9.738629888e-05
-36.25016128 -217.4022004 -61.16700039
22.21776572 -29.66661788 -156.0000974
-24.75384328 -2.498792628e-05 -123.8007174
-40.25016128 -26.40216403 -153.1955724
11.90290072 -45.59749643 -244.0000974
-36.25016128 -237.3626688 -87.92042139
-36.25016128 -220.5709908 -32.53331539
-40.25192528 -0.5000249879 -187.1772514
37.88003672 -13.39935195 -244.0000974
-40.25016128 -22.32880887 -6.891981386
-40.25016128 -184.2561419 -54.20738239
-36.25016128 1.544296952 -33.30635039
-36.25016128 -164.6105806 -123.8473154
17.62878972 -2.498792628e-05 -73.49041239
-42.58420828 -33.5785184 -241.0000974
-40.25016128 -236.0050486 -41.33340439
27.74957372 -12.58102116 -250.0000974
-36.25016128 -94.36142421 -94.37819239
-40.25016128 -165.759931 -84.81089539
25.81800972 -184.9983206 -9.738629888e-05
1.950504725 -24.92471147 -156.0000974
-31.99451328 -52.31389183 -244.0000974
3.628620725 -115.123745 -9.738629888e-05
-40.25016128 -212.6122119 -100.4924374
11.00046672 -50.31945827 -9.738629888e-05
-13.84100328 -227.7447038 -156.0000974
36.99351972 -2.498792628e-05 -240.2498964
-40.25016128 -212.9084903 -86.42086539
-40.25016128 -42.4013302 -25.57524539
30.28497972 -201.2083793 -9.738629888e-05
-30.82236728 -119.4948965 -156.0000974
-40.25016128 -159.0472459 -41.96250639
-42.38104628 -157.8006185 -73.59383439
-7.860485275 -199.5402409 -156.0000974
-36.25016128 -11.86183162 -25.22703439
-40.25016128 -225.227236 -46.42276639
-36.25016128 -244.1043037 -10.96341739
-40.25016128 -80.19569524 -73.24807739
-28.02379928 -2.498792628e-05 -172.8388484
-19.29572828 -215.3709809 -152.0000974
-40.25016128 -3.574079338 -212.8881804
-36.25016128 -239.7471414 -70.85957239
-18.42947128 -116.2412141 -156.0000974
-40.25016128 -104.8835925 -73.75032039
-40.25016128 -249.5567479 -35.50716239
-36.25016128 -54.62073822 -136.7652794
-39.48713328 -210.5777687 -0.5994313863
-40.25016128 -222.9392869 -133.3036714
-41.41349928 -0.5000249879 -159.9890804
-10.93499028 -2.498792628e-05 -62.33656739
31.59026372 -201.2716374 -156.0000974
15.94179872 -17.17448016 -156.0000974
21.49732072 -248.4871867 -152.0000974
-40.25016128 -5.562200738 -6.989083386
-23.36912028 -245.9628238 -156.0000974
-40.25016128 -146.9995636 -89.70350039
17.58492072 -149.4997173 -9.738629888e-05
-14.34746528 -2.498792628e-05 -55.85110839
-36.25016128 -181.3467862 -74.29440739
41.13810972 -63.41349476 -244.0000974
-40.25016128 -62.8140671 -209.9418584
-40.25016128 -213.3509764 -124.7817064
-26.04348828 -56.77208135 -152.0000974
-40.25016128 -120.8900914 -19.49481539
3.280172725 -2.498792628e-05 -86.86945039
-6.450002275 -83.04003618 -156.0000974
-36.25016128 -37.01789038 -13.44325339
-40.25016128 -140.7971692 -65.74100639
-40.40661328 -12.2392045 -244.0000974
0.6626327248 -196.9337964 -152.0000974
-7.610108275 -40.79639132 -152.0000974
-36.25016128 -50.86217956 -108.0055074
-33.24510528 -107.398683 -0.1925753863
40.03348172 -57.6051828 -250.0000974
-36.25016128 -80.13761902 -41.60443239
18.39424272 -113.564718 -9.738629888e-05
-36.25016128 -71.88154877 -40.68261039
-40.25016128 -223.5438912 -111.2806674
-14.27603028 -164.6978157 -9.738629888e-05
-36.25016128 -251.9334453 -105.6094714
-40.25016128 -45.48518333 -110.9360974
-40.25016128 -116.7702152 -66.01496339
19.85816972 -100.9551695 -156.0000974
-36.25016128 -79.4869321 -50.99700939
-36.25016128 -101.2112598 -122.1761644
-15.12452428 -32.40178809 -244.0000974
-40.25016128 -171.4543844 -146.1095464
-20.38191428 -15.07403513 -156.0000974
-40.25016128 -17.38944457 -200.3774394
-36.25016128 -251.8477601 -86.41403539
-22.44004128 -178.9939407 -152.0000974
-41.48954228 -50.56940765 -244.0000974
21.08213672 -34.76408566 -250.0000974
-36.25016128 -220.4034205 -17.42709239
-40.25016128 -19.93025585 -220.7368674
33.34726072 -2.498792628e-05 -198.6784164
-40.25016128 -151.3163408 -142.8773884
-40.25016128 -175.0826057 -22.80084939
30.07725872 -107.9192558 -152.0000974
-8.749177275 -220.3397634 -9.738629888e-05
-40.25016128 -15.15653499 -185.7717864
-36.25016128 -227.942585 -95.29136539
-36.25016128 -127.1633177 -11.20540739
24.79811472 -48.83762665 -152.0000974
34.80749572 -66.4223994 -9.738629888e-05
-40.25016128 -186.3621416 -101.5219024
-19.62103428 -2.498792628e-05 -206.8254394
-40.25016128 -144.339115 -118.9841124
-36.25016128 -139.7894065 -5.988937386
-15.81080528 -47.94781462 -244.0000974
-40.25016128 -37.66242027 -112.0629904
-36.25016128 -35.39208703 -66.81371839
-13.67319328 -93.42869599 -152.0000974
-36.25016128 -205.7204214 -6.708470386
-38.34455328 -2.498792628e-05 -100.6885164
-40.25016128 -134.2231651 -63.26624039
-36.25016128 -55.08762758 -95.76414039
32.41650772 -19.79667801 -9.738629888e-05
37.74983872 -39.00221973 -155.7821344
-40.25016128 -39.32319414 -72.50063439
13.24983872 0.3872853621 -114.1141774
-36.25016128 -152.920095 -78.45607439
-42.49534228 -181.5616857 -63.97876439
-32.30682428 -78.44987732 -155.9945054
-31.47156528 -36.31168103 -250.0000974
20.15067472 -228.6540138 -156.0000974
21.05148272 -38.90533476 -244.0000974
-36.25016128 -120.5437165 -122.1924934
-40.25016128 -217.0483718 -107.7698994
-40.25016128 -11.51198093 -151.9214054
-36.25016128 -54.09419138 -55.05133639
-39.79029928 -235.7934251 -1.440557386
-33.95019328 -2.498792628e-05 -195.3352164
30.95798672 -251.230836 -156.0000974
-3.426963275 -176.8871207 -156.0000974
-40.25016128 -153.6753864 -52.97953139
-40.25016128 -5.393317398 -19.76938439
13.89572272 -39.69334731 -152.0000974
-40.25016128 -5.705418428 -226.0945954
-36.25016128 -11.42727832 -88.57834039
27.54607472 -2.498792628e-05 -57.37241239
-36.25016128 -137.2960603 -77.32384439
10.71668072 -71.38033845 -9.738629888e-05
-9.219404275 -2.498792628e-05 -241.6265154
-40.25016128 -71.13352572 -83.00196639
-18.31291428 -72.518077 -152.0000974
-36.25016128 -198.0602199 -134.0770014
11.75319972 -146.5993333 -156.0000974
-27.72398928 -3.508796738 -250.0000974
-40.25016128 -197.7939638 -109.7553674
2.761488725 -236.7743222 -152.0000974
22.43857372 -167.614248 -152.0000974
-40.25016128 -221.8867326 -84.13892139
17.84687772 -2.498792628e-05 -38.59498239
-36.25016128 -141.5045286 -102.5996034
-36.25016128 -215.8887303 -141.1132974
11.01666172 -61.09348712 -250.0000974
-36.25016128 -74.09113839 -96.23847039
-16.07783328 -2.498792628e-05 -15.86576939
-36.25016128 -89.32153731 -119.5398584
22.84026872 -70.39828469 -156.0000974
-36.25016128 -157.943133 -121.7909934
1.101009725 -247.1092042 -156.0000974
-12.44298928 -123.0809924 -156.0000974
-32.96355628 -200.7898883 -151.9169374
34.29152172 -2.824637078 -250.0000974
9.854668725 -2.498792628e-05 -37.18576739
-6.144782275 -2.498792628e-05 -83.98871239
-4.218568275 -59.80950756 -9.738629888e-05
20.97308172 -98.5906826 -9.738629888e-05
-36.25016128 -200.8706689 -88.33939939
-36.25016128 -28.76792728 -53.71315939
28.82330972 -2.498792628e-05 -230.4320054
31.39200172 -37.46746599 -152.0000974
-36.25016128 -37.94585165 -44.15973439
37.74983872 -130.1862966 -154.6937924
-40.25016128 -162.2153618 -142.5350124
-40.25016128 -151.0978102 -66.44303139
-40.25016128 -18.81386106 -110.3792914
28.91746872 -73.00624562 -152.0000974
-37.17123028 -157.3395764 2.263058614
-40.25016128 -133.7550548 -101.8991604
-15.31025128 -172.3054116 -9.738629888e-05
-8.245579275 -2.498792628e-05 -205.2720744
-40.25016128 -100.3694497 -57.55126739
-36.25016128 -191.9503747 -23.16672739
-40.25016128 -238.6536184 -8.999817386
36.89397772 -205.0638908 -152.0000974
-3.542485275 2.133406802 -229.3723484
-40.25016128 -62.16447315 -77.37592439
-36.25016128 -98.96655796 -42.43061639
33.95358072 -2.498792628e-05 -131.8116094
22.05096572 -94.2300355 -156.0000974
-7.115333275 -14.52265153 -152.0000974
-40.25016128 -70.96120156 -169.3947464
-40.25016128 -164.7184345 -59.83300139
19.84054572 -118.0258736 -156.0000974
-35.78918128 -175.8167167 -2.183991386
-40.25016128 -93.19348158 -131.4577454
-40.25016128 -147.4778682 -59.38635939
-40.25016128 -38.00874337 -8.170601386
14.68366172 -96.03513881 -152.0000974
-27.18357228 -2.498792628e-05 -82.82486539
-33.81322228 -101.389671 -151.6692844
-36.25016128 -229.433548 -26.78686839
-40.25016128 -8.308657658 -69.23403039
28.93796572 -157.7352347 -152.0000974
-40.25016128 -44.0970474 -191.4306944
-36.25016128 -51.60622162 -18.86204639
12.66169772 -2.498792628e-05 -9.371775386
-21.00642428 -214.2517626 -9.738629888e-05
33.14294472 -2.498792628e-05 -185.0986484
34.36898872 -2.498792628e-05 -122.3961674
-36.25016128 -31.28097936 -113.2275224
31.30700372 -2.498792628e-05 -37.71475739
6.957217725 -2.498792628e-05 -75.86778639
-14.69504328 -24.29786766 -156.0000974
-40.25016128 -178.1501471 -13.23611939
-40.25016128 -68.88169597 -27.08433739
-36.25016128 -117.5415735 -7.198519386
31.34993872 -2.498792628e-05 -96.63711639
-36.25016128 -88.73106389 -10.54144039
-36.25016128 -152.6519111 -32.36755939
-0.2317402752 -43.31971814 -9.738629888e-05
-21.14402928 -131.1564307 -152.0000974
-6.741517275 -124.9445954 -9.738629888e-05
-36.25016128 -120.1228695 -92.62649439
-10.86813728 -137.7284204 -9.738629888e-05
-36.25016128 -7.362732588 -49.09586639
18.41524572 -17.51380105 -9.738629888e-05
12.53876372 -228.2306357 -152.0000974
26.98055372 -81.03939784 -152.0000974
-36.87100328 2.499975012 -24.12623339
-36.25016128 -242.4073315 -104.1324124
-36.25016128 -237.9797529 -109.1001854
-40.25016128 -39.67485145 -49.10804639
-18.88195928 -36.68255453 -9.738629888e-05
35.77911972 -2.498792628e-05 -103.7822544
-36.25016128 -83.73070523 -99.87020339
-40.25016128 -137.6882096 -140.4958144
-18.25647728 -2.498792628e-05 -35.29302239
-36.25016128 -178.3396269 -134.5061324
7.142016725 -112.660028 -156.0000974
-36.25016128 -68.11524725 -16.32235839
-12.41023628 -56.9626795 -250.0000974
-36.25016128 -115.7518991 -18.69432939
-40.25016128 -65.68157818 -131.6131364
-40.25016128 -51.96469732 -160.8050074
-40.25016128 -15.5889157 -42.42323339
-36.25016128 -181.4983312 -115.3427804
-26.11879728 -2.498792628e-05 -110.2517034
-43.27588428 -69.43510633 -214.0539144
-40.25016128 -176.4396082 -52.24800039
33.51497472 -51.48030558 -152.0000974
30.53964472 -36.04641811 -9.738629888e-05
-40.25016128 -224.8251175 -38.09391639
-40.25016128 -212.7375007 -78.56136439
28.51581472 -2.498792628e-05 -70.73949839
-34.00702128 -43.18823809 -250.0000974
-33.29765328 -63.67611334 -244.0000974
-31.28130428 -203.0530828 -9.738629888e-05
5.868115725 -2.498792628e-05 -145.5828184
-32.58266128 -163.7351176 -151.9613374
-19.35228428 -2.498792628e-05 -71.91865639
40.54390072 -2.498792628e-05 -84.59124939
-40.25016128 -123.0845256 -107.1851664
-40.25016128 -169.7026743 -76.74639339
-31.02418728 -58.99342783 -156.0000974
-18.16569528 -229.004542 -9.738629888e-05
-35.04016028 -40.22069723 -155.4544494
23.62293872 -2.498792628e-05 -166.2792364
-40.25016128 -50.6103898 -168.7384594
-36.25016128 -16.74722669 -79.24712239
-27.05286028 -47.45403692 -244.0000974
-21.10838228 -156.4482981 -156.0000974
-36.25016128 -102.7578114 -27.97483839
6.612404725 -164.4518681 -9.738629888e-05
-40.25016128 -148.2005696 -35.24655039
11.17470772 -2.498792628e-05 -175.9455924
-28.42895028 -2.498792628e-05 -57.79812539
-36.25016128 -69.4158468 -143.5340454
-38.92842028 -58.61522996 0.3664666137
18.13775672 -15.14749361 -250.0000974
-36.25016128 -170.4822399 -133.4449654
15.88585572 -24.13621872 -250.0000974
-2.264124275 -168.1104997 -9.738629888e-05
-40.25016128 -36.70664977 -173.1897404
-8.405433275 -153.7974019 -156.0000974
-40.25016128 -153.7311525 -26.38502839
-40.25016128 -79.0110264 -125.0764104
-33.30588928 -179.6211183 -151.8473824
-40.25016128 -67.34788085 -63.33078739
-34.31181928 -130.3770313 -151.3678964
-36.25016128 -237.5315609 -95.89246639
-17.94853428 -14.15138705 -244.0000974
-28.68464928 -20.32447534 -156.0000974
-36.25016128 -127.1423119 -83.57025839
-40.25016128 -96.61495754 -25.25339839
-26.08546928 -63.78071891 -250.0000974
-0.9276042752 -27.41418616 -250.0000974
-40.25016128 -34.86199681 -36.12985439
-40.25016128 -68.961296 -208.0692864
-40.25016128 -60.06588173 -37.76568639
-36.25016128 -19.71130335 -121.6131414
-40.25016128 -124.9153349 -119.7549264
-40.25016128 -19.41752677 -135.4412554
-40.25016128 -35.71257778 -0.4353643863
29.21342772 -71.83317318 -9.738629888e-05
5.679678725 -63.8146886 -156.0000974
-40.25016128 -95.25547417 -101.0492654
-36.25016128 -180.287804 -125.9581884
-38.41166528 -48.59612412 1.064760614
-36.25016128 -103.3767395 -6.191136386
22.16785872 -187.5317942 -156.0000974
-40.25016128 -101.3268398 -37.72835139
20.32073372 -2.498792628e-05 -177.1597864
31.63761472 -49.99508036 -250.0000974
-40.25016128 -21.43104666 -180.9703574
-40.25016128 -247.4010182 -146.4008074
-40.25016128 -221.3356555 -96.24310039
-22.69506228 1.918016632 -244.0000974
-36.11185328 -2.498792628e-05 -151.6433114
-2.295889275 -106.5289888 -9.738629888e-05
-36.25016128 -163.844449 -33.26095039
42.49332572 -2.498792628e-05 -17.56793539
-40.25016128 -71.15010602 -49.99939539
-36.94718428 -168.0802305 -154.4685974
30.81855972 -9.014870838 -244.0000974
-40.25016128 -64.49096968 -105.1382264
-40.25016128 -85.51596615 -20.83702939
-36.25016128 -132.8165408 -22.21129039
-36.25016128 -46.17760432 -145.6518494
-10.95436428 -207.3164517 -152.0000974
-13.69858628 -251.5302678 -152.0000974
4.720891725 -16.11909016 -9.738629888e-05
-40.25016128 -225.4033108 -13.50695139
-37.94049828 -197.8334683 1.623054614
-6.890376275 -12.22663267 -244.0000974
-36.25016128 -62.64589813 -135.4833604
9.310205725 -186.048746 -9.738629888e-05
-36.25016128 -93.67117597 -81.24235239
5.042030725 -250.035206 -152.0000974
38.18931872 -2.498792628e-05 -150.8001654
13.69737372 -239.8084891 -156.0000974
-40.25016128 -22.41984856 -164.2384854
25.53514172 -241.072074 -9.738629888e-05
-40.25016128 -6.568325488 -97.80111039
-42.99959628 -62.56871429 -250.0000974
-35.77255028 -2.498792628e-05 -165.8346634
-32.38121728 -170.954784 -0.0169223863
27.34271472 -59.78068624 -250.0000974
-40.25016128 -27.44394499 -47.98866339
10.50876372 -58.83611146 -156.0000974
-26.81407528 -2.498792628e-05 -195.0228834
-15.93262228 -223.3490713 -152.0000974
-14.01680528 -223.8947315 -9.738629888e-05
-36.25016128 -230.810325 -130.3921924
-40.25016128 -74.82311221 -2.955665386
-39.87788228 -146.3838455 -150.2890074
-40.25016128 -61.48837259 -86.19566839
-14.38997928 -52.90152747 -152.0000974
-36.25016128 -54.8533419 -126.8697874
23.70700972 -41.88793289 -152.0000974
-36.25016128 -206.5850452 -47.94823439
-6.981406275 -16.58830006 -250.0000974
-40.25016128 -27.29817183 -22.74916539
-40.25016128 -106.4876781 -94.42990839
-40.25016128 -200.4967481 -45.60248439
-36.25016128 -229.8322112 -114.4389844
7.632227725 -2.498792628e-05 -197.3582714
-40.25016128 -92.38491625 -36.48615439
17.43300972 -2.498792628e-05 -28.50652039
-40.25016128 -45.11430506 -205.9079664
-31.72735628 -2.498792628e-05 -131.3156594
33.86602572 -24.87216159 -250.0000974
34.71607772 -91.54441465 -156.0000974
-36.25016128 -198.7846378 -38.79759239
22.57228972 -73.2372026 -9.738629888e-05
-26.10013428 -2.498792628e-05 -67.75445239
-2.094807275 -2.498792628e-05 -176.6305274
5.332499725 -155.2481325 -156.0000974
-36.25016128 -184.0989339 -4.907496386
5.073804725 -31.51006381 -244.0000974
-36.25016128 -227.9826119 -7.136053386
-40.25016128 -78.93342267 -149.5206234
-40.25016128 -34.35227993 -124.1052704
28.33775972 -2.498792628e-05 -238.5064434
-36.25016128 -199.4828587 -9.857277386
-40.25016128 -90.4686708 -144.3060414
-40.25016128 -176.4411423 -114.8395854
27.69844372 -197.0291641 -152.0000974
-36.25016128 -243.6558823 -20.89250039
17.61265672 -198.183969 -152.0000974
-40.25016128 -159.8523782 -88.82525139
-40.25016128 -145.2244857 -45.91649039
-25.85043028 -166.0644716 -152.0000974
-36.25016128 -100.5713584 -137.5912764
