# .PCD v0.7 - Point Cloud Data file format
VERSION 0.7
FIELDS x y z
SIZE 4 4 4
TYPE F F F
COUNT 1 1 1
WIDTH 1211
HEIGHT 1
VIEWPOINT 0 0 0 1 0 0 0
POINTS 1211
DATA ascii
-36.25064927 -73.6932054 -5.027288391
-4.700236273 -121.3195348 -156.0000974
-43.24279127 -2.49890483e-05 -122.0523114
20.92231973 -2.49890483e-05 -177.4385584
-40.25064927 -85.1745529 -39.88573239
4.289375727 -2.49890483e-05 -95.65719639
-40.25064927 -185.717044 -13.42447639
40.68956773 -2.49890483e-05 -154.5573184
-39.35124827 -222.7460458 -151.6127154
-40.25064927 -61.64079453 -175.3642074
24.94501273 -17.60728013 -9.739088227e-05
43.05198073 -2.49890483e-05 -110.0286614
3.682952727 -2.49890483e-05 -9.258367391
-38.38718127 -2.49890483e-05 0.05163560912
21.06292973 -232.7244103 -9.739088227e-05
-41.56643927 -15.10615648 -30.82417939
-8.704998273 -91.59168222 -9.739088227e-05
-26.11311927 -42.54607814 -152.0000974
-40.25064927 -19.35578063 -68.07230439
36.15003373 -205.5974647 -9.739088227e-05
-36.25064927 -111.72748 -136.6709734
-36.25064927 -249.0278713 -102.9563834
-6.325273273 -2.49890483e-05 -114.6949734
-40.25064927 -201.092375 -137.6662564
37.74935073 -195.0135835 -155.4273734
0.737204727 -109.0381978 -9.739088227e-05
-14.71633527 -243.2912953 -152.0000974
-36.25064927 -165.095334 -122.7439144
15.52477173 -49.63231219 -250.0000974
-2.209392273 -175.6779669 -9.739088227e-05
-36.25064927 -126.7188893 -49.76070539
33.02046273 -230.0035541 -156.0000974
-1.164040273 -231.6699123 -156.0000974
-31.03407527 -187.0242358 -152.0000974
-19.07811927 -209.9301935 -156.0000974
-40.25064927 -39.45607097 -43.22111039
-36.25064927 -20.23527398 -97.51326539
-36.25064927 -146.2155189 -76.94636939
-36.25064927 -245.9236345 -139.0745064
-36.25064927 -206.039269 -103.9367704
-40.25064927 -162.1782245 -13.82971339
-40.25064927 -137.6298393 -130.8077064
-4.537216273 -30.23072254 -152.0000974
-4.520170273 -63.4278233 -152.0000974
33.16545273 -3.658244929 -250.0000974
-40.25064927 -42.4303195 -202.8991744
-40.25064927 -68.32820036 -42.11514439
-23.48426727 -126.6089905 -9.739088227e-05
-13.26985927 -2.49890483e-05 -201.9048704
22.85641473 -2.49890483e-05 -234.3788524
20.58403573 -78.27956828 -152.0000974
23.63636873 -2.49890483e-05 -80.47943739
-8.514272273 -2.49890483e-05 -221.5216634
-9.393169273 -89.97971645 -156.0000974
-23.80507427 -178.6034139 -9.739088227e-05
-40.25064927 -97.02396812 -61.35778939
-36.25064927 -167.4139535 -46.72891239
37.74935073 -132.4981447 -155.7265414
7.641387727 -158.9547442 -9.739088227e-05
14.03285073 -209.097669 -152.0000974
-40.05302827 -19.16994018 -149.7014004
-40.25064927 -224.4408612 -86.94762039
11.53613773 -8.555101529 -156.0000974
-40.25064927 -51.36675448 -83.15306639
-26.67764827 -91.03993302 -156.0000974
-40.25064927 -234.4416292 -17.89572439
-20.69744227 -1.606560459 -250.0000974
-26.29166527 -18.53510884 -9.739088227e-05
-40.25064927 -168.4059934 -93.12278939
22.26311473 -250.7540853 -156.0000974
19.31710973 -2.49890483e-05 -129.6170604
-41.39953527 -0.500024989 -15.58523039
-40.25064927 -38.70058429 -161.8475904
-10.69819627 -25.86942476 -250.0000974
37.74935073 -140.2756519 1.723940609
-25.73446227 -158.930088 -9.739088227e-05
6.650272727 -139.5374131 -9.739088227e-05
-36.25064927 -139.9127538 -105.5364384
20.36058473 -40.4566918 -156.0000974
2.415759727 -194.4574958 -156.0000974
-36.25064927 -106.466264 -12.21895839
-36.25064927 -94.442685 -119.2645224
-40.25064927 -111.6696341 -66.72108939
8.870957727 -2.49890483e-05 -117.5825184
-36.25064927 -116.1959523 -82.24530539
-40.25064927 -54.92324489 -16.82031739
-36.25064927 -87.57202091 -72.86149639
-40.25064927 -163.4049641 -107.7041724
-40.61692827 -70.37225156 -211.7865344
-40.25064927 -52.17220878 -137.1614994
-4.287906273 -33.67278177 -9.739088227e-05
-40.25064927 -212.5374068 -72.31617439
-40.25064927 -60.21350845 -235.4522904
-36.25064927 -38.37442489 -110.5933134
5.455547727 -2.49890483e-05 -239.9764264
27.51585473 -2.49890483e-05 -45.79455739
42.99278273 -2.49890483e-05 -219.5458864
-17.36258527 -143.2695308 -9.739088227e-05
-36.25064927 -243.6912826 -71.66694339
-36.25064927 -208.5695075 -35.85900439
18.30147373 -2.49890483e-05 -199.3314324
6.247813727 -130.8274289 -152.0000974
-40.25064927 -141.1777253 -58.70812339
20.50590373 -2.49890483e-05 -14.14119139
-29.33433627 -28.43595617 -156.0000974
-26.75555327 -46.23092533 -9.739088227e-05
-8.793073273 -19.45361308 -9.739088227e-05
2.660283727 -240.769329 -9.739088227e-05
26.04665573 -70.29629281 -9.739088227e-05
23.01171173 -157.9905848 -9.739088227e-05
-40.25064927 -191.2833046 -113.9985044
33.79830573 -173.5354344 -9.739088227e-05
9.240670727 -92.676061 -152.0000974
-43.18451027 -110.2677222 -94.48672439
-40.25064927 -85.66883957 -14.62892339
-40.25064927 -34.2672565 -57.40006039
-42.58031427 -2.49890483e-05 -167.2689464
-1.588866273 -16.45349357 -156.0000974
-39.22201427 -237.8139356 -151.8546614
-18.41335527 -61.28936868 -156.0000974
24.04514773 -36.95127433 -9.739088227e-05
-33.85004127 -2.49890483e-05 -45.96427239
-36.25064927 -27.82954584 -83.27332439
-36.25064927 -77.89047936 -121.1100324
29.85723873 -2.49890483e-05 -117.1230264
41.86116273 -32.79317034 -244.0000974
-36.05555927 -154.8260474 -155.0071894
-11.09629427 -2.49890483e-05 -158.2237394
-40.25064927 -131.619277 -33.32360639
-21.60278627 -16.05215772 -250.0000974
-2.304682273 -200.9710174 -9.739088227e-05
-34.46200927 -42.34556871 -250.0000974
-40.25064927 -248.8393236 -41.40315739
-40.25064927 -111.5059638 -33.12752139
-40.25064927 -13.96943001 -186.4708494
-18.48808327 -60.33087552 -9.739088227e-05
-36.25064927 -108.7524833 -120.3630284
-0.401995273 -180.9657401 -152.0000974
-36.25064927 -172.0762419 -141.4563794
-40.25064927 -209.4371776 -6.608388391
31.25897673 -2.49890483e-05 -94.00762739
1.252355727 -2.49890483e-05 -151.3366564
20.37045573 -2.49890483e-05 -33.70531339
41.71982373 -2.49890483e-05 -1.073953391
-5.519983273 -45.8890331 -250.0000974
-40.25064927 -156.7082964 -38.36138039
-36.25064927 -48.53545956 -63.96047439
-40.25064927 -39.28817769 -216.4407534
-36.25064927 -134.99379 -16.32913739
-1.198604273 -105.757823 -152.0000974
30.11182073 -182.521608 -152.0000974
26.34616473 -14.35577142 -244.0000974
-12.13887827 -2.49890483e-05 -234.9007984
-40.25064927 -185.7848372 -76.70551439
11.32579173 -56.31106449 -9.739088227e-05
-40.25064927 -67.90623926 -111.0585384
13.52840473 -2.040663159 -9.739088227e-05
-36.25064927 -227.3233938 -30.60392639
-40.25064927 -159.0058945 -79.61172939
24.51759473 -2.49890483e-05 -164.2997004
-25.05934427 -2.49890483e-05 -60.61759239
-36.25064927 -96.87803715 -147.1286084
-36.25064927 -95.60397553 -94.97445439
-42.98592627 -31.78019401 -250.0000974
7.273514727 -2.49890483e-05 -64.01162939
-0.282189273 -2.49890483e-05 -180.1758604
-40.25064927 -169.5651281 -61.93288539
28.26174673 -97.92868318 -152.0000974
-40.25064927 -122.2667673 -108.1784184
17.47394473 -174.4266047 -152.0000974
-38.13647927 -2.49890483e-05 -196.3314634
-35.91355827 -119.0324844 -155.0898694
-25.69346027 -193.2380212 -9.739088227e-05
1.257434727 -21.54876528 -244.0000974
-29.52517227 -68.81092049 -156.0000974
-14.38889727 -2.49890483e-05 -9.759923391
-40.25064927 -132.8791239 -83.19906039
-36.25064927 -193.9243026 -43.11865939
5.514148727 -39.01136158 -152.0000974
28.66437173 -52.25358182 -156.0000974
-36.25064927 -99.57787556 -38.83069239
12.18427873 -2.49890483e-05 -187.5120404
-40.25064927 -54.46669367 -163.8084194
-28.77417127 -2.49890483e-05 -11.51687239
-40.25064927 -24.91345672 -179.0069754
-40.25064927 -75.83093425 -78.30139839
-13.67110527 -2.49890483e-05 -131.5081184
-40.25064927 -24.37758029 -20.72226839
-38.83383127 -104.7945567 0.5294706091
5.203019727 -82.81432365 -9.739088227e-05
-40.25064927 -7.733020059 -111.8535434
-8.039824273 -2.49890483e-05 -75.87017239
24.44651773 -182.7069682 -9.739088227e-05
-8.283436273 -220.76952 -9.739088227e-05
-36.25064927 -193.6166442 -126.1745744
-36.25064927 -223.190025 -115.2502704
-32.55194527 -2.49890483e-05 -74.88113139
22.67760573 -148.0823693 -156.0000974
-40.25064927 -141.7149147 -146.2289174
31.11028273 -128.7964826 -9.739088227e-05
-36.75311727 2.424004331 -132.9176044
-3.689682273 -5.073296249 -9.739088227e-05
-40.25064927 -176.8396501 -119.3092584
-36.25064927 -221.3597008 -55.89877139
-40.25064927 -64.73120338 -57.37339739
15.34086173 -35.0417258 -250.0000974
14.47698273 -2.49890483e-05 -211.5074424
26.11916673 -200.2136457 -156.0000974
-9.115779273 -119.1616411 -9.739088227e-05
-40.25064927 -95.50204858 -169.3362424
-40.25064927 -53.3048035 -95.70535239
13.73874273 -218.173689 -9.739088227e-05
-37.89374527 -17.39120783 -250.0000974
-37.50928827 -26.39741116 1.982273609
-21.52898427 -2.49890483e-05 -110.1043724
23.41445173 -112.8873612 -156.0000974
-17.86228527 -177.0365441 -152.0000974
-40.25064927 -75.75886132 -181.2152834
12.05686073 -191.2958206 -9.739088227e-05
11.83864873 -118.5258968 -152.0000974
-7.838215273 -150.5389295 -152.0000974
-26.67901527 -2.49890483e-05 -201.4167194
-36.25064927 -216.3894191 -96.90983539
-36.25064927 -91.68731921 -49.77387339
-1.872015273 1.402535231 -250.0000974
-33.51461527 -66.53144844 -244.0000974
25.20311573 -211.568446 -9.739088227e-05
-27.71081427 -109.694241 -156.0000974
-34.14417727 -2.49890483e-05 -90.54082439
-3.000122273 -73.08028666 -9.739088227e-05
-40.25064927 -13.88731328 -223.7343334
-0.897076273 -60.70471788 -9.739088227e-05
-36.25064927 -9.846131749 -124.5279054
15.57570873 -25.59631363 -9.739088227e-05
31.71284973 -60.46179872 -244.0000974
-36.25064927 -158.2491044 -25.12467439
28.08083273 -108.4076339 -9.739088227e-05
-3.743559273 -2.49890483e-05 -19.18107639
-22.56417127 -148.1328944 -152.0000974
-39.16289227 -157.0600127 -0.03178739088
-26.86427427 -249.2231437 -9.739088227e-05
-40.25064927 -66.46876744 -199.5804804
-35.32261527 -133.9486499 -1.516874391
-40.25064927 -233.4411559 -78.76993039
-36.25064927 -234.5185198 -57.46197739
-27.85649227 -93.99668993 -9.739088227e-05
-40.25064927 -21.76733462 -208.2096804
-6.951593273 -220.7848356 -152.0000974
13.25305373 -238.8992715 -152.0000974
-34.88584427 -83.85205099 -150.9655044
-36.25064927 -64.74475794 -138.1974904
-36.25064927 -237.5633947 -99.48980239
-19.79427727 -198.2977945 -152.0000974
29.41039273 -2.49890483e-05 -135.9829044
35.46743273 -2.49890483e-05 -28.37857339
-32.90223627 -232.3508162 -0.1168043909
-37.57851127 -235.0200444 -115.5000974
-40.25064927 -46.00989325 -152.4587564
-40.25064927 -5.837002899 -156.1648944
-36.25064927 -123.9500831 -11.59911139
-40.25064927 -173.7080124 -9.220848391
28.51083173 -31.88712396 -156.0000974
-36.25064927 -149.6071618 -129.0230394
-36.25064927 -52.68290301 -122.3724454
21.82589473 -217.6962299 -156.0000974
-40.25064927 -194.4278908 -98.78485839
-30.65881927 -2.49890483e-05 -175.8805314
5.193530727 -220.0586145 -155.4232744
-40.25064927 -181.3841341 -34.48113039
-29.88440027 -16.73616384 -155.9286864
-36.25064927 -86.38282684 -25.58776839
-40.25064927 -56.75222508 -206.0382814
-40.25064927 -66.13015638 -163.6351524
-36.25064927 -30.8574071 -35.36234239
-36.25064927 -245.2110879 -16.03228739
-36.25064927 -13.08087911 -55.74933339
-40.25064927 -204.1828167 -16.96215339
-40.25064927 -195.4448132 -147.8279924
-40.25064927 -36.35437113 -186.6452594
-40.25064927 -26.40555386 -232.4014654
-36.25064927 -234.6967736 -136.1997954
-36.25064927 -119.6037851 -40.72929539
7.196200727 -66.45561796 -244.0000974
-26.07191827 -2.49890483e-05 -23.10192939
31.01568373 -2.49890483e-05 -196.6887024
-40.25064927 -30.25687604 -101.7773254
-36.25064927 -30.75795919 -121.8888014
-4.594962273 -2.49890483e-05 -88.47234239
-36.25064927 -72.70565618 -64.58316939
-40.25064927 -153.2837081 -49.24615439
-36.25064927 -222.2995232 -44.39687939
-40.25064927 -117.1883162 -56.73917339
13.44209673 -2.49890483e-05 -139.3919954
-23.95357027 -56.51098475 -250.0000974
-40.25064927 -164.5226827 -133.9137814
-40.25064927 -91.25747562 -157.9964854
16.17153473 -2.49890483e-05 -44.83860939
32.83009573 -2.49890483e-05 -56.13783739
-40.25064927 -4.830142539 -235.7934414
-40.25064927 -201.2823849 -57.71300839
20.72386973 -83.2617026 -9.739088227e-05
-40.25064927 -131.9621875 -114.4091654
26.34877673 -49.67190211 -244.0000974
-36.25064927 -79.1106202 -132.4141574
-15.66994727 -32.05231985 -152.0000974
-40.25064927 -150.4512834 -105.5275924
7.649853727 -156.644849 -152.0000974
-7.129094273 -2.49890483e-05 -52.69000239
-40.25064927 -8.176547579 -175.8221364
-40.25064927 -5.986981549 -69.32094039
-40.25064927 -110.949854 -147.1068884
-40.25064927 -211.3179796 -142.2348074
27.61572573 -10.66103542 -155.4166854
14.94159573 -8.373177339 -244.0000974
2.026703727 -97.94880904 -9.739088227e-05
0.522088727 -50.85160324 -152.0000974
2.758114727 -12.12076115 -250.0000974
6.617932727 -63.62208815 -152.0000974
-27.62536227 -7.917329429 -244.0000974
4.581612727 -53.23482742 -244.0000974
-27.80050027 -204.5823742 -9.739088227e-05
-21.99688527 -251.6776118 -152.0000974
-9.196711273 -104.1464522 -9.739088227e-05
-19.40020727 -29.06003018 -244.0000974
14.44354673 -2.49890483e-05 -91.32224039
32.30906773 -232.7724519 -9.739088227e-05
-36.25064927 -145.7988451 -12.92828039
-40.25064927 -12.2212324 1.541069609
-36.25064927 -177.6951669 -86.53231539
-10.95634527 -68.00002403 -245.3536534
19.22196873 -18.55696404 -152.0000974
-40.25064927 -122.2312464 -131.0669214
-40.25064927 -17.24877805 -198.1332604
30.54016173 -196.2626951 -9.739088227e-05
-19.39689227 -221.1957604 -9.739088227e-05
-27.68882427 -69.24365539 -9.739088227e-05
-34.12560827 -51.37965139 -244.0000974
-4.876235273 -2.49890483e-05 -139.7954594
-18.48992127 -51.17832503 -152.0000974
26.92399573 -65.75921738 -156.0000974
-40.25064927 -67.61745772 -14.56137539
-40.25064927 -40.58241739 -83.16924039
-33.67435627 -2.49890483e-05 -219.5471964
-36.25064927 -33.22296744 -132.9338604
-29.80022227 -211.9954437 -152.0000974
-10.24711827 -232.7208927 -9.739088227e-05
-3.990351273 -2.49890483e-05 -190.2608434
-36.25064927 -61.74455821 -5.456689391
3.531218727 -214.9131784 -9.739088227e-05
-1.046864273 -2.49890483e-05 -229.7602064
-40.25064927 -56.6673567 -41.56616539
-41.57540127 -109.2687813 -21.05485639
26.59865573 -240.984246 -156.0000974
34.48147273 -62.86127326 -9.739088227e-05
-36.25064927 -10.6356674 -102.1636844
-37.06788527 -214.2682714 2.349391609
-40.25064927 -10.41788327 -19.32177239
42.54450773 -5.117521119 -244.0000974
-23.85422327 -2.49890483e-05 -134.5456634
-23.87231827 -2.49890483e-05 -93.16973739
30.07369173 -156.8106607 -156.0000974
42.51909273 -58.0976758 -250.0000974
-36.25064927 -17.16918468 -87.39333739
-42.06611327 -64.87684246 -226.1508244
21.37953573 -53.09743759 -9.739088227e-05
-36.25064927 -95.42130898 -14.90568739
14.54214673 -2.49890483e-05 -167.6624124
-40.25064927 -71.30167047 -154.4789804
-36.25064927 -212.9589455 -62.19354039
-40.25064927 -45.96934549 -11.38242839
-14.87604327 -173.1276018 -9.739088227e-05
-36.25064927 -237.9110831 -26.93275339
-40.25064927 -46.42999843 -35.41382139
-39.74652927 -187.5393968 -1.318815391
36.13668673 -2.49890483e-05 -184.8617724
-36.25064927 -185.7797345 -23.40089739
-37.59734627 -44.14578119 1.910217609
-26.32253927 -39.74157885 -244.0000974
10.51458373 -105.4225877 -9.739088227e-05
-40.25064927 -87.09936356 -125.4494884
-27.41291427 -177.5179199 -156.0000974
-36.25064927 -48.47015895 -24.28488139
-32.15497927 -35.53194145 -9.739088227e-05
-40.25064927 -142.3464219 -87.38877539
34.35622173 -77.79376901 -156.0000974
-40.25064927 -70.42594319 -101.0634634
-40.25064927 -45.57838394 -191.8303604
-40.25064927 -215.0874883 -129.2485364
-14.27988227 -233.0578793 -156.0000974
-9.576826273 -251.2407951 -156.0000974
14.93596373 -26.70937422 -244.0000974
-40.25064927 -46.91142189 -228.1181724
-40.25064927 -179.5315631 -64.38939939
-4.877974273 -240.4480288 -152.0000974
-40.25064927 -65.31315683 -184.9199254
-40.25064927 -202.3971996 -79.47572939
32.01499173 -118.0163957 -152.0000974
-40.25064927 -104.7621391 -128.8729784
8.936129727 -182.0171248 -156.0000974
-31.29579927 -230.9555329 -152.0000974
-40.25064927 -230.4467612 -144.8648524
-40.25064927 -165.2857379 -147.9132154
-36.25064927 -117.7135673 -95.01545039
-6.008249273 -164.7208334 -152.0000974
-11.63441127 -2.49890483e-05 -35.18383039
-33.85759327 -2.49890483e-05 -109.2391644
-40.25064927 -163.1780773 -70.39800839
-17.52621627 -86.66972899 -9.739088227e-05
-16.92185427 -7.943235599 -156.0000974
18.30343373 -2.49890483e-05 -224.8678104
-36.25064927 -198.5643733 -9.605362391
30.02391373 -2.49890483e-05 -104.0056644
-40.25064927 -76.87487088 -47.42003339
-10.13635627 -2.49890483e-05 -211.4598974
23.48791673 -58.3736039 -250.0000974
-40.25064927 -44.97432138 -51.68134939
14.85832073 -139.0935746 -152.0000974
37.43822173 -98.10722769 -156.0000974
-40.25064927 -25.69153257 -141.3126084
-30.45512427 -221.5390857 -156.0000974
-40.25064927 -131.2114577 -59.39116439
-40.25064927 -185.7670273 -143.2573414
25.89979873 -118.1419535 -9.739088227e-05
-40.25064927 -8.819069779 -142.4671144
-40.25064927 -250.9458361 -146.6992334
-36.25064927 -83.73514308 -98.72402539
-2.108500273 -141.7509291 -152.0000974
-40.25064927 -26.24432902 -10.97104539
-40.25064927 -52.26631784 -180.6526264
-40.25064927 -74.54361786 -34.41673939
9.445781727 -47.16223124 -156.0000974
21.47157173 -131.0030763 -9.739088227e-05
-15.57417527 -127.105864 -156.0000974
-30.44938527 -50.46592786 -156.0000974
-40.25064927 -245.3272604 -51.57279639
18.93198073 -94.45905816 -152.0000974
-40.25064927 -206.947812 -27.01081539
-27.36592827 -2.49890483e-05 -35.31419139
37.28737273 -220.9958581 -156.0000974
-36.25064927 -50.50624948 -74.20938739
-6.878942273 -2.49890483e-05 -104.7530154
-6.120846273 -141.5002598 -9.739088227e-05
-36.25064927 -97.96731609 -70.22697039
32.64929673 -2.49890483e-05 -6.297637391
-36.25064927 -217.759928 -10.86051239
-40.25064927 -60.93418929 -81.49079039
-36.25064927 -22.70657273 -57.00797339
23.76672473 -223.4129233 -9.739088227e-05
10.94475273 -2.49890483e-05 -151.0865264
0.113101727 -88.1412027 -156.0000974
-40.25064927 -30.92701757 -205.0898644
-36.25064927 -161.6164931 -98.73276939
-36.25064927 -234.1714932 -126.5466354
-40.25064927 -241.7556366 -107.8959534
-36.25064927 -16.74114241 -39.89051539
13.09541473 -151.006357 -9.739088227e-05
-36.25064927 -143.0713656 -31.38074239
-4.512057273 -72.18322274 -156.0000974
-40.25064927 -232.7818783 -8.414609391
-43.30292627 -2.49890483e-05 -87.59239739
-40.25064927 -59.73913486 -117.2135394
-21.84348427 -2.49890483e-05 -152.1241444
-36.25064927 -174.1187871 -24.14607639
-36.25064927 -171.2289122 -111.5789444
-36.25064927 -105.647413 -60.00586939
-40.25064927 -252.071602 -74.07737339
-6.970262273 -209.3523651 -9.739088227e-05
11.70878873 -166.5414639 -152.0000974
-17.58878727 -99.55252161 -9.739088227e-05
17.37376273 -2.49890483e-05 -72.62238339
33.13595573 -20.95862141 -250.0000974
-17.91403827 -153.3471822 -9.739088227e-05
-40.25064927 -29.98216856 -44.46889839
-25.80358527 -160.1492393 -152.0000974
32.94034473 -2.49890483e-05 -144.8619534
30.93505373 -2.49890483e-05 -36.78164439
-40.25064927 -6.637657369 -133.1759524
-36.25064927 -101.8359203 -137.0204664
24.76820173 -25.90663032 -250.0000974
-40.25064927 -42.29341377 -137.2345534
-36.25064927 -136.2387782 -49.42169239
-36.25064927 -213.8644588 -109.3068964
-36.25064927 -225.4471438 -75.01902839
-40.25064927 -158.1951539 -116.7962584
-36.25064927 -21.79253992 -125.5532564
-4.941751273 -173.6859618 -156.0000974
-14.35179427 -2.49890483e-05 -175.3997084
40.55264273 -2.49890483e-05 -137.0466724
-36.25064927 -180.5139135 -43.00965039
29.62602073 -2.49890483e-05 -73.15843339
-40.25064927 -232.8314628 -91.29858839
8.951450727 -44.85669767 -244.0000974
-36.25064927 -176.2723871 -128.7177874
26.20741373 -92.09242603 -9.739088227e-05
36.61368373 -56.74334924 -152.0000974
-40.25064927 -93.15536128 -103.1186814
-40.25064927 -87.08728782 -114.9973454
-15.64050727 -168.3599258 -156.0000974
-36.25064927 -112.1883163 -106.6993494
-40.25064927 -75.13948788 -89.76837939
-40.25064927 -45.42900218 -103.6336554
-15.02824727 -39.75906946 -244.0000974
-40.25064927 -228.1795604 -50.89711439
-4.357083273 -2.49890483e-05 -128.6228644
-40.25064927 -91.05651957 -81.81022739
-20.12268827 -242.775869 -9.739088227e-05
18.36223673 -2.49890483e-05 -120.3398504
-19.14518327 -12.40508187 -9.739088227e-05
-23.32705227 -135.9229196 -9.739088227e-05
-36.25064927 -215.638945 -120.6849374
-40.25064927 -82.60200183 -188.0420614
-40.25064927 -19.74304548 -79.40801639
-36.25064927 -105.0454533 -97.80075239
-30.47702227 -150.9473837 -9.739088227e-05
-28.49149527 -110.8148675 -9.739088227e-05
0.924143727 -2.49890483e-05 -218.6748534
28.30986073 -241.1462156 -9.739088227e-05
-37.50508127 -177.8062081 -154.0002904
0.259826727 -2.49890483e-05 -71.29427639
-13.04058727 -70.39596435 -152.0000974
-2.611224273 -157.0328302 -156.0000974
27.97613673 -166.372726 -9.739088227e-05
-19.24975427 -96.51131189 -156.0000974
-40.25064927 -92.40149725 -34.15615339
9.967334727 -248.0898782 -9.739088227e-05
25.11347273 -190.8588261 -152.0000974
-28.69195927 -199.6933107 -156.0000974
-40.25064927 -34.94151049 -170.2300674
-40.25064927 -24.36626405 -159.2576804
-41.63600127 -179.8819184 -93.63674939
11.23929773 -196.9768274 -156.0000974
-40.25064927 -6.513825139 -50.77327439
-29.76598227 -77.95661 -156.0000974
-40.25064927 -81.87570603 -5.868981391
15.71848273 -65.34257647 -156.0000974
-36.25064927 -134.5628499 -141.7266734
-15.57433527 -217.8201875 -152.0000974
-36.02866827 -27.69195741 -149.1181394
8.332292727 -2.49890483e-05 -40.23042739
-40.25064927 -32.16616048 -91.48107839
-13.56488927 -2.49890483e-05 -89.89004439
-40.25064927 -85.13704555 -142.9706774
-40.25064927 -47.37327103 -116.2163404
-36.25064927 -246.4674131 -114.5172804
31.25239873 -165.7888891 -156.0000974
20.03103173 -43.19058761 -244.0000974
-36.25064927 -191.2146562 -52.51890939
35.23674173 -43.62310748 -9.739088227e-05
-40.25064927 -65.4899428 -29.78727939
20.83898873 -2.49890483e-05 -52.57902739
13.95232073 -86.09180905 -156.0000974
-24.06623727 -242.8891365 -152.0000974
-40.25064927 -80.9383669 -68.23230439
-4.053509273 -40.9961645 -152.0000974
-40.25064927 -29.04513768 -68.05088039
-40.25064927 -223.8514517 -20.59194239
-36.25064927 -101.9782851 -88.62351739
-36.25064927 -118.7080745 -142.3297544
-36.25064927 -186.4217691 -98.37562239
28.28800973 -141.1051536 -156.0000974
-38.23848927 -27.13146998 -244.0000974
-32.22371227 -124.3122957 -9.739088227e-05
-28.76058927 2.247216431 -250.0000974
0.406350727 -164.2003956 -9.739088227e-05
10.94266373 -182.431956 -9.739088227e-05
-40.25064927 -8.416120779 -36.57529139
18.03121673 -2.49890483e-05 -22.70434039
1.315712727 -98.20248872 -156.0000974
-30.86265427 -133.071367 -152.0000974
24.09190073 -231.2053242 -156.0000974
-43.20465727 -50.11428184 -244.0000974
-15.29248827 2.059921101 -244.0000974
-0.305136273 -7.373868429 -156.0000974
-40.25064927 -71.20496956 -132.3079634
43.49328173 -2.49890483e-05 -9.754352391
0.986667727 -153.1086891 -9.739088227e-05
-4.741040273 -130.1756066 -156.0000974
-36.25064927 -60.50486607 -101.6557244
37.74935073 -239.9160975 -154.8432904
21.83556273 -6.184508869 -250.0000974
-29.05133127 -101.9342632 -152.0000974
35.44138273 -33.68592663 -250.0000974
-40.25064927 -131.3079019 -123.2164074
-36.25064927 -197.2533249 -20.69944439
16.37447673 -2.49890483e-05 -240.3702084
-36.25064927 -191.0725674 -134.8077984
-26.59608127 -2.49890483e-05 -224.8120964
-36.25064927 -201.4271974 -95.20928639
36.98962973 -89.38195163 -9.739088227e-05
-40.25064927 -148.0053854 -64.22560939
-37.16270227 -84.03977508 2.268608609
-40.25064927 -34.47810765 -152.7206674
-12.90502227 -55.05679808 -244.0000974
-0.482335273 -120.6452925 -9.739088227e-05
-36.25064927 -118.3674065 -70.68004039
-40.25064927 -140.438239 -120.5943854
-40.25064927 -139.7250216 -67.32621239
-40.25064927 -154.5978492 -72.01527939
-40.25064927 -152.2582236 -30.85139839
-31.63735027 -2.49890483e-05 -210.9129734
-14.87269327 -147.1551615 -156.0000974
-12.88513027 -15.79086523 -250.0000974
-36.25064927 -131.4760322 -24.30603739
42.42997873 -2.49890483e-05 -119.3932724
-9.916940273 -114.3443805 -156.0000974
-36.26340027 2.469436231 -117.5000974
-28.22108327 -171.1236973 -9.739088227e-05
-40.25064927 -247.7097109 -64.08817239
-40.25064927 -161.6755571 -53.73338539
35.93837973 -2.49890483e-05 -47.83194239
-40.25064927 -26.04854649 -29.22281139
38.55162973 -2.49890483e-05 -98.67068539
-36.25064927 -99.31933624 -53.85687239
37.15360173 1.653788991 -244.0000974
4.881423727 -121.7365519 -156.0000974
20.34406273 -7.353746619 -9.739088227e-05
13.71930273 -129.2183532 -156.0000974
-40.25064927 -123.6473126 -80.55272639
-7.395596273 -22.8303699 -156.0000974
-36.25064927 -40.30176912 -19.37139139
28.36654873 -90.29217525 -156.0000974
-40.25064927 -236.2932268 -68.29763639
-36.25064927 -145.7190319 -50.20446239
-40.25064927 -32.89501564 -16.41184139
-40.25064927 -245.7808602 -96.08587639
-40.25064927 -29.69353704 -110.9277414
7.173387727 -37.66801822 -250.0000974
-36.25064927 -44.96649878 -144.9457144
29.66611373 -173.9055422 -152.0000974
4.684231727 -238.8493417 -152.0000974
-8.063358273 -5.045913239 -152.0000974
-32.16386927 -58.8698993 -250.0000974
5.787253727 -227.8589813 -152.0000974
-36.25064927 -78.52283792 -17.04775839
-40.25064927 -17.44020491 -215.5635964
42.50561973 -2.49890483e-05 -21.07968939
-40.25064927 -15.16343429 -157.2255694
-40.25064927 -8.856818429 -216.8577324
-35.85078827 -4.275849319 -244.0000974
-3.967053273 -2.49890483e-05 -171.6591304
11.52137473 -2.49890483e-05 -108.5303324
-36.25064927 -185.2014024 -125.0795954
-25.32978027 -235.5165672 -156.0000974
-33.07580627 -2.49890483e-05 -125.6087594
-40.25064927 -69.88329059 -173.4068374
-36.25064927 -156.7169333 -146.7527134
-9.955444273 -1.113713469 -250.0000974
36.29458973 -214.980223 -9.739088227e-05
-41.83297927 -169.3359845 -40.67383439
-40.25064927 -215.3324375 -32.73278439
-21.55712127 -2.49890483e-05 -15.95659039
-37.48287327 2.499975011 -23.40683839
6.580361727 -209.7965088 -156.0000974
-40.25064927 -16.59963117 -107.4413194
8.601506727 -33.9285057 -9.739088227e-05
13.44920173 -165.4018468 -9.739088227e-05
-35.87841027 -239.8820391 -2.319568391
-40.25064927 -47.99541172 -216.2261684
-36.25064927 -69.03755359 -81.14083439
22.04823073 -28.39301463 -152.0000974
4.823567727 -205.3302094 -9.739088227e-05
6.340268727 -0.133083199 -250.0000974
9.831912727 -236.4968363 -9.739088227e-05
-40.25064927 -241.687114 -33.20903739
12.66744773 -226.4491416 -9.739088227e-05
-40.25064927 -190.9912665 -64.51268039
-40.25064927 -250.5397403 -128.0920794
-7.293616273 -41.43382481 -9.739088227e-05
4.557050727 -2.49890483e-05 -19.69877139
-40.25064927 -174.0022372 -49.83866039
-40.25064927 -121.7886106 -30.66085239
-40.25064927 -210.3517399 -42.91257239
-7.173018273 -54.89934975 -250.0000974
-9.298291273 -149.1315196 -9.739088227e-05
-39.92841127 -61.13289505 -244.0000974
-36.25064927 -57.04309997 -143.7855104
-42.62431227 -21.25690753 -37.22367539
-40.25064927 -216.555357 -89.70383439
29.74349173 -126.4407437 -152.0000974
-5.525854273 -2.49890483e-05 -242.7963884
4.039556727 -2.49890483e-05 -1.070954391
35.01451073 -2.49890483e-05 -86.53663839
-36.25064927 -179.506543 -73.32271239
-40.25064927 -147.1691479 -98.04067439
-25.37553827 -2.49890483e-05 -1.478169391
-40.25064927 -81.18042059 -169.9767294
8.884180727 -126.3384459 -9.739088227e-05
-8.837592273 -62.48857462 -9.739088227e-05
-18.70268927 -2.49890483e-05 -161.1108434
-26.55059427 -59.24631458 -9.739088227e-05
-40.25064927 -58.96916952 -23.87378239
-25.78146627 -2.49890483e-05 -193.3370584
30.24843973 -252.2685123 -156.0000974
17.33334173 -61.78238019 -9.739088227e-05
-36.25064927 -110.4481951 -87.96865539
11.89034273 -33.99919041 -152.0000974
-36.25064927 -182.5675077 -111.8037374
36.26063773 -26.12538113 -155.9560614
-23.85217927 -20.45349925 -152.0000974
-25.33835627 -34.237934 -152.0000974
0.01357772703 -2.49890483e-05 -109.6582964
-40.25064927 -70.89025641 -120.3846434
3.273608727 -28.11378453 -152.0000974
-40.25064927 -129.0448788 -5.643599391
-12.94308327 -199.8531901 -156.0000974
-1.566026273 -115.0325181 -152.0000974
-34.93398127 -2.49890483e-05 -157.8965474
-17.67617927 -140.4543387 -152.0000974
-36.25064927 -103.6429163 -31.84701639
-36.25064927 -142.3232447 -136.0263344
-37.81305127 -2.49890483e-05 -81.67052939
-7.901998273 -2.49890483e-05 -42.34288139
-4.753195273 -187.1168821 -9.739088227e-05
-40.25064927 -38.28677092 -119.6965344
-40.25064927 -101.7803334 -119.7996524
-6.414437273 -83.86789298 -9.739088227e-05
-11.00300727 -58.65133385 -152.0000974
-36.25064927 -249.5266951 -33.77573239
37.74935073 -180.2320768 -153.0059134
32.02816073 -2.49890483e-05 -177.4606834
13.10840273 -218.7476604 -154.9956994
-36.25064927 -233.2747799 -107.7744574
-40.25064927 -201.6527388 -36.66636739
14.77952473 -152.9597291 -152.0000974
-36.25064927 -54.2250064 -9.904739391
-40.25064927 -134.6765004 -91.65647339
-11.89159827 -39.34296906 -152.0000974
-27.51507027 -152.9902931 -156.0000974
-40.25064927 -155.4527805 -9.501254391
-36.25064927 -40.10517551 -32.59615839
26.72487673 -207.1075119 -152.0000974
-40.25064927 -70.57620997 1.142347609
-40.25064927 -0.735635349 -208.0701484
-40.25064927 -43.15469425 -72.72032339
20.84974173 -181.7507471 -156.0000974
-34.37116027 -97.26690952 -155.6897054
-37.09785827 -63.31828998 2.321506609
24.97960873 -2.49890483e-05 -184.3052764
9.238655727 -19.50206152 -156.0000974
-40.25064927 -115.3474985 -112.8158464
-40.25064927 -97.65572048 -46.35956139
-18.84416827 -45.43711829 -9.739088227e-05
-40.15534327 -149.17931 -148.9625094
-9.760398273 -0.500024989 2.328904609
19.36555073 -2.49890483e-05 -98.63444939
-40.25064927 -17.40998205 -176.3888814
4.441517727 -52.34682757 -9.739088227e-05
36.47048473 -141.6158195 -156.0000974
6.665553727 -174.235891 -156.0000974
-40.25064927 -28.00123531 -52.14953339
-36.25064927 -123.9817142 -57.55858839
-36.25064927 -238.2897663 -87.17280939
14.54836173 -65.03238844 -250.0000974
-40.25064927 -72.36572769 -55.31111839
-40.25064927 -137.9175112 -26.53536139
-40.25064927 -112.7676534 -9.632984391
3.175198727 -6.386831149 -244.0000974
23.66938173 -58.34234384 -156.0000974
-8.494006273 -11.5887849 -9.739088227e-05
-40.25064927 -0.509711099 -37.92296339
23.99262773 -150.0228971 -9.739088227e-05
-13.66386627 -47.28658026 -250.0000974
-36.25064927 -24.91305032 -134.0669104
-40.25064927 -117.5863231 -123.9207964
30.06760073 -40.09602923 -244.0000974
-40.25064927 -54.9585052 -225.6309084
-36.25064927 -200.3764207 -130.1412544
-4.923733273 -2.49890483e-05 -96.30120439
-36.25064927 -178.4440759 -146.0129324
-40.25064927 -208.0157012 -96.56727639
21.94233573 -84.86330623 -156.0000974
-36.25064927 -221.1617289 -65.82899539
-20.06963227 -84.99330255 -152.0000974
-25.04033227 -27.49324516 -9.739088227e-05
3.113793727 -2.49890483e-05 -206.9306924
-2.881614273 -18.78321683 -250.0000974
-40.25064927 -100.5044855 -5.811582391
36.87800473 -48.96555218 -152.0000974
-28.84540127 -2.49890483e-05 -99.14883439
-36.25064927 -13.34493751 -117.5922894
19.08068973 -0.500024989 -153.8438734
19.59181973 -105.2015293 -156.0000974
-19.19316927 -37.69324135 -156.0000974
28.88331773 -24.29428367 -9.739088227e-05
-6.204774273 -23.87475509 -244.0000974
-36.25064927 -215.3722085 -82.76866339
22.05895373 -2.49890483e-05 -206.1162474
-6.736202273 -186.738432 -156.0000974
-43.26209727 -147.4817307 -126.5078074
-23.49758627 -12.45603959 -154.9953314
-35.68772127 -40.21479766 -155.2210014
27.20736573 -9.953724849 2.451255609
-40.25064927 -225.2000082 -11.53373339
19.59410673 -201.3415022 -152.0000974
35.03822173 -28.82620281 -244.0000974
-40.25064927 -217.9850495 -137.4944624
-40.25064927 -194.8475587 -75.00182639
-31.64208627 -244.7244207 -152.0000974
-40.25064927 -93.84422111 -111.3033474
-36.25064927 -10.79790866 -73.79976639
-41.36152227 -103.7178443 -70.12002139
-32.69019727 -2.49890483e-05 -61.55435339
-40.25064927 -126.1172721 -41.51960639
-40.25064927 -11.0063641 -193.5533764
-36.25064927 -185.1031524 -67.82068139
-40.25064927 -118.1438881 -47.10494939
-16.93489927 -161.7061257 -9.739088227e-05
29.64525773 -10.46684781 -250.0000974
-36.25064927 -132.3510375 -107.8827184
7.720094727 -2.49890483e-05 -215.1186094
-40.25064927 -58.90315813 -64.58748839
-40.25064927 -166.1870323 -5.119300391
-35.81562927 -111.2581099 -2.219791391
-36.25064927 -55.29004579 -89.50123639
10.08004873 -113.049846 -9.739088227e-05
-31.81648227 -10.10264696 -250.0000974
31.31626273 -223.5731403 -152.0000974
-26.57465227 -167.5656992 -156.0000974
-30.04766627 -2.49890483e-05 -52.57599139
-40.25064927 -167.0188159 -85.62512639
18.32541273 -242.9207668 -156.0000974
-25.46010827 -49.05832537 -250.0000974
-36.25064927 -225.7913881 -93.26846039
-14.74640727 -2.49890483e-05 -194.4542644
21.15161173 -13.74793101 -250.0000974
6.218704727 -27.29542428 -244.0000974
-40.25064927 -152.3212443 -18.59313139
-40.25064927 -173.4023973 -98.83500139
-23.15550727 -2.49890483e-05 -174.7439134
-36.25064927 -47.5223177 -92.86052139
-32.93206927 -2.49890483e-05 -140.1005144
-40.25064927 -81.77597283 -32.14132539
-40.25064927 -135.2004417 -40.00023739
-1.276926273 -90.13080133 -9.739088227e-05
23.66071773 -120.4513153 -156.0000974
-36.25064927 -156.2486397 -125.4065884
28.07102273 -106.9581745 -156.0000974
-36.25064927 -250.3442317 -47.62934839
-42.25734227 -19.48890504 -244.0000974
25.59756873 -18.56213258 -156.0000974
-35.35204627 -37.89952913 -244.0000974
37.63384573 -39.00774731 -244.0000974
-40.25064927 -107.891003 -113.7217994
-36.25064927 -122.9154041 -86.86627639
-36.25064927 -191.8228493 -107.6733604
-40.25064927 -57.9803742 -132.4167084
-27.32521227 -185.2230087 -9.739088227e-05
-3.012484273 -249.0247305 -152.0000974
-40.25064927 -85.38222121 -50.35319339
-5.113669273 -67.39745182 -250.0000974
-1.307180273 -19.56109792 -9.739088227e-05
-32.90943527 -190.3364406 -0.1207663909
-36.63721727 -225.2345378 -126.5000974
-36.25064927 -155.7990248 -133.2214554
-4.764311273 -241.6622757 -9.739088227e-05
3.938780727 -187.0381438 -152.0000974
-40.25064927 -140.2583485 -79.00167939
-36.25064927 -242.7169547 -145.8049414
-41.12801627 -2.49890483e-05 -110.8820354
-40.25064927 -13.41753208 -45.60369339
-36.25064927 -150.857947 -55.59400539
1.004877727 -2.49890483e-05 -33.19768439
22.40494473 -136.5464722 -156.0000974
-36.25064927 -39.18213304 -103.0364314
-40.25064927 -149.1158396 -37.59251639
-40.25064927 -206.8546999 -113.0645284
-36.25064927 -162.8583589 -142.1383544
-40.25064927 -178.4312149 -139.7525444
21.35510173 -70.89244423 -152.0000974
34.90517973 -204.8135487 -156.0000974
-40.25064927 -1.998374479 -139.5515934
-40.25064927 -28.74127858 -77.09945939
-36.25064927 -40.43913815 -89.40565439
-36.25064927 -242.1282502 -61.33496439
-1.419189273 -47.26986291 -244.0000974
-38.20027627 -138.740379 -153.3004834
-40.25064927 -114.8134871 -26.26900639
-19.34360927 -23.08429133 -250.0000974
-36.25064927 -104.6886477 -23.81088639
-36.25064927 -95.28946563 -128.6967244
1.308425727 -2.49890483e-05 -42.48233139
25.81723573 -21.70096118 -244.0000974
5.430063727 -22.43568826 -250.0000974
-6.486781273 -2.49890483e-05 -68.35513839
28.83299473 -53.31919567 -250.0000974
-40.25064927 -158.2245976 -86.92202739
-1.444501273 -65.28869148 -244.0000974
42.69078473 -2.49890483e-05 -29.65169139
35.64699173 -2.49890483e-05 -214.4196284
-40.25064927 -192.1976989 -84.90549039
-36.25064927 -127.2747663 -138.7028704
-40.25064927 -36.84613478 -50.04782439
-36.25064927 -196.7482093 -116.7102834
-40.25064927 -93.50651488 -89.24726839
22.28505473 -155.365146 -156.0000974
14.29227073 -2.49890483e-05 -180.5301894
-36.25064927 -246.4999089 -80.21775239
-40.25064927 -3.640624709 -5.977205391
7.574344727 -139.1588736 -152.0000974
-40.25064927 -87.84069275 -59.89110839
-10.27473127 -132.682924 -152.0000974
12.55907173 -97.7646465 -156.0000974
-40.25064927 -128.1363857 -16.00004639
-40.25064927 -93.78564823 -9.057885391
27.22802873 -248.3329271 -9.739088227e-05
-36.25064927 -15.31113277 -22.90717839
-1.259013273 -200.7230528 -156.0000974
-37.50996027 -65.64549659 -250.0000974
-36.25064927 -156.1363206 -111.0949354
29.65656273 -6.375547749 -244.0000974
-40.25064927 -43.46106917 -169.9162474
-43.38444627 -2.49890483e-05 -51.44919939
32.41883173 -191.4818052 -152.0000974
-29.91926727 -125.1926838 -152.0000974
-36.25064927 -9.619347619 -64.48351939
-36.25064927 -73.06684937 -95.45008839
-40.25064927 -240.0517066 -43.23835839
-43.10940727 -0.500024989 -217.7043974
7.053102727 -2.49890483e-05 -232.9087134
-36.25064927 -122.7246538 -100.2364334
-40.25064927 -202.2044931 -65.79871739
-40.25064927 -103.7431781 -147.5947354
25.03264473 -204.3505485 -9.739088227e-05
37.74935073 -196.4767182 0.2077516091
21.39390573 -97.46706829 -9.739088227e-05
-36.25064927 -24.75221758 -89.79831039
-36.25064927 -158.4028169 -66.76830639
-40.25064927 -15.75285286 -123.5068674
15.12896773 -2.49890483e-05 -6.712101391
-36.25064927 -4.447113149 -97.28896039
-40.52380327 -2.49890483e-05 -73.30065539
-40.25064927 -197.4980124 -47.91036639
-40.25064927 -77.09825687 -11.24314139
23.43112973 -170.3288645 -152.0000974
-40.25064927 -209.0047156 -135.4296484
-21.49296627 -221.3122456 -156.0000974
-3.374252273 -2.49890483e-05 -5.053810391
-40.25064927 -61.99383431 -36.04373239
-11.44324427 -2.49890483e-05 -119.7117794
-19.12786427 -188.8154246 -9.739088227e-05
-40.25064927 -165.0902929 -114.8967634
-40.25064927 -64.56194576 -147.3310514
-40.25064927 -53.33820632 -199.7571214
-40.25064927 -218.4480229 -102.4652164
-40.25064927 -37.61521243 -63.71549739
-40.25064927 -243.8445169 -133.5374454
-15.51244827 -115.215477 -9.739088227e-05
-22.35716427 -75.03195195 -9.739088227e-05
8.485771727 -24.81035994 -9.739088227e-05
34.56305873 -45.63428063 -244.0000974
-36.25064927 -151.8478572 -4.823898391
-40.25064927 -56.20399903 -76.15254439
-36.25064927 -15.52467874 -138.6156524
-40.25064927 -83.52153569 -81.29063039
-40.25064927 -131.8888671 -135.0244904
-40.25064927 -239.317955 -11.23813039
-40.25064927 -12.45710068 -96.57513339
-36.25064927 -162.0913674 -31.10304339
-40.25064927 -139.9690724 -12.22194839
-36.25064927 -217.2277565 -75.91339839
-40.25064927 -170.4263169 -129.1944464
-29.61008627 -2.49890483e-05 -117.3558774
-36.25064927 -69.0341436 -70.65667539
-20.42536827 -8.698242049 -250.0000974
-9.489063273 -61.81446605 -250.0000974
-25.49955227 -115.1115689 -152.0000974
-36.25064927 -26.56056081 -5.128777391
-36.25064927 -113.0705167 -18.34872139
-36.25064927 -225.0204182 -37.86841939
-40.25064927 -80.10065847 -22.65019939
-27.11386527 -84.51250083 -152.0000974
-40.25064927 -63.43347374 -210.5392134
18.91674873 -32.10716891 -9.739088227e-05
27.98669773 -2.49890483e-05 -66.13102339
-40.25064927 -50.14494956 -58.38036039
21.13237473 -243.852023 -9.739088227e-05
-29.64526127 -242.1777318 -9.739088227e-05
-35.58228227 -2.49890483e-05 -9.765249391
-40.25064927 -64.5759758 -48.05396739
-35.17473127 -14.95078417 -244.0000974
-40.25064927 -139.7876108 -19.76728039
-20.46464927 -45.76464037 -156.0000974
12.74365473 -2.49890483e-05 -204.7142064
-36.25064927 -206.9207545 -75.91494639
-36.25064927 -110.5127827 -128.7963024
-19.69675727 -110.9520324 -156.0000974
-40.25064927 -217.242022 -47.12989839
-39.55088027 -2.49890483e-05 -173.5824094
37.74935073 -180.8711143 1.659861609
-24.63679127 -211.3919423 -9.739088227e-05
-35.79175527 -77.02731067 -149.7635914
2.893658727 -82.86592894 -152.0000974
-40.25064927 -229.127931 -111.7268274
-36.25064927 -247.6227133 -6.224330391
32.14738973 -39.4167719 -156.0000974
-36.25064927 -55.91662302 -57.98790739
3.193632727 -66.34331503 -9.739088227e-05
5.804266727 -201.327142 -156.0000974
-36.25064927 -28.83357954 -60.31063939
37.74935073 -117.2470669 -155.8693164
-36.25064927 -235.9657165 -143.4560734
30.70235473 -32.55787377 -9.739088227e-05
-14.86484627 -2.49890483e-05 -108.1111444
-40.25064927 -60.49094127 -12.65399139
-40.25064927 -52.93979919 -103.3251314
-36.25064927 -181.7483644 -9.363300391
33.33920373 -2.49890483e-05 -151.7934264
-40.25064927 -81.24679026 -176.9108464
-40.25064927 -25.43422315 -169.4069974
29.61708673 -72.73691389 -156.0000974
-40.18396127 -213.8809571 -148.6735284
-36.25064927 -161.1976166 -41.78357639
-36.25064927 -35.21801758 -78.26321139
-36.25064927 -44.86288992 -44.82042039
-41.36552527 -42.06551496 -250.0000974
7.161638727 -252.4732653 -152.0000974
-36.25064927 -91.51532785 -67.19195639
-10.81697727 -156.4575728 -156.0000974
1.260773727 -2.49890483e-05 -144.4319994
10.99106373 -2.49890483e-05 -97.31580839
-32.09632027 -2.49890483e-05 -3.038571391
-22.11345827 -59.36867135 -244.0000974
-40.25064927 -62.79759598 -156.5921324
-9.886388273 -191.9682772 -152.0000974
-43.24230627 -25.50002499 -57.82855739
21.04401473 -12.64137896 -156.0000974
15.67679273 -161.5754339 -156.0000974
-5.228445273 -6.121508479 -250.0000974
-40.25064927 -7.945319949 -183.1345534
-25.39617327 -217.2941562 -152.0000974
-12.00036427 -179.3806687 -9.739088227e-05
-34.38130227 -194.6115842 -151.3187434
17.46374973 -33.48830423 -156.0000974
-36.25064927 -199.5729994 -106.2840214
-40.25064927 -104.8880129 -42.04861539
-40.25064927 -93.15814523 -151.3051664
-36.25064927 -80.80946735 -75.75386839
-40.25064927 -221.0906931 -145.0031394
-36.25064927 -130.0569928 -88.52429739
-40.25064927 -80.23617241 -115.2853004
-17.61576927 -130.1523662 -9.739088227e-05
-36.25064927 -24.58180187 -43.12972939
-40.25064927 -3.763045869 -23.28921439
42.62295673 -2.49890483e-05 -46.35710239
-40.25064927 -36.47401204 -128.4230874
23.24263273 -33.45394843 -250.0000974
-40.25064927 -205.4870527 -145.7894924
2.575177727 -2.49890483e-05 -192.1294174
37.74935073 -237.2268162 1.653423609
-36.25064927 -108.9109086 -81.32432039
-40.25064927 -168.9465663 -54.41503339
-40.25064927 -46.52868342 -123.8121854
35.24775773 -126.0118014 -156.0000974
-40.60219827 -99.86462895 -17.69352839
-36.25064927 -62.28517716 -112.3227094
26.70093973 -18.6008896 -250.0000974
-36.25064927 -22.11724802 -104.0589594
15.12749373 -13.12198556 -152.0000974
6.016065727 -56.09929141 -250.0000974
-36.25064927 -154.9261237 -99.92261639
9.952872727 -2.49890483e-05 -11.86683539
-17.27853527 -2.49890483e-05 -115.3982094
-36.25064927 -77.29264555 -84.73395039
37.62045473 -9.776874859 -244.0000974
-40.25064927 -68.19895817 -191.0533654
-36.25064927 -43.76068401 -78.15184839
12.57340373 -33.55602019 -244.0000974
-43.01206427 -9.607207809 -124.2327174
-40.25064927 -90.98005993 -43.36741339
-40.25064927 -82.26949059 -154.7751854
-23.19164227 -182.8071397 -156.0000974
-37.21279327 -51.86896553 -250.0000974
17.28609673 -184.7759553 -9.739088227e-05
40.73650773 -2.49890483e-05 -179.4433664
24.34432573 -48.93054175 -152.0000974
-40.25064927 -115.9359937 -102.7476434
-40.25064927 -199.9916352 -121.2817434
-15.00896127 -2.49890483e-05 -151.2206994
-40.25064927 -27.43854094 -187.3130044
-40.25064927 -28.20914641 -129.7494864
6.979460727 -233.9598959 -156.0000974
-19.29281727 -2.49890483e-05 -64.06818439
-36.25064927 -11.01181415 -30.97102739
27.76252773 -100.385644 -9.739088227e-05
26.04345873 -246.9172988 -152.0000974
24.43050673 -124.6834189 -9.739088227e-05
-8.345727273 -53.97306478 -156.0000974
-40.25064927 -44.39604099 -29.02846339
-12.70603427 -22.2586423 -244.0000974
-40.25064927 -134.7557949 -103.0775184
3.164303727 -41.25791915 -244.0000974
-23.05825027 -18.61999681 -244.0000974
8.996744727 -161.8540313 -156.0000974
8.661419727 -77.09368787 -9.739088227e-05
-40.25064927 -52.76612685 -67.24390939
24.23226173 -47.62256146 -250.0000974
-38.31649527 -228.6520191 1.176732609
-32.96021927 -2.944265289 -250.0000974
-40.25064927 -15.55204044 -205.7717364
21.54343673 -224.3870753 -156.0000974
-40.25064927 -191.340741 -37.04193339
-29.01882127 -53.05014276 -9.739088227e-05
-9.900488273 -214.317279 -152.0000974
-40.25064927 -176.6693471 -29.76598739
-36.25064927 -26.53383419 -116.7354024
-34.13576227 -215.3718924 -155.7681324
-36.25064927 -222.4261431 -106.8789264
-36.25064927 -31.91448745 -139.4656924
-11.49468427 -40.98866084 -250.0000974
13.33380473 -99.03726611 -9.739088227e-05
-40.25064927 -244.359668 -21.28993339
36.29747573 -164.0977115 -152.0000974
-40.25064927 -209.840969 -13.24620239
-40.25064927 -77.35441897 -127.4016704
-36.25064927 -71.09672271 -18.56090539
4.529076727 -152.3600429 -156.0000974
19.72237573 -49.96394036 -244.0000974
-40.25064927 -67.1238533 -86.98249939
-31.66346127 -36.33640376 -250.0000974
31.95236073 -59.22243544 -156.0000974
-40.25064927 -162.5198139 -22.02988739
-40.25064927 -35.55490776 -37.75237039
-43.06040427 -182.726335 -71.55743639
-40.25064927 -20.01659697 -183.4534064
-40.75033227 -2.49890483e-05 -242.8036724
-40.25064927 -44.10844095 -61.11770339
-40.25064927 -216.4472053 -113.8787994
12.09216073 -40.59650669 -152.0000974
-36.25064927 -134.5531088 -63.43834639
-10.30315127 -29.04321386 -244.0000974
-36.25064927 -20.73250066 -10.67691039
-40.25064927 -69.48400532 -142.2869814
-40.25064927 -162.2774785 -62.72239839
11.29033773 -70.21724824 -156.0000974
-40.25064927 -114.4883036 -39.66363939
-40.25064927 -92.3945457 -23.17842139
-40.25064927 -107.2628746 -54.43512239
-15.85917727 -2.49890483e-05 -208.2259304
-40.25064927 -89.83613355 -173.4500424
-40.25064927 -30.8735677 -158.3534384
-40.25064927 -46.48792387 -208.0644624
-36.25064927 -187.7603097 -40.85557139
-17.85311627 -54.08809415 -250.0000974
-35.20665927 -44.90945498 -244.0000974
-40.58155227 -2.49890483e-05 -66.66279539
-40.25064927 -1.007740029 -44.95743339
-36.25064927 -17.49783702 -74.72297039
-36.25064927 -20.39155974 -119.0203514
-16.82431227 -90.6862912 -152.0000974
-40.25064927 -157.732177 -94.80155039
16.87783273 -113.2231109 -156.0000974
-4.941095273 -83.98728038 -156.0000974
3.930302727 -135.4550415 -156.0000974
-28.29503927 -15.6131525 -250.0000974
1.621849727 -2.49890483e-05 -157.8560554
-36.25064927 -61.34677165 -53.47944539
-31.94207427 -199.5381557 -9.739088227e-05
-31.35084927 -29.76055711 -244.0000974
15.35322373 -180.5955435 -152.0000974
-20.37343427 -128.9809219 -152.0000974
-40.25064927 -58.58455481 -186.6093634
-9.603801273 -71.67584237 -9.739088227e-05
-40.25064927 -160.0657431 -128.8406124
-40.25064927 -55.24844089 -239.6578064
9.395879727 -83.09143465 -152.0000974
13.19399873 -50.65494033 -152.0000974
-40.25064927 -33.03028497 -218.1880304
23.41036773 -176.2976489 -9.739088227e-05
-38.62655327 -37.83974581 0.8078546091
-36.66604827 -228.4788328 -154.6504114
-19.77813927 -66.20183131 -152.0000974
-36.25064927 -131.0823985 -99.24914939
-36.25064927 -115.2410222 -52.04957039
-40.25064927 -19.97776764 -231.7290524
-33.23742327 -92.18107357 -151.8701724
-36.25064927 -196.5943799 -37.03477339
-31.52549727 -86.22277224 -9.739088227e-05
-8.713884273 -33.10036521 -156.0000974
-40.25064927 -52.15628931 -145.1139774
-36.25064927 -77.04508026 -53.39437139
-12.81280827 -64.48160649 -156.0000974
-4.537743273 -100.2467071 -152.0000974
-36.25064927 -215.0655866 -54.52085239
-40.25064927 -94.37138173 -54.86703139
-19.29851827 -249.1646943 -9.739088227e-05
-9.131746273 -237.7292496 -156.0000974
-33.71504027 -207.1147094 -0.2839343909
-40.25064927 -5.136643089 -148.8798854
-36.25064927 -175.7463614 -135.4860334
3.856985727 -214.7781232 -152.0000974
-40.25064927 -176.1255776 -78.50631539
-39.02289827 -160.6854136 -152.2225334
-27.97880427 -146.5886466 -156.0000974
37.74935073 -168.6652764 1.354386609
23.22418373 2.225201621 -250.0000974
-23.71536427 -2.49890483e-05 -30.04088639
-40.25064927 -119.9495477 -117.2784624
-13.85923527 -62.45255185 -244.0000974
5.753367727 -2.49890483e-05 -123.1776714
-40.25064927 -49.57658576 -167.9435314
-36.25064927 -116.8580908 -64.45712039
-40.25064927 -169.7102327 -106.5897844
-2.945574273 -2.49890483e-05 -47.84634839
-18.03251727 -2.49890483e-05 -35.34776839
-36.25064927 -61.53915646 -122.4490344
7.247886727 -64.26571448 -250.0000974
0.583353727 -15.20143959 -244.0000974
-36.25064927 -151.308712 -44.68136139
8.907440727 -241.4754445 -156.0000974
-36.25064927 -64.62897576 -66.04261239
-40.25064927 -49.76425179 -40.84817039
