# .PCD v0.7 - Point Cloud Data file format
VERSION 0.7
FIELDS x y z
SIZE 4 4 4
TYPE F F F
COUNT 1 1 1
WIDTH 1244
HEIGHT 1
VIEWPOINT 0 0 0 1 0 0 0
POINTS 1244
DATA ascii
124.9273936 -2.4607868e-05 31.23382061
60.17538364 96.70188839 148.7499026
52.43367264 24.46549339 -145.2500974
10.31387864 -2.4607868e-05 -81.79956339
131.5432226 -2.4607868e-05 -1.396352386
211.3556436 -2.4607868e-05 71.11981761
73.10481064 66.56740939 -145.2500974
108.9448586 -2.4607868e-05 -27.00466139
230.7631956 -2.4607868e-05 -132.4424684
0.0002636411846 86.46175339 60.64358061
15.39213564 -2.4607868e-05 -12.80506639
84.21980164 -2.4607868e-05 33.57408061
214.2390716 -2.4607868e-05 7.558844614
0.0002636411846 43.93631939 72.03074061
206.1168496 -2.4607868e-05 -131.3070604
123.5102336 -2.4607868e-05 46.84511961
215.9441286 38.46864339 -145.2500974
110.3111476 95.68979839 153.7978476
40.61688264 31.78807839 -145.2500974
120.2392116 47.26016339 148.7499026
25.44906564 35.40920739 148.7499026
80.23460964 81.05513339 148.7499026
103.0872966 -2.4607868e-05 -5.145384386
88.71751664 -2.4607868e-05 120.3721446
36.04045964 -2.4607868e-05 -48.11640139
240.4216146 -2.4607868e-05 -105.7877124
-0.7082493588 68.55627639 -25.84923739
34.07359864 -2.4607868e-05 113.6451146
72.67029364 50.03167839 148.7499026
0.5012406412 -2.303766608 -71.14907939
140.9022576 -2.4607868e-05 -21.67529239
0.0002636411846 44.22147139 37.01716061
0.0002636411846 10.67712939 6.483416614
147.2277026 -2.4607868e-05 22.70676561
0.0002636411846 59.90368939 -49.02845039
0.0002636411846 6.679882392 26.66584161
28.55927064 20.80659939 -145.2500974
38.10227764 85.65767539 148.7499026
10.17607464 124.8504484 148.7499026
0.0002636411846 62.16890839 26.30743161
-1.211318359 -0.2355086079 148.7499026
189.0985686 14.45869139 -145.2500974
118.0230636 -2.4607868e-05 60.27783861
23.38031764 76.56682539 154.3993546
234.3743816 56.97646239 -145.2500974
240.5393736 41.05501939 -139.2500974
215.1901046 -2.4607868e-05 -94.04455139
227.7306696 -2.4607868e-05 137.5323856
247.9477826 9.906548392 -139.2500974
0.0002636411846 68.07287539 100.9580286
127.5723166 1.103369392 148.7499026
63.11588464 117.8845174 148.7499026
204.6291366 67.99997539 153.6129736
20.61812364 -2.4607868e-05 141.0836016
183.3139396 -2.4607868e-05 113.5863726
156.8352986 -2.4607868e-05 -120.1128004
97.88286064 23.28342739 -139.2500974
13.63923964 -1.243048608 -116.7075504
47.99126964 79.09027639 148.7499026
121.6151536 40.05906739 -139.2500974
225.6844076 45.35055939 148.7499026
237.4197696 -2.4607868e-05 -43.10790539
83.58404364 -2.4607868e-05 99.80658961
20.28815364 38.15124439 -139.2500974
17.06731164 -2.4607868e-05 14.40224461
0.0002636411846 63.25054439 123.5751356
42.52882764 -2.4607868e-05 46.35577761
212.8831366 -2.4607868e-05 -73.62257739
35.56936164 62.24213139 -139.2500974
48.70270164 -2.4607868e-05 13.61179261
134.4505196 54.10111639 -139.2500974
212.4374686 -2.4607868e-05 -29.84826739
200.3463696 -2.4607868e-05 130.0003186
54.41951064 13.11944239 -145.2500974
12.72883064 36.84300939 148.7499026
200.9528926 -2.4607868e-05 -81.31578239
16.90750564 63.36981939 -145.2500974
100.5922716 42.22466139 -145.2500974
175.0472576 -2.4607868e-05 103.8852696
60.53106864 -2.4607868e-05 41.99186561
99.04902164 -2.4607868e-05 46.89299961
127.1421546 -2.4607868e-05 117.3601056
183.6162036 -2.4607868e-05 -0.201671386
0.0002636411846 70.13372639 75.37510761
109.1020456 9.602229392 148.7499026
0.0002636411846 105.6424754 141.2638736
8.512514641 55.37087339 -139.2500974
214.3017436 -2.4607868e-05 43.73878961
184.0690946 -2.4607868e-05 -21.38420039
63.42801164 -2.4607868e-05 -12.33531939
189.7119516 40.24069739 148.7499026
248.8169486 -2.327181608 148.7499026
167.7960906 5.727551392 -145.2500974
131.8884206 -2.4607868e-05 85.94376461
160.7025786 50.99986239 -145.2500974
51.63351064 -2.4607868e-05 33.57778261
97.71129164 10.15257139 -145.2500974
3.498412641 -2.4607868e-05 3.392379614
219.0700556 -2.4607868e-05 17.41491161
0.0002636411846 46.91609139 -84.85919239
233.6802546 -2.4607868e-05 -70.63191839
208.1535996 -2.4607868e-05 -120.5446004
78.11873764 19.32814739 -139.2500974
65.42346264 -2.4607868e-05 -54.45054539
0.0002636411846 50.16073039 106.7449556
200.7089756 -2.4607868e-05 -105.6642274
143.7030826 -2.4607868e-05 95.02907961
112.1144806 -2.4607868e-05 141.3262576
22.56302164 107.9338374 148.7499026
115.8210086 87.78260839 148.7499026
46.61328564 104.1654924 149.7579156
193.1037736 29.72476239 -139.2500974
238.9716796 25.30112839 148.7499026
73.88678964 -2.4607868e-05 -93.72793239
0.0002636411846 28.18856239 53.06502861
-0.4274193588 83.51975139 32.65688861
4.452943641 19.54915439 -145.2500974
18.60463564 -2.4607868e-05 -103.6315684
141.0359176 44.76115739 -139.2500974
145.3588826 68.45956139 153.5748996
229.0936606 21.53774339 -145.2500974
215.3377816 1.516844392 -139.2500974
162.9219886 -2.4607868e-05 43.36555061
199.3466566 67.06259139 -139.2500974
0.0002636411846 3.123377392 115.8850696
135.6677896 -2.4607868e-05 65.89367661
17.09707664 -2.4607868e-05 -60.05695139
216.9734866 -2.4607868e-05 -41.41418439
229.0222526 -2.4607868e-05 62.86365061
65.68135564 -2.4607868e-05 112.1684456
0.0002636411846 17.54475439 30.49282061
121.8915046 -2.4607868e-05 -124.4982784
204.5093156 -2.4607868e-05 116.6279306
161.4981506 -2.4607868e-05 58.38662661
239.7473966 25.70118439 -139.2500974
-0.5510153588 -2.4607868e-05 -44.65126839
0.0002636411846 32.95313039 67.44747061
16.21109164 132.9999754 151.8413976
188.5667706 -2.4607868e-05 -40.81876739
150.9810216 -2.4607868e-05 -6.115470386
209.2327196 -2.4607868e-05 99.45726961
0.0002636411846 32.03479839 -130.9059424
73.94510564 7.305349392 148.7499026
33.07415064 19.76473039 148.7499026
31.43224764 42.19432039 -145.2500974
77.32826964 -2.4607868e-05 79.78320661
168.6225486 -2.4607868e-05 -25.44010539
32.34001464 -2.4607868e-05 48.90361161
0.0002636411846 51.79056539 -36.18132539
73.75477964 118.0546054 148.7499026
0.0002636411846 37.75301739 -45.60833539
111.1525466 -2.4607868e-05 -88.19193239
6.753999641 -2.4607868e-05 -32.54098939
188.5984416 -2.4607868e-05 -68.25093939
0.0002636411846 84.36492039 112.3202366
30.14025464 121.0580944 148.7499026
183.8662506 60.21724539 148.7499026
45.56861664 -2.4607868e-05 97.02252561
33.89880564 -2.4607868e-05 -121.8911684
248.6753246 -2.4607868e-05 46.99616161
115.4377886 -2.4607868e-05 -135.5551414
15.19820964 9.234120392 -145.2500974
20.20901664 -2.4607868e-05 -78.78676139
195.6670916 -2.4607868e-05 97.32003361
3.785873641 -2.4607868e-05 -91.01949439
54.06195864 -1.164175608 -23.46322139
59.82533464 85.45675239 148.7499026
159.1477116 -2.4607868e-05 105.2980306
0.0002636411846 24.03033339 13.73261961
89.64132364 -2.4607868e-05 -128.8049444
48.97930364 64.44373139 148.7499026
234.6376766 7.517804392 -145.2500974
70.59266264 77.39912039 148.7499026
53.93837464 -2.4607868e-05 60.86967661
203.1707536 -2.4607868e-05 46.09206261
181.5407206 2.513107392 -145.2500974
97.35699464 -2.4607868e-05 139.5019606
138.3075786 -2.4607868e-05 -77.57120739
211.1025726 -2.4607868e-05 -62.82694939
109.9669536 -2.4607868e-05 -124.4865404
164.4659856 35.31432039 -145.2500974
91.33808764 81.88052739 148.7499026
101.5169816 33.66865439 -139.2500974
80.58213964 -2.4607868e-05 62.05511361
201.4917816 3.724336392 148.7499026
2.228383641 -2.4607868e-05 135.8466336
71.79698264 -2.4607868e-05 -110.3826274
150.8926946 -2.4607868e-05 -70.69062539
180.4398056 5.295943392 148.7499026
149.0304646 2.104483392 -145.2500974
0.0002636411846 7.335456392 -74.31990839
147.5426856 -2.4607868e-05 118.4868856
66.91963364 -2.4607868e-05 -38.12945739
201.4814886 4.338747392 -139.2500974
230.6709366 -2.4607868e-05 100.1560766
207.4479166 -2.4607868e-05 81.03313461
103.9900556 -2.4607868e-05 19.49878561
198.8357026 -2.4607868e-05 -40.87705839
48.33950064 -2.4607868e-05 1.273456614
-0.8438643588 -2.4607868e-05 46.76162261
73.65737564 26.81965139 148.7499026
221.0065866 67.14383439 -145.2500974
225.0930836 -2.4607868e-05 -95.78463339
0.0002636411846 8.099113392 -127.3070994
-1.870084359 86.88573939 148.7499026
0.0002636411846 16.16812239 -22.62139639
45.47583264 -2.4607868e-05 68.08056361
159.5647926 -2.4607868e-05 146.3609246
162.8818576 11.29531739 148.7499026
133.0315656 -2.4607868e-05 39.35039161
149.8589206 36.30418639 148.7499026
109.0746816 48.35397339 -145.2500974
76.29529164 -2.4607868e-05 -74.55298239
16.59987364 83.60513639 152.4215306
168.6081166 -2.4607868e-05 -14.18523339
173.2871576 -2.4607868e-05 114.6787316
0.0002636411846 60.37703539 84.03937961
241.8472856 61.70884839 148.7499026
0.0002636411846 29.45432739 -37.25362039
45.77395964 -2.4607868e-05 -53.65423339
0.0002636411846 13.20937639 93.74465161
0.0002636411846 91.89153639 93.53981361
197.8254446 -2.4607868e-05 32.80686961
147.6921176 51.11106639 148.7499026
186.5496026 13.23461539 148.7499026
160.6778056 -2.4607868e-05 -129.2531444
52.32943164 -2.4607868e-05 -93.95701339
158.2662676 59.91277739 -139.2500974
149.7901906 -2.4607868e-05 -133.4517754
167.6036846 -2.4607868e-05 6.046272614
0.0002636411846 8.141255392 -107.6126424
166.8062796 65.28846639 -139.2500974
141.5159996 5.642099392 148.7499026
207.6632236 15.64037639 -139.2500974
111.1237986 78.34817439 148.7499026
34.88531764 -2.4607868e-05 -132.2482904
163.7725356 67.99997539 152.1581246
42.00188064 7.482059392 -139.2500974
152.6960706 -2.4607868e-05 4.322672614
103.7529336 -2.4607868e-05 124.4543256
55.50764864 61.96647439 -145.2500974
243.6485466 -2.4607868e-05 127.5879556
65.30162164 36.58709139 -145.2500974
143.1924306 -2.4607868e-05 130.8163586
0.0002636411846 37.77427639 -10.69710439
100.0525416 -2.4607868e-05 -42.19488439
53.59710664 8.168196392 148.7499026
73.07649764 -2.4607868e-05 -9.429167386
119.6015216 -2.4607868e-05 -22.24347739
29.43693264 -2.4607868e-05 5.638737614
197.2236906 46.52975139 -145.2500974
80.60774864 -2.4607868e-05 8.685755614
57.65643364 -2.4607868e-05 -69.53085639
96.18762064 -2.4607868e-05 -86.13276739
51.19640564 28.76484539 148.7499026
137.1193526 -2.4607868e-05 -52.63318439
91.28673764 -2.4607868e-05 -10.10452639
0.0002636411846 50.07036839 -104.3392614
240.7596006 -2.4607868e-05 137.2341526
130.3562706 -2.4607868e-05 -86.25364739
94.68871564 -2.4607868e-05 99.50287961
37.38302264 21.42853839 -139.2500974
26.83130364 -2.247110608 -139.2500974
210.3730766 38.98308239 148.7499026
52.38951964 122.1947124 148.7499026
-0.05927935881 66.79093339 147.2499026
0.0002636411846 85.52985639 125.4706856
43.15817964 -2.4607868e-05 -79.74053339
196.5506876 -2.4607868e-05 -50.29296339
195.8189256 67.04954639 148.7499026
0.0002636411846 24.66540239 139.2699226
80.03621264 -2.4607868e-05 132.9411616
159.2818426 -2.4607868e-05 -27.45146139
0.0002636411846 2.701271392 89.25054161
82.59632464 1.060513392 -139.2500974
81.94883964 62.23678639 148.7499026
218.6391346 -2.4607868e-05 -112.4427164
143.8786956 17.44706739 -145.2500974
92.92053164 -0.06746560787 148.7499026
60.77641664 -2.4607868e-05 135.8094366
60.69626564 -2.4607868e-05 -81.94373139
0.0002636411846 44.16879239 118.8471186
251.8299146 -2.4607868e-05 -30.13863939
141.3091826 -2.4607868e-05 -114.6526164
26.29525664 -2.4607868e-05 78.49665461
142.1757946 16.04040939 148.7499026
0.0002636411846 28.49102039 -107.8438934
98.05053664 57.88385339 -139.2500974
33.72030164 -2.4607868e-05 141.5754006
0.0002636411846 70.98323739 138.8029596
136.5642236 -2.4607868e-05 -34.10592539
222.9355176 30.82457339 -139.2500974
0.0002636411846 81.35396639 68.52937161
0.0002636411846 110.4533854 132.6456396
250.7253656 -2.4607868e-05 -83.25949339
84.45032364 -2.4607868e-05 -29.61049139
242.6202786 -2.4607868e-05 -135.9179714
134.1925636 33.57059639 -145.2500974
0.0002636411846 39.81061439 -60.03690039
193.4011616 -2.4607868e-05 136.2528666
0.0002636411846 26.36022539 107.4851196
0.0002636411846 55.31695739 47.23853761
64.13233064 6.396490392 148.7499026
90.57601564 10.16831239 -139.2500974
73.99960464 59.49147839 -139.2500974
185.4975926 -2.4607868e-05 -134.1393844
18.02933764 -2.4607868e-05 -35.34056839
0.0002636411846 37.42670439 -92.94379839
158.9375466 11.45012239 -139.2500974
0.0002636411846 62.69875539 114.2873056
40.50455164 6.818746392 148.7499026
140.5599606 36.01630239 148.7499026
20.48966164 -2.4607868e-05 122.3632756
89.65741964 67.41758939 -145.2500974
69.29313964 41.37328439 148.7499026
205.4213446 25.65885039 -139.2500974
28.83468864 -2.4607868e-05 62.34299361
79.11324564 -2.4607868e-05 51.93395261
0.0002636411846 63.51334239 66.41158061
-0.7155533588 17.30882239 145.3086706
79.56399564 -2.4607868e-05 108.5616366
25.16233064 -2.4607868e-05 111.0696996
180.9453686 17.19248439 -139.2500974
175.0509156 27.11828139 148.7499026
90.09517964 16.33587539 148.7499026
150.8861146 -2.4607868e-05 -58.22048539
195.8004766 -2.4607868e-05 -22.02540439
83.95635364 -2.4607868e-05 -59.43742539
204.1448156 16.61460139 148.7499026
126.2695086 -2.4607868e-05 95.80870061
85.59981564 104.7284664 148.7499026
55.90436564 -2.288949608 -34.90181039
13.06933064 57.82032839 148.7499026
0.0002636411846 48.69366939 81.58721561
133.7972916 -2.4607868e-05 7.642674614
127.4258176 -2.4607868e-05 126.7979376
0.0002636411846 22.77933639 89.16071861
5.826619641 -2.4607868e-05 74.17456961
28.90912364 -2.4607868e-05 -58.82523239
195.0613406 -2.4607868e-05 61.94300761
233.7653976 41.03366339 148.7499026
120.0427456 -2.4607868e-05 69.21093161
0.0002636411846 24.90014039 22.84417161
118.6684706 -2.4607868e-05 -104.9910054
181.0242556 43.23631339 -139.2500974
10.94924264 47.38685239 -145.2500974
234.3450796 -2.4607868e-05 -82.28137139
141.3887876 52.04122339 -145.2500974
0.0002636411846 17.89210539 72.73980761
225.1535876 -2.4607868e-05 -35.00781139
227.6089196 -2.4607868e-05 10.40979161
104.2268866 -2.4607868e-05 61.36395961
86.96275164 -2.4607868e-05 -109.8869974
97.37184264 -2.4607868e-05 -70.52415539
22.44768364 -2.4607868e-05 -67.38705939
48.24790864 46.27924539 148.7499026
190.4140716 35.93468639 -145.2500974
81.24694864 44.72045539 -139.2500974
0.0002636411846 108.1510774 114.9288686
225.4451436 -2.4607868e-05 -74.98749839
67.10865064 3.556838392 -145.2500974
219.4470536 -2.4607868e-05 -53.10738739
0.0002636411846 42.67548539 -118.3437834
196.5912986 -2.4607868e-05 -89.18172839
173.1924026 55.85260439 -139.2500974
164.7203916 51.67174739 148.7499026
162.6628476 -2.4607868e-05 -43.75199039
0.0002636411846 23.37532139 37.31898961
228.3854056 59.90969439 -139.2500974
144.5834576 -2.4607868e-05 10.95872761
106.8272106 -2.4607868e-05 -67.01903639
0.0002636411846 19.71469539 126.1560736
191.1961876 31.13822339 148.7499026
0.0002636411846 98.70052039 105.7746106
12.47822964 24.48023739 148.7499026
223.6782716 39.73388039 -139.2500974
140.2241246 -2.4607868e-05 110.8813906
87.66630964 -2.4607868e-05 82.91189061
178.5623966 -2.4607868e-05 -81.40415639
52.06242564 -2.4607868e-05 109.6896746
145.0246046 24.07633839 -139.2500974
30.09719864 78.05865839 148.7499026
202.2792126 25.54395139 148.7499026
94.77181864 -2.4607868e-05 0.258121614
188.4187106 52.97247439 -145.2500974
54.21323164 48.21809539 -145.2500974
250.7290946 26.15080939 -139.2500974
150.6940556 50.37713839 -145.2500974
190.1707276 21.32210539 -139.2500974
164.7768816 25.30612539 148.7499026
210.8416356 -0.6188066079 148.7499026
216.2121416 18.72992139 -139.2500974
81.03265264 7.373878392 -145.2500974
8.730569641 85.18308839 148.7499026
250.5234886 -2.4607868e-05 -113.3642264
0.0002636411846 62.91565039 -11.20879539
0.0002636411846 36.83919339 -72.62707639
251.4039586 -2.4607868e-05 60.68156061
135.8441626 -2.4607868e-05 -13.89575839
64.36401764 -2.4607868e-05 50.74937061
152.1407616 62.73219439 -145.2500974
26.82192864 59.28438039 -145.2500974
154.9477846 -2.4607868e-05 82.71919461
26.62009664 -2.4607868e-05 42.25996861
0.0002636411846 9.021648392 125.2934456
104.4664356 -2.4607868e-05 29.05831561
183.9150856 -2.4607868e-05 46.59652661
70.33247464 52.83157339 -145.2500974
0.0002636411846 22.32270939 -101.6466444
106.5610146 26.52762139 -139.2500974
49.19516564 112.7393674 148.7499026
100.2320326 -2.4607868e-05 109.9522886
0.0002636411846 79.74300739 96.67500461
0.0002636411846 66.08030339 51.71099261
242.1196296 -2.4607868e-05 82.60725461
0.0002636411846 6.204537392 100.0525476
102.8152406 48.85646239 -139.2500974
12.60303764 -2.4607868e-05 83.56439061
240.8582706 -2.4607868e-05 111.0539876
21.21045964 -2.215631608 -112.6030234
17.91056364 100.4995754 148.7499026
111.8336836 53.95556439 -139.2500974
184.5671526 66.26364639 -139.2500974
195.1820546 13.82565239 148.7499026
-0.2541643588 -2.4607868e-05 -98.64358339
0.0002636411846 34.09335839 146.4869956
0.0002636411846 70.67468839 23.43364461
124.0513426 49.70566739 -145.2500974
0.0002636411846 49.79215639 -95.73232139
70.42403664 -2.4607868e-05 84.98226461
0.0002636411846 31.57241439 88.59337261
84.78991764 -2.4607868e-05 -95.08789839
125.4973216 59.69782839 -145.2500974
108.0180876 54.41947339 148.7499026
137.9024436 47.39575339 148.7499026
208.4009676 -2.4607868e-05 126.5489576
130.4231456 7.915784392 -139.2500974
27.57076464 46.95094939 -139.2500974
46.35686364 -2.412583608 -27.01404039
52.41144864 -2.4607868e-05 91.85597761
43.93634864 -2.4607868e-05 -10.29508839
57.78691364 -2.4607868e-05 117.2820516
0.0002636411846 54.25363539 138.6295726
89.33957664 -2.4607868e-05 -81.00553839
0.0002636411846 32.49783039 14.89964661
50.49594264 -2.4607868e-05 22.56017461
107.1058736 30.34867739 148.7499026
61.59771164 -2.4607868e-05 65.15200461
6.980739641 45.76044939 148.7499026
176.6133166 -1.030533608 -139.2500974
26.31244464 3.896415392 -145.2500974
45.61621664 44.66712739 -145.2500974
0.0002636411846 43.64014339 52.11575261
6.920244641 29.79307839 -145.2500974
78.00636364 39.61752939 -145.2500974
153.2495596 -2.4607868e-05 41.03035661
208.6958806 35.69228339 -139.2500974
175.8992436 45.54351939 148.7499026
60.82045264 -2.4607868e-05 -130.9528184
227.3179466 60.82737639 148.7499026
65.21959464 11.72502339 -139.2500974
181.6683496 -2.4607868e-05 142.2741236
103.5311776 95.52059639 148.7499026
200.0882026 -2.4607868e-05 -1.325439386
135.4958546 -2.4607868e-05 -94.88432739
0.0002636411846 15.70058139 -121.6614404
77.64438164 -2.4607868e-05 0.779312614
47.64711564 -2.4607868e-05 -125.5595484
56.99753564 36.30861439 148.7499026
0.0002636411846 55.95272639 20.51153761
216.3635216 48.65354839 -145.2500974
127.7631816 51.03746439 148.7499026
109.1701626 70.16102739 148.7499026
121.3507426 -2.4607868e-05 -9.126900386
119.6420426 -2.4607868e-05 123.6481896
115.7812846 -2.4607868e-05 87.91594161
244.5329286 49.76089939 -139.2500974
57.52912964 -2.4607868e-05 80.81798861
41.91857764 67.58603239 -145.2500974
227.0892906 -2.4607868e-05 19.87616261
116.6266846 24.77227439 -139.2500974
111.6186606 -0.3627116079 -145.2500974
23.77861264 28.80533839 -145.2500974
230.9292886 -2.4607868e-05 129.5514066
67.16332864 -2.4607868e-05 31.78078861
0.0002636411846 18.65536639 48.10139761
60.07793764 54.17522739 -145.2500974
240.6970766 -2.4607868e-05 -114.1417374
22.38710064 20.02524039 -139.2500974
97.83376864 2.788941392 -139.2500974
121.3222876 -2.4607868e-05 108.5180366
104.6315516 67.99997539 -144.0043194
248.7310256 -2.4607868e-05 88.38321561
86.08845664 55.45705039 -139.2500974
79.59296664 -2.4607868e-05 -129.1630884
127.3799316 17.07225539 148.7499026
65.24164364 109.8367494 148.7499026
227.3233736 3.321020392 -139.2500974
229.3753006 -2.4607868e-05 -113.8076514
178.4138936 -2.4607868e-05 87.97448961
131.5119076 -2.4607868e-05 134.2948756
111.0843176 -2.4607868e-05 94.83945361
211.8951806 -2.4607868e-05 51.68077561
153.3359466 57.18878239 148.7499026
228.1739796 -2.4607868e-05 118.1914106
68.65710464 21.35016339 -145.2500974
0.0002636411846 46.16233939 -42.26801239
63.87204164 -2.4607868e-05 -4.057739386
39.32141564 -2.4607868e-05 -0.888237386
23.54978064 -2.4607868e-05 -2.689318386
58.62226764 24.92333439 148.7499026
54.52195864 7.411259392 -139.2500974
129.7190296 38.41133139 -139.2500974
250.9075486 -2.4607868e-05 71.98515961
0.0002636411846 18.33949139 -74.89212139
-1.257707359 -2.4607868e-05 66.80074461
82.79650264 26.11703139 -139.2500974
17.84815864 15.14645139 148.7499026
0.0002636411846 57.43765139 102.8926456
239.3340636 65.75147839 -139.2500974
-0.5710693588 77.57054439 11.23554761
86.35744364 119.6436264 153.4915806
0.0002636411846 42.64444739 -26.83415339
0.0002636411846 19.56106439 -2.135679386
0.0002636411846 82.08245539 87.39887361
75.62286964 -1.198557608 148.7499026
238.6349116 -2.4607868e-05 -24.87524739
137.7177176 62.21490239 -139.2500974
105.3684486 -2.4607868e-05 -117.1833854
202.7827126 -2.4607868e-05 -55.58960939
127.5669786 -2.4607868e-05 64.78254461
243.4029996 -2.4607868e-05 -9.860099386
78.04613164 -2.4607868e-05 26.74050561
74.20677264 129.1785754 148.7499026
65.87753564 67.99997539 -139.4498764
52.80683564 -2.4607868e-05 -132.9199994
0.0002636411846 11.38362839 -1.638412386
10.10061964 3.132106392 -139.2500974
145.3376506 35.80404039 -145.2500974
117.2113666 -2.4607868e-05 -78.24361339
167.7132336 56.18866339 -145.2500974
250.9255986 -2.4607868e-05 26.16208761
161.0637066 45.53303039 -139.2500974
91.39064864 -2.4607868e-05 -120.8732834
235.5064786 47.10272139 -145.2500974
202.1561066 48.15695239 148.7499026
105.9860366 -2.4607868e-05 -100.6731514
0.0002636411846 13.88409639 -30.56730739
90.07787564 -2.4607868e-05 20.84803761
212.8988196 56.49932839 -139.2500974
157.8337356 -2.4607868e-05 -53.38296239
229.0415526 -2.4607868e-05 79.19733761
249.8651586 -1.292382608 -139.2500974
130.5142356 19.50808939 -139.2500974
0.0002636411846 52.59254539 -16.47968539
97.45094564 76.54415939 148.7499026
241.8973036 1.815958392 148.7499026
129.4659416 -2.4607868e-05 -70.92517539
26.78214664 -2.4607868e-05 -95.28686239
141.1104936 3.507544392 -145.2500974
5.011072641 -2.4607868e-05 -14.69020239
224.5025076 -2.4607868e-05 91.74049961
172.4160286 -2.4607868e-05 34.39766361
26.28417264 -2.4607868e-05 -10.62364839
54.97350864 -2.4607868e-05 -115.5473314
160.2402136 -2.4607868e-05 -71.23438439
5.864359641 -2.4607868e-05 -118.1382364
-1.451834359 49.30042739 -137.7500974
226.2289446 13.91178939 -145.2500974
131.2734136 62.51493639 148.7499026
187.4148186 -2.4607868e-05 -113.8108084
106.3948876 -2.4607868e-05 43.77224661
84.28909664 34.41546439 -139.2500974
32.50871664 113.4455184 148.7499026
161.4758516 23.60386939 -139.2500974
23.85255764 70.97122439 148.7499026
56.16991064 -2.4607868e-05 -15.59353539
234.3197696 -2.053642608 -139.2500974
146.8425806 -0.2523646079 148.7499026
178.5262276 -2.4607868e-05 63.45860061
35.41602764 64.18340839 148.7499026
139.7450836 65.63232039 148.7499026
-1.677157359 114.4535424 147.2499026
222.1864276 -2.4607868e-05 123.3555606
143.4304766 -2.4607868e-05 57.79979661
8.852892641 99.08898639 148.7499026
250.8356826 -2.4607868e-05 -70.38907039
0.0002636411846 20.95100939 56.19501161
0.0002636411846 79.28333939 120.3826056
158.1801316 2.752925392 -145.2500974
194.5501226 8.766440392 -145.2500974
112.6318526 23.40482239 148.7499026
2.279479641 -2.4607868e-05 23.18919461
207.1780896 -2.4607868e-05 4.093716614
207.2103146 31.67102139 148.7499026
0.0002636411846 46.53191139 -5.347943386
0.0002636411846 23.15448339 -62.21051039
65.53662064 46.59089039 -145.2500974
130.9555286 26.43922539 -145.2500974
240.1823876 36.03550939 -145.2500974
86.89555064 38.82908439 -145.2500974
15.77819264 -2.4607868e-05 106.8384866
59.67199264 40.48395439 -139.2500974
118.4699496 6.622079392 -139.2500974
8.336212641 132.9304344 152.9568946
0.0002636411846 46.97783139 64.52063261
210.2074156 -2.4607868e-05 -100.0329214
197.6415276 51.47907939 -139.2500974
231.7534816 9.653372392 148.7499026
0.0002636411846 79.32076339 139.6587046
44.78221564 61.00886939 -139.2500974
20.59583364 54.00277639 150.1083406
171.9179726 21.21044839 -139.2500974
46.41561564 1.790489392 148.7499026
240.4596356 13.66127339 -145.2500974
240.5002486 6.677216392 -139.2500974
0.0002636411846 42.41993739 6.189905614
128.6971806 -2.4607868e-05 -22.90047539
0.0002636411846 5.827680392 -60.86072039
183.9623096 -2.4607868e-05 94.94401661
-2.237544359 23.53796939 -139.2500974
196.0366286 -1.756424608 148.7499026
168.4736706 -2.4607868e-05 -89.15168339
180.6605486 -2.4607868e-05 21.07846261
66.75387264 100.7161774 148.7499026
98.55300364 67.30745639 148.7499026
67.70252364 -2.4607868e-05 14.50067261
113.9358466 40.31536039 -139.2500974
111.3121136 27.19931739 -145.2500974
15.67646364 46.58387839 -139.2500974
178.2421486 18.26726539 148.7499026
178.8678346 29.90471439 -145.2500974
85.68633564 -2.4607868e-05 138.8759036
80.96934064 12.15726039 -139.2500974
187.8489326 -2.4607868e-05 -14.70828339
25.23376764 41.89764139 152.8220446
50.18991264 41.02886339 -139.2500974
124.9574226 -2.4607868e-05 -40.84432339
135.6161616 -2.4607868e-05 50.55812461
245.7528826 -2.4607868e-05 -34.77544239
0.0002636411846 40.37571439 -79.39358739
21.99327464 65.36417939 -139.2500974
167.5857236 50.69204339 -139.2500974
0.0002636411846 52.04081739 -67.97237339
0.0002636411846 6.961122392 50.26951861
221.6481596 52.41781339 -139.2500974
194.5525526 23.76547039 -145.2500974
124.3797746 -2.4607868e-05 3.675115614
0.0002636411846 55.77270339 67.76736161
168.6581186 41.95768039 148.7499026
94.17628664 -2.4607868e-05 -102.1049454
143.4643836 -2.4607868e-05 -104.1160664
226.8584476 25.42992839 148.7499026
53.26844864 -2.4607868e-05 134.6596186
38.99196664 48.38147539 -145.2500974
119.3295126 64.12066039 -145.2500974
195.3537086 -2.4607868e-05 -138.2081484
232.2982046 -2.4607868e-05 -93.43400439
141.1293336 -2.4607868e-05 102.1547266
64.72366564 125.2820784 148.7499026
49.10315664 -2.4607868e-05 40.70980861
177.4903016 -2.4607868e-05 -99.01226739
60.70415564 -2.4607868e-05 143.3649716
208.8022746 22.55582239 -145.2500974
68.21945064 -2.4607868e-05 -65.28534239
-0.1870693588 40.18656539 -137.7500974
156.0282286 41.93268739 -145.2500974
178.3585386 50.26381339 -145.2500974
218.9122286 18.42534039 148.7499026
176.2228046 -2.4607868e-05 78.64821261
137.1535706 -2.4607868e-05 -134.1777524
0.0002636411846 70.29846539 92.73309961
230.2651386 -2.4607868e-05 -8.089095386
0.0002636411846 8.485351392 -92.91259039
169.0129256 -2.4607868e-05 16.35582161
143.0027256 -2.4607868e-05 -95.35056539
166.2061496 -2.4607868e-05 -124.1577384
72.89162764 34.20751239 -139.2500974
105.0210266 37.56551039 148.7499026
0.0002636411846 28.78999139 -45.55577239
68.40103264 20.87233639 148.7499026
0.0002636411846 20.27978939 -51.23632939
35.43860264 14.19677839 -139.2500974
0.0002636411846 69.98008839 120.3053376
124.4512946 -2.4607868e-05 -91.68860739
120.5189126 39.78564639 148.7499026
96.19333264 99.77126139 148.7499026
174.7546276 -2.4607868e-05 129.8144936
102.2119616 -2.4607868e-05 -54.12892139
21.40661164 -2.4607868e-05 93.71638461
7.085719641 16.00194839 -139.2500974
0.0002636411846 34.64757839 4.281653614
248.0105956 -2.4607868e-05 96.23247361
98.23984264 -2.4607868e-05 129.4400646
7.753141641 116.4192494 148.7499026
60.12559964 6.098631392 -145.2500974
19.38503264 16.83745139 -145.2500974
7.880422641 -2.4607868e-05 142.1375516
225.7620366 -0.007469607868 148.7499026
139.8349166 25.37678339 148.7499026
31.95913464 -2.4607868e-05 -100.6090004
221.0051686 7.272474392 -145.2500974
210.9847046 -2.4607868e-05 134.8481886
154.3238966 67.99652639 -139.2500974
160.2184196 -2.4607868e-05 96.51659861
30.15036664 -2.4607868e-05 119.9149876
25.91735564 -2.4607868e-05 -25.12116339
173.2821106 -2.4607868e-05 58.21978461
103.6726916 -2.4607868e-05 -88.49930839
226.4490326 -2.4607868e-05 -55.45243839
-1.553927359 67.21955039 -145.2500974
119.5588396 21.36273439 -145.2500974
191.0981296 58.76773839 -139.2500974
22.54316164 -2.255948608 65.45349561
218.5611756 -2.4607868e-05 24.76898661
128.9391986 69.50677639 148.7499026
228.0180966 -2.4607868e-05 -125.6056484
162.3390426 -2.4607868e-05 139.2533916
1.387369641 30.62476039 -139.2500974
0.0002636411846 56.49604339 3.526517614
44.45757764 48.76075039 -139.2500974
162.7046726 27.67229039 -145.2500974
234.6977886 -2.4607868e-05 141.3906166
31.28847164 50.83918939 148.7499026
217.3326806 -2.4607868e-05 65.64438161
0.0002636411846 50.87407639 53.28985861
0.0002636411846 34.57059939 -101.9756684
186.3052826 -2.4607868e-05 81.71714761
22.81481264 128.1317564 148.7499026
0.0002636411846 5.832275392 82.63376161
28.51379664 -2.4607868e-05 27.06209061
0.0002636411846 38.07733339 101.2816266
26.69830964 16.18623939 148.7499026
186.3562566 -2.4607868e-05 120.2303726
0.0002636411846 10.59032739 105.8925626
248.0135426 35.77222339 -139.2500974
216.0368496 -2.4607868e-05 78.90442761
27.91632564 25.59292839 148.7499026
0.0002636411846 34.70413439 36.21973861
0.0002636411846 27.49219239 129.8556136
123.6945016 -2.4607868e-05 -55.63243739
57.30087864 67.99997539 -141.5657704
100.4222246 -2.4607868e-05 -32.23240939
151.2866576 -2.4607868e-05 74.86136461
140.4555326 28.11583639 -145.2500974
74.68104664 -2.4607868e-05 -21.17154939
109.1607746 -2.4607868e-05 110.7852976
5.610324641 -2.4607868e-05 -75.76708439
50.25065564 -2.4607868e-05 -78.19031839
31.36958564 13.87343139 -145.2500974
245.1237326 -2.4607868e-05 -97.53709439
172.6953426 -2.4607868e-05 -5.280467386
176.6636576 -2.4607868e-05 121.0939406
45.71940064 9.110124392 -145.2500974
209.1582466 -2.4607868e-05 88.13191961
109.4787776 -2.4607868e-05 -1.751468386
0.0002636411846 23.31993239 -80.14013639
93.51584564 -2.4607868e-05 42.23280061
116.0513966 -2.4607868e-05 -58.80134739
116.6493316 -2.4607868e-05 -45.28488439
81.50398264 -2.4607868e-05 -79.54410139
34.09842864 66.45184239 -145.2500974
37.21185564 -2.4607868e-05 -75.24280039
112.8878966 32.49122139 -139.2500974
97.05729264 16.13749539 -139.2500974
175.9015606 13.02040239 -145.2500974
93.17609964 -2.4607868e-05 72.13424361
250.8674846 7.234982392 -145.2500974
0.0002636411846 6.839868392 60.63223461
56.00351964 53.59599839 -139.2500974
33.63989464 8.905098392 148.7499026
7.365550641 45.77316839 -139.2500974
77.81660264 -2.4607868e-05 -53.70302939
203.8064196 -2.4607868e-05 -114.8559664
125.8211756 38.28127239 -145.2500974
85.90185664 88.43213839 148.7499026
167.0111606 9.541763392 -139.2500974
205.9219326 -2.4607868e-05 -88.39715739
215.7904716 -2.341972608 -145.2500974
137.3458596 -2.4607868e-05 -5.569022386
38.80336364 -2.4607868e-05 65.52244361
184.7349926 42.09868039 -145.2500974
139.7871536 11.05106939 -145.2500974
10.45699264 58.71706739 -145.2500974
165.7561246 -2.4607868e-05 -135.4498314
8.613454641 17.48982839 148.7499026
127.4148336 35.69533439 148.7499026
140.7465866 -2.4607868e-05 -70.02153039
36.46986364 26.00394539 -145.2500974
8.197788641 -2.4607868e-05 47.51712161
227.1354036 24.81992239 -139.2500974
194.6867536 45.31058539 148.7499026
154.4552026 50.90711539 -139.2500974
1.147904641 121.0097224 148.7499026
52.67468564 -2.4607868e-05 -64.29925139
27.40183564 -2.4607868e-05 89.01452261
90.99337664 -2.4607868e-05 -17.19626939
73.54332264 33.89777739 148.7499026
84.13873564 -2.4607868e-05 91.69174861
167.2862526 -2.4607868e-05 -71.88425339
0.0002636411846 50.48996139 -126.0399054
104.1123086 -2.4607868e-05 -107.5038974
34.80553764 -2.4607868e-05 57.72569261
0.0002636411846 34.02052639 57.01564061
-1.070690359 9.592635392 148.7499026
241.0618646 53.96988139 148.7499026
46.07508764 -2.4607868e-05 28.02025161
226.4621596 46.57551139 -145.2500974
71.61464564 56.97358839 148.7499026
101.4048836 30.05962239 -145.2500974
13.47227064 -2.4607868e-05 -89.08901139
181.5756426 -2.4607868e-05 -41.09711239
82.85884664 97.32928239 148.7499026
42.16362764 35.02879039 -139.2500974
64.77867664 -2.4607868e-05 96.84201061
0.0002636411846 117.2347354 130.9597886
0.0002636411846 16.80129939 112.0039126
90.34390664 60.98744339 -139.2500974
123.7611776 -2.4607868e-05 18.20156661
0.0002636411846 63.05768539 -4.242540386
121.4765236 -2.4607868e-05 39.06813261
204.5159926 58.90832139 -139.2500974
107.6070456 -2.4607868e-05 -132.6449294
186.8646516 20.18915439 148.7499026
100.7742476 46.40457339 148.7499026
209.4507296 51.29842539 148.7499026
202.7902256 -2.4607868e-05 75.89548861
40.73159064 -2.4607868e-05 -125.0598024
234.6802346 25.64382439 -145.2500974
80.84663664 -2.4607868e-05 116.2830106
0.0002636411846 39.02968139 22.40830061
0.0002636411846 21.60772739 -93.95505739
104.6215226 -2.4607868e-05 -47.64867339
-0.04676935882 6.529143392 -136.2792654
93.23306864 26.48499639 148.7499026
96.29391264 64.24053739 -145.2500974
134.8777726 -2.4607868e-05 -64.79846239
238.9713286 62.11694039 -145.2500974
178.0704416 -2.4607868e-05 -112.7983324
0.0002636411846 16.17868939 -128.5382274
246.1455346 55.26513039 -145.2500974
0.0002636411846 92.39484039 75.51979661
19.79664464 -2.4607868e-05 41.42622361
0.0002636411846 59.72291339 14.76631161
199.5551176 33.39969939 148.7499026
0.0002636411846 57.13973539 -42.74229139
0.0002636411846 8.724816392 37.31410161
0.0002636411846 30.59150239 -15.20262439
161.8096976 33.08757839 -139.2500974
6.682210641 -2.4607868e-05 32.22776361
139.2301276 -0.8237116079 148.7499026
45.31634564 -2.4607868e-05 108.4683886
223.6076756 67.23124039 148.7499026
113.6499336 56.71925339 -145.2500974
58.86169264 26.83409539 -145.2500974
239.6693366 -2.4607868e-05 -49.57040239
113.8383286 57.98748239 148.7499026
0.0002636411846 0.1117253921 -33.51739739
116.7939796 -2.4607868e-05 45.64400061
165.4249256 -2.4607868e-05 130.9904546
44.32328164 126.7565984 148.7499026
216.2720596 67.99997539 -140.4168364
0.0002636411846 52.13273039 -54.85534939
0.0002636411846 63.49486439 106.0168676
179.2424156 -2.4607868e-05 -26.17724039
199.5455916 -2.4607868e-05 139.4517556
0.0002636411846 37.61330339 117.0599136
89.72408764 28.03704739 -139.2500974
77.71215064 32.09046639 -145.2500974
71.62036764 22.46529239 -139.2500974
3.236525641 37.05475539 -145.2500974
197.7254746 -2.4607868e-05 114.6331836
0.0002636411846 13.49394139 61.93176261
49.48514664 -2.4607868e-05 -38.44706239
232.4948076 -2.4607868e-05 -107.7365064
61.57842564 131.6044824 148.7499026
49.70480664 54.26765139 -145.2500974
5.889764641 -2.4607868e-05 114.7355216
190.4848576 -2.4607868e-05 -26.20508939
207.6254086 47.47911639 -145.2500974
90.19857564 37.85529139 148.7499026
174.7067366 1.403375392 -145.2500974
160.8567666 -2.4607868e-05 6.106289614
115.1278286 -2.4607868e-05 81.20411761
9.019338641 4.964495392 148.7499026
15.28665464 -2.4607868e-05 -129.4903924
121.3738156 -1.249729608 -139.2500974
166.1648606 -2.4607868e-05 85.58338261
192.9446316 -2.4607868e-05 23.55720961
233.8171996 -2.4607868e-05 58.13639461
153.2087036 -2.4607868e-05 63.86065961
118.6946836 -2.4607868e-05 131.5615946
146.5035086 -2.4607868e-05 44.44425161
167.1889536 38.43907439 -139.2500974
201.2348976 -2.4607868e-05 -126.7119474
5.005322641 -2.4607868e-05 -39.01293339
149.7002486 -2.4607868e-05 98.29904461
177.5044326 -2.4607868e-05 -51.29229639
51.72380364 70.54881539 148.7499026
47.67907164 11.28352139 148.7499026
0.0002636411846 24.36683839 97.70086261
14.98272364 -2.4607868e-05 51.21122761
89.79305764 19.57430039 -139.2500974
0.0002636411846 61.87142439 77.28841561
0.0002636411846 66.89496439 82.63498761
84.59899864 22.75712339 148.7499026
104.4080576 1.161203392 -145.2500974
146.5497846 57.66269339 148.7499026
0.0002636411846 61.93023439 41.01286261
0.0002636411846 41.91506039 43.25375161
84.31564164 61.27104039 -145.2500974
199.7281426 64.19133239 -145.2500974
28.94279364 61.85610539 -139.2500974
183.1445536 -0.7622596079 148.7499026
148.0408296 67.99997539 -144.8682744
187.6440096 -2.4607868e-05 128.9660146
75.91564064 40.09259339 148.7499026
0.0002636411846 89.76753239 130.5725266
175.7962756 -2.4607868e-05 145.6554436
23.30281964 -2.4607868e-05 -41.70383539
18.25663964 -2.4607868e-05 80.10656661
147.6295066 -2.4607868e-05 -42.87365939
40.84931064 60.41109939 148.7499026
203.4673986 29.50416239 -145.2500974
72.08475464 -2.4607868e-05 142.0568486
247.3194906 19.32896639 -139.2500974
109.3870926 19.05933739 -145.2500974
65.79012564 -2.4607868e-05 104.3655996
75.78033464 -2.4607868e-05 17.60261061
164.7235286 -2.4607868e-05 -82.59761939
142.1863216 -2.4607868e-05 -129.9292574
49.97329564 -2.4607868e-05 -138.8596934
35.70288364 -2.4607868e-05 94.08954161
3.523083641 13.03887639 -145.2500974
4.058890641 -2.4607868e-05 -49.33956839
123.0023286 6.075233392 148.7499026
17.55336564 7.971904392 -139.2500974
122.9188256 -2.4607868e-05 -71.39042239
0.0002636411846 3.431141392 -2.720393386
240.8726246 67.99997539 150.3437366
154.3617346 -2.4607868e-05 21.15126461
229.5979806 52.32760239 -145.2500974
-2.134238359 -2.4607868e-05 -15.92922339
159.8333286 -2.4607868e-05 -109.5564964
10.93366164 18.66615539 -145.2500974
0.0002636411846 62.91554539 32.80507161
235.9051316 54.87788539 -139.2500974
65.14311064 72.57897939 148.7499026
237.4550586 31.65497739 148.7499026
0.0002636411846 48.53409639 141.7760446
149.2652086 -2.4607868e-05 -119.1833044
16.04683664 -2.4607868e-05 24.56792461
164.1338746 -2.4607868e-05 118.4496036
187.7833236 -2.4607868e-05 139.5660346
154.8198976 35.42498339 -145.2500974
202.4870716 -2.4607868e-05 -18.15720039
124.7493086 45.75793039 -139.2500974
156.3103236 -2.4607868e-05 -9.843185386
142.9323996 -2.4607868e-05 -49.71895939
0.0002636411846 37.23513239 -52.08980239
216.5213256 -2.4607868e-05 -24.79070039
176.7752396 -2.4607868e-05 52.73837861
88.68294964 -1.217872608 -139.2500974
0.0002636411846 28.99916139 73.56221661
150.3497626 16.97652839 -145.2500974
110.7022016 -2.4607868e-05 60.97120861
0.0002636411846 34.30755539 -5.222550386
81.97946164 119.0641624 148.7499026
222.5985566 33.23340539 -145.2500974
222.7625176 -2.4607868e-05 131.0115486
130.9947386 -2.4607868e-05 14.63443461
210.4069226 42.31886139 -139.2500974
85.39417164 52.49757639 -145.2500974
94.03526264 33.07194339 -145.2500974
39.60524564 99.75448539 148.7499026
-0.4082973588 88.32781839 48.78059961
205.1401536 -2.4607868e-05 -30.01961939
12.05645964 1.789502392 -145.2500974
166.8170116 62.91684839 -145.2500974
208.5715216 24.16269339 148.7499026
0.0002636411846 9.736001392 -83.29213539
108.0503686 -2.4607868e-05 -35.50809439
147.3178786 10.99622639 -145.2500974
68.21209664 -2.4607868e-05 129.6196206
26.01321064 -2.4607868e-05 133.9670716
62.08395264 -2.4607868e-05 -19.09844939
230.5015266 34.46228139 -139.2500974
75.77227164 -2.4607868e-05 -139.1470474
50.10294064 65.43996939 -145.2500974
242.5786896 60.20844039 -139.2500974
0.0002636411846 49.08204939 89.01177661
0.0002636411846 81.35101239 105.9351416
219.4041446 -2.4607868e-05 -89.20912339
67.67937264 47.26612939 -139.2500974
0.0002636411846 56.84041439 109.2694826
157.8582346 15.26365839 148.7499026
76.19654564 59.85763839 -145.2500974
0.0002636411846 96.83947139 142.7506586
39.23233164 40.15368139 -145.2500974
54.92571564 79.94045539 148.7499026
155.3162616 57.20198639 -145.2500974
0.0002636411846 93.88537939 101.5973366
124.2028426 30.73856039 -145.2500974
17.22804464 -1.007833608 -139.2500974
233.5346976 21.13319739 148.7499026
96.90898864 25.55470139 -145.2500974
19.00909764 37.87103139 148.7499026
0.0002636411846 46.57221839 97.37805161
211.5068136 67.99997539 153.0149556
17.16807864 44.91742939 -145.2500974
124.2904906 -2.4607868e-05 59.27314761
0.0002636411846 17.85898039 -35.51092239
181.3339236 -2.4607868e-05 10.08491361
95.02135164 -2.4607868e-05 119.6946406
72.91582864 93.43884339 148.7499026
0.0002636411846 1.884739392 75.80098361
0.0002636411846 44.01892839 127.9224556
155.6610486 -2.4607868e-05 28.14550061
194.1063306 55.75999739 -145.2500974
245.9881466 -2.4607868e-05 -108.9456274
196.5759746 37.70656739 -145.2500974
172.8049376 14.94638939 -139.2500974
98.60903164 -2.4607868e-05 -79.23111539
158.4587346 25.17281739 148.7499026
207.3370986 63.94070539 148.7499026
168.9678326 -2.4607868e-05 -43.99172239
7.478798641 52.65276139 -145.2500974
0.0002636411846 81.45912139 131.0856726
21.61806364 -2.4607868e-05 -29.72995739
21.33939264 39.76184039 -145.2500974
36.87422364 -2.4607868e-05 -90.59126139
133.2178626 55.51621239 -145.2500974
0.0002636411846 14.92888739 11.11217561
0.0002636411846 5.225067392 109.1621726
146.4433746 5.787300392 -139.2500974
113.4972956 -2.4607868e-05 135.0795036
0.0002636411846 82.05381339 56.17899861
17.70618064 57.14878939 -145.2500974
117.5966196 -2.4607868e-05 54.02026461
113.2455486 -2.4607868e-05 31.58817461
187.9391276 -2.4607868e-05 -104.7243314
180.2475936 67.99997539 154.1223326
0.0002636411846 57.52280739 126.0831276
188.6663926 36.11244839 -139.2500974
5.445442641 -2.4607868e-05 38.95934961
0.0002636411846 75.28737439 52.40707661
209.3546696 15.83481039 -145.2500974
33.65975964 -2.4607868e-05 147.9188336
139.0014276 -2.4607868e-05 41.14934361
151.6173126 43.95828339 148.7499026
32.06005764 132.6534574 148.7499026
44.48917764 15.90361139 -139.2500974
204.9791726 -2.4607868e-05 -61.68862939
26.23060064 45.60762739 -145.2500974
69.97748064 -2.4607868e-05 74.56881061
36.35696964 -2.4607868e-05 120.2395996
107.8435146 -2.4607868e-05 -19.47446139
4.205139641 67.79521439 -139.2500974
221.1402376 23.20782039 -139.2500974
232.0654336 -2.4607868e-05 47.14083361
149.8689546 -2.4607868e-05 86.28339861
109.0827246 -2.218375608 148.7499026
39.65051264 76.42131639 148.7499026
21.49131164 59.98635639 148.7499026
228.8289986 61.41045939 -145.2500974
153.7599036 -2.4607868e-05 138.6890076
37.48428664 12.90952839 -145.2500974
0.0002636411846 97.50292239 111.8442836
27.74917764 4.344322392 -139.2500974
0.0002636411846 94.83445439 88.09931361
249.3449756 26.65432739 -145.2500974
74.40945464 -2.4607868e-05 62.27235661
230.9167896 -2.4607868e-05 -37.21780939
193.4465636 -2.4607868e-05 126.5656326
0.0002636411846 0.4592453921 97.79938061
0.0002636411846 43.41209439 30.90564461
239.1926966 -2.4607868e-05 -99.20996039
196.2790246 44.22581839 -139.2500974
188.0491226 -2.305966608 -139.2500974
249.5625776 34.04831739 148.7499026
63.75874364 59.12294339 -145.2500974
79.87878364 26.69221239 148.7499026
24.92173664 52.49339139 -139.2500974
59.72261064 -2.4607868e-05 54.77164361
19.50831964 88.37488939 149.8820376
182.4074106 3.442162392 -139.2500974
0.0002636411846 55.62559339 144.7176736
106.3738376 -2.4607868e-05 139.1990676
71.90632664 -2.4607868e-05 -99.52074639
0.0002636411846 52.72431739 95.14697061
107.5278466 7.364610392 -145.2500974
215.0731456 19.08675039 -145.2500974
0.0002636411846 62.59911139 3.900739614
209.8809006 39.22075139 -145.2500974
211.2313786 6.033418392 -139.2500974
33.93988064 0.3186343921 -139.2500974
0.0002636411846 14.00528039 25.53145461
72.20714264 -2.4607868e-05 51.57931661
0.0002636411846 85.85773139 73.91178761
229.1601296 -2.4607868e-05 -25.03274539
116.2856626 16.74859939 148.7499026
237.4317956 -2.4607868e-05 87.90287561
214.1013416 -2.4607868e-05 -119.2701954
185.9240876 26.04873839 -139.2500974
193.4254326 -2.4607868e-05 -77.94974139
59.77262964 -2.4607868e-05 -45.13693639
89.60823164 -2.4607868e-05 56.37860761
16.65920864 -2.4607868e-05 -6.866332386
218.9613246 4.856885392 148.7499026
86.55073764 4.840109392 -145.2500974
48.41872064 98.50249639 150.9917616
113.3362676 40.95150439 -145.2500974
180.1426666 -2.4607868e-05 -58.56574639
154.6654856 32.61578539 148.7499026
75.66126464 -2.4607868e-05 33.14695361
128.7326756 -2.4607868e-05 140.4148196
0.0002636411846 44.83691139 19.30917461
112.3715056 -2.4607868e-05 -94.12321939
53.83357164 1.893883392 -145.2500974
-2.076508359 64.84732139 -43.07248239
121.1597806 79.41567639 148.7499026
118.3976486 53.68301539 148.7499026
0.0002636411846 75.10486939 134.3827526
114.6521316 -2.4607868e-05 -28.98102239
73.09459564 17.25343939 -145.2500974
88.79289264 -2.4607868e-05 1.095673614
9.190874641 62.44418539 148.7499026
53.06175364 24.33231239 -139.2500974
141.5586126 -2.4607868e-05 119.2614206
102.2275596 48.61656139 -145.2500974
0.0002636411846 71.26063339 69.44802161
147.7276566 -2.4607868e-05 38.53710161
128.4696056 8.623855392 148.7499026
45.13156864 -2.4607868e-05 8.751336614
21.07218164 -2.4607868e-05 18.90982461
0.0002636411846 73.29399139 40.53572561
49.60640464 132.9999754 151.4877306
0.0002636411846 106.0750544 120.5887846
116.7794266 63.68827439 148.7499026
130.0429556 50.39735939 -145.2500974
0.0002636411846 6.298735392 -16.11020539
10.49494864 -2.4607868e-05 -17.17964739
247.7705246 16.33031039 148.7499026
71.65590364 65.03428739 -139.2500974
207.3710766 4.963445392 148.7499026
46.10329164 -2.4607868e-05 -4.698841386
198.8101726 -2.4607868e-05 -98.78837939
0.0002636411846 5.322055392 3.781023614
196.0080226 -2.4607868e-05 -65.45364339
148.0809316 -2.4607868e-05 -139.1959124
21.79516364 23.15099139 -145.2500974
34.59563864 39.77523239 -139.2500974
43.46167664 -0.7983236079 -139.2500974
204.7479326 -2.4607868e-05 -5.082672386
0.0002636411846 75.16318339 100.5284386
1.150856641 109.4014324 148.7499026
162.1936946 7.799724392 -145.2500974
170.4333936 45.44216439 -139.2500974
226.4886386 54.91322139 148.7499026
0.0002636411846 48.32079339 5.305679614
24.39522164 9.545572392 -145.2500974
0.0002636411846 34.29157039 -122.5067744
4.548160641 52.21998839 148.7499026
59.40211964 102.0762644 151.2089606
174.8062996 13.40510639 148.7499026
143.9027146 -2.4607868e-05 16.87242861
23.04996064 -2.4607868e-05 -85.17119939
-0.1188553588 -2.4607868e-05 30.75175961
0.0002636411846 11.55805239 -114.0485664
173.4296506 -2.4607868e-05 98.16955061
118.0211406 -2.4607868e-05 -118.4336074
9.111116641 -2.4607868e-05 101.7927186
115.9977816 -2.4607868e-05 105.9051176
-0.2343823588 55.10391039 -98.35792639
179.8190616 23.00875439 -139.2500974
133.6785946 -2.4607868e-05 118.6068216
240.5116296 -2.4607868e-05 17.82228261
106.2578356 99.74313139 151.8733456
130.6614766 -2.4607868e-05 32.69229561
64.83697564 16.83534039 -145.2500974
0.0002636411846 23.88292139 121.9651236
153.8179456 -2.4607868e-05 -125.1945564
-0.2166803588 67.25345339 -31.58471939
0.0002636411846 30.82156739 138.5361006
180.3894926 55.44903139 148.7499026
129.5985736 -2.4607868e-05 -44.48634339
200.6376436 -2.4607868e-05 40.76559361
24.64723864 -2.4607868e-05 -54.75536539
10.41459164 31.42442039 148.7499026
71.93850164 71.66393639 148.7499026
90.19338364 60.89235539 -145.2500974
246.2545396 -2.4607868e-05 22.57624561
-1.094658359 22.64344939 -145.2500974
85.00636964 11.71731939 -145.2500974
143.7711476 60.64717639 -145.2500974
62.04831364 -2.4607868e-05 36.30740061
169.8806076 67.99997539 -143.4665754
103.4460216 37.08492039 -145.2500974
193.7647376 -2.4607868e-05 82.65917061
0.0002636411846 20.31744839 -133.9947864
88.04352264 -2.4607868e-05 -104.1142314
0.0002636411846 38.72394739 142.8762316
182.1471196 -2.4607868e-05 107.8327576
0.0002636411846 0.2533693921 -118.1775664
40.92538264 -2.4607868e-05 40.71078861
71.24171464 -2.4607868e-05 -49.31527539
19.37010364 94.57869139 148.7499026
110.8864006 -2.4607868e-05 -62.78467039
54.22129164 -2.4607868e-05 -88.40559739
35.34994364 -2.4607868e-05 25.54300461
237.3338866 45.67093139 148.7499026
56.29006464 20.06780639 -145.2500974
0.0002636411846 31.43050839 -23.71994839
48.50523864 -2.4607868e-05 73.07398661
0.0002636411846 54.06947939 -49.29584039
0.0002636411846 59.16625539 52.97239561
96.28528564 31.07926339 -139.2500974
165.3849706 0.9311423921 148.7499026
0.0002636411846 26.77815339 -71.49415239
0.0002636411846 37.68845739 93.28428761
95.47017764 -2.4607868e-05 -128.8897304
0.0002636411846 76.71589139 72.05344461
171.8590666 -2.4607868e-05 -19.01612139
8.384007641 -2.4607868e-05 -108.6465724
178.9116366 63.26502139 148.7499026
0.0002636411846 49.29241339 121.5949596
0.0002636411846 11.25558139 -44.89823239
59.79455064 -2.4607868e-05 -76.20577639
26.00080664 39.13621139 -139.2500974
6.094200641 23.53426039 148.7499026
23.64990064 -2.4607868e-05 5.946415614
83.49207964 67.99997539 -143.3540374
126.2993996 55.81966439 -139.2500974
138.7368666 26.92739439 -139.2500974
160.6404556 -2.4607868e-05 18.33564161
8.117387641 -2.4607868e-05 -22.45587539
0.0002636411846 28.08524739 58.84511861
141.7107366 51.74348739 148.7499026
90.35546964 -2.4607868e-05 -74.06473439
0.0002636411846 98.73470239 135.4363016
188.8750766 -1.479336608 148.7499026
17.09468364 66.10107139 148.7499026
0.0002636411846 23.78233939 28.50236261
0.0002636411846 79.55603639 63.04961761
