# .PCD v0.7 - Point Cloud Data file format
VERSION 0.7
FIELDS x y z
SIZE 4 4 4
TYPE F F F
COUNT 1 1 1
WIDTH 1204
HEIGHT 1
VIEWPOINT 0 0 0 1 0 0 0
POINTS 1204
DATA ascii
-173.8602182 -2.461338454e-05 -43.16148239
198.9791988 195.6755174 -40.00009739
-176.0002492 41.81001039 -92.65701939
180.0007278 96.81600839 -164.8927274
-94.19511218 21.69875039 -9.73878773e-05
62.95608082 49.76354339 -9.73878773e-05
180.0007278 155.0815154 -157.3775114
-47.74722218 -2.461338454e-05 -65.57429639
137.6424318 -2.461338454e-05 -178.5939844
-66.70060418 -2.461338454e-05 -153.6231224
184.0007278 17.50071239 -104.1447704
71.73031082 -2.461338454e-05 -111.4024444
184.0007278 8.831242387 -160.0691664
-115.4790662 -2.461338454e-05 -212.3342844
-62.64043318 -2.461338454e-05 -227.4846654
184.0007278 230.5990218 -81.99870439
180.0007278 12.42704939 -248.8441244
180.0007278 252.4701422 -55.20541539
-88.74611918 42.35082239 -9.73878773e-05
-5.752385179 -2.461338454e-05 -231.4494664
184.0007278 192.8947964 -81.10593539
-186.9309422 61.94240139 -9.73878773e-05
167.8724438 15.13715239 -9.73878773e-05
180.0007278 47.14429939 -29.62486039
-180.0002492 117.5100874 -14.57425639
-180.0002492 48.29725239 -210.2363164
-153.7371642 40.17786039 -9.73878773e-05
180.0007278 178.4070064 -162.3089214
119.4833448 -2.461338454e-05 -151.1948874
199.5007278 -0.7984986134 2.057619612
168.5360928 -2.461338454e-05 -84.52392039
180.0007278 57.55728139 -201.3170394
-143.2026742 75.70166839 -9.73878773e-05
15.87739482 34.25714839 -9.73878773e-05
-180.0002492 63.92079839 -114.9501374
-48.45005218 0.2754483866 -9.73878773e-05
180.0007278 67.07543439 -39.93556939
-180.0002492 41.10234739 -234.5158844
180.0007278 170.1078954 -120.0520024
105.6621848 -2.461338454e-05 -138.5040814
-24.78876718 -2.461338454e-05 -237.3940564
176.0007278 143.3977754 -171.3228644
200.0645288 50.54457739 -9.73878773e-05
32.14876482 -2.461338454e-05 -145.4308584
184.0007278 209.8493844 -97.90820139
78.33669182 -2.461338454e-05 -203.4128844
-24.83316718 25.61534139 -9.73878773e-05
199.6209138 -2.461338454e-05 -227.4468194
200.4162478 223.793231 -44.00009739
-114.5526272 -2.461338454e-05 -42.53689639
184.0007278 117.6852474 -141.8200124
-151.2303362 -2.461338454e-05 -234.0380514
-145.1420792 -2.461338454e-05 -15.19656839
-194.0786302 -2.461338454e-05 -91.61267539
-111.4712942 111.8448974 -9.73878773e-05
-182.1269962 -2.461338454e-05 -17.86694239
-126.6940812 -2.044315613 -172.6228004
-156.1915802 -2.461338454e-05 -48.60489439
150.8377128 -2.461338454e-05 -88.91812739
184.0007278 213.9412585 -61.63500939
165.0749098 -2.461338454e-05 -14.48616639
-168.8761522 -2.461338454e-05 -120.2860414
-176.0002492 65.88539139 -44.53653239
-196.8529312 99.75437939 -9.73878773e-05
108.6173988 -2.461338454e-05 -37.82072539
80.70434282 -2.461338454e-05 -163.9745824
-111.0898872 75.21574239 -9.73878773e-05
-166.3004022 -2.461338454e-05 -188.4486174
181.7631128 213.2304688 -196.9717724
200.1560898 39.69945739 -40.00009739
200.6457648 184.2488644 -200.0000974
180.0007278 172.1312184 -49.78871839
33.07037682 67.99997539 0.6674976121
-180.0494442 129.8565424 1.143197612
-180.0002492 74.87570639 -79.83529439
83.98566182 -2.461338454e-05 -14.87085939
184.0007278 42.38742139 -64.13848639
198.4834758 -2.461338454e-05 -83.20821239
-29.51539418 -2.461338454e-05 -124.6323144
-147.8622552 113.1901614 -9.73878773e-05
157.9847918 67.99997539 1.387875612
-49.64949918 -2.461338454e-05 -159.0291304
126.6372098 -2.461338454e-05 -71.34027139
-135.6151802 -2.461338454e-05 -116.9729484
-180.0002492 58.10978339 -60.10696939
-180.0002492 88.07651439 -43.50954539
118.8780898 -2.461338454e-05 -197.3864784
-182.7567832 -2.461338454e-05 -151.3146224
-143.2142422 132.9999754 1.916158612
-76.30228418 8.478325387 -9.73878773e-05
51.82575282 -2.461338454e-05 -43.39931939
182.9743328 93.46550739 -41.80665839
191.2776528 -2.461338454e-05 -120.2578024
76.82819382 -2.461338454e-05 -71.13870639
-176.0002492 12.43348739 -210.1003314
139.5214328 42.14681039 -9.73878773e-05
-19.61780018 -2.461338454e-05 -168.2279654
180.0647868 162.1969274 -192.5785584
180.0007278 228.9034009 -120.7969914
-146.7762922 -2.461338454e-05 -195.4820824
195.2360708 139.1091154 -200.0000974
200.6738798 155.5364954 -44.00009739
180.0007278 207.4804484 -138.4233554
0.7998868207 50.29324039 -9.73878773e-05
-195.4513832 -2.461338454e-05 -52.56574839
-14.39286518 12.00765839 -9.73878773e-05
-120.5623282 -2.461338454e-05 -228.6182294
184.0007278 162.6684224 -63.37746939
-50.08457618 55.70195439 -9.73878773e-05
-107.0797832 -2.461338454e-05 -144.5716644
-64.65390118 -2.461338454e-05 -65.08154939
-180.0002492 36.42032839 -158.5683054
-176.0002492 28.56981239 -41.82840639
180.0007278 248.49677 -104.2665074
-17.88181218 -2.461338454e-05 -11.38023739
176.0007278 16.34168239 -191.9252894
180.0007278 81.04096839 -233.0074294
176.3774008 66.53015239 -9.73878773e-05
25.99626482 -1.895408613 -9.73878773e-05
-96.57581718 -2.461338454e-05 -250.7246774
-30.21252718 58.35916039 -9.73878773e-05
-136.5876192 -2.461338454e-05 -68.89354439
-180.0002492 16.10178439 -11.61710439
143.0622738 -2.461338454e-05 -144.0936574
-17.08989618 44.37358439 -9.73878773e-05
95.08591882 -2.461338454e-05 -97.59583439
-58.04079718 -2.461338454e-05 -111.9612854
126.3779018 -2.461338454e-05 -213.4431544
-122.4439582 132.6184604 -9.73878773e-05
184.0007278 9.337113387 -136.8406664
-180.0002492 58.43396139 -98.64380239
46.56022282 -2.461338454e-05 -217.7855494
184.0007278 80.93761639 -176.0182364
160.7209798 34.74913439 -9.73878773e-05
-81.06399118 -2.461338454e-05 -165.2262534
-81.56015018 -2.461338454e-05 -225.6069034
184.0007278 168.6585014 -100.4903224
184.0007278 84.57217339 -67.08884139
106.7895878 -2.461338454e-05 -70.65520839
40.66354182 -2.461338454e-05 -58.10807739
-176.0002492 45.45302339 -127.0286194
4.421828821 -2.461338454e-05 -185.9383834
99.23263082 26.66967739 -9.73878773e-05
184.0007278 143.0849514 -86.63001639
176.0007278 10.67144139 -49.13382539
184.0007278 66.67298439 -60.05060839
184.0007278 182.0755224 -147.1150674
-176.0002492 14.69467039 -71.25645839
-54.58049618 35.27551739 -9.73878773e-05
184.0007278 110.5589634 -187.5547134
-156.0814432 -2.461338454e-05 -129.7822394
-93.36105918 -2.461338454e-05 -210.7456894
-177.5859022 67.50163439 -179.2421434
130.9244588 24.17440839 -9.73878773e-05
-176.0002492 22.65376239 -232.3466134
25.70419582 -2.461338454e-05 -111.4438004
-86.54851818 -2.461338454e-05 -133.8575604
180.0007278 111.6513774 -124.7273304
6.573622821 66.90999939 -9.73878773e-05
-176.0002492 41.50560739 -14.18826739
184.0007278 32.56426139 -50.17999839
180.3234858 231.8218392 -194.1667964
18.09420782 -2.461338454e-05 -152.6561984
-34.02943518 -2.461338454e-05 -152.4763654
-6.602941179 -2.461338454e-05 -102.5669234
-180.0002492 58.36091239 -153.7304344
62.61120782 -2.461338454e-05 -157.9282694
-176.0002492 82.33865339 -15.43796539
-39.11933818 -2.461338454e-05 -52.43614639
37.93440882 53.06929239 -9.73878773e-05
172.2605808 -2.461338454e-05 -165.6137414
-125.3067632 -2.461338454e-05 -140.3345784
-113.3057982 57.06338339 -9.73878773e-05
-180.4242992 93.35853939 -9.73878773e-05
47.17628182 18.35767439 -9.73878773e-05
-200.9564832 -2.461338454e-05 -196.4112704
176.0007278 63.46064339 -166.1837604
100.4792098 -2.461338454e-05 -24.35957239
78.59032882 -2.461338454e-05 -128.9371744
184.0007278 5.122770387 -94.76106639
13.25564982 -2.461338454e-05 -78.06537939
184.0007278 43.83477739 -146.1644664
185.5642268 140.1227214 -40.41957839
180.0007278 49.34525939 -251.8676274
184.0007278 118.3390214 -61.48485439
196.9099648 241.7568711 -196.0000974
103.6658728 -2.461338454e-05 -195.4035454
180.0007278 33.15579539 -166.1981704
-137.3989562 -2.461338454e-05 -101.5272724
-158.2152152 -2.461338454e-05 -97.05319939
-36.07178418 -2.461338454e-05 -223.2639294
184.0007278 197.9096644 -108.4537044
-80.28426718 64.76092839 -9.73878773e-05
184.0007278 197.7157794 -66.64547539
-197.5169382 50.45806639 -9.73878773e-05
82.00653282 52.23864539 -9.73878773e-05
-73.13320718 -2.461338454e-05 -50.69691739
-120.1662362 -2.461338454e-05 -2.180864388
-100.7751392 -2.461338454e-05 -100.2153724
176.0007278 19.73903739 -206.7674094
180.0007278 54.10798139 -115.3291844
94.36998582 -2.461338454e-05 -79.30981239
-101.9035722 -2.461338454e-05 -129.5917474
180.0007278 28.54633839 -134.4531424
63.35276082 -2.461338454e-05 -227.9058784
197.1187718 -2.461338454e-05 -182.7710674
-175.1088832 -2.461338454e-05 -105.7846794
186.7170358 36.51461039 -9.73878773e-05
-176.0002492 13.81314739 -168.7555004
-112.2749252 -2.461338454e-05 -182.2914404
160.7471558 -2.461338454e-05 -117.2623854
-122.4529012 -2.461338454e-05 -89.90119739
122.7093468 -2.461338454e-05 -31.60533539
184.0007278 150.7444034 -143.1013714
-180.0002492 14.41163239 -39.56969839
104.5099728 40.69152739 -9.73878773e-05
184.0007278 51.25720039 -187.2978244
-13.19011418 -2.461338454e-05 -76.15823639
111.6269778 -2.461338454e-05 -214.6774944
127.0902448 58.35707839 -9.73878773e-05
184.0007278 29.72060839 -190.3937484
-180.0002492 45.23243439 -30.88424739
-176.0002492 29.75139939 -145.9993134
-142.4505932 56.65805639 -9.73878773e-05
188.9312438 115.7774064 -44.00009739
-170.6644112 39.79252339 -9.73878773e-05
114.7573018 -2.461338454e-05 -165.1444814
92.42535682 -2.461338454e-05 -226.4469364
176.0007278 18.31369739 -235.7485904
180.0007278 122.1174014 -91.39747839
40.10365782 -2.461338454e-05 -178.3726384
181.2628838 229.2081337 -170.5000974
184.0007278 129.7122854 -186.9087994
184.0007278 245.7584255 -68.27396939
-179.6669582 87.68837939 -102.0290514
103.1589828 -2.461338454e-05 -53.25805939
-180.0002492 87.02964039 -69.73948239
184.0007278 178.0758954 -178.8228974
177.0721718 -2.461338454e-05 -220.1691144
94.11844382 67.99997539 1.944273612
-50.13673418 -2.461338454e-05 -36.53744539
-60.65161518 -2.461338454e-05 -243.9522984
184.0007278 204.4547894 -173.2695044
176.0007278 10.61483339 -63.81927939
114.0533858 4.357806387 -9.73878773e-05
-176.0002492 96.70975839 -28.66263539
-176.0002492 10.86642839 -139.3239784
180.0007278 126.8740184 -165.1173784
-200.4990042 -2.461338454e-05 -128.9398414
-174.0066712 55.61079939 -9.73878773e-05
-180.0002492 12.64204539 -94.47987839
-8.968140179 -2.461338454e-05 -47.54442639
56.85581282 -2.461338454e-05 -120.3924144
50.34425582 -2.461338454e-05 -16.63898139
184.0007278 135.6727144 -140.6938154
-50.99178618 -2.461338454e-05 -124.3933284
19.99652982 -2.461338454e-05 -215.8881024
145.6610608 -2.461338454e-05 -237.6025174
11.23210582 -2.461338454e-05 -25.08064139
180.0007278 46.97914839 -215.7320644
176.0007278 79.08229639 -217.8197414
183.7396928 184.4734774 -41.25967939
-110.0045462 -2.461338454e-05 -111.6896354
-135.2439452 11.95457939 -9.73878773e-05
-173.9884322 -2.461338454e-05 -216.5662944
180.0007278 27.58945239 -94.76899339
184.0007278 177.8121584 -88.04589739
184.0007278 136.8347594 -57.65563039
176.3108958 25.49997539 -113.2669974
184.0007278 145.5151224 -115.1496584
184.0007278 223.2709046 -50.50820039
-190.1682142 -2.461338454e-05 -238.7694184
-184.2512452 -2.461338454e-05 -186.8650674
176.0007278 133.0406514 -78.20763139
150.0898928 -2.461338454e-05 -156.3768704
199.2797598 -2.461338454e-05 -37.28794839
-11.66314718 -2.461338454e-05 -201.3755244
131.9543878 -2.461338454e-05 -119.9704424
-60.99888218 8.170713387 -9.73878773e-05
40.48166682 -2.461338454e-05 -108.9615374
-65.56559218 -2.461338454e-05 -186.8102194
164.5576538 -2.193284613 -9.73878773e-05
2.593165821 -2.461338454e-05 -246.9787054
-180.0002492 48.65357839 -186.6901054
-32.36395818 -2.461338454e-05 -24.77224839
180.0007278 33.31005139 -74.70498639
31.70261882 33.76476139 -9.73878773e-05
5.075163821 -2.461338454e-05 -66.88291639
176.0007278 109.1995184 -171.0604414
67.90636382 -2.461338454e-05 -194.3103024
180.0007278 58.98307039 -128.2771294
-60.09570718 -2.461338454e-05 -95.14625539
46.55222182 -2.461338454e-05 -153.6352444
-157.0657862 -2.461338454e-05 -166.1372134
40.94962482 -2.461338454e-05 -87.64877239
200.7673338 61.62627739 -196.0000974
-176.7381562 -2.461338454e-05 -243.5972514
-132.5380512 -2.461338454e-05 -235.2972704
-27.86935718 -2.461338454e-05 -109.8983624
184.0007278 46.51443339 -98.18636239
-176.0002492 69.36366839 -9.410952388
-166.1696482 93.25709539 -9.73878773e-05
167.4783298 -2.461338454e-05 -179.8262054
184.0007278 88.29404139 -87.77664139
-58.92126318 -2.461338454e-05 -205.9209874
180.0007278 98.21491439 -107.9559224
184.0007278 55.01905139 -86.13915739
-79.89321618 -2.461338454e-05 -89.20508639
183.3343468 198.2906754 -198.4736744
-19.21330018 -2.461338454e-05 -133.5263314
176.0007278 73.78622139 -106.4343474
-126.9691722 -2.461338454e-05 -15.75588139
68.79021782 28.05950039 -9.73878773e-05
182.1931708 -2.461338454e-05 -146.5248274
-101.3647112 -2.461338454e-05 -24.67191939
176.0007278 182.7572384 -117.1945354
-128.9901942 81.90652639 -9.73878773e-05
176.0007278 40.85918239 -17.93340339
28.26586082 -2.461338454e-05 -34.30551839
-180.0002492 29.55414239 -4.082100388
176.0007278 87.06871439 -156.3862124
9.259873821 -2.461338454e-05 -122.2746874
176.0007278 81.84050239 -118.9932774
176.5936288 0.4999753866 -35.53383839
-180.0002492 7.443645387 -118.3656734
-74.00036318 81.24228139 -9.73878773e-05
180.0007278 6.972606387 -111.5472074
38.08926682 -2.461338454e-05 -11.05217239
-161.4188682 -2.461338454e-05 -4.798824388
-75.24498818 -2.461338454e-05 -125.6308104
180.0007278 90.88249339 -201.6062224
158.2566258 -2.461338454e-05 -102.3605764
-176.0002492 41.52636139 -221.1102564
184.5558068 198.2750774 -40.78660839
184.0007278 238.5346313 -129.2038584
-166.8512092 -2.461338454e-05 -230.6818994
128.4691718 11.03199639 -9.73878773e-05
176.0007278 108.0069304 -67.52352439
138.3794828 -2.461338454e-05 -10.32273839
182.5428998 -0.6070906134 -82.35481139
91.22700582 -2.461338454e-05 -139.2362434
182.4324278 248.2132781 -42.26373439
-179.8791882 -2.461338454e-05 -31.04585439
-137.1270672 -2.461338454e-05 -180.5632714
43.57990182 -2.461338454e-05 -136.8917874
-87.01901618 96.44149139 -9.73878773e-05
180.0007278 130.1949244 -112.5252194
-56.55445718 -2.461338454e-05 -75.58078539
-118.6541162 30.35475439 -9.73878773e-05
68.65758482 -2.461338454e-05 -11.90231439
148.7847268 -2.461338454e-05 -25.16328539
184.0007278 70.26839439 -72.77906739
-176.0002492 -0.2508116134 -76.17449939
129.5972078 -2.461338454e-05 -104.4232024
176.0007278 146.6196984 -96.48855039
-162.3796102 -2.461338454e-05 -78.50071239
180.0007278 192.7492644 -140.5413024
-38.51974118 -2.461338454e-05 -8.912407388
67.18082582 62.20103439 -9.73878773e-05
187.2139878 17.64489139 -40.86712739
-180.0002492 31.96910339 -120.0967424
-173.6760392 -2.461338454e-05 -161.9350564
184.0007278 159.0205414 -129.9256444
-180.0002492 25.00646039 -205.3783474
-6.447628179 -2.461338454e-05 -175.2909074
-146.3248912 -2.461338454e-05 -58.33119439
184.0007278 32.34850839 -121.2724054
-105.4366222 -2.461338454e-05 -159.6234004
184.0007278 175.8200794 -135.3520664
184.0007278 56.74310039 -158.4191744
-39.60336818 30.40865039 -9.73878773e-05
-176.0002492 60.62776539 -211.2577054
199.8567498 33.10510539 -196.0000974
-173.0186682 -2.461338454e-05 -132.8669324
172.4931058 -2.461338454e-05 -57.23012439
178.9412608 10.88727339 -11.69256339
-176.0002492 73.40670139 -145.8581024
96.15270182 -2.461338454e-05 -238.8934094
-118.4928862 -2.461338454e-05 -61.66745339
74.67619082 -2.461338454e-05 -221.6113574
109.3887428 -2.461338454e-05 -120.5187784
184.0007278 95.14585139 -132.7488474
-80.83899918 -2.461338454e-05 -38.17467339
-38.32477018 -2.461338454e-05 -188.2553034
46.88826982 -2.461338454e-05 -230.6833714
-92.00522418 -2.461338454e-05 -234.1868234
180.0007278 252.3419456 -165.0216204
196.1615808 94.75344039 -40.00009739
184.0007278 1.569596387 -170.6958534
-20.26468818 -2.461338454e-05 -31.30619839
71.51501382 -2.461338454e-05 -246.8180104
167.5070868 -2.461338454e-05 -208.2644764
176.0007278 167.2319814 -153.1835604
-153.0482892 -2.461338454e-05 -28.65907939
184.0007278 77.73353239 -188.4433374
59.79627782 -1.173316613 -9.73878773e-05
184.0007278 75.26248539 -94.46130239
-180.0002492 76.53594339 -133.0857834
176.0007278 95.57746439 -64.40176439
-196.1117142 34.41582739 -9.73878773e-05
155.2617748 12.87343939 -9.73878773e-05
-189.8025952 2.250826387 -9.73878773e-05
-180.0002492 47.06762039 -71.50077239
177.7700788 -2.461338454e-05 -246.8628734
-52.81122818 -2.461338454e-05 -143.8003674
66.53248382 -2.461338454e-05 -133.1313054
184.0007278 153.2761724 -179.8325594
180.0007278 61.93991239 -246.3367684
-199.4107612 11.11149239 -9.73878773e-05
176.0007278 18.31092839 -162.7896224
197.8588278 172.5295164 -196.0000974
180.0007278 24.83969139 -25.44496739
-37.38128618 15.93133839 -9.73878773e-05
180.0007278 18.54802939 -1.212642388
180.0007278 62.84413539 -231.1503784
176.0007278 95.09605439 -95.91145839
-176.0002492 35.24534739 -54.54319639
176.0007278 50.01654039 -173.1111094
-176.0002492 58.19316639 -125.4263294
15.81948582 20.95911439 -9.73878773e-05
-152.7764802 -2.461338454e-05 -145.3118524
130.5031338 -2.461338454e-05 -144.0837774
-134.7699052 -2.461338454e-05 -148.5904454
180.0007278 207.9614424 -150.9655534
147.9020428 -2.461338454e-05 -213.3594294
-180.0002492 29.90870239 -94.72736139
180.0007278 250.4928009 -152.6311614
14.19484182 2.269465387 -9.73878773e-05
-176.0002492 35.00604239 -133.9090074
184.0007278 105.8127994 -154.0337274
180.0007278 189.5205214 -168.0044074
193.8699068 69.59930339 -40.00009739
31.54891682 -2.461338454e-05 -241.7753664
186.3813328 -2.461338454e-05 -58.86558339
184.7702958 130.5811484 -199.3034514
39.51953682 -2.461338454e-05 -41.53159439
-176.0002492 87.83875239 -56.85619139
-76.19596618 -2.461338454e-05 -145.5934094
-88.43442018 -2.461338454e-05 -175.3778134
197.2363668 207.3068234 -44.00009739
197.6091258 235.8869792 -44.00009739
124.1129688 -2.461338454e-05 -233.4138994
-34.37733018 -2.461338454e-05 -209.0375034
-180.0002492 10.17551539 -82.36308039
184.0007278 236.8418683 -97.31614339
85.92480782 4.153203387 -9.73878773e-05
-155.2183772 -2.461338454e-05 -217.6825784
191.3588468 82.59215839 -200.0000974
191.2365978 48.13088139 -44.00009739
-99.62951018 -2.461338454e-05 -12.18836739
180.0007278 34.62925839 -33.81583439
-2.139996179 10.85282939 -9.73878773e-05
-84.27853618 -2.461338454e-05 -250.3382004
198.8699848 214.814946 -200.0000974
-180.0002492 117.6970604 -2.271061388
67.27255182 -2.461338454e-05 -99.95155639
103.4080358 -2.461338454e-05 -107.9072834
184.0007278 168.3042084 -77.46962539
179.8799268 156.3013994 -74.38856339
80.85814782 -2.461338454e-05 -103.1997444
-90.95049518 -2.461338454e-05 -56.90190239
184.0007278 119.0656674 -109.3377084
176.0007278 125.8280124 -153.3895354
191.8757968 30.68153439 -40.00009739
168.1304998 -2.461338454e-05 -136.3256884
-99.16147018 116.7623184 -9.73878773e-05
-180.0002492 10.13112339 -181.4880104
-186.4651982 -2.461338454e-05 -251.0130844
180.0007278 110.6178534 -87.28594339
-180.0002492 38.21577239 -81.70327939
155.5458168 -2.461338454e-05 -77.66766739
-180.0002492 19.55244839 -116.2346244
101.4225198 -2.461338454e-05 -168.0366624
147.6252128 -2.461338454e-05 -59.97977039
96.87936082 -2.461338454e-05 -11.71588239
-23.80822118 -2.461338454e-05 -185.4474224
176.0007278 66.19823239 -85.18703539
85.05450082 -2.461338454e-05 -49.00679839
199.2713138 -2.461338454e-05 -194.7324004
133.7889178 -2.461338454e-05 -37.98947039
-123.4992852 -2.461338454e-05 -188.8194734
188.5162068 -2.461338454e-05 -14.04789739
184.0007278 199.1815414 -92.16408639
76.06566182 -2.461338454e-05 -184.9307144
190.9894858 68.76952039 -196.0000974
-170.8135632 -2.461338454e-05 -55.71725339
-85.65413018 -1.029265613 -9.73878773e-05
-176.0002492 108.1449664 -24.74726739
-121.2442982 -2.461338454e-05 -30.88567639
3.773662821 22.13483339 -9.73878773e-05
51.76431782 -2.461338454e-05 -181.4073724
-176.0002492 38.73355239 -181.1770764
-44.25268818 -2.461338454e-05 -200.8327704
-128.7672022 -2.461338454e-05 -128.4374194
-52.43986518 -2.461338454e-05 -233.8196164
-134.8954712 -2.461338454e-05 -164.0357974
-105.6449402 -2.461338454e-05 -78.21815339
-171.1998202 -2.461338454e-05 -12.92731639
184.0007278 239.7601624 -50.89550939
187.9253888 106.6208284 -199.9926624
-180.0002492 76.92533439 -108.4496974
-176.0002492 67.76901939 -67.01220139
-176.0002492 52.36460139 -236.4758584
-78.10058818 47.82368339 -9.73878773e-05
-176.0002492 11.07224139 -28.70572439
-119.5220312 89.44507339 -9.73878773e-05
103.3201838 13.57798939 -9.73878773e-05
154.7785138 -2.461338454e-05 -201.7403214
71.37451682 -2.461338454e-05 -60.01134439
176.0007278 26.80956439 -217.3064834
35.40841982 -2.461338454e-05 -213.6157004
-176.0002492 4.787618387 -197.7575504
-77.38212718 -2.461338454e-05 -8.474987388
180.1836858 120.0563324 -193.5932574
96.99037882 -2.461338454e-05 -127.5162544
-109.5184132 4.779117387 -9.73878773e-05
145.3204898 -2.461338454e-05 -167.2384114
170.8243138 28.55844839 -9.73878773e-05
184.0007278 135.5891674 -175.2394134
-180.0002492 58.56694739 -36.12519639
-19.28938618 -2.461338454e-05 -53.32091839
128.8660088 -2.461338454e-05 -57.71296539
-116.4353502 -2.461338454e-05 -199.0531664
-105.4977562 48.24176439 -9.73878773e-05
180.0007278 251.6139151 -176.8971814
-145.8454252 -2.461338454e-05 -123.9719154
180.0007278 182.8099264 -58.36192739
176.0007278 49.84064739 -59.81424939
176.0007278 9.446967387 -180.9356794
-123.1679242 -2.461338454e-05 -116.6180044
176.0007278 144.0042014 -148.4068044
188.7212898 164.9002564 -200.0000974
-176.0002492 12.36883939 -225.4606504
0.2657108207 -2.461338454e-05 -196.8765644
184.0007278 101.8654234 -175.4215234
94.71376282 -2.461338454e-05 -39.80071139
-180.0002492 105.3514244 -3.668127388
189.1204528 149.0673184 -200.0000974
92.87921882 41.76897339 -9.73878773e-05
-32.23014718 -2.461338454e-05 -92.75810939
184.0007278 217.5786637 -109.2451694
-163.6848812 -2.461338454e-05 -108.1874204
184.0007278 18.34614239 -52.78972839
180.0007278 13.25255439 -149.6733724
-184.3233852 -2.461338454e-05 -98.00228739
-180.0002492 43.89958139 -247.4502304
180.0007278 221.4285019 -87.97595339
-133.8250802 -2.461338454e-05 -86.09860539
10.35999882 -2.461338454e-05 -54.87655639
-102.8811932 -2.461338454e-05 -238.3522434
-146.0692512 -2.461338454e-05 -3.591483388
176.0007278 73.13818239 -145.4299594
184.0007278 154.8603894 -98.13723739
-53.09024118 73.97578539 -9.73878773e-05
176.0007278 35.47438839 -145.9163724
-168.1357722 121.9803834 -9.73878773e-05
-155.2007842 25.04919539 -9.73878773e-05
126.2272868 -2.461338454e-05 -15.93190539
16.67881682 -2.461338454e-05 -202.8283004
200.4812168 -2.461338454e-05 -127.1952544
-195.0134572 -2.461338454e-05 -160.0723704
176.0007278 14.19159339 -29.68016839
-147.0652112 -2.461338454e-05 -41.60593239
187.8263348 -2.461338454e-05 -216.1345454
-160.6659002 76.73725539 -9.73878773e-05
184.0007278 216.3464365 -130.8267664
-22.30141018 -2.461338454e-05 -251.9292244
-75.77813618 -2.461338454e-05 -179.7331154
197.8044988 11.12923639 -42.10282139
-16.62311818 0.5934793866 -9.73878773e-05
17.44091982 -2.461338454e-05 -140.7883524
-2.468768179 -2.461338454e-05 -130.4478344
59.86373282 -2.461338454e-05 -35.25378839
193.3792148 125.5136764 -40.00009739
176.0007278 39.50349039 -235.6141394
-30.35635118 -2.461338454e-05 -136.1248134
184.0007278 90.40568139 -115.3398214
180.0007278 207.0982054 -162.9365724
180.0007278 236.9292641 -109.1599564
180.0007278 231.755646 -146.7216874
176.0007278 46.87849339 -197.4293284
181.7294778 82.22422239 -43.09102839
184.0007278 227.271125 -71.11515239
-4.861456179 -2.461338454e-05 -220.1061194
184.0007278 65.30478839 -108.4674274
189.0700358 -2.461338454e-05 -32.27199339
-183.1184682 13.21793939 -9.73878773e-05
-52.75073218 -2.461338454e-05 -10.55468739
-176.0002492 81.83446439 -88.92820239
176.0007278 60.78539039 -51.12048739
180.0007278 8.247096387 -74.16611539
184.0007278 43.80755139 -76.25085839
177.0468928 107.4397794 -134.8109814
-89.77043018 -2.461338454e-05 -199.5510384
144.2427258 54.97560339 -9.73878773e-05
36.82525582 4.883763387 -9.73878773e-05
180.0007278 173.0714064 -188.0888904
-146.7996642 -2.461338454e-05 -73.60508539
-97.68608318 100.0003734 -9.73878773e-05
-36.52843418 -2.461338454e-05 -64.80782239
180.0007278 90.23014639 -55.35452939
-197.3629072 69.44725739 -9.73878773e-05
176.0007278 169.9159564 -88.20760939
45.82716482 -2.461338454e-05 -206.5728614
176.0007278 79.32026539 -168.3275934
184.0007278 93.56044739 -191.3660124
-176.0002492 97.47557139 -70.42650439
188.4288378 5.127509387 -9.73878773e-05
170.4320368 -2.461338454e-05 -25.47590239
-176.0002492 49.49426739 -104.0470014
-131.0993702 -2.461338454e-05 -43.04939939
135.1847998 -2.461338454e-05 -130.6748984
180.0007278 147.1341714 -55.96000439
-2.934044179 -2.461338454e-05 -35.07324339
10.39468882 -2.461338454e-05 -94.62164139
184.0007278 43.54290939 -167.0922614
-180.0002492 47.38032739 -155.7183934
176.0007278 26.40080139 -197.8352904
-176.0002492 28.66647639 -14.72593239
-24.10589318 -2.461338454e-05 -158.0404174
180.0007278 68.49163539 -194.2815694
-126.5621572 -2.461338454e-05 -249.5760114
-180.0002492 72.95153839 -19.86056839
184.0007278 131.9726794 -86.21522139
-51.54591418 -2.461338454e-05 -102.2526594
-188.0595532 -2.461338454e-05 -216.5714874
176.0007278 102.6691624 -189.2547134
42.37176882 42.80310539 -9.73878773e-05
124.8022098 -2.461338454e-05 -44.49574939
185.2097218 59.81605039 -9.73878773e-05
192.0723608 -2.461338454e-05 -236.8344164
6.542481821 40.21207839 -9.73878773e-05
153.0023218 -2.461338454e-05 -247.0644254
13.29009482 -2.461338454e-05 -163.2582964
166.9276678 -2.461338454e-05 -225.6011194
-59.83948418 -2.461338454e-05 -163.3183874
169.6894628 -2.461338454e-05 -72.69328839
184.0007278 219.5491949 -149.2870074
-176.0002492 98.19274239 -45.41000639
-176.0002492 36.32581839 -209.9591804
180.0007278 207.7497894 -187.5777084
176.0007278 77.06382739 -69.46679439
176.0007278 175.6462074 -108.7934444
184.0007278 30.06813439 -105.7508204
8.361101821 -2.461338454e-05 -222.0842504
-146.7557532 -2.461338454e-05 -206.4612164
-83.04277018 19.85141039 -9.73878773e-05
-11.30611018 -2.461338454e-05 -161.0629714
-47.15194418 -2.461338454e-05 -174.6159314
86.58019282 -2.461338454e-05 -154.7094354
143.9900178 -2.461338454e-05 -192.9869584
176.0007278 25.13597039 -80.82839539
176.0007278 38.30016739 -1.501861388
176.0007278 39.67812939 -119.7299154
124.1142778 -2.461338454e-05 -184.3893154
-116.5690522 123.3997724 -9.73878773e-05
8.606472821 -2.461338454e-05 -133.1861104
-149.8634542 124.5383904 -9.73878773e-05
180.0007278 51.01429039 -17.36255039
180.0007278 59.12091239 -32.45102139
176.0007278 159.7772564 -118.7257614
184.0007278 227.8290701 -181.7041174
-66.15355818 -1.441074613 -9.73878773e-05
61.18328882 -2.461338454e-05 -243.3234744
-53.68990318 -2.461338454e-05 -221.1517764
184.0007278 198.3837224 -119.3437304
180.0007278 50.18906539 -226.1270794
192.8719908 148.1699304 -40.00009739
-70.82102818 -2.461338454e-05 -20.32341239
176.0007278 148.4764174 -80.84099639
114.9280188 -2.461338454e-05 -78.78220339
-176.0002492 77.06371239 -49.70953139
-39.70848718 -2.461338454e-05 -33.64509239
176.0007278 28.60321239 -232.4027484
64.53341982 -2.461338454e-05 -80.78077639
-149.6270262 -2.461338454e-05 -251.3957654
180.3062818 187.1464514 -194.1143294
-176.0002492 34.40480739 -103.6697264
189.9651538 34.60671139 -200.0000974
-96.21669218 10.52008039 -9.73878773e-05
33.73057682 -2.461338454e-05 -77.66822339
184.0007278 35.70320439 -153.2087634
189.1109218 102.8774414 -40.00009739
-176.0002492 25.37382139 -65.32726239
176.0007278 36.59423939 -192.4908204
-138.7872922 39.57996239 -9.73878773e-05
123.7460978 32.17610939 -9.73878773e-05
-194.0507632 -2.461338454e-05 -228.7472904
184.0007278 227.7672864 -156.2134884
184.0007278 209.1155794 -52.03644739
176.0007278 127.0139524 -69.32135239
-84.30023218 -2.461338454e-05 -116.4018244
-66.57575618 -2.461338454e-05 -119.3066524
-105.7487472 -2.461338454e-05 -48.66478939
-180.0002492 53.27139439 -116.2285224
12.75659582 -2.461338454e-05 -243.5787674
-169.1962012 -2.461338454e-05 -67.89974439
-22.02840018 -2.461338454e-05 -67.19341039
161.0246908 -2.461338454e-05 -158.8277824
176.0007278 0.7387613866 -193.0640094
-22.20726518 65.45677439 -9.73878773e-05
189.8305218 53.55673339 -200.0000974
4.471314821 -2.461338454e-05 -14.84527539
176.7898968 -2.461338454e-05 -155.9366274
176.0007278 51.14144639 -103.5240784
194.0515298 185.3134834 -44.00009739
-72.61341618 -2.461338454e-05 -219.2362924
-100.4418712 74.54166239 -9.73878773e-05
-162.8708882 53.87614539 -9.73878773e-05
138.8214498 17.00496039 -9.73878773e-05
176.0007278 136.4897404 -162.0411074
184.0007278 75.55756939 -128.1872004
-21.96673518 -2.461338454e-05 -225.8210094
165.4113118 60.50435439 -9.73878773e-05
-176.0002492 55.09959739 -140.6495904
-187.2742402 -2.461338454e-05 -45.75801639
-41.36798418 -2.461338454e-05 -99.15985639
176.0007278 57.47187839 -9.073802388
-56.66910118 -2.461338454e-05 -21.52938139
29.89972382 -2.461338454e-05 -23.78401639
180.0007278 125.2662344 -134.4231614
111.3985138 32.64319939 -9.73878773e-05
51.24372882 -2.461338454e-05 -58.27349239
-90.51119218 -2.461338454e-05 -160.4725114
-6.451502179 -2.461338454e-05 -149.7578524
176.3820978 0.4999753866 -46.27436339
-176.0002492 35.58239539 -29.29936639
142.7905268 -2.461338454e-05 -116.2983274
-176.0002492 67.49042339 -86.23952039
40.98761882 28.75657039 -9.73878773e-05
-125.5298912 -2.461338454e-05 -215.5217204
180.0007278 85.82178639 -128.1757294
-176.0002492 22.95972539 -163.5330374
-63.23766618 18.46015939 -9.73878773e-05
176.0007278 23.84841939 -48.71687539
176.0007278 7.602584387 -228.1797054
193.2427008 -2.461338454e-05 -73.33257339
68.50573782 -2.461338454e-05 -144.3796984
-180.0002492 14.23580039 -237.2017724
-180.0002492 9.164742387 -107.3237874
-186.9480302 -2.461338454e-05 -71.45446039
68.73784982 6.267500387 -9.73878773e-05
-49.05285718 -2.461338454e-05 -250.1492804
31.15522182 -2.461338454e-05 -125.6296184
-180.0002492 30.66303239 -226.7974224
180.0007278 70.49117239 -209.8982474
180.0122388 111.2747424 -47.88309939
-180.0002492 21.87116239 -140.3992194
184.0007278 216.9098439 -170.0438664
-180.0002492 87.08072039 -27.90628039
186.4170578 -2.461338454e-05 -132.8214214
184.0007278 162.7047284 -146.8602654
-195.7483752 -2.461338454e-05 -102.8325524
180.0007278 99.51862939 -209.4890974
180.0007278 238.9076659 -139.1455344
56.75058782 24.29195439 -9.73878773e-05
45.05370582 -2.461338454e-05 -97.48493139
180.0007278 51.86482639 -140.2604524
140.2388368 -1.849917613 -9.73878773e-05
-89.67742618 31.06002539 -9.73878773e-05
-176.0002492 45.20099939 -57.51322739
-196.2978732 -2.461338454e-05 -119.4494794
180.0007278 207.1251344 -68.40047939
27.20793682 8.763677387 -9.73878773e-05
49.13299882 -2.461338454e-05 -74.42329339
180.0007278 43.77656339 -39.41385739
22.35138282 42.32901639 -9.73878773e-05
176.0007278 58.10328039 -152.0016274
-162.5026822 -2.461338454e-05 -40.40733239
-180.0002492 9.320972387 -51.91142639
-134.0202632 -2.461338454e-05 -208.5782334
-22.90348818 -2.461338454e-05 -205.6080594
184.0007278 118.2347104 -172.5073734
184.0007278 29.68800439 -85.47440239
193.1970798 -2.461338454e-05 -93.62758339
176.0007278 180.1607594 -129.1843434
-160.4850242 107.2567704 -9.73878773e-05
184.0007278 68.05691039 -170.7468294
-119.0687872 45.39096639 -9.73878773e-05
-176.0002492 27.56914339 -242.8740744
-84.70391918 -2.461338454e-05 -47.69988639
190.4662808 223.4802763 -196.0000974
59.34175982 -2.461338454e-05 -93.42926439
-172.8531572 66.74286939 -9.73878773e-05
184.0007278 142.4100754 -164.5444624
89.06496382 28.06072339 -9.73878773e-05
176.0007278 8.844513387 -240.1018854
-180.0002492 7.902128387 -160.3281214
-100.0226132 -2.461338454e-05 -186.6621814
-90.70076418 -2.461338454e-05 -102.0654144
-180.0002492 27.43124539 -182.6047244
121.8175028 -2.461338454e-05 -96.75643839
184.0007278 55.02085339 -177.0616394
197.3363068 106.4192624 -196.0000974
184.0007278 65.65920139 -134.9077274
-171.8260902 11.72895639 -9.73878773e-05
143.8049228 -2.461338454e-05 -36.02919639
-139.9726712 94.06656039 -9.73878773e-05
176.0007278 84.82570139 -189.4224904
-180.0002492 58.79497439 -184.5982764
184.0007278 140.2303104 -76.83774039
180.0007278 17.40607539 -94.20918439
32.16591882 -2.461338454e-05 -194.8179944
-104.1670072 -2.461338454e-05 -215.9176154
176.0007278 21.28854739 -245.4970734
-156.2260472 -2.461338454e-05 -13.56848439
176.0007278 33.43476339 -56.42447039
16.26525682 62.47610839 -9.73878773e-05
176.0007278 155.0124824 -147.7103274
184.0007278 82.63585739 -163.0155464
-95.20593818 -2.461338454e-05 -139.1724144
176.0007278 69.13791939 -238.0397484
158.0148308 -2.461338454e-05 -212.4893304
-180.0002492 52.71117139 -197.9069004
-176.0002492 38.38924939 -39.27421139
-190.6378302 -2.461338454e-05 -177.4277264
184.0007278 153.5110594 -121.3842434
180.0007278 244.480438 -190.3817264
110.0688598 -2.461338454e-05 -100.2792094
-176.0002492 69.02407239 -122.7262764
-53.85617318 46.31096339 -9.73878773e-05
180.0007278 142.4171934 -106.3963904
185.3971708 55.59389639 -40.48010539
-107.5118392 18.02726839 -9.73878773e-05
176.0007278 54.12671939 -93.86768339
200.7556968 125.9111504 -196.0000974
-180.0002492 43.04767739 -166.1986794
180.0007278 37.32042639 -99.37953439
133.2710578 -2.461338454e-05 -249.4358744
-164.1644472 -2.461338454e-05 -173.2958744
-70.56989418 62.07947439 -9.73878773e-05
83.31301482 -2.461338454e-05 -80.07950939
180.0007278 91.49745939 -174.4301594
176.4273168 178.5124784 -98.98727239
-138.8966132 123.6786614 -9.73878773e-05
23.17082082 -2.461338454e-05 -225.4131364
187.4405718 -2.461338454e-05 -156.7562324
180.0007278 134.5040354 -130.5015744
-176.0002492 51.83416239 -92.18438439
-180.0002492 58.00122039 -166.9028014
93.83724082 18.22636739 -9.73878773e-05
198.2589478 -2.461338454e-05 -149.9933234
77.41482882 -2.461338454e-05 -173.4161254
-106.7714732 66.20436039 -9.73878773e-05
-146.5983932 47.78216839 1.962389612
180.0007278 188.5687864 -66.80296739
-127.6406272 34.86524939 -9.73878773e-05
136.1394698 -2.461338454e-05 -218.0062304
129.5481578 67.99997539 1.869602612
176.0007278 30.82302139 -178.1813714
184.0007278 183.5716714 -77.57019839
184.0007278 15.38619339 -167.9701424
137.8012208 -2.461338454e-05 -79.23791839
-180.0002492 68.25699439 -33.83508139
86.67011482 -2.461338454e-05 -69.66838039
88.84059982 -2.461338454e-05 -203.8712414
184.0007278 68.14440339 -148.5370974
124.6826568 -2.461338454e-05 -164.8736464
-15.00566218 24.20461139 -9.73878773e-05
139.6395498 -2.461338454e-05 -96.29834039
-27.78742818 -2.461338454e-05 -10.89416639
184.0007278 57.87304039 -65.49816139
184.3475538 239.4005614 -199.0799514
-156.9416832 -2.461338454e-05 -156.2561684
176.0512628 154.9042194 -166.4333174
159.0194338 -2.461338454e-05 -47.25768439
184.0007278 149.7487474 -64.92973239
180.0007278 12.05932539 -211.4642304
64.73870282 37.03425539 -9.73878773e-05
180.0007278 222.8789335 -60.65623239
176.0007278 177.5439244 -140.8134544
-180.0002492 19.32623739 -219.7746504
58.49075482 -2.461338454e-05 -197.1369204
78.85628882 -2.461338454e-05 -41.37632639
184.0007278 94.22775239 -156.3041044
176.0007278 78.67863539 -181.7652174
176.0007278 72.67980439 -225.2614934
193.0976058 160.3281164 -40.00009739
-176.0002492 8.745767387 -129.5640944
20.88530482 -2.461338454e-05 -87.65845839
-176.0002492 65.52716439 -24.81074339
-37.51681318 -2.461338454e-05 -82.00540639
176.0007278 87.37770339 -106.9730514
184.0007278 200.5152694 -146.0634594
176.0007278 107.0178824 -145.8142354
-176.0002492 27.70754439 -192.5507444
-162.1873972 13.51478739 -9.73878773e-05
-195.4338882 90.09540239 -9.73878773e-05
176.0007278 89.53219139 -142.5469414
-158.8640932 -2.461338454e-05 -194.7711384
184.0007278 161.9674344 -166.8458704
-196.5105192 -2.461338454e-05 -140.8036554
197.8058858 11.12748539 -198.1618364
39.91916482 -2.461338454e-05 -165.2107974
184.0007278 19.36238039 -187.2662604
176.0007278 85.74946639 -92.70597539
48.17369682 -2.461338454e-05 -114.9174364
176.0007278 56.91611639 -186.2823194
184.0007278 1.922832387 -104.2709624
-80.10239918 37.94912339 -9.73878773e-05
176.0007278 90.18975739 -77.29571039
184.0007278 102.8723804 -91.53698139
176.0007278 50.78827439 -78.65710939
117.5918978 -2.461338454e-05 -7.899634388
-25.93074118 -2.461338454e-05 -85.39814139
176.2455448 8.933000387 -9.73878773e-05
-180.0002492 12.80543139 -62.65966539
176.0007278 59.88904239 -108.6938414
-9.898453179 54.74205439 -9.73878773e-05
-183.4912042 84.19787039 -9.73878773e-05
-97.29784818 90.34795039 -9.73878773e-05
176.0007278 27.88856339 -159.1599804
-183.9621802 -2.461338454e-05 -8.387491388
180.0007278 20.78015639 -15.47292539
184.0007278 101.1974734 -118.9635134
172.0388188 -2.461338454e-05 -112.6430524
-43.33596918 -2.461338454e-05 -230.6867484
-42.23915618 61.26959539 -9.73878773e-05
179.1579068 -2.461338454e-05 -9.594361388
184.0007278 44.69633939 -117.9291324
-180.0002492 49.61174439 -10.93503439
-195.3689382 -2.461338454e-05 -13.85182339
90.02661082 -2.461338454e-05 -171.3684774
180.0007278 119.5985184 -119.3675594
-5.299947179 -2.461338454e-05 -16.60809539
152.6293928 -2.461338454e-05 -144.4702704
184.0007278 160.9031554 -110.6849364
184.0007278 166.9577454 -158.6872114
-32.96067418 -2.461338454e-05 -179.9288604
-93.81575318 -2.461338454e-05 -31.96140739
184.0007278 20.60738839 -157.0544634
184.0007278 16.48005539 -62.34328939
151.3532968 -2.461338454e-05 -120.6707124
156.8465978 -2.461338454e-05 -9.662973388
-156.6016582 116.9866854 -9.73878773e-05
-23.43212218 35.03831339 -9.73878773e-05
176.0007278 67.67804239 -130.1469474
99.34094682 -2.461338454e-05 -218.7284164
-176.0002492 9.053608387 -148.6535704
117.6351778 -2.461338454e-05 -68.30533939
-130.4732182 20.16671839 -9.73878773e-05
-28.63178318 -2.461338454e-05 -54.99210439
21.60432082 -2.461338454e-05 -194.7208144
-115.7943582 -2.461338454e-05 -164.5726634
-185.2908642 -2.461338454e-05 -168.8544534
-176.0002492 2.943802387 -207.7924144
184.0007278 86.78061239 -184.7551244
193.9737768 216.192714 -44.00009739
-180.0002492 78.67566639 -38.71709439
-145.0288122 -2.461338454e-05 -226.8996954
182.9780518 161.3423034 -41.80398739
176.0007278 155.3133134 -133.3264984
176.0007278 171.3170074 -132.5086844
-91.28492718 -2.461338454e-05 -7.759940388
184.0007278 119.1552484 -161.4228414
-158.8853042 -2.461338454e-05 -57.65561239
-61.25107118 -2.461338454e-05 -195.2061224
184.0007278 42.02882539 -176.5058634
184.0007278 18.95406239 -113.8543894
-106.7793412 -2.461338454e-05 -37.18802039
176.0007278 54.84160939 -40.09826839
127.6713718 -2.461338454e-05 -200.7748334
200.9608158 84.20254439 -200.0000974
-12.77712818 33.94779639 -9.73878773e-05
28.14216782 -2.461338454e-05 -59.09241939
192.6895968 250.9245032 -196.0000974
-76.02310018 -2.461338454e-05 -79.40977739
199.2569918 115.3180904 -44.00009739
184.0007278 172.7608064 -148.4733354
184.0007278 204.3955554 -84.33246939
87.88501482 -2.461338454e-05 -130.3819644
194.2076418 -2.461338454e-05 -107.7597814
184.0007278 60.80658939 -189.3195744
103.0875668 65.97208539 -9.73878773e-05
152.2661338 59.86388039 -9.73878773e-05
180.0007278 7.539566387 -86.61109339
-129.4287792 -2.461338454e-05 -156.3956074
88.84925682 60.47459239 -9.73878773e-05
180.0007278 11.74335739 -127.3450054
-4.260695179 -2.461338454e-05 -80.52497039
91.91643582 -2.461338454e-05 -19.88924339
184.0007278 81.83379439 -77.95469139
176.0007278 40.92691639 -250.7988224
-180.0002492 67.74914939 -153.9306264
184.0007278 54.86215339 -167.6081964
176.0007278 70.83849639 -174.7753604
191.4558468 -2.461338454e-05 -251.5716244
176.0007278 40.26038639 -68.54352539
-176.0002492 78.72735139 -68.01259439
184.0007278 127.4616464 -57.44178739
180.0007278 17.25757839 -71.57959639
184.0007278 37.63584239 -139.1397074
-180.0002492 0.1260503866 -53.68239139
82.56676082 -2.461338454e-05 -242.2734394
180.0007278 40.81267139 -52.04373039
-130.3196412 -2.461338454e-05 -24.48763939
180.0007278 80.05288239 -150.2845774
-165.9385812 -2.461338454e-05 -239.9782884
127.2590718 49.01888339 -9.73878773e-05
-111.4462902 -2.461338454e-05 -226.6024564
-180.0002492 61.08632739 -11.00768539
-90.24694418 -2.461338454e-05 -78.12249039
106.1477428 -2.461338454e-05 -150.4993154
132.7604558 35.75397039 -9.73878773e-05
180.0007278 248.7189884 -76.12511539
176.0007278 57.71379939 -214.0396084
147.1482898 36.85023339 -9.73878773e-05
-144.0968612 -2.461338454e-05 -26.20770939
-22.27491818 -2.461338454e-05 -19.55561439
-45.51665418 -2.461338454e-05 -45.71592039
184.0007278 120.2544204 -183.0746204
82.94372982 -2.461338454e-05 -24.07197839
-176.0002492 64.23177839 -104.6413884
180.0007278 33.95515239 -23.87195539
176.0007278 66.31676139 -75.21838939
184.0007278 217.0574058 -73.05365639
180.0007278 218.0196797 -117.8981244
184.0007278 216.043448 -188.2624984
-139.7685582 -2.461338454e-05 -189.4104224
-176.0002492 55.74246039 -48.11649339
-52.88167718 -2.461338454e-05 -56.88575139
-180.0002492 63.50272039 -52.50114339
176.0007278 34.30901539 -45.92981139
-149.4541232 68.91985439 -9.73878773e-05
181.4039988 152.7149534 -196.5083004
188.3007298 206.2473694 -200.0000974
180.0007278 65.72913139 -156.9931924
184.0007278 222.2379294 -96.23851839
-6.585730179 -2.461338454e-05 -240.6254894
176.0007278 33.12768139 -210.3278174
-180.0002492 18.51723439 -177.6864734
-174.7305572 -2.461338454e-05 -23.41785539
-65.28740218 -2.461338454e-05 -43.57944139
-185.0548202 75.13438839 -9.73878773e-05
-180.0002492 57.58583339 -69.28144239
161.4045898 -2.461338454e-05 -27.19032839
-180.0002492 24.03646039 -250.3512944
155.0566058 -2.461338454e-05 -65.37292639
176.0007278 40.43906839 -170.3384174
14.06042482 -2.461338454e-05 -38.39436439
119.4926618 -2.461338454e-05 -219.4991344
-66.62548618 -2.461338454e-05 -235.7406614
-186.7429992 -2.461338454e-05 -86.11708639
186.4272128 224.5911374 -40.17864939
176.0007278 62.35715939 -61.19513739
180.0007278 70.48275839 -52.74688339
184.0007278 179.4560554 -120.1724394
-126.3489172 -2.461338454e-05 -76.60731439
180.0007278 170.2533724 -60.18158939
180.0007278 237.8659164 -70.59046139
-87.00203718 51.32660439 -9.73878773e-05
184.0007278 110.8999744 -73.16586139
176.0007278 102.2957024 -156.7025884
189.0433878 185.2788434 -196.0000974
-176.0002492 48.80878339 -82.19735539
106.3853438 -2.461338454e-05 -238.9708294
184.0007278 247.4170872 -96.14966139
22.18544782 -2.461338454e-05 -171.5769144
-180.0002492 49.50309739 -134.6763824
-116.2694492 -2.461338454e-05 -139.2020964
180.0007278 190.6700144 -112.2666404
98.76140382 -2.461338454e-05 -89.26289039
-124.3964532 7.763179387 -9.73878773e-05
184.0007278 108.7522904 -63.24783739
4.619919821 -2.461338454e-05 -231.7808084
176.0007278 113.7487824 -184.6695544
180.0007278 9.157160387 -36.09399339
184.0007278 9.045061387 -119.6516574
199.3498298 -2.461338454e-05 -7.629505388
12.32548182 54.29515239 -9.73878773e-05
121.7227028 -2.461338454e-05 -121.0789624
94.28451282 -2.461338454e-05 -51.35520739
180.0007278 205.4984024 -105.4969034
20.16290382 -2.461338454e-05 -53.43902439
189.3897408 27.84727239 -9.73878773e-05
-188.5184212 109.6141924 -9.73878773e-05
-176.0002492 23.16812539 -75.29071139
180.0007278 126.0705004 -104.4866514
180.0007278 87.48068939 -211.0388824
-1.828041179 -2.461338454e-05 -120.3829024
-176.0002492 91.65885439 -36.26019739
159.2488368 -2.461338454e-05 -93.39742239
180.0007278 135.0272714 -70.32033039
176.0007278 158.3506884 -95.91884739
176.0007278 132.7899974 -172.2070704
180.0007278 246.2692931 -133.2389484
-180.0002492 50.01775639 -222.6988334
184.0007278 212.883809 -87.30679939
-188.5808772 51.47486939 -9.73878773e-05
176.0007278 131.1587604 -90.24227139
191.0293748 157.1890744 -196.0000974
-58.29568918 -2.461338454e-05 -32.77264439
200.5298008 244.5460262 -40.00009739
105.0634048 -2.461338454e-05 -178.6988504
189.9183328 243.7914135 -40.00009739
195.4254798 -2.461338454e-05 -48.07307439
-27.82762218 -2.461338454e-05 -172.2602544
184.0007278 55.04897739 -102.3973444
176.0007278 164.7913754 -109.5047814
184.0007278 16.73388939 -142.4364314
180.0007278 242.4954972 -168.8412414
106.3522148 -2.461338454e-05 -4.771692388
6.139348821 -2.461338454e-05 -34.20788139
184.0007278 78.63600439 -104.6769874
184.0007278 241.6513426 -146.6734134
184.0007278 13.43762539 -180.3682044
-161.4064832 85.67800439 -9.73878773e-05
-99.24143518 54.78014439 -9.73878773e-05
-8.340972179 42.49553339 -9.73878773e-05
184.0007278 72.18324039 -180.4722984
65.01544982 -2.461338454e-05 -218.3313084
69.65892582 -2.461338454e-05 -163.4218744
-162.8450462 68.08152939 -9.73878773e-05
-180.0002492 5.764167387 -219.7729454
-176.0002492 92.74631339 -9.077984388
184.0007278 134.2765754 -119.3659974
-94.87704218 -2.461338454e-05 -67.09622439
-127.2102752 -2.461338454e-05 -63.50087039
176.0007278 45.08183139 -8.325148388
62.98394182 -2.461338454e-05 -109.7274114
-180.0002492 61.20022339 -201.6616554
39.22104582 14.37081639 -9.73878773e-05
176.0007278 70.73927939 -93.73496339
184.0446108 126.0298214 -41.08184639
-59.15338518 56.90320439 -9.73878773e-05
184.0007278 178.4574684 -106.1536004
-157.5847132 -2.461338454e-05 -183.5420414
191.1929778 194.4584484 -200.0000974
184.0007278 201.0336484 -74.87584239
20.26344682 -2.461338454e-05 -64.31333939
184.0007278 46.16737839 -85.54789639
184.0007278 105.0663424 -140.7424664
184.0007278 186.8990404 -87.63880539
176.0007278 7.379348387 -200.2402044
184.0007278 199.1502284 -135.9197734
196.7004858 -2.461338454e-05 -27.79517739
-176.0002492 16.38152739 -87.23346639
33.08660782 -2.461338454e-05 -183.7542454
-115.8453492 -2.461338454e-05 -99.01742639
150.0218148 -2.461338454e-05 -229.0099344
180.0007278 118.8224524 -53.61905839
-105.7457752 -2.461338454e-05 -119.4326794
176.0007278 26.03311239 -126.9876544
180.0007278 202.5871054 -56.44380939
180.0007278 137.8221384 -49.84625939
180.0007278 144.7363734 -157.0280834
-51.27687118 11.35113539 -9.73878773e-05
176.0007278 54.98280939 -163.8008334
184.0007278 187.3543784 -160.4653994
180.0007278 231.8565873 -133.3040384
-177.9746542 22.02843739 -9.73878773e-05
176.0007278 140.2554284 -88.94562839
-180.0002492 108.8508414 -13.07469539
184.0007278 24.17038239 -168.1319904
184.0007278 109.0542654 -167.4343344
-176.9439332 -2.461338454e-05 -144.7350914
184.0007278 193.4335334 -174.7653184
-40.22415718 -2.461338454e-05 -72.76772539
-176.0002492 58.21334139 -176.1459934
184.0007278 57.88224439 -53.23897439
184.0007278 195.6689844 -127.6785314
184.9174118 74.29440239 -40.64726939
18.74192382 -2.461338454e-05 -8.313892388
-109.1398202 128.2258174 -9.73878773e-05
180.0007278 42.46914739 -243.1601294
-176.0002492 0.8154053866 -182.9971044
183.4444718 170.0658534 -41.43302539
-0.8096971793 -2.461338454e-05 -59.51225639
184.0007278 115.1427934 -131.6547434
23.56267382 -2.461338454e-05 -238.2592234
-180.0002492 35.59445339 -241.2802864
121.6557248 -2.461338454e-05 -176.0312164
-176.0002492 14.21104239 -19.11182439
145.5040258 -2.461338454e-05 -17.10560039
184.0007278 124.0256874 -72.07217539
2.416431821 -2.461338454e-05 -104.5417564
173.3213988 56.89307139 -9.73878773e-05
-180.0002492 79.95294439 -8.097216388
-151.8295652 -2.461338454e-05 -102.9501834
-195.5906542 -2.461338454e-05 -209.4465474
-134.8445962 63.74465639 -9.73878773e-05
180.0007278 9.696148387 -173.1734564
184.0007278 98.28767439 -50.25023139
-176.0002492 6.305836387 -98.86818439
-14.69798018 -2.461338454e-05 -177.9983844
-123.5430942 -2.461338454e-05 -205.0353164
180.0007278 88.25940639 -223.4386094
-199.6286592 -2.461338454e-05 -65.17421939
28.13113582 -2.461338454e-05 -9.767723388
36.71221082 -2.461338454e-05 -99.85562339
184.0007278 97.13575739 -58.86604739
-180.0002492 99.83829939 -37.89572539
184.0007278 100.7678624 -100.7076924
197.0322868 25.38438739 -200.0000974
124.0578188 -2.461338454e-05 -111.1564264
180.0007278 162.9598374 -55.52538339
-34.64602118 -2.461338454e-05 -162.7568954
-79.99137518 109.9918824 0.002356612123
176.0007278 39.77485139 -78.85571739
-180.0002492 93.59518039 -63.81255839
180.0007278 109.7757094 -116.2899844
-176.0002492 85.33293039 -80.77913439
184.0007278 44.47049539 -154.7694074
-144.6629612 19.35072739 -9.73878773e-05
