# .PCD v0.7 - Point Cloud Data file format
VERSION 0.7
FIELDS x y z
SIZE 4 4 4
TYPE F F F
COUNT 1 1 1
WIDTH 1310
HEIGHT 1
VIEWPOINT 0 0 0 1 0 0 0
POINTS 1310
DATA ascii
-2.899975743e-05 50.42995539 13.02381261
220.502232 15.30250039 32.99990261
188.395827 24.40794339 38.99990261
175.537538 18.99084339 38.99990261
96.599545 15.58535839 38.99990261
87.622693 -1.257758614 32.99990261
100.004727 -2.461360691e-05 6.969559613
117.058504 27.78730239 38.99990261
46.823257 48.50902639 38.99990261
64.54457 180.7413144 13.99990261
62.959348 -2.461360691e-05 -34.44504639
3.999971 150.3536914 -31.81000439
0.2944130002 215.8686435 7.858710613
215.191177 11.72324739 38.99990261
25.94068 231.260887 13.99990261
138.398747 -2.461360691e-05 -10.67518539
29.952766 11.99189439 38.99990261
164.57035 23.89224039 38.99990261
3.999971 158.3283034 -17.51572339
114.508139 33.35751639 32.99990261
21.515068 67.89102039 32.99990261
3.999971 144.3112864 -8.907361387
57.027739 183.0100764 13.99990261
-2.899975743e-05 22.87586339 3.595570613
36.071523 128.8800894 9.999902613
187.11642 34.16035539 38.99990261
94.082052 6.921060386 32.99990261
33.330891 104.2003654 13.99990261
40.150499 -2.461360691e-05 -25.61293839
4.208055 162.1842494 7.046166613
88.509862 -2.461360691e-05 10.25245661
3.999971 248.9725699 -29.62189839
64.779728 110.9111584 9.999902613
-2.899975743e-05 50.69641739 -10.56155339
25.577038 213.3104984 9.999902613
248.190005 49.10088939 32.99990261
123.39965 -2.461360691e-05 6.164556613
47.462746 243.2423144 13.99990261
208.503862 33.69712439 38.99990261
98.559442 -2.461360691e-05 26.03582461
-2.899975743e-05 167.2982524 -29.11180639
-2.899975743e-05 80.48145139 -23.09765039
-2.899975743e-05 207.2606564 -35.92055239
-2.899975743e-05 48.70498539 23.21020061
3.999971 171.1011464 -19.43457639
17.616289 -2.461360691e-05 -9.808293387
-2.899975743e-05 27.76902639 -10.21834739
131.048211 -2.461360691e-05 -28.34433739
71.906045 1.490570386 32.99990261
-2.899975743e-05 155.2734134 4.010711613
-2.899975743e-05 175.1682984 -7.413143387
75.619471 -2.461360691e-05 20.77567061
204.181593 -2.461360691e-05 -36.53446539
3.999971 141.1649424 -37.85241239
48.572763 210.5026144 9.999902613
-2.899975743e-05 48.63875339 -1.586812387
134.058134 30.98718339 38.99990261
13.431741 251.84796 9.999902613
20.380729 -2.461360691e-05 -22.20788839
3.999971 55.21642939 -37.49959539
65.935637 151.2486894 13.99990261
161.616838 -1.260348614 32.99990261
3.999971 195.3992774 -10.10620339
206.618309 7.084728386 38.99990261
74.769575 -2.461360691e-05 -26.76158539
43.282603 216.0149998 13.99990261
221.462778 -2.005798614 32.99990261
209.341181 67.99997539 36.75207561
-2.899975743e-05 119.4849394 -13.16103839
-2.899975743e-05 160.0745874 -3.829491387
208.019223 -2.461360691e-05 9.202819613
165.611989 63.96548439 32.99990261
172.152483 -2.461360691e-05 8.892730613
237.75722 43.96823539 38.99990261
68.378135 -2.461360691e-05 -6.816571387
3.999971 222.7809789 -32.81265039
201.264364 58.47748839 38.99990261
25.536369 190.9203264 13.99990261
166.764528 42.30195339 38.99990261
45.329575 185.0180844 9.999902613
141.953006 67.99997539 36.11707661
248.074433 -2.461360691e-05 -14.16805339
122.982974 35.39794739 32.99990261
-2.899975743e-05 79.51755839 -12.26380439
-2.899975743e-05 91.66636039 -11.05355039
59.882863 145.4630794 13.99990261
194.44379 -2.461360691e-05 26.30676261
242.288444 55.17125939 32.99990261
57.071996 6.027367386 38.99990261
166.967026 11.61918339 32.99990261
233.963771 33.05924439 32.99990261
210.894046 60.64730239 32.99990261
1.310067 11.83069939 38.99990261
-2.899975743e-05 101.0940874 -35.69574239
-2.899975743e-05 105.2344474 -21.55170939
71.127604 112.2975584 13.99990261
-2.899975743e-05 187.5714174 4.183493613
-2.899975743e-05 125.7225934 -7.510781387
96.373432 19.80535839 32.99990261
187.310841 62.19135239 38.99990261
45.967213 19.35221939 32.99990261
55.606294 60.03682139 32.99990261
18.030322 -2.461360691e-05 26.29608461
5.422244 3.307801386 38.99990261
185.961348 15.39467339 32.99990261
55.212577 -2.174271614 -27.98217739
175.466483 49.47350739 32.99990261
2.275129 -2.461360691e-05 -16.72921739
49.251083 39.90479139 38.99990261
199.853006 -2.461360691e-05 12.44170861
61.803205 39.13214439 38.99990261
249.387351 13.80428439 32.99990261
149.220015 -2.461360691e-05 22.50598861
134.653868 49.31727239 38.99990261
18.202899 53.56165139 32.99990261
1.865142 46.08629139 -16.00156239
141.576792 3.938835386 32.99990261
149.443442 -2.461360691e-05 -32.73709539
61.842661 30.17316139 38.99990261
137.342229 -2.461360691e-05 4.228604613
-0.7515569998 -2.461360691e-05 31.86978161
4.64828 22.77433739 38.99990261
138.337893 40.39357439 38.99990261
-2.899975743e-05 216.9447329 -11.68712739
108.019349 -2.461360691e-05 1.163573613
17.240594 157.0958414 9.999902613
75.908387 164.0199024 9.999902613
72.857209 25.54763039 32.99990261
55.29026 156.7259364 13.99990261
-2.899975743e-05 45.40507539 7.879943613
37.373081 35.68605839 38.99990261
42.502995 -2.461360691e-05 11.25276461
110.701886 -2.461360691e-05 -14.68386739
10.164896 241.9000865 9.999902613
3.999971 164.2159504 -39.34326239
195.133257 61.25816539 32.99990261
40.716069 22.40954939 38.99990261
-2.899975743e-05 218.8532401 -37.27360439
48.04646 153.6850624 9.999902613
-2.899975743e-05 113.1335504 -37.84088839
-2.899975743e-05 33.96891439 -39.12405339
77.910547 -2.461360691e-05 -18.99322039
-0.4431619998 27.42002739 32.99990261
21.522203 167.0525324 13.99990261
-2.899975743e-05 27.53441339 18.88840361
69.031776 11.87027539 38.99990261
71.2843 205.5242214 9.999902613
54.131134 139.6502614 9.999902613
54.046762 177.5334134 9.999902613
214.603427 -2.461360691e-05 -4.968527387
37.131022 -1.865826614 32.99990261
84.251477 -2.461360691e-05 -34.43070339
85.529272 57.56891039 38.99990261
35.151889 166.4743554 13.99990261
-2.899975743e-05 135.5581464 -10.59612439
80.346193 6.437431386 32.99990261
65.127191 162.8422464 13.99990261
164.151198 -2.461360691e-05 -33.98813039
62.267465 34.93073239 32.99990261
204.777786 -1.238319614 38.99990261
8.18251 219.3554761 13.99990261
3.999971 184.1398774 -31.77208639
3.999971 197.8402084 -31.14208939
-2.899975743e-05 123.1799654 3.156115613
-2.899975743e-05 105.0780284 -13.01967239
154.670661 67.62296539 32.99990261
4.00644 -2.461360691e-05 -23.85410739
177.845339 57.54700439 38.99990261
49.109323 108.1777414 9.999902613
68.678548 224.2588479 9.999902613
106.855632 14.69987939 32.99990261
234.501715 -2.461360691e-05 -3.240420387
104.134978 57.23245539 32.99990261
167.834164 -2.461360691e-05 -4.663479387
69.59422 57.84810439 32.99990261
182.723325 42.60221239 32.99990261
43.373808 67.85947039 32.99990261
-2.899975743e-05 34.53318339 -3.988082387
234.231569 8.072731386 32.99990261
4.048889 54.27368739 38.99990261
164.274923 59.92207239 38.99990261
117.404558 -2.461360691e-05 15.04978661
17.419136 176.1086924 13.99990261
84.376775 22.63981439 38.99990261
131.5555 66.22793939 38.99990261
-2.899975743e-05 229.050946 -9.367886387
241.709823 23.87263239 38.99990261
27.863485 153.2903024 9.999902613
39.01549 246.2191385 13.99990261
252.411448 19.94714139 38.99990261
-2.899975743e-05 11.13305539 13.78512361
48.211813 -1.379445614 32.99990261
164.968688 1.557896386 38.99990261
104.078534 -2.461360691e-05 -22.93381839
3.999971 114.5366684 -24.57871539
114.427074 43.23531739 32.99990261
146.818893 -2.461360691e-05 4.640642613
64.63405 235.622496 9.999902613
183.460895 -2.461360691e-05 17.32801561
125.908769 -2.461360691e-05 -40.44632639
38.155982 111.3716004 13.99990261
225.306977 67.99997539 36.22705061
172.98463 7.152713386 38.99990261
3.999971 238.4969056 -39.71231439
130.56228 61.20484339 32.99990261
21.933925 -2.461360691e-05 -2.401702387
5.513536 -2.461360691e-05 -7.676797387
115.329752 9.858883386 32.99990261
143.73411 47.30007839 38.99990261
71.060776 182.0581024 9.999902613
155.775253 -2.461360691e-05 14.09088861
67.982389 -2.461360691e-05 -13.59546339
36.28453 200.1505604 9.999902613
42.310555 42.31946139 32.99990261
70.615968 216.970656 9.999902613
-2.899975743e-05 237.7337461 -6.215825387
233.013739 -2.461360691e-05 -18.74928939
-2.899975743e-05 14.90409839 -16.15637339
-2.899975743e-05 153.5517974 -5.500398387
-2.899975743e-05 206.4855114 -6.116847387
68.618693 65.32692839 38.99990261
0.2161730002 247.8606888 7.364782613
30.668762 58.12299639 38.99990261
77.999971 185.6730414 10.64694361
129.50095 27.11104039 32.99990261
22.022494 34.92503339 32.99990261
206.971601 49.06402739 38.99990261
59.264208 245.6381307 9.999902613
77.773588 146.0905004 9.999902613
203.796863 -2.461360691e-05 4.038561613
221.167292 20.49185339 38.99990261
47.967306 128.5301114 13.99990261
37.088603 226.4501352 13.99990261
137.695128 -2.461360691e-05 -28.63381839
75.702539 65.45514039 38.99990261
37.639973 177.2037264 13.99990261
209.263295 -1.066353614 32.99990261
238.829797 -2.461360691e-05 26.48434061
3.999971 200.4075564 -3.364501387
118.677353 19.18511839 38.99990261
233.391377 -2.461360691e-05 -39.52697739
-2.899975743e-05 35.52253839 -25.25373439
143.798549 -2.461360691e-05 -6.884662387
102.87651 38.75362139 32.99990261
40.295352 116.7355494 9.999902613
19.051867 117.8304824 9.999902613
-2.899975743e-05 29.36540939 4.598865613
75.379411 244.5786312 13.99990261
232.071461 0.5732943864 38.99990261
-2.899975743e-05 105.7530094 -2.141157387
210.530294 26.65315539 38.99990261
99.386981 13.99539439 32.99990261
-2.899975743e-05 232.955479 -39.11161139
7.652122 116.2389154 9.930721613
33.442453 46.70442939 38.99990261
5.340842 147.4432734 8.941587613
3.999971 162.2941514 -27.93348839
208.473721 57.86692539 38.99990261
190.92578 56.29636139 32.99990261
78.821284 9.806966386 38.99990261
53.426986 2.473340386 32.99990261
199.540353 -2.461360691e-05 -31.14451739
38.469164 219.5112616 9.999902613
46.284909 62.37794639 38.99990261
-2.899975743e-05 223.7011132 -22.09840639
54.688989 -2.461360691e-05 23.77416661
170.733196 60.26265639 38.99990261
222.558713 62.38454439 38.99990261
3.999971 192.9724234 3.355504613
194.088985 29.76798639 38.99990261
217.005483 -2.461360691e-05 19.11282661
-2.899975743e-05 124.2766464 -19.54098839
13.959544 139.2937274 9.999902613
105.779855 1.562785386 38.99990261
96.079664 28.66441239 38.99990261
20.130711 213.6328841 13.99990261
13.305472 109.9181344 9.999902613
20.666647 2.304903386 32.99990261
157.641265 52.60419939 32.99990261
169.062915 32.47161139 32.99990261
13.138387 -2.461360691e-05 21.94086061
210.998404 16.39532339 32.99990261
-2.899975743e-05 96.78331839 -25.35074539
3.999971 117.4997764 3.820743613
72.908343 235.3003331 13.99990261
102.79972 -2.461360691e-05 19.30359461
11.45663 148.8680734 13.99990261
54.300463 49.79974839 38.99990261
0.4231030002 240.6075597 8.533959613
-2.899975743e-05 188.5882984 -40.08044339
127.74803 -2.461360691e-05 -19.65746439
94.189189 62.41458239 32.99990261
-2.899975743e-05 193.0450674 -25.61547339
84.725909 49.60065939 38.99990261
63.211097 168.9133374 13.99990261
-2.899975743e-05 10.28535239 -3.972438387
-2.899975743e-05 35.86810539 6.295389613
192.597421 11.17758039 32.99990261
84.437171 65.17656339 32.99990261
-2.899975743e-05 229.4554086 -0.04428538661
32.059735 136.1129504 9.999902613
202.732845 42.75900839 32.99990261
38.077169 7.798507386 38.99990261
11.718661 42.53002239 32.99990261
217.593483 64.16188939 32.99990261
10.720807 194.4105814 9.999902613
47.399826 135.0571154 9.999902613
-1.220338 157.1194094 -20.79618639
77.679054 15.98321539 38.99990261
3.999971 6.253893386 -30.36002839
156.283557 46.85356339 38.99990261
153.858441 -2.461360691e-05 -23.52823039
-2.899975743e-05 5.845539386 -12.04102039
243.159567 22.90377839 32.99990261
-2.899975743e-05 57.38431439 -14.86153339
87.037106 29.64131639 38.99990261
3.999971 178.3457694 4.324797613
203.291871 65.46343239 38.99990261
100.562025 3.757477386 32.99990261
-2.899975743e-05 7.915284386 -36.70244739
3.999971 231.1459082 -13.63967739
207.126385 40.13491839 38.99990261
55.111233 170.0250524 9.999902613
55.713687 33.93966539 32.99990261
-2.899975743e-05 18.35083939 23.77273361
4.737298 162.6091914 13.20572161
-2.899975743e-05 51.90868039 -22.76413739
161.718969 47.52437839 32.99990261
27.948061 66.77196139 32.99990261
3.999971 215.7623004 -29.73526739
29.330934 226.1029064 13.99990261
107.189602 44.77046839 38.99990261
75.090138 41.54135939 32.99990261
3.999971 149.8093744 -24.88506639
135.34023 29.08087439 32.99990261
105.954487 12.17174539 38.99990261
3.999971 251.3237453 -0.3310413866
-2.899975743e-05 9.327462386 7.672296613
7.446098 168.8107244 13.91222161
154.741336 61.90039539 38.99990261
38.030936 17.14398439 32.99990261
2.273617 186.7378984 11.44810961
239.38895 45.33909739 32.99990261
3.999971 66.27507739 -22.65521839
183.660134 50.70965739 38.99990261
171.113349 23.21871339 38.99990261
11.861623 103.7047804 9.999902613
57.732086 231.8139078 9.999902613
7.467597 42.31344039 38.99990261
3.999971 188.0128864 -18.28185239
195.787686 -2.348343614 32.99990261
61.310507 62.97902139 32.99990261
-2.899975743e-05 235.7231975 -16.70979139
3.999971 215.1533093 -16.19755839
96.134 6.724485386 38.99990261
126.757818 67.99997539 34.21740961
3.999971 121.3821044 -30.46043439
227.679337 58.96154039 32.99990261
-2.899975743e-05 27.28548339 -16.49978239
123.962352 53.58135239 32.99990261
232.515969 60.72169539 38.99990261
212.32422 34.02465139 32.99990261
229.924533 42.78106539 32.99990261
-2.899975743e-05 99.59846239 -4.960573387
240.284172 5.134082386 32.99990261
177.279756 37.53293339 32.99990261
3.999971 218.3413483 -5.339157387
223.585681 -2.461360691e-05 27.50097661
96.21132 -2.461360691e-05 20.47180061
-2.899975743e-05 34.61608339 -10.02455339
17.080198 152.5774724 13.99990261
23.253571 125.8582294 13.99990261
3.999971 169.1683194 0.9907996134
2.389712 198.9728794 11.56420461
240.383639 -2.461360691e-05 19.14992361
-2.899975743e-05 40.01413239 -13.81746939
189.995502 0.7620213864 38.99990261
73.372808 168.5163614 13.99990261
96.489687 -2.461360691e-05 -39.53432039
152.782995 16.99222339 38.99990261
27.301015 22.74872439 32.99990261
249.620086 55.36504639 32.99990261
32.276923 17.77131039 38.99990261
20.843917 144.1391414 13.99990261
31.765597 178.3779554 13.99990261
6.402464 213.5402349 13.74700861
3.999971 101.5585834 -17.85971039
56.117852 220.7500722 9.999902613
158.210387 -2.461360691e-05 -2.603172387
83.871082 39.56191439 38.99990261
152.167171 28.56007339 32.99990261
17.28099 59.45357639 32.99990261
73.282689 155.8678734 9.999902613
39.267982 204.8770984 13.99990261
42.583152 0.5400963864 32.99990261
41.334701 191.2444534 13.99990261
50.897023 182.9397744 9.999902613
0.5667010002 -2.461360691e-05 2.141275613
21.762957 131.7076474 13.99990261
71.40703 45.67934439 38.99990261
162.408286 15.40161639 32.99990261
205.07077 7.449666386 32.99990261
-2.899975743e-05 36.65550339 14.96672561
40.446397 100.4999754 11.54627361
3.999971 7.176779386 -23.07388039
3.999971 157.8743854 -7.575645387
11.192292 183.5796464 13.99990261
113.069976 23.43975839 38.99990261
46.897427 29.34479639 32.99990261
3.999971 44.32983739 -34.90940339
52.475715 135.6461164 13.99990261
-2.899975743e-05 185.4429594 -4.812752387
71.218151 38.46582639 38.99990261
3.999971 75.03217539 -21.71400539
3.999971 205.1322814 -24.07347639
80.967144 62.81998139 38.99990261
-2.899975743e-05 71.10102839 -30.91410939
36.232166 54.90472839 32.99990261
0.5957560002 124.4231684 8.872848613
239.959162 -1.716870614 38.99990261
-2.899975743e-05 87.74717839 -33.13306839
3.999971 205.8525894 -12.32109839
107.218989 20.56227639 32.99990261
3.999971 151.8137774 -39.14530839
2.713905 219.3559608 11.88839761
-2.899975743e-05 200.8376324 -34.18521439
3.999971 127.9724184 -22.87774139
-2.899975743e-05 207.5461014 2.262828613
41.956292 127.3836924 13.99990261
31.534451 4.434263386 32.99990261
3.999971 174.6592484 -32.93532039
3.999971 141.9119084 -30.07170839
-2.899975743e-05 172.1830534 -25.04227639
72.116333 226.7315358 13.99990261
3.999971 197.2883234 -19.01976139
-2.899975743e-05 74.03456139 2.407679613
227.29677 20.09501239 38.99990261
132.131247 6.085720386 38.99990261
194.502353 -2.461360691e-05 -5.430761387
92.392729 -2.461360691e-05 -32.76103339
62.040355 -2.461360691e-05 -20.60735739
37.106383 33.69881539 32.99990261
142.851277 6.238201386 38.99990261
171.369587 14.20523939 38.99990261
29.362133 173.4106584 9.999902613
16.074587 239.6965678 9.999902613
196.590887 46.84469039 38.99990261
33.032424 239.9327479 9.999902613
19.080581 46.88454539 32.99990261
59.914125 177.3226014 13.99990261
3.999971 64.22667439 -31.17933439
247.276638 14.77183439 38.99990261
28.665621 220.3932685 13.99990261
25.872838 -2.461360691e-05 -20.51372239
53.231792 143.6557894 13.99990261
69.29331 201.9343674 13.99990261
36.113162 146.5625314 13.99990261
3.999971 104.6677224 -31.87396839
129.956734 42.66581739 32.99990261
47.121093 223.0321901 9.999902613
182.578827 -2.461360691e-05 23.35908161
110.855983 -1.258580614 38.99990261
163.841107 29.76918339 38.99990261
144.803569 46.48069639 32.99990261
68.318998 -2.461360691e-05 -32.54719039
-2.899975743e-05 90.31929639 -25.53460239
44.228943 111.0817844 9.999902613
3.999971 52.15243439 -32.72508639
3.999971 227.2240661 -36.32750539
3.999971 134.9946534 -22.10210039
25.356609 129.2640644 9.999902613
16.736201 8.431657386 38.99990261
205.307839 -2.461360691e-05 -15.47909539
77.076637 132.1008644 9.999902613
-2.899975743e-05 130.4924374 -13.09416039
102.046264 44.54243739 32.99990261
246.768903 51.09551339 38.99990261
155.190816 -2.461360691e-05 -9.730383387
135.799889 18.85710939 32.99990261
14.3586 -2.461360691e-05 -33.97786039
37.729158 234.1952857 13.99990261
119.51986 52.05153539 38.99990261
3.999971 82.61902239 -34.49920939
62.40802 231.6561952 13.99990261
205.596044 -2.461360691e-05 -1.267239387
3.999971 87.83491839 -11.81335039
63.77548 145.7435294 9.999902613
113.158444 -2.461360691e-05 -25.53496839
68.598722 189.3932984 9.999902613
-2.899975743e-05 97.96554139 -16.36259339
29.536106 119.7256454 9.999902613
25.326909 160.4046354 13.99990261
21.732638 137.6103834 9.999902613
-2.899975743e-05 110.6821854 -10.24435739
202.117114 10.34286239 38.99990261
138.329228 -2.461360691e-05 15.03689561
-2.899975743e-05 149.2003294 -12.56795239
118.569651 63.15500039 32.99990261
73.472087 142.1132644 9.999902613
-2.899975743e-05 64.05150539 5.670944613
97.455044 51.60312939 38.99990261
-2.899975743e-05 116.5030564 -28.68289839
160.334352 56.03363339 38.99990261
-2.899975743e-05 129.2411244 -37.42549439
66.301327 18.11343339 38.99990261
160.816046 43.47926739 38.99990261
-2.899975743e-05 195.4870124 -36.29909239
94.085449 54.96098839 32.99990261
3.999971 29.13834839 -32.65880739
3.999971 121.9882584 -6.790996387
141.15462 -0.2334176136 38.99990261
-2.899975743e-05 92.67634339 -36.31451339
55.070054 22.04682439 32.99990261
-0.1504459998 70.16228839 17.51566761
226.656018 -0.1741716136 32.99990261
113.916265 -2.461360691e-05 -10.21571539
87.902501 41.28901839 32.99990261
62.644697 -2.461360691e-05 21.47544561
16.802278 181.5767894 13.99990261
-2.899975743e-05 47.43381639 -26.11151839
62.665149 -2.461360691e-05 -12.23140539
10.41834 67.99997539 38.44550861
-2.899975743e-05 39.14666239 -32.63889439
-2.899975743e-05 215.0516125 -23.50565839
3.999971 96.11309639 -32.63046539
113.512231 15.44258839 32.99990261
3.567343 137.6198234 12.60953761
-2.899975743e-05 143.7256014 -20.62338939
34.277028 123.7184054 9.999902613
154.679964 -2.461360691e-05 -34.29897539
197.475195 67.99997539 33.04599061
-2.899975743e-05 149.1518754 -1.796701387
220.34688 -2.461360691e-05 -26.68108739
162.596669 29.64801739 32.99990261
-2.899975743e-05 247.9986825 -23.54896739
-2.899975743e-05 146.8232424 -33.92793839
220.629962 12.64040439 38.99990261
69.694587 126.0920624 9.999902613
38.426148 121.8493384 13.99990261
-2.899975743e-05 42.00211439 14.04468861
93.030998 -1.653275614 32.99990261
77.999971 214.7006456 11.02742061
134.965014 -2.461360691e-05 -23.96631939
74.284174 134.4307184 13.99990261
-2.899975743e-05 69.82518939 -19.70620439
3.999971 111.0537884 2.619473613
-2.899975743e-05 0.8782323864 -9.918480387
9.745248 13.17210339 32.99990261
178.378104 -2.461360691e-05 6.416136613
143.363392 -2.461360691e-05 -32.52451639
243.849647 8.724285386 38.99990261
92.899996 -2.461360691e-05 14.51660161
167.430856 -2.461360691e-05 20.21720961
-2.899975743e-05 27.43955139 -22.33440739
135.256603 7.713311386 32.99990261
-2.899975743e-05 153.2605554 -35.83709739
225.037505 46.50840539 32.99990261
67.733556 63.98765839 32.99990261
-2.899975743e-05 180.1343784 -12.71576039
-2.899975743e-05 38.37362839 -19.69979739
192.693413 -2.461360691e-05 1.671292613
-2.899975743e-05 22.46054739 16.77625861
4.888095 151.8421244 13.28256461
26.74697 -2.461360691e-05 15.02184461
53.932077 126.9849254 13.99990261
-2.899975743e-05 168.8623214 -34.23239039
15.768907 -2.461360691e-05 -14.83186239
33.453924 14.37358839 32.99990261
184.580137 -2.461360691e-05 30.94550961
64.747102 123.2379314 9.999902613
63.044337 136.1273004 13.99990261
-2.899975743e-05 19.94520639 8.053077613
3.999971 24.62680939 -19.87802239
60.229591 62.63717239 38.99990261
-2.899975743e-05 239.6324551 0.8655606134
87.962823 -2.461360691e-05 20.49006761
170.285956 1.819969386 38.99990261
134.747736 50.34709339 32.99990261
-2.899975743e-05 211.6350864 -11.97379839
4.340646 106.2789314 7.584890613
53.627051 -2.461360691e-05 -13.11016839
19.766155 102.3790364 9.999902613
27.15712 149.8666754 13.99990261
235.219523 54.17156539 38.99990261
244.033415 57.82245539 38.99990261
249.44789 -2.461360691e-05 28.14879361
3.714422 54.47538039 32.99990261
-2.899975743e-05 100.2402054 -29.80893139
146.459772 24.29930139 32.99990261
101.629475 59.73910039 38.99990261
1.636396 143.3044894 10.81088861
3.999971 126.4168974 -40.28512239
185.470143 20.01819039 38.99990261
190.631627 64.00837539 32.99990261
3.999971 138.2388574 -8.453876387
68.421616 153.6009064 9.999902613
179.698357 -2.461360691e-05 -14.27143639
171.559241 67.13491139 32.99990261
-2.899975743e-05 180.8669814 2.045659613
46.906945 227.5715446 13.99990261
94.955846 21.40704739 38.99990261
28.242318 -2.461360691e-05 -13.73953839
-2.899975743e-05 63.06029439 -24.82513139
192.475843 52.53821039 38.99990261
-2.899975743e-05 90.04494939 -40.90042839
63.927218 57.77794239 32.99990261
42.771283 155.3030664 13.99990261
23.503329 243.4707 13.99990261
72.497156 106.7905484 12.31207661
183.356201 9.203868386 38.99990261
3.999971 177.0120584 -37.58480539
-2.899975743e-05 128.3865214 -28.89130039
-2.899975743e-05 224.7884121 -28.53273639
177.226712 54.93197539 32.99990261
67.677021 247.0731489 13.99990261
3.999971 210.7882494 -2.205733387
6.784523 -2.461360691e-05 -2.655567387
-2.899975743e-05 184.5355254 -9.992257387
0.1643780002 67.99997539 35.04278061
239.092831 33.74074739 32.99990261
47.207157 55.03895739 32.99990261
-2.899975743e-05 128.1720764 1.798840613
-2.899975743e-05 77.31755939 -29.44375739
3.999971 176.0870354 -20.81044239
49.932181 118.5731944 9.999902613
67.405856 207.5223634 13.99990261
31.312144 161.8374994 9.999902613
-2.899975743e-05 42.89343139 -37.83897539
59.425005 29.12067739 32.99990261
-2.899975743e-05 186.7200084 -23.23770539
14.749458 161.6071384 9.999902613
3.999971 199.6638634 4.566629613
90.300014 38.70393939 38.99990261
12.801671 217.0991894 13.99990261
-2.899975743e-05 62.45731639 -15.68266139
214.039112 19.13263339 38.99990261
80.842747 67.99997539 36.97645061
-2.899975743e-05 166.0019484 -16.73659239
3.999971 226.9009304 -22.35817539
230.642533 29.67937039 38.99990261
67.668882 160.8992394 9.999902613
76.920166 -2.461360691e-05 -13.96935139
16.879623 208.1457514 9.999902613
-2.899975743e-05 226.128064 -13.56938139
4.532451 234.7093384 7.871949613
207.133096 13.06095239 32.99990261
146.819635 -2.461360691e-05 17.69697161
22.328049 159.3779734 9.999902613
72.823235 65.85720539 32.99990261
9.828831 201.8050244 9.999902613
227.239742 48.70760239 38.99990261
3.664102 122.9404394 12.65884361
85.228211 15.56132139 32.99990261
27.660796 124.4599584 9.999902613
45.969744 5.669604386 38.99990261
33.464708 227.7212794 9.999902613
53.18097 192.9883644 13.99990261
0.1932880002 175.7797114 7.220305613
-2.899975743e-05 20.02413939 -2.447923387
3.999971 68.11016639 -35.01498339
62.28879 199.6486514 13.99990261
3.999971 114.2571564 -40.75068039
-2.899975743e-05 144.2664904 1.341157613
90.388149 50.73197039 32.99990261
-2.899975743e-05 117.3756014 0.2412886134
108.958455 -2.461360691e-05 -19.43304639
3.999971 149.5906614 -8.007079387
151.613521 -2.461360691e-05 6.551550613
9.34151 -2.461360691e-05 -33.41018439
173.135783 -2.461360691e-05 1.288432613
60.477266 121.1062344 13.99990261
191.956471 -2.461360691e-05 10.57592861
-2.899975743e-05 17.55824039 -11.62807039
77.999971 224.9702951 13.79444861
177.613768 9.153063386 38.99990261
3.999971 164.6756964 -34.32755539
3.999971 115.1513394 -16.64191039
24.116803 149.5464694 9.999902613
-2.899975743e-05 53.73294139 24.79610261
-2.899975743e-05 187.0820384 -30.97452839
-2.899975743e-05 137.2779114 -18.45745639
225.301683 -2.461360691e-05 2.654705613
135.997078 19.54575539 38.99990261
-2.899975743e-05 58.85401339 3.435975613
35.679074 100.6587444 9.999902613
148.768617 21.88791539 38.99990261
93.588251 23.96699739 32.99990261
-2.899975743e-05 20.16424239 -28.55091039
36.816421 67.99997539 36.31682761
27.650899 228.5690669 9.999902613
31.605037 -2.461360691e-05 4.579259613
171.554124 -0.9535696136 32.99990261
228.350629 -2.461360691e-05 13.79663361
3.999971 41.49077739 -18.81586039
10.733993 125.3843084 13.99990261
52.668876 -2.461360691e-05 12.87750361
9.856265 12.38716339 38.99990261
3.999971 138.0802234 -0.1816573866
113.367009 18.47232439 38.99990261
-2.899975743e-05 162.7688224 -31.17144539
89.348355 3.408493386 32.99990261
-2.899975743e-05 43.13147839 -3.710040387
240.574698 65.32186039 38.99990261
39.213801 199.8467754 13.99990261
236.958998 25.81991339 32.99990261
3.999971 108.1422254 -21.12656639
165.384846 -2.461360691e-05 -26.94767039
3.999971 91.79120139 -8.133481387
11.253746 249.9115473 13.99990261
3.999971 37.64663339 -23.26155339
52.660099 25.15741139 38.99990261
39.819486 133.7571284 9.999902613
29.841438 217.7367059 9.999902613
100.678496 -2.461360691e-05 -36.91150939
108.956775 56.15164239 32.99990261
22.899142 -2.461360691e-05 -37.41590039
219.693947 57.98444339 38.99990261
109.729332 -2.461360691e-05 29.70890861
-2.899975743e-05 217.6830902 -17.60752939
45.682984 -2.461360691e-05 18.96941761
-2.899975743e-05 4.958926386 -5.850974387
-2.899975743e-05 130.8338614 -19.77522039
41.001888 24.47319039 32.99990261
6.477524 227.8414193 13.75889161
47.153584 125.7855424 9.999902613
-2.899975743e-05 47.96016139 18.34962161
212.737453 -2.461360691e-05 10.58218961
195.602174 15.06410839 32.99990261
186.210391 -2.461360691e-05 4.312420613
3.999971 94.04422839 -27.87581139
69.404099 234.4611991 9.999902613
-2.899975743e-05 85.18538639 -16.39421439
235.316881 20.29423039 32.99990261
0.01784700024 44.93415739 38.99990261
70.323299 221.9621108 13.99990261
42.11266 37.07937339 38.99990261
127.560271 9.756932386 38.99990261
-2.899975743e-05 57.77973939 -24.59367439
-2.899975743e-05 32.06549839 0.5212706134
197.935032 64.33289739 38.99990261
-2.899975743e-05 26.11560639 -39.43585939
6.075103 102.1019434 9.432153613
98.978322 61.48263739 32.99990261
-0.2528629998 15.36334339 -21.00429739
3.382899 38.08881239 32.99990261
101.103708 18.69139539 32.99990261
21.680071 250.2212466 9.999902613
-2.899975743e-05 36.93085639 19.82184261
-2.899975743e-05 105.8680774 -34.34620839
3.999971 117.5291004 -4.878146387
45.04274 143.5976914 13.99990261
-2.899975743e-05 60.12887339 24.45348261
35.33577 221.6788019 13.99990261
-2.899975743e-05 68.56361739 8.148875613
-2.899975743e-05 190.0219924 -14.03896839
10.309523 143.8621084 9.999902613
44.024168 191.1081874 9.999902613
3.999971 60.65342139 -23.62003339
174.721882 41.47679939 38.99990261
10.199297 3.930975386 38.99990261
154.363069 2.441976386 32.99990261
188.7103 4.696057386 32.99990261
35.132578 41.86034939 32.99990261
220.368675 34.97020539 32.99990261
-2.899975743e-05 122.5208184 -32.86531339
-2.899975743e-05 5.994389386 15.10056961
-2.899975743e-05 167.9506144 -38.94442539
104.114181 67.20003639 38.99990261
51.927834 12.66636939 32.99990261
-2.899975743e-05 32.06275539 -33.91653539
243.408146 48.78713439 32.99990261
-2.899975743e-05 136.4533354 -25.98375439
-2.899975743e-05 118.1394034 -19.65948739
137.409804 -2.461360691e-05 21.98522661
187.292237 47.59578039 38.99990261
3.999971 179.9435714 -27.82550139
3.999971 96.98448339 -4.892183387
77.959561 1.515268386 32.99990261
233.175279 45.30968839 38.99990261
101.828645 -2.461360691e-05 -27.14119739
-2.899975743e-05 74.99940639 -25.08068639
-2.899975743e-05 55.31714539 -19.43274239
71.047041 21.14146439 32.99990261
47.293405 48.41722039 32.99990261
247.260457 -2.461360691e-05 13.71361261
7.123638 119.9097954 13.86117461
61.367191 159.9351444 13.99990261
49.319216 164.2962524 9.999902613
-2.899975743e-05 65.45628339 16.97026561
-2.899975743e-05 224.7381139 -2.926490387
244.100208 -2.461360691e-05 0.8307286134
161.060848 -2.461360691e-05 4.882240613
41.486257 -2.461360691e-05 22.29942061
61.150025 179.5235584 9.999902613
44.464396 208.0577764 9.999902613
70.468503 228.6337948 9.999902613
176.54265 -2.461360691e-05 -10.75852539
141.403387 -0.7750976136 32.99990261
61.297389 171.9093904 9.999902613
66.585105 158.3599664 13.99990261
-2.899975743e-05 60.73827739 -1.795299387
184.382752 -2.461360691e-05 -3.775809387
26.006947 -2.461360691e-05 4.999714613
3.999971 123.6730974 -36.24958339
4.749761 209.1659354 13.21207261
56.802897 -0.8027346136 32.99990261
35.686288 -2.461360691e-05 10.78676361
3.999971 169.5034574 -5.002413387
-2.899975743e-05 60.42058539 13.86488661
59.482464 207.6305774 13.99990261
3.999971 28.42823039 -40.19586939
3.999971 93.11383139 -13.00648739
4.653599 244.8659678 8.053262613
48.356532 -2.461360691e-05 -12.85262839
-2.899975743e-05 161.9253734 -40.09686139
16.717626 219.6408125 13.99990261
-2.899975743e-05 67.84611639 -38.93801539
42.184873 33.90894739 32.99990261
-2.899975743e-05 117.5948214 -36.47776239
-2.899975743e-05 58.71482839 8.627237613
116.069498 32.77638039 38.99990261
207.946527 3.400694386 32.99990261
-2.899975743e-05 50.62683839 2.624225613
39.385376 168.4037754 13.99990261
3.999971 140.8855024 3.527461613
-2.899975743e-05 55.12529039 -3.989140387
82.660676 29.59672239 32.99990261
245.427279 -2.461360691e-05 -27.20555939
72.696548 240.7855773 13.99990261
35.795688 -2.461360691e-05 -5.926469387
15.282576 8.335908386 32.99990261
33.134425 183.9336334 9.999902613
-2.899975743e-05 189.0189224 -0.3881083866
4.165673 -2.461360691e-05 -39.78271539
98.663981 28.84964939 32.99990261
-2.899975743e-05 3.909289386 -0.2691683866
54.645624 245.8790364 9.999902613
3.999971 52.44184239 -26.81616739
34.33133 190.2201194 13.99990261
-2.899975743e-05 60.71383539 -36.97723039
88.321184 -2.461360691e-05 15.09078161
35.011414 -2.461360691e-05 -32.79686539
7.079565 28.56414139 32.99990261
-2.899975743e-05 150.1739164 -27.13087439
3.999971 146.6013934 -4.511959387
-2.899975743e-05 48.71271539 -31.60876739
7.815924 235.1080226 13.97076761
66.889262 122.5070314 13.99990261
52.459225 125.2675854 9.999902613
-2.899975743e-05 140.5334534 -40.01932539
192.918326 -2.461360691e-05 -39.69835839
3.999971 17.62141439 -33.14744939
-2.899975743e-05 122.8195094 -3.961721387
-2.899975743e-05 36.82925139 1.812154613
3.999971 155.4750674 -35.49222839
211.475203 54.40164239 38.99990261
51.337043 107.9487114 13.99990261
57.1896 112.3698124 13.99990261
98.949729 -2.461360691e-05 30.60148961
9.675146 48.07853739 32.99990261
30.829041 100.7654054 9.999902613
227.227082 -2.461360691e-05 -15.68564639
74.027451 173.0324334 13.99990261
9.132416 243.8381065 13.99990261
2.453094 30.20961939 38.99990261
32.755638 -0.6097226136 32.99990261
-2.899975743e-05 28.89038239 25.78943561
205.781233 -2.461360691e-05 -28.82706539
-2.899975743e-05 38.18835039 10.20600961
46.429036 245.8071833 9.999902613
211.436598 -2.461360691e-05 -1.718732387
58.758157 137.6051994 13.99990261
-2.899975743e-05 72.90461839 12.69727961
124.978805 27.36742939 32.99990261
193.747459 1.693874386 32.99990261
35.223533 -2.461360691e-05 26.32469561
4.760186 126.0666144 8.212783613
53.984051 213.2471444 13.99990261
92.307126 40.26076539 32.99990261
97.149769 42.11268039 38.99990261
65.01433 44.13032139 32.99990261
42.232056 160.6241954 13.99990261
73.339591 147.2417484 13.99990261
-2.899975743e-05 100.6595984 -11.17129339
12.734615 205.5320384 13.99990261
-2.899975743e-05 196.9967314 -21.07733139
25.707211 30.49391739 38.99990261
112.940005 -2.461360691e-05 15.64735561
11.508701 100.4999754 13.14496561
4.102055 208.7287824 6.513187613
21.225491 189.6232344 13.99990261
3.999971 69.20766639 -17.73633839
51.540519 166.2886124 13.99990261
57.758151 41.09343739 38.99990261
50.176434 112.5445144 9.999902613
3.999971 250.9043666 -14.55380239
144.885701 42.95969839 38.99990261
17.425296 123.3122534 9.999902613
32.398389 238.0014597 13.99990261
143.892163 56.48743139 38.99990261
229.598694 -2.461360691e-05 -29.85095639
-2.899975743e-05 172.5343424 -39.26290339
3.999971 6.435197386 -18.36515439
14.29008 212.0552384 9.999902613
73.570944 213.6095133 9.999902613
-2.899975743e-05 113.8406504 -33.35117439
-2.899975743e-05 63.64495139 -6.671655387
45.175491 250.6582102 13.99990261
51.710908 218.1793402 9.999902613
66.874468 -2.461360691e-05 -18.33722939
240.736564 9.972641386 32.99990261
3.999971 146.5448414 -37.59511139
-2.899975743e-05 0.5373663864 12.42456761
-2.899975743e-05 53.51526439 -38.50883039
40.727693 31.80612839 38.99990261
69.5125 117.8445514 13.99990261
214.335438 57.81757439 32.99990261
21.358962 235.266298 13.99990261
3.999971 66.88338339 -27.61334439
77.04932 162.4704564 13.99990261
-2.899975743e-05 13.12007739 -11.60521439
-2.899975743e-05 85.95109439 -26.31842739
-2.899975743e-05 88.31991039 -2.826824387
40.928321 200.6131554 9.999902613
82.348019 53.32279739 38.99990261
60.60071 53.24437939 32.99990261
-2.899975743e-05 40.15310839 23.90069761
-2.899975743e-05 140.0442074 -8.846256387
219.14518 36.51721739 38.99990261
169.819634 57.81049939 32.99990261
140.260786 65.40995639 32.99990261
0.1041170002 160.6738484 6.657372613
9.646569 165.0144814 13.99990261
128.953474 21.43362639 32.99990261
125.791378 3.954330386 32.99990261
-2.899975743e-05 27.65857639 12.03808161
11.708811 -2.461360691e-05 17.79473561
-2.899975743e-05 170.5766634 -17.71533739
62.648333 106.5662524 13.99990261
-2.899975743e-05 23.38983839 -10.36038039
206.949793 44.68858939 38.99990261
133.951339 1.411259386 38.99990261
3.999971 218.2442614 -19.29286739
157.020567 24.41717939 32.99990261
-2.899975743e-05 133.7107904 -32.86109639
133.201362 45.19870839 38.99990261
25.190455 3.531771386 32.99990261
-2.899975743e-05 79.36842639 -7.903660387
22.505482 140.1123644 13.99990261
14.876519 240.9336689 13.99990261
24.251904 231.5854745 9.999902613
162.158758 5.243448386 38.99990261
2.840773 -0.1915146136 38.99990261
168.791096 -2.461360691e-05 29.62810061
82.472915 22.15032239 32.99990261
200.56281 -2.461360691e-05 28.58146861
-2.899975743e-05 72.49371039 -14.77864939
-2.899975743e-05 172.6192914 4.256981613
35.61151 127.2865954 13.99990261
3.999971 168.2430384 -16.18188839
-2.899975743e-05 13.65325039 7.486484613
32.030246 163.3306304 13.99990261
28.263714 56.58189839 32.99990261
135.454809 -2.461360691e-05 -36.28446339
162.972402 19.05805139 38.99990261
3.999971 232.2799265 -20.92667139
202.721799 14.09457739 32.99990261
5.490352 200.6168254 9.041476613
-2.899975743e-05 202.2478224 -22.87416439
71.190945 38.87896039 32.99990261
112.533721 -2.461360691e-05 24.85710261
-2.899975743e-05 250.205954 -28.56976039
74.707685 -2.461360691e-05 -1.617293387
95.068085 0.2830423864 38.99990261
-2.899975743e-05 106.7736884 -39.61512139
-2.899975743e-05 81.28034739 -38.44736839
231.582888 19.61814439 38.99990261
-2.493732 35.16414139 38.99990261
117.387334 -2.461360691e-05 25.84927061
48.994766 67.99997539 38.39406261
94.358645 10.64644239 38.99990261
132.511792 46.66899939 32.99990261
3.999971 123.4578474 -18.18011539
51.528737 46.52583539 38.99990261
-2.899975743e-05 43.16275539 -21.84179039
-2.899975743e-05 69.03312839 -4.196252387
72.663243 112.3310044 9.999902613
56.372036 225.027056 9.999902613
56.341396 143.3190164 9.999902613
-2.899975743e-05 84.26519439 -21.09221539
44.271145 52.78180439 38.99990261
97.788386 41.78431439 32.99990261
35.783373 216.1833025 9.999902613
213.625075 12.26997839 32.99990261
43.434642 153.9517654 9.999902613
27.176594 -2.461360691e-05 19.26305961
3.190287 42.34534039 32.99990261
3.999971 181.5732954 -22.42582239
58.130597 55.90082039 38.99990261
37.525738 155.1412614 13.99990261
-2.899975743e-05 30.38483039 29.99124361
69.012348 176.3882014 9.999902613
126.118452 -2.461360691e-05 26.24910561
44.740953 124.1913154 13.99990261
3.999971 230.4868704 -31.95875539
80.900525 50.52887339 32.99990261
210.433721 4.758586386 38.99990261
-2.899975743e-05 206.4655974 -23.81231839
91.442141 46.38760339 38.99990261
44.156372 114.3058394 13.99990261
-2.899975743e-05 117.1948664 -24.52163839
-2.899975743e-05 62.92365639 -30.88226339
68.871534 109.8904544 9.999902613
167.384162 -2.105146614 32.99990261
3.999971 152.7282964 3.809587613
128.8141 13.78131239 38.99990261
3.999971 189.8742954 -39.76729639
-2.899975743e-05 6.108714386 -22.29587439
173.694055 -2.461360691e-05 -28.49537639
29.876094 235.9419422 9.999902613
109.258179 9.568616386 38.99990261
-2.899975743e-05 223.2226483 1.641430613
33.023905 142.8334904 13.99990261
240.612424 -2.461360691e-05 11.07804361
-2.899975743e-05 1.905381386 -33.99571839
3.999971 83.87149439 -40.07007539
11.442368 130.1934014 13.99990261
126.780971 12.14719639 32.99990261
-2.899975743e-05 114.8165844 -8.086894387
191.242426 -2.461360691e-05 17.35189161
48.933721 231.5200911 13.99990261
179.700687 18.61344639 38.99990261
140.250638 54.90153039 32.99990261
216.039667 35.99685639 32.99990261
155.468345 67.72313039 38.99990261
119.804952 3.772449386 32.99990261
236.025231 67.99997539 37.43219961
-2.899975743e-05 52.88953739 -33.61632439
156.511124 19.34379639 32.99990261
212.236782 54.22566839 32.99990261
37.062881 185.2929554 9.999902613
-2.899975743e-05 48.26876039 -19.00296139
64.598285 149.8131404 9.999902613
207.976367 -2.461360691e-05 21.72982661
47.357696 5.115106386 32.99990261
3.999971 108.3439064 -27.46988139
3.999971 217.9843996 -11.38786139
234.146453 -2.461360691e-05 11.41302761
42.680836 18.76735539 38.99990261
74.043053 -2.047333614 32.99990261
23.099986 55.72910139 32.99990261
33.90745 138.7591814 13.99990261
47.356842 -2.461360691e-05 -1.010394387
141.428601 37.58562939 32.99990261
173.412311 28.74040839 38.99990261
172.194553 46.96039339 32.99990261
13.024659 236.8995975 13.99990261
18.197665 118.1550744 13.99990261
104.905023 66.93657939 32.99990261
74.981977 219.5042788 9.999902613
7.780703 207.2131854 9.956294613
-2.899975743e-05 236.0743393 -36.45536439
100.083661 64.01096239 38.99990261
231.239153 19.90865739 32.99990261
19.15496 199.7403894 9.999902613
-2.899975743e-05 232.3236719 -3.211528387
25.670485 -2.461360691e-05 25.41934761
8.185079 61.65132239 32.99990261
32.725086 -2.461360691e-05 -12.97800139
25.88267 -2.461360691e-05 -3.426013387
-2.899975743e-05 23.79886139 -18.76076239
17.462194 166.8438654 13.99990261
100.394513 -2.461360691e-05 -21.21481439
87.309839 -2.461360691e-05 -27.11273839
1.086848 204.1761504 9.836776613
37.0084 141.5656514 9.999902613
3.999971 195.2526154 -35.65862739
-2.899975743e-05 216.2132116 -7.696523387
65.288165 164.1826634 9.999902613
-2.899975743e-05 250.3518327 -18.73479239
225.077392 40.00225939 38.99990261
31.552965 100.5617734 13.99990261
200.618145 30.46427239 38.99990261
3.999971 42.52828239 -31.28556239
-2.899975743e-05 235.2135585 -24.09349439
76.779633 -2.461360691e-05 -9.929123387
-2.899975743e-05 139.5277624 -34.39266239
32.24911 200.3297724 9.999902613
234.124195 37.51871639 32.99990261
178.730682 43.16428639 32.99990261
50.431819 -2.461360691e-05 -4.841170387
3.999971 153.2270414 -5.146976387
3.999971 169.2755874 -33.99892239
46.405156 226.9959132 9.999902613
52.244938 31.89315439 32.99990261
65.327511 101.9234604 10.49157461
230.251737 4.161398386 38.99990261
3.999971 218.4345155 -37.35359939
60.589832 33.99421839 38.99990261
3.999971 175.1602784 1.014073613
35.981182 120.0784114 9.999902613
47.454814 129.7925154 9.999902613
3.75832 0.4999753864 -33.83883839
1.705844 4.823343386 38.99990261
127.187455 2.410439386 38.99990261
167.939915 15.50121939 32.99990261
3.999971 13.69158139 -39.24827739
-2.899975743e-05 210.9322184 4.393762613
-2.899975743e-05 178.5855784 -1.652483387
129.147395 1.014490386 32.99990261
0.7668280002 3.513852386 32.99990261
-2.899975743e-05 232.8606245 -13.93080839
182.254423 67.99997539 33.09558861
120.012596 66.87315839 32.99990261
90.408503 -2.461360691e-05 0.2832726134
211.216922 12.04821639 38.99990261
24.206372 146.2810824 13.99990261
-2.899975743e-05 102.1771174 -24.10180339
47.190416 29.80992439 38.99990261
236.250832 29.80527239 32.99990261
30.206592 -2.461360691e-05 29.69990061
3.999971 185.4458014 -28.02514739
-2.899975743e-05 193.1997164 4.908173613
228.002014 -2.461360691e-05 -9.420230387
6.378253 -2.461360691e-05 -19.07355539
3.999971 131.0976084 -16.59639239
-2.899975743e-05 96.09180739 -12.88838139
73.140551 132.3080854 9.999902613
76.414776 31.63046439 32.99990261
3.999971 123.4718914 -11.33057739
103.990647 -2.461360691e-05 -18.96788739
47.503076 214.2786851 9.999902613
87.918232 51.88133639 38.99990261
2.452629 -2.461360691e-05 9.410629613
-2.899975743e-05 83.43304039 -12.11495039
69.290958 -2.461360691e-05 28.14985561
-2.899975743e-05 154.7089214 -30.60822539
-2.899975743e-05 104.4144314 -30.71709439
3.999971 110.6922164 -8.093182387
129.791634 -2.461360691e-05 -15.58897339
3.999971 129.3549524 -11.35109339
161.468678 63.73891839 38.99990261
96.046003 1.026438386 32.99990261
55.986931 245.9288527 13.99990261
13.466216 153.9935784 13.99990261
71.931683 163.7754584 13.99990261
104.485447 27.55531139 38.99990261
137.759864 4.530589386 32.99990261
40.486459 -2.461360691e-05 15.36031661
169.277806 56.25773439 38.99990261
18.145017 136.2082024 9.999902613
170.483968 -2.461360691e-05 -19.46164539
4.418497 223.8202535 7.701402613
81.47026 -2.461360691e-05 -29.98861239
225.753955 65.37826839 38.99990261
71.134386 186.5087424 9.999902613
41.233247 180.9642944 13.99990261
-2.899975743e-05 128.5308094 -33.66316939
20.640979 -2.461360691e-05 -27.50761439
242.556071 34.52948339 38.99990261
9.351815 203.7486414 13.99990261
10.223218 248.7549964 9.999902613
95.608252 67.40501839 38.99990261
119.466327 -2.461360691e-05 -30.75460839
24.963119 203.5080134 13.99990261
-2.899975743e-05 189.0011854 -6.191568387
207.994049 -2.461360691e-05 -36.62128539
29.370784 240.9864916 9.999902613
3.999971 61.76758839 -19.98104539
71.007515 162.7132864 9.999902613
75.83849 235.7235891 9.999902613
75.842142 182.6329964 9.999902613
28.609022 16.85552539 38.99990261
-2.899975743e-05 166.5513844 -6.882828387
241.812149 19.38084739 32.99990261
-2.899975743e-05 230.1880014 -22.44402039
124.085353 49.81631739 32.99990261
42.150543 220.3018545 9.999902613
76.337983 185.8546244 13.99990261
43.229428 67.99997539 37.55252461
151.648297 -2.461360691e-05 32.20539961
-2.899975743e-05 147.8845104 2.264548613
56.409715 25.74763139 38.99990261
115.602188 0.9250553864 32.99990261
24.997651 195.6497754 9.999902613
105.884901 36.55630239 32.99990261
21.06275 243.8419084 9.999902613
3.999971 146.2799624 4.481634613
217.530506 -2.461360691e-05 4.405161613
-2.899975743e-05 101.4158094 -17.74679339
-2.899975743e-05 2.901461386 -17.18191339
-2.899975743e-05 89.24045839 -29.73276739
46.094473 150.5266184 9.999902613
185.030118 31.09210439 38.99990261
40.352669 65.71912039 32.99990261
233.329586 46.09634839 32.99990261
-2.899975743e-05 221.9585837 -35.26757539
31.988669 -2.461360691e-05 -26.61677139
141.346729 11.26670739 38.99990261
215.480167 43.48128239 32.99990261
47.980704 59.11340539 38.99990261
45.615207 136.0357744 13.99990261
-2.899975743e-05 216.45858 -34.48670739
174.931238 -2.461360691e-05 -24.49476139
206.045266 30.98166839 38.99990261
211.278668 -2.461360691e-05 -25.84095239
75.909864 205.2481384 13.99990261
127.907859 52.50965339 38.99990261
51.174811 130.2858974 13.99990261
127.489314 -2.461360691e-05 -36.29369639
228.931815 61.43922339 38.99990261
3.999971 33.99238439 -23.24886539
146.466823 6.681806386 38.99990261
168.798577 -2.461360691e-05 10.30614161
25.991062 170.8286314 9.999902613
98.776546 67.99997539 35.24049061
4.086886 196.5555494 6.436917613
9.021691 -2.461360691e-05 28.27778361
51.654942 10.18318439 38.99990261
37.379696 222.9608326 9.999902613
201.281806 41.11827639 38.99990261
225.419074 12.10513939 32.99990261
3.999971 204.6769234 -20.49925739
72.311475 -2.461360691e-05 -6.607391387
225.24556 -2.461360691e-05 -4.525635387
-2.899975743e-05 64.74356639 -21.64582339
4.570718 -2.461360691e-05 -13.97006839
200.212473 -2.461360691e-05 0.002113613391
-2.899975743e-05 109.2068724 -35.61596539
143.492158 67.21246539 32.99990261
-2.899975743e-05 223.8568755 -31.97325839
-2.899975743e-05 35.29069839 -21.47265739
25.456486 242.0222149 9.999902613
-2.899975743e-05 102.5976344 -0.5053803866
68.579603 149.9364944 9.999902613
3.999971 237.5666073 0.4225046134
149.276586 -2.461360691e-05 -5.425163387
5.173564 -2.461360691e-05 22.30311161
195.585707 28.10351139 32.99990261
4.230932 150.2846664 7.161192613
-2.899975743e-05 78.90297839 -19.93832539
46.096732 -2.461360691e-05 4.139968613
3.999971 201.3591124 -31.23900639
91.127587 8.832117386 32.99990261
68.352502 129.3400814 9.999902613
110.722419 20.82152039 32.99990261
-2.899975743e-05 167.1499174 -24.48507339
104.204598 20.03706139 38.99990261
-2.899975743e-05 110.4941104 -32.30424539
119.484968 35.55906939 32.99990261
38.177028 203.0945594 9.999902613
104.580729 17.35701039 32.99990261
111.322631 -2.461360691e-05 2.295066613
-2.899975743e-05 172.2865114 -35.78374339
62.249565 16.90118739 38.99990261
1.743837 30.61095739 32.99990261
131.969654 -2.461360691e-05 -22.18599039
196.956317 24.13704339 32.99990261
8.123476 45.72919539 38.99990261
1.538884 174.2129324 10.71337661
136.055552 0.8821963864 32.99990261
162.137671 63.89182539 32.99990261
-2.899975743e-05 96.25395739 -5.899564387
-2.899975743e-05 108.1072914 -14.71706339
166.281669 67.36946039 32.99990261
50.946596 -2.461360691e-05 31.37958261
229.793498 41.73735039 38.99990261
173.942344 52.58151739 32.99990261
77.460034 239.6732582 13.99990261
77.999971 243.8582719 11.86029761
1.28791 15.28464139 38.99990261
0.3199820002 39.67862239 32.99990261
79.482462 2.671322386 38.99990261
3.999971 117.4883344 -35.30692839
101.853811 54.64843139 32.99990261
3.999971 241.9894332 -19.25643239
63.987041 30.26349339 32.99990261
-2.899975743e-05 96.13833339 -31.93823739
-2.899975743e-05 20.42491439 -19.31631939
53.783656 112.3352244 9.999902613
-2.899975743e-05 106.4146334 1.210972613
55.019474 37.28508839 32.99990261
-2.899975743e-05 133.2750454 -15.07415939
-2.899975743e-05 94.93397039 -17.93403339
15.270567 177.0762124 9.999902613
3.999971 1.918158386 -26.67547439
18.081003 160.8726294 9.999902613
-2.899975743e-05 123.8737214 -10.37556839
57.852003 24.01242039 32.99990261
98.430864 -2.461360691e-05 -26.94435339
-2.899975743e-05 114.1349974 -26.24161239
147.052128 20.95156039 32.99990261
63.800716 234.7570367 13.99990261
48.863441 -2.461360691e-05 22.90356961
119.555112 30.08635239 38.99990261
70.515616 8.818750386 38.99990261
56.268341 129.7156194 9.999902613
36.562735 118.2468044 13.99990261
62.202515 38.31408439 32.99990261
-2.899975743e-05 106.5389054 -18.43252139
41.398098 197.2745144 13.99990261
126.364108 -2.461360691e-05 -32.77750639
55.522287 138.5449934 13.99990261
4.800634 200.6211024 13.23799661
15.919394 249.5828757 9.999902613
3.999971 202.6944594 -26.38925639
20.577155 177.2604044 13.99990261
3.999971 143.5033794 -12.16925139
147.077242 67.99997539 37.77688861
192.469262 -2.461360691e-05 29.02264061
