# .PCD v0.7 - Point Cloud Data file format
VERSION 0.7
FIELDS x y z
SIZE 4 4 4
TYPE F F F
COUNT 1 1 1
WIDTH 1366
HEIGHT 1
VIEWPOINT 0 0 0 1 0 0 0
POINTS 1366
DATA ascii
144.36612 1.800843401 -7.326361398
2.89145 -68.00002403 -54.0970204
207.08962 -2.498931397e-05 56.7552656
60.40458 -1.195311159 -38.3575454
25.92192 -140.648993 33.9999026
81.7513 -2.498931397e-05 45.7274906
175.33685 -69.21293237 33.9999026
97.51695 -68.00002403 -23.4475714
82.12961 -173.1858801 37.8100476
-1.9955 0.8841713007 -56.0000974
-0.0002699996039 -49.85783041 4.852100602
199.15804 -22.08743653 2.586162602
148.38773 -2.498931397e-05 50.9714096
250.7468 -8.622827459 24.0648076
162.67562 -123.4049851 34.6208076
150.03432 -58.38391027 -11.9093834
-2.06149 -50.00002499 57.3611036
40.41182 -2.498931397e-05 9.177153602
51.44969 -49.55853511 -40.9999754
94.82822 -2.498931397e-05 -3.175745398
36.41319 -190.6453682 33.9999026
-2.29735 -2.498931397e-05 -9.175876398
214.50231 -90.67306696 33.9999026
61.92018 -115.1418312 34.3965446
127.99775 -74.30873292 37.9999026
218.23618 -40.06759527 37.9999026
40.37788 -2.498931397e-05 52.8390706
-1.75869 -171.6626824 33.9999026
208.61735 -61.85504288 5.377437602
114.61381 -32.01457018 -22.3613534
116.29435 -152.0706008 37.4408916
-0.0002699996039 -36.36247969 -32.3197484
181.77211 -2.498931397e-05 27.8656386
115.13602 -2.498931397e-05 26.5630306
27.94459 -13.8108352 -41.6804194
80.22094 -34.04531788 -26.2545384
217.505 -2.498931397e-05 23.6368076
164.76173 -24.7424763 -1.307956398
56.71269 -151.8255788 37.9999026
86.21229 -139.4250976 37.9999026
250.94413 -2.498931397e-05 54.8562936
250.24434 -38.92789846 33.9999026
185.89844 -39.35415237 33.9999026
-0.0002699996039 -20.86135611 17.6850866
154.49191 -93.27211109 37.9999026
184.48259 -101.2649128 37.9999026
178.15072 -58.00115128 2.642910602
229.56642 -26.32109384 11.5591396
153.39912 -2.498931397e-05 20.3361356
116.68566 -0.2510922993 -21.7499874
71.09903 -2.498931397e-05 12.6486496
184.06089 1.593126651 -1.868743398
203.32413 -64.91222705 37.9999026
88.23843 -4.931199969 -30.1442654
20.89847 -43.0731235 -50.0151044
135.47197 -129.0713295 37.9999026
233.80131 -62.89934815 37.9999026
140.68999 -32.43453994 -14.6667324
7.35961 -198.3668921 33.9999026
32.15658 -68.00002403 -44.6937674
124.20111 -65.88118962 -13.2767214
22.70432 -2.498931397e-05 -19.4669204
73.48014 -66.55925232 -34.4991764
105.44835 -88.27902236 37.9999026
59.41812 -2.498931397e-05 -10.7101344
24.60359 -166.3272982 37.9999026
24.49805 -2.498931397e-05 32.6739116
151.87717 -59.54453564 37.2790296
-0.0002699996039 -21.34330796 55.3325756
173.97051 -2.498931397e-05 52.0879136
84.02062 -102.8589589 33.9999026
-0.0002699996039 -8.702687639 -32.7348494
53.6435 -2.498931397e-05 31.6447686
232.89502 -20.02374154 37.9999026
131.55731 -103.6690073 37.9999026
-0.0002699996039 -49.91759242 29.4301526
59.72097 -184.0631906 37.9999026
120.2736 -2.498931397e-05 3.022043602
229.37052 -50.78724552 17.7570236
-2.16567 -35.30347761 -56.0000974
17.33768 -2.498931397e-05 6.104438602
-0.0002699996039 -22.92489624 -9.630849398
49.49291 -21.64324193 -41.5773874
4.96664 -150.3415751 37.4725706
46.37566 -132.0268352 37.9999026
62.07515 -2.498931397e-05 57.6152516
93.3215 -2.498931397e-05 18.6454026
231.0776 -2.498931397e-05 43.7815906
193.42136 -43.97482429 0.8933696022
129.88468 -2.498931397e-05 41.6139596
202.26203 1.613183071 9.757631602
11.59406 -19.49693552 -52.7606704
234.76476 2.402760821 13.0930776
42.45157 -2.498931397e-05 -24.2082564
25.0476 -207.1435731 37.9999026
96.02068 -159.1573214 33.9999026
96.79936 -22.95515013 -21.3625214
-0.0002699996039 -29.67945304 37.1774436
-1.01066 -50.00002499 -17.9098854
43.50546 -172.1608047 37.9999026
66.78373 -20.19828634 -30.2196344
193.20767 -83.67180504 37.9999026
211.81011 -34.58600584 12.5752396
92.5263 -48.73263903 -22.6234294
-0.0002699996039 -0.7359904193 14.9016846
114.5616 -132.3528059 37.9999026
250.30842 -29.40967436 17.6797396
17.17714 -2.498931397e-05 50.0514116
213.27462 -14.96113717 13.0073906
65.41571 -135.1285287 37.9999026
167.59684 -49.82910359 34.0400826
127.49267 -15.21653929 -18.5610304
165.61544 -67.65468178 -7.311671398
50.51893 -68.00002403 -38.1362994
166.15754 2.138614711 -7.151706398
15.96148 -2.498931397e-05 -36.9537874
162.64194 -48.71445848 -1.933470398
110.38685 -49.4980225 -17.3530804
212.8314 -22.74061366 33.9999026
83.37162 -121.6906146 33.9999026
34.86375 -37.16797303 -39.6386904
14.10377 -180.7682288 33.9999026
204.12735 -2.498931397e-05 36.0977556
250.80817 -58.08087667 33.9999026
131.86234 -49.97420417 -17.2716174
229.88754 -67.52048866 11.6538976
172.79919 -88.42632071 33.9999026
147.7534 -109.8936625 33.9999026
73.79982 -157.6002133 37.9999026
69.1638 -43.74552608 -35.7728534
182.50293 -19.85205561 -2.328468398
147.27496 -77.33384314 37.9999026
149.5726 -14.10424188 -12.0456304
72.12505 -2.498931397e-05 31.3111116
219.66041 -72.06351355 33.9999026
136.30374 -2.498931397e-05 20.3117766
191.56961 -68.00002403 5.784014602
74.06042 -2.498931397e-05 -19.3685944
247.99064 -46.19293739 16.9958026
4.27592 -52.03987628 -48.6646494
30.7883 -2.498931397e-05 -4.812858398
202.5324 -36.15151022 33.9999026
59.49886 -167.7498569 33.9999026
235.92433 -46.20373377 37.9999026
-0.0002699996039 -3.471193629 57.6162546
187.86371 -55.17513382 37.9999026
102.80049 -143.362683 33.9999026
177.11232 -34.90916474 2.336497602
235.19109 -13.16350734 19.4745766
250.68197 -16.98913646 37.9999026
41.70867 -155.1304557 33.9999026
169.43602 -104.0948068 33.9999026
99.73922 -126.7319684 37.9999026
109.662 -14.24784963 -23.8225464
98.15262 -2.498931397e-05 -18.5261394
-0.0002699996039 -14.41696828 31.9883356
233.2654 -79.77746321 34.2863546
-0.0002699996039 -33.38364219 1.952894602
246.47298 -2.498931397e-05 36.3301956
12.15577 -215.9301583 37.9999026
168.62057 -2.498931397e-05 17.2877056
35.34381 -51.38992394 -45.7525384
150.63601 -2.498931397e-05 35.5743196
120.92844 -88.69878017 37.9999026
18.14351 -58.30155918 -50.8280434
26.1007 -0.1573646293 -48.4800154
-0.0002699996039 -23.84976022 -41.0929514
94.12006 -2.498931397e-05 36.7678526
78.49335 -53.00990743 -26.7643204
213.58308 -54.00869659 33.9999026
6.85575 -2.498931397e-05 -21.2772824
112.53843 -66.20113221 -22.9737634
13.03934 -2.498931397e-05 22.8385446
135.963 -87.8534869 37.9999026
193.87801 -2.498931397e-05 49.7663186
199.07269 -100.9100291 34.7842996
-0.0002699996039 -36.69626489 22.4733746
123.3545 -116.6756023 33.9999026
162.42267 -78.51967439 37.9999026
38.60354 -1.057392539 -38.5351414
157.44267 -34.27515345 -9.723311398
11.59901 -4.884699539 -52.7592104
139.33802 -68.00002403 -13.2907214
-0.0002699996039 -37.3893744 50.7823356
125.97814 -37.78726903 -12.7523504
11.44926 -32.33289824 -46.5479154
131.52631 -142.1365663 33.9999026
208.46204 -46.33335781 5.331607602
149.04233 -127.9139505 33.9999026
160.5576 -10.05879556 -2.548523398
-0.7473399996 -210.201444 33.9999026
100.28693 -37.6076001 -26.5889634
53.8855 -2.498931397e-05 13.3747856
74.43268 -2.498931397e-05 -5.291655398
205.58985 -78.61050537 33.9999026
246.95073 -71.31934337 36.1796786
-0.0002699996039 -8.710151919 3.449038602
-1.26384 -15.52132565 -56.0000974
149.69516 -44.9518404 -5.753850398
109.30127 -2.498931397e-05 11.2297536
163.61157 -2.498931397e-05 31.2422206
221.47256 -43.61979484 9.170784602
124.303 -2.498931397e-05 -10.0073494
62.01765 -2.498931397e-05 43.9896976
-0.0002699996039 -26.05561917 -23.4884374
10.78478 -162.5619507 37.9999026
28.0937 -2.498931397e-05 14.7902186
86.13407 -63.61034914 -30.7652244
174.66741 -115.9935393 37.7021556
144.7343 -2.498931397e-05 9.778291602
118.09706 -103.7612347 37.9999026
82.22319 -16.80625039 -31.9192554
20.85892 -153.0782423 33.9999026
233.88468 -32.79173726 33.9999026
238.26413 -34.65734082 20.3813786
235.45084 -2.498931397e-05 26.2348926
101.2604 -100.9040355 37.9999026
22.05564 -190.6184401 37.9999026
-0.0002699996039 -11.16100246 -15.9346744
50.94198 -2.498931397e-05 -0.5590823978
108.10624 -2.498931397e-05 -2.101110398
201.22599 -51.78531402 37.9999026
226.15047 -2.498931397e-05 55.9984796
176.41385 -46.36060309 -4.125248398
-0.08835999961 -184.0714132 37.9999026
219.6702 -2.498931397e-05 37.4300766
191.33909 -68.16019966 33.9999026
0.7098400004 -2.498931397e-05 28.4564156
70.04882 -7.424079579 -29.2561614
48.99791 -193.6626931 34.9950166
194.45406 -2.498931397e-05 25.2316116
69.34279 -175.1385246 37.9999026
64.13786 -58.32964002 -31.0003864
76.72686 -2.498931397e-05 57.6193366
122.38289 -2.498931397e-05 15.7487146
243.12151 -59.30086575 15.5590096
93.05071 -111.0839997 37.9999026
141.56969 -66.32723641 33.9999026
183.78803 -2.498931397e-05 15.2653736
137.15589 1.723501061 56.6689476
199.84281 -36.75274108 9.043886602
48.67396 -38.49772202 -35.5635264
23.3564 -29.99597936 -43.0343184
176.32762 -9.870084039 2.104945602
74.17797 -112.6618878 33.9999026
189.51986 -2.498931397e-05 38.1053486
4.53955 -2.498931397e-05 -41.6642384
-0.0002699996039 -15.23423897 44.3019996
181.54007 -79.86503087 33.9999026
56.10872 -2.498931397e-05 -26.9735344
119.94714 -24.31852593 -14.5319974
217.77468 -68.00002403 12.8794746
226.72784 -12.70712951 10.7215256
152.83431 -23.3394208 -4.827540398
-0.0002699996039 -46.47339193 42.7149106
191.78587 -31.94646478 0.4107636022
137.58294 -115.1651959 37.9999026
226.2214 -54.36403838 33.9999026
213.94732 0.2708727407 6.950219602
190.89664 -14.12675529 6.404021602
70.42011 -145.3829283 33.9999026
139.23442 -19.36672281 -8.840641398
34.08155 -132.3473047 37.0011266
86.42454 -151.3958528 37.9999026
246.1792 -28.44322255 37.9999026
134.52428 -5.830216739 -16.4861234
236.22932 -7.411268339 36.0162756
-0.0002699996039 -49.84567757 -29.7570244
45.93095 -144.7769591 37.9999026
161.36316 -66.6329208 37.9999026
52.64088 -12.75989609 -34.3929534
107.42217 2.226670441 35.2199326
141.41241 -97.5311989 33.9999026
-0.0002699996039 -37.29769374 -19.9231654
32.78846 -177.073891 37.9999026
195.25749 -57.7570566 1.435178602
194.68779 -2.151623099 1.267068602
103.47298 -58.20280788 -25.6488174
69.55045 -123.1880266 37.9999026
6.94052 -2.498931397e-05 0.04220560218
39.34579 -26.46621562 -44.5716234
-0.0002699996039 -20.32681822 6.121544602
77.19776 -131.4770053 33.9999026
118.99577 -42.80467408 -21.0683144
42.18683 -2.498931397e-05 31.5921896
128.82863 -2.498931397e-05 28.9923406
48.40096 -182.5758396 37.9999026
174.87384 -2.498931397e-05 7.621223602
79.69671 -2.498931397e-05 5.250780602
50.79951 -2.498931397e-05 58.7889526
27.34096 -2.498931397e-05 -29.7349584
39.13353 -10.47439666 -44.6342584
82.09351 -43.53080899 -31.9575244
-0.0002699996039 -40.94210769 11.6691396
30.71138 -2.498931397e-05 58.5412126
134.16822 -2.498931397e-05 -3.063332398
49.58828 -2.498931397e-05 46.5812156
87.32369 -2.498931397e-05 -15.9558194
100.96146 -7.839864819 -26.3899214
212.09607 -53.84510727 12.6596196
-0.0002699996039 -41.04236869 -6.081610398
64.78403 -2.498931397e-05 23.0396526
171.25002 -16.92261346 -5.649004398
203.49414 -10.77517072 10.1213336
164.86016 -2.498931397e-05 45.8858996
49.44144 -161.8535618 37.9999026
167.6573 -40.17285454 -6.709151398
120.59937 -51.9586798 -14.3395344
36.03815 -164.4613515 33.9999026
57.11897 -59.0979659 -39.3270694
216.61885 -2.498931397e-05 47.8954866
222.97709 -83.82744047 33.9999026
175.19195 -68.00002403 -0.5020943978
245.40986 2.236673501 22.4897796
154.73208 -1.058918619 -4.267540398
129.85774 -27.6388239 -11.6075424
162.07406 -112.5889027 33.9999026
160.70983 -56.92377822 -8.759227398
176.36829 -44.84284385 37.9999026
204.5363 -92.15357381 37.9999026
119.87996 -2.498931397e-05 37.5500696
56.40897 -141.8207535 33.9999026
125.09909 -127.3114681 33.9999026
79.31927 -2.498931397e-05 23.3063546
16.4249 -143.5526153 37.9999026
48.68654 -2.498931397e-05 -35.1954214
111.16569 -2.498931397e-05 -12.6218924
19.27092 -20.27297131 -44.2398734
59.18984 -45.21118304 -32.4604664
205.25156 -25.21445307 10.6399176
31.96518 -148.3410969 37.9999026
190.59101 -93.09068098 33.9999026
31.98692 -2.498931397e-05 46.4482896
67.1975 -33.40919922 -36.3530734
137.53232 -77.1467057 33.9999026
170.97029 -58.73534673 -5.731547398
197.7073 -49.92447621 8.413733602
220.12851 -5.770272339 15.0298606
13.10391 -2.498931397e-05 -12.8441204
132.40566 -2.498931397e-05 10.5719956
106.62824 -154.0453667 33.9999026
160.54193 -2.498931397e-05 10.6852506
221.77914 -35.21871616 15.5169336
141.7543 -42.77959953 -14.3526714
37.08536 -201.0251612 34.0603696
182.58305 -48.48984501 3.950819602
119.40066 -142.8270587 33.9999026
50.55084 -2.498931397e-05 -16.0299654
92.01944 -14.48622887 -29.0285564
133.17618 -57.74822943 -10.6283264
174.11212 -27.23677066 -4.804449398
107.5103 -39.66136086 -18.2019004
221.22331 -27.12877188 37.9999026
53.94798 -121.5933162 33.9999026
62.71533 -2.498931397e-05 -1.041667398
194.37932 -43.3637151 37.9999026
19.7928 -6.810753139 -44.0858774
170.92253 -58.57790556 37.9999026
7.05151 -41.39699261 -47.8456184
105.85887 -28.59501673 -18.6892104
242.54859 -18.71004819 15.3899506
22.39996 -63.50071774 -43.3165484
88.45618 -28.03336145 -23.8244544
51.74019 -28.60855104 -34.6587334
90.8592 -38.14799996 -23.1153624
34.4484 -2.498931397e-05 -14.1606744
104.38797 -46.65793641 -25.3788194
4.90013 -10.92200059 -48.4804564
153.86017 -118.7786269 33.9999026
91.28019 -131.8234151 33.9999026
238.46715 -47.04225878 14.1855876
95.65182 1.958974511 -27.9567024
-0.7174999996 -58.95175886 -55.9809644
128.57404 -95.10084721 33.9999026
38.2478 -57.58573849 -38.6401134
166.3593 -2.498931397e-05 58.3429586
-0.0002699996039 -8.138075369 23.0039856
-0.0002699996039 -32.15644697 -46.3272374
5.28027 -2.498931397e-05 -30.9569124
224.83543 -14.45318714 37.8328726
110.75977 -97.27515096 37.9999026
183.52712 -110.5178578 34.9719526
-0.0002699996039 -48.84392803 -40.4885764
252.34649 -37.80561711 24.5368506
58.70648 -18.95142785 -38.8586244
245.59843 -47.09942136 37.9999026
147.09932 -65.90211166 -6.519840398
-0.0002699996039 -39.32027212 36.0980326
185.18203 -8.310653069 -1.537913398
93.18272 -2.498931397e-05 6.375087602
180.86937 -92.29383347 37.9999026
165.81629 -93.78921496 37.9999026
156.63238 -64.0860493 -3.706791398
182.87591 -62.42054196 33.9999026
148.70219 -32.42943521 -6.046858398
86.5415 -161.0510387 37.9999026
211.38043 -33.3250853 37.9999026
231.06809 -35.80316536 12.0022566
155.19988 -105.4527097 37.9999026
11.60313 -172.4683202 37.9999026
93.43853 -145.1296172 33.9999026
141.51474 -2.498931397e-05 28.2868536
14.11355 -66.85132708 -52.0172134
40.2216 -2.498931397e-05 -3.586556398
85.23112 -2.498931397e-05 -2.469032398
171.85654 -79.43239067 37.9999026
-0.0002699996039 -17.25770398 -26.9415394
143.48374 -134.42702 37.9999026
26.1429 -42.16546213 -42.2120674
242.37903 -56.64129115 37.9999026
113.16332 -123.9195706 33.9999026
241.8163 -37.54189353 37.9999026
28.29402 -157.2578274 37.9999026
161.66352 -57.04355428 37.9999026
47.53355 -2.498931397e-05 23.8962666
68.96108 1.626570331 -35.8326724
23.07118 -2.498931397e-05 41.9138436
8.28543 -2.498931397e-05 33.9314006
-0.8900199996 -50.00002499 -8.568519398
-0.0002699996039 -33.1796998 -11.1154584
117.74391 -80.8974084 33.9999026
-0.0002699996039 -15.21998707 -4.395294398
1.04897 -162.7821894 33.9999026
79.74739 -5.691074169 -26.3942744
226.72979 -2.498931397e-05 29.4460146
112.06992 -20.01864198 -16.8564344
212.64293 -62.30714831 37.9999026
20.09108 -173.7270068 33.9999026
60.70292 -7.898731809 -32.0139804
78.69917 -146.0658504 37.9999026
12.80899 -49.66567153 -46.1466824
150.76256 -4.758054879 -11.6944944
220.95218 -53.51428584 15.2729116
62.22041 -67.30013081 -31.5661944
35.8513 -140.8464129 33.9999026
223.8487 -62.26578946 37.9999026
13.845 -206.9272529 37.9999026
114.57903 -58.62986316 -16.1160374
26.53473 -183.7142443 33.9999026
8.39765 -59.91504007 -53.7038744
77.35686 -62.0659183 -27.0996794
30.56002 -4.673037189 -40.9086504
24.13725 -2.498931397e-05 23.0145306
212.96541 -44.01840292 12.9161476
63.09793 -2.498931397e-05 8.310046602
200.63661 -68.00002403 5.077368602
20.84125 -53.23388647 -43.7764974
187.57799 -2.498931397e-05 6.497259602
23.03078 -2.498931397e-05 -9.496678398
12.18231 -190.7122264 33.9999026
82.39368 -27.29990434 -31.8689494
73.80333 -14.6877206 -34.4038084
93.95134 -95.60125161 37.9999026
184.60956 -41.75395179 -1.706837398
-1.60934 -42.45742498 -50.0000974
72.20661 -27.16631084 -28.6194334
-0.0002699996039 -29.02401072 9.789104602
86.45031 -2.498931397e-05 32.1519396
201.6382 -2.498931397e-05 44.6903476
196.34524 -75.31957819 37.9999026
211.39996 -9.497967129 6.198535602
184.13752 -62.84856125 -1.846129398
159.67114 -19.50275824 -9.065727398
-0.0002699996039 -22.75151158 26.3781966
104.94826 -63.84781235 -18.9579154
154.39473 -70.39159357 33.9999026
44.14594 -12.37666728 -36.8996684
230.21738 -58.67188289 11.7512256
194.34101 -33.3000535 35.7511016
5.28683 -30.7473547 -54.6218224
11.74243 1.763043221 -46.4612674
28.88798 -197.741875 33.9999026
66.55873 -2.498931397e-05 -26.0104864
246.44573 -4.186924589 16.5399276
211.9375 -74.00373835 37.9999026
123.38257 -8.015404109 -13.5182594
30.27896 -58.41991307 -47.2470864
141.90803 -56.06010367 -14.3073094
190.76968 -21.66620197 0.1109026022
62.00943 -125.0302775 33.9999026
199.21926 -60.07496386 8.859887602
144.68691 -121.5258231 37.9999026
130.67052 -111.7389421 33.9999026
169.02365 -32.84726563 -0.05033339782
172.02283 -2.498931397e-05 33.3877326
38.91631 -182.3465993 33.9999026
-0.0002699996039 -25.09792086 44.5324526
243.7214 -68.00002403 20.3057146
124.20157 -32.71239609 -19.5321754
90.04381 -56.01029118 -29.6115284
148.38591 -2.498931397e-05 1.462083602
194.16027 -61.09823019 37.9999026
86.81411 -19.41854088 -24.3090024
65.15482 -153.2936944 37.9999026
71.21448 -167.8053805 33.9999026
210.66065 -2.498931397e-05 30.5802376
170.30279 2.230810401 0.3270356022
144.45921 -88.7982768 37.9999026
175.9209 -4.190266509 -4.270708398
189.8307 -53.07407272 6.089480602
90.16842 1.333304401 45.2360206
-0.0002699996039 -8.265761809 39.3125966
-1.57212 -2.498931397e-05 0.3223646022
18.69692 -197.3359364 33.9999026
155.63575 -2.498931397e-05 42.4567486
133.81117 -40.89781181 -16.6965514
-0.0002699996039 -49.60563631 20.9474886
130.44972 -82.80441333 33.9999026
233.21124 -42.33859879 18.8903546
101.42203 -136.0501575 37.9999026
225.65872 -20.85998307 16.6617336
228.0661 -72.70737351 33.9999026
136.94567 -15.15330677 -15.7716154
3.15793 -19.15176707 -48.9945504
233.27555 -17.72271481 12.6536386
191.76348 -104.9889417 33.9999026
42.01828 -38.66455166 -43.7830184
39.92409 -64.84307768 -44.4009764
110.81935 -145.7899793 33.9999026
126.21574 -60.04590038 -18.9378284
172.152 -2.498931397e-05 25.0154336
252.19959 -9.813126219 33.9999026
29.66956 -33.25811342 -47.4269084
55.65366 -175.1579322 33.9999026
240.94276 -65.95569021 33.9999026
25.45709 -2.498931397e-05 51.6003206
44.42049 -50.91748336 -36.8186534
13.76181 -151.4028918 37.9999026
233.02418 -5.227896439 18.8351566
238.01882 -54.89411237 20.3089916
70.14211 -52.97456751 -29.2286334
238.15482 -2.498931397e-05 39.0522116
227.74755 -45.25268393 37.9999026
-0.0002699996039 -30.44722685 55.1829776
227.52293 -4.531683269 10.9561426
25.21769 -2.498931397e-05 3.774587602
226.18286 -35.65385287 33.9999026
204.38604 -45.36212192 33.9999026
-0.0002699996039 -14.14261961 13.0000776
-1.10739 -2.498931397e-05 -19.4075004
17.60564 -165.0428893 33.9999026
147.48663 -37.01460307 -12.6611634
193.22126 -25.35741561 7.089977602
48.32325 -29.88457388 -41.9225334
218.47763 -27.86512969 14.5427136
108.9841 -5.879055749 -17.7670084
142.03064 -2.498931397e-05 45.9449436
235.58103 -54.83741029 33.9999026
113.38173 -2.498931397e-05 18.6723196
133.37911 -34.83825335 -10.5684444
158.10736 -84.05808419 33.9999026
138.34034 -105.4088435 33.9999026
238.70399 -73.69702035 33.9999026
244.35653 -19.95791001 33.9999026
243.74001 -9.513086699 37.9999026
162.32133 -100.3496207 33.9999026
115.81309 -110.3495788 33.9999026
16.80657 -2.498931397e-05 -24.9180584
34.59908 -16.95290687 -45.9722934
-0.9955899996 -154.4027532 33.9999026
120.25148 -97.17730377 33.9999026
66.75215 -181.5406256 33.9999026
152.94331 -56.24274157 -4.795374398
218.43096 -49.10384291 37.9999026
206.49989 -37.62665661 4.752613602
47.01616 -61.88640126 -42.3082334
94.21204 -122.6310749 33.9999026
221.12072 -18.105098 9.066962602
102.98446 -14.65188813 -19.5374004
201.66075 -85.93455637 33.9999026
54.16439 -42.15652915 -40.1989154
87.63258 0.1150620207 -24.0674874
185.22435 -27.97916615 -1.525424398
-0.0002699996039 -41.13596748 3.474786602
132.06481 -120.8170225 37.9999026
218.5723 -34.798158 8.314969602
154.06034 -2.498931397e-05 56.4583906
46.30259 -2.498931397e-05 39.4130676
137.04389 -2.498931397e-05 38.3105176
7.13186 -25.86807781 -47.8219094
127.44825 -20.00171212 -12.3185424
156.15121 -43.8766055 -10.1043994
249.05628 -54.45574829 17.3102536
200.67551 -6.915411759 3.033941602
85.69145 -45.44288111 -24.6402804
89.01762 -65.19098669 -23.6587844
221.20712 -62.06843102 9.092456602
183.35283 -67.78328502 4.177968602
19.98984 -37.69046959 -44.0277344
138.49219 -11.4546375 -9.059661398
87.84033 -169.457331 33.9999026
228.76273 -45.40239445 11.3219856
120.65901 -19.4472186 -20.5775214
103.12528 1.966203421 -25.7514174
229.24988 -25.62937788 33.9999026
216.60782 -81.85170625 37.9999026
193.3257 -51.3505047 33.9999026
65.79116 -162.2398952 33.9999026
-1.41752 -2.498931397e-05 -46.6520364
133.20808 0.07370096069 50.1946696
99.87521 -149.3342019 37.9999026
41.38839 -29.44990569 -37.7133774
244.56246 -26.90408389 22.2399126
206.09683 -2.498931397e-05 16.2937556
7.55956 -179.6783229 37.9999026
-1.77973 -25.03139199 -50.0000974
145.41913 -102.8109928 37.9999026
-0.0002699996039 -20.85738134 -17.7872514
21.64601 -26.70030683 -49.7945164
33.79483 -2.498931397e-05 -25.5297664
42.14691 -2.498931397e-05 -14.3487754
204.04261 -53.88286671 10.2831786
-0.0002699996039 -20.86907522 -33.9938464
125.09369 -139.5751223 37.9999026
70.607 -2.498931397e-05 -12.5214264
169.92871 -47.69326453 0.2167336022
94.36607 -33.07262339 -28.3361044
179.84758 -2.498931397e-05 47.1832646
85.48879 -112.2489562 37.9999026
43.28181 -19.97370417 -37.1546594
103.58994 -108.9748876 37.9999026
155.93747 -2.498931397e-05 27.5505426
232.73642 -67.63865871 18.7502436
243.33345 -40.17618772 21.8772526
14.23549 -2.498931397e-05 43.0014006
113.71162 -54.75984962 -22.6275754
167.82075 -70.41257195 33.9999026
240.26162 -4.099868869 20.9708066
195.26819 -2.498931397e-05 33.1507656
228.83293 -30.85722502 17.5983906
199.62114 -17.19387018 8.978477602
1.91807 -2.498931397e-05 51.1625146
65.01684 -15.2005434 -36.9965484
133.65462 1.318997561 -10.4871774
189.9571 -78.14902164 33.9999026
106.68398 -123.826947 37.9999026
93.60382 -138.0100045 37.9999026
-0.0002699996039 -14.31871984 -37.7361154
139.8479 -23.75108691 -14.9152174
201.78639 -43.31108652 3.361740602
127.17717 -43.80580836 -18.6541284
125.59722 -105.851852 33.9999026
73.90511 -138.2152081 33.9999026
89.02645 -41.27999672 -29.9117334
102.62491 -21.646501 -25.8990684
124.06226 -3.647938809 -19.5732844
59.64938 -66.88828883 -38.5803894
120.01564 -63.79709383 -20.7673694
17.37736 -158.7352058 37.9999026
176.67848 -27.38450792 2.208476602
96.03069 -2.498931397e-05 -10.5249684
210.035 -28.21516317 5.795761602
206.5111 -26.65928918 33.9999026
160.94479 -2.498931397e-05 18.1031676
88.98816 -8.481056479 -23.6674774
158.16607 -2.498931397e-05 49.4318566
156.91181 -126.9672627 37.6325226
-0.8238099996 -191.43527 37.9999026
146.23405 -53.83448738 -6.775165398
76.30366 -45.9904446 -27.4104614
1.45505 -203.1681062 33.9999026
49.98033 -170.4777427 33.9999026
67.55851 -54.50611262 -36.2465444
-1.77321 -2.498931397e-05 -28.9403454
53.66471 -131.2263197 37.9999026
183.61662 -69.71389438 33.9999026
201.2944 -30.14181492 37.9999026
44.36042 -2.498931397e-05 3.012529602
218.61442 -18.2980368 37.8727116
250.52326 -15.92245513 23.9988436
57.804 -2.498931397e-05 19.5313786
-0.0002699996039 -26.67299529 -0.8821483978
-0.0002699996039 -22.40229018 37.4096936
79.77736 -166.2982217 37.9999026
177.57462 -103.5005083 37.9999026
65.43899 -40.24767674 -30.6164464
12.65559 -28.28649818 -52.4474324
178.49078 -54.17828446 -3.512384398
176.70481 -20.15617606 2.216247602
96.7771 -115.8903251 33.9999026
98.84893 -15.54975928 -27.0132934
29.54628 2.444481721 -41.2076714
237.15892 -24.19886054 33.9999026
75.60265 -151.912319 33.9999026
101.7602 -157.5683963 37.9999026
188.52253 -41.89550953 5.703461602
31.28265 -40.58365831 -46.9509124
11.24752 -38.46679136 -52.8629304
9.69059 -51.6702776 -53.3223504
200.30975 2.424808401 2.926010602
146.66288 -70.21061148 37.9999026
69.58975 -2.498931397e-05 57.5923696
238.31989 -21.52796222 20.3978336
80.15502 -56.8462593 -32.5295364
113.64455 -36.53189968 -16.3917844
73.29067 0.2689250107 -28.2995444
131.36783 -134.876871 37.9999026
226.25285 -78.94881247 37.9999026
122.14783 -15.48392418 -13.8826104
-0.0002699996039 -37.86143924 -42.1027334
99.87991 -2.498931397e-05 1.802050602
48.49303 -154.8253905 37.9999026
41.13952 -18.88525567 -44.0423254
112.76008 -91.77664045 33.9999026
97.38678 -41.15931353 -21.1891834
29.67217 -20.66114377 -41.1706374
3.22888 -60.95209256 -48.9736134
101.93508 -35.62334497 -19.8470554
47.52015 -0.2312225993 -42.1595144
234.94605 -8.909598899 13.1465746
212.39302 -43.98903089 37.9999026
224.6968 -2.498931397e-05 46.7342746
145.56115 -5.109165579 -6.973729398
34.10398 -157.7125946 33.9999026
58.22657 -52.18152438 -39.0002364
97.46234 -55.06821377 -27.4224504
235.52404 -14.91217694 33.9999026
200.3873 -2.498931397e-05 52.3339626
6.72723 -186.3307451 33.9999026
144.38669 -18.60152402 -13.5758994
-0.0002699996039 -29.87141864 23.9937246
14.91738 -61.51566183 -45.5245334
71.47864 -131.097433 37.9999026
137.29064 -2.498931397e-05 3.187147602
117.95233 1.455386261 -15.1206324
203.46764 -43.11990093 10.1135146
210.66614 -55.23093799 5.981999602
183.26918 -2.498931397e-05 35.0452786
211.51908 -84.38450291 33.9999026
18.28871 -18.15475765 -50.7851974
186.31232 -2.498931397e-05 49.7293276
7.60187 -167.2674064 33.9999026
80.87668 -68.00002403 -26.3011654
103.00486 -54.98347616 -19.5313814
2.05754 -218.031446 33.9999026
141.82608 -34.18121407 -8.075884398
122.47116 -10.70395394 -20.0427874
84.41314 -131.0794186 33.9999026
68.78914 -63.23858129 -29.6278724
164.40011 -15.67323991 -1.414664398
13.52705 -42.81628467 -45.9347944
234.04701 -68.50268586 33.9999026
182.67946 -17.09167703 3.979268602
127.19954 -51.76361168 -12.3919344
160.4422 2.387907481 -2.582645398
-0.0002699996039 -40.85483797 -14.0440914
250.47183 -24.88938226 33.9999026
244.4332 -60.39897357 22.2017686
251.14111 -46.58703655 33.9999026
27.45377 -48.88013369 -41.8252514
187.06363 -32.92290968 5.272963602
99.81275 -95.5400027 33.9999026
47.08624 -125.2217673 37.9999026
241.55665 -14.82512326 21.3529466
122.87091 -111.1537786 37.9999026
19.3154 -46.34504497 -44.2267484
140.93316 -128.1681519 33.9999026
50.76973 -20.68094655 -34.9451004
92.46571 -153.3420366 33.9999026
33.29504 -62.02707927 -40.1015904
177.08892 -2.498931397e-05 16.4755856
183.22525 -45.61173546 33.9999026
61.17666 0.7086480607 -31.8741164
163.87351 -88.65507178 33.9999026
115.70406 -29.46593921 -15.7840584
89.55445 -126.6210004 37.9999026
-2.48735 -8.853208989 -56.0000974
58.03896 -135.2460479 33.9999026
8.45922 -44.58173465 -53.6857084
59.60918 -2.498931397e-05 -17.4778784
-0.0002699996039 -2.940091939 35.1366266
213.1392 -2.498931397e-05 39.1982876
231.49658 -24.69762411 18.3843896
236.06642 1.728399851 19.7326976
48.33954 -2.498931397e-05 -27.5166084
-0.0002699996039 -49.76188479 50.9414286
177.9153 -73.98815592 37.9999026
44.29995 -187.926038 37.9999026
146.93184 -2.498931397e-05 41.2050866
236.62063 -57.76504218 13.6407126
172.91939 -109.5031484 37.9999026
178.44454 -86.02903766 37.9999026
242.74185 -42.0241398 15.4469766
206.87635 -54.10166863 33.9999026
131.26604 -8.334907679 -11.1919784
43.70327 -161.5281975 33.9999026
29.71962 -190.880095 33.9999026
123.31399 -49.19271439 -19.7940854
-0.0002699996039 -31.77477796 44.8942906
181.5775 -35.53268149 -2.601547398
85.62011 -55.23484065 -24.6613314
112.85859 -102.7070481 33.9999026
197.71332 -30.10967375 8.415508602
252.04751 -31.61704829 37.9999026
102.67751 -4.822199809 -19.6279784
35.01106 -15.08629303 -39.5952224
212.20108 -67.36404818 6.434934602
26.43731 -65.00622354 -48.3806884
111.1033 -41.73249615 -23.3972454
216.91172 -2.498931397e-05 54.5286796
69.61005 -27.26742852 -35.6411714
160.4431 -29.59294391 -2.582311398
250.847 -1.174823419 24.0943756
-0.0002699996039 -6.134997799 -10.0795324
92.83597 -17.34285307 -22.5320504
156.12729 -76.50913731 37.9999026
104.18605 -2.498931397e-05 15.4066366
79.87431 -35.78636226 -32.6123704
127.4025 -22.06799715 -18.5876364
65.86098 -2.498931397e-05 33.3898936
61.40362 -143.4316889 37.9999026
29.29762 -2.498931397e-05 -19.2457774
114.34052 -2.498931397e-05 0.05536760218
193.50825 -51.28741425 0.9190076022
182.43345 -38.45726698 3.906674602
116.08869 -65.18995873 -15.6705594
64.94899 -13.11478927 -30.7610374
8.98728 -11.93541813 -53.5298854
60.37811 -2.498931397e-05 50.3523436
228.29642 -67.10114123 37.9999026
178.70884 -12.44973138 -3.448036398
66.7273 -8.877999129 -36.4918214
22.06677 0.8435123707 -43.4147394
60.74207 -176.1510798 37.9999026
123.01347 -44.28812429 -13.6271734
1.56139 -177.2984571 33.9999026
194.77432 -96.12921055 37.9999026
-0.0002699996039 -42.89496111 -23.2838584
3.92815 -207.6938213 37.9999026
174.86713 -55.26067595 33.9999026
53.54523 -182.8732285 33.9999026
79.34968 -25.15889345 -26.5116314
163.65476 -105.3133858 37.9999026
16.73262 -213.5938556 33.9999026
210.75567 -2.109844349 12.2640896
80.16655 -2.498931397e-05 -21.6221344
79.06002 -50.43917594 -32.8526534
220.29559 -58.56264368 33.9999026
42.91529 -179.0802438 37.9999026
74.46382 -124.6221895 33.9999026
174.66077 -99.30047311 33.9999026
179.99805 1.453066171 3.188029602
183.88904 -5.886422169 4.336194602
28.03734 -12.03839162 -47.9085474
179.00166 -59.12468814 37.9999026
250.69737 -30.46942561 24.0502226
48.61786 -55.64141161 -41.8355994
78.14115 -160.2333111 33.9999026
51.91105 -150.279454 33.9999026
228.88864 -31.40231707 37.9999026
170.01574 -64.36542932 33.9999026
35.97125 -44.99057818 -45.5673924
166.051 -67.0171543 -0.9275133978
59.78258 -2.498931397e-05 29.7526936
231.27357 -2.498931397e-05 33.9860556
57.53531 -58.53810776 -32.9486904
92.50758 -63.94841696 -28.8845134
107.93477 0.9140771007 -18.0766404
203.37054 -16.52100593 3.829196602
9.28813 -208.9718352 33.9999026
204.41251 -52.14902344 4.136662602
21.46241 -203.0990825 33.9999026
168.06056 -39.15254414 -0.3345253978
135.07825 -71.25808044 33.9999026
151.34655 -89.43442356 33.9999026
139.09479 -39.87526569 -8.881843398
220.57951 -2.498931397e-05 17.6751836
83.8397 -9.340677579 -31.4422524
111.23277 -136.0022847 33.9999026
198.92232 -59.7878459 33.9999026
216.09462 -68.65234375 37.9999026
131.33992 -126.148029 33.9999026
83.60306 -2.498931397e-05 18.6216026
152.26792 -81.58510783 33.9999026
171.61477 -50.25528444 -5.541373398
6.28865 -2.498931397e-05 15.2000656
221.70144 -43.42273563 15.4940046
75.19776 -177.4700642 37.4057316
249.43009 -35.67192515 17.4205586
52.97769 -63.61416198 -34.2935684
247.03959 -61.21551782 37.9999026
136.40389 -58.90318182 -15.9314844
21.3296 -35.76518741 -49.8878834
108.13371 -52.32320686 -24.2735174
158.09539 -68.00002403 -8.412961398
73.87983 -107.7502513 37.8916596
227.03662 -59.64948844 17.0683286
43.38281 -2.498931397e-05 45.7131996
206.43494 -60.15304556 10.9891146
121.68726 -2.498931397e-05 -3.068070398
220.63656 -6.961338229 8.924094602
192.67594 -3.836147019 6.929064602
135.81993 -29.14263831 -9.848199398
97.06597 -2.498931397e-05 13.6593806
206.58367 -19.13835912 11.0330036
104.76564 -130.797952 37.9999026
160.8055 -10.7277192 -8.730997398
194.20722 -89.93999125 37.9999026
199.40883 -79.17515868 33.9999026
228.97635 -58.21315081 37.9999026
81.42284 -154.0388059 33.9999026
0.1732800004 -2.498931397e-05 8.758067602
240.03635 -33.15305362 14.6486316
-0.0002699996039 -16.45136693 51.5462326
144.20867 -80.91983733 33.9999026
183.51211 -2.498931397e-05 21.9385866
11.16663 -5.507877569 -46.6313174
97.789 -2.498931397e-05 22.9032766
33.32515 -5.570160179 -46.3482084
209.60016 -94.40359844 34.2047336
-0.0002699996039 -34.09380339 28.4797356
188.0141 -61.4940784 37.9999026
185.5184 -47.97660338 -1.438656398
41.22125 -39.65820338 -37.7626974
50.61951 -143.905072 33.9999026
208.7783 -41.03055097 33.9999026
177.07119 -60.14691063 -3.931279398
38.94574 -158.895872 37.9999026
183.00974 -61.47080763 4.076727602
37.36831 -66.43764205 -38.8996374
12.18404 -155.7615994 33.9999026
103.89648 -64.30530576 -25.5238494
102.80539 -114.8458228 33.9999026
81.57008 -109.7933717 33.9999026
125.6545 -2.498931397e-05 35.5464736
36.37189 -149.7127601 33.9999026
-0.0002699996039 -3.993987699 46.9608426
14.15675 0.9347548007 -52.0044674
166.91198 -25.731446 -6.929084398
43.13134 -193.9106576 37.9999026
215.40251 -44.74935364 7.379619602
30.52324 -173.0852258 33.9999026
149.26503 -2.498931397e-05 29.6449586
12.49079 -2.498931397e-05 -29.2037364
187.18142 -88.05700878 33.9999026
30.46226 -167.9361704 37.9999026
141.90847 -108.2565362 37.9999026
193.55786 -58.6680144 7.189304602
33.95603 -52.228933 -39.9065434
21.12648 -147.3860604 37.9999026
63.16042 -170.4607738 37.9999026
-0.0002699996039 -11.70754356 -21.9674804
33.5026 -198.1496024 37.9999026
200.28958 -42.10035352 37.9999026
228.61875 -9.148633119 17.5351886
158.63032 -16.19759425 -3.117233398
37.58259 -145.0113639 37.9999026
116.8284 -121.2988777 37.9999026
166.15531 -114.4973165 37.9999026
-0.0002699996039 -41.24825011 17.6820526
91.43208 -163.0544324 33.9999026
82.98677 -144.7240247 33.9999026
165.65457 -83.58395317 37.9999026
124.60625 -98.23337849 37.9999026
21.70729 -6.916377759 -49.7764344
215.12031 -15.08133299 7.296346602
54.00931 -28.94089301 -40.2446764
216.69759 -35.86759794 33.9999026
241.13056 -46.98957695 33.9999026
56.91454 -3.315880329 -33.1318684
198.54842 -46.71578011 33.9999026
154.90174 -61.57010318 -10.4730934
240.15008 -18.47177677 37.9999026
41.7824 -167.1846594 33.9999026
148.68109 -39.07570798 -6.053085398
208.93143 -88.11632806 37.9999026
181.20033 -49.53842263 37.9999026
126.52178 -145.3583823 37.9999026
199.90567 -2.498931397e-05 27.6276306
122.70855 -83.02077083 37.9999026
156.77772 -98.19105607 33.9999026
246.39541 -54.09139599 33.9999026
-0.0002699996039 -32.96753103 14.2415606
189.52561 -2.498931397e-05 31.6024486
239.46297 -49.14318398 20.7351376
247.1236 -22.25729847 16.7399546
137.6874 -93.5389782 37.9999026
142.02113 -2.498931397e-05 21.9263926
151.48686 -65.21715408 33.9999026
20.65569 -183.0376772 33.9999026
97.07927 -102.1405152 33.9999026
119.55501 -125.2464018 33.9999026
34.70763 -31.25865256 -39.6847574
147.32677 -21.99794608 -6.452721398
-0.0002699996039 -9.544757459 9.308117602
190.91503 -45.95521707 33.9999026
97.80312 -12.30225735 -21.0663284
12.65588 -184.8254773 37.9999026
76.26752 -45.33480496 -33.6766714
39.03384 -135.9098143 33.9999026
80.96832 -118.1309125 37.9999026
150.50549 -41.96389105 -11.7703504
134.94307 -80.56221632 37.9999026
12.7437 -2.498931397e-05 -20.6944444
147.64731 -2.498931397e-05 19.2335666
19.04015 -169.5852728 37.9999026
243.07706 -33.4644602 33.9999026
118.57231 -2.498931397e-05 11.3253376
194.7601 -39.14006001 33.9999026
1.60288 -158.5841841 37.9999026
73.05352 -2.498931397e-05 52.9165846
52.52399 -167.1045261 37.9999026
14.52113 -2.498931397e-05 1.017774602
53.76482 -190.4866364 33.9999026
201.70783 -73.08436033 37.9999026
49.34579 -137.0159147 37.9999026
186.93944 -72.28880162 37.9999026
183.72183 -54.54483311 33.9999026
-0.0002699996039 -30.5396454 -5.192338398
214.389 -47.66300967 33.9999026
-2.04124 -205.4544449 37.9999026
199.39759 -95.18986658 33.9999026
7.59437 -2.498931397e-05 39.6690026
184.67057 -2.498931397e-05 43.9997706
5.00548 -2.498931397e-05 -5.395055398
80.58567 -124.7754506 37.9999026
197.26555 -71.26783018 33.9999026
241.18851 -2.498931397e-05 26.7612706
66.76662 -112.1465241 35.2331676
-0.0002699996039 -36.96108576 7.513934602
124.48478 -76.48132631 33.9999026
94.09761 -105.4354103 37.9999026
176.09622 -78.03432594 33.9999026
140.03042 -2.498931397e-05 15.9430586
90.70033 -2.498931397e-05 -7.163600398
151.76612 -115.2418595 37.9999026
25.1644 -146.3331243 33.9999026
174.10232 1.221481261 -4.807339398
127.29913 -134.3482234 33.9999026
159.18021 -73.77936316 33.9999026
187.24781 -49.48831449 37.9999026
36.85752 -168.4611482 37.9999026
246.68459 -12.33249906 33.9999026
81.61807 -134.0405116 37.9999026
189.45214 -98.68077368 33.9999026
91.30248 -22.81724576 -22.9845584
20.19945 -142.0497061 33.9999026
-0.8875699996 -215.2376454 37.9999026
239.54677 -60.43265025 33.9999026
186.39711 -95.90130969 37.9999026
64.33965 -146.2223081 33.9999026
138.93521 -51.28746995 -15.1845364
102.58036 -2.498931397e-05 -3.449691398
3.96594 -194.4958765 37.9999026
-0.0002699996039 -21.70715682 -3.647266398
6.24362 -2.498931397e-05 -15.6284234
64.4906 -64.28494953 -37.1518314
221.05483 -2.498931397e-05 29.2805276
73.45221 -142.2152379 37.9999026
90.87502 -2.498931397e-05 0.8900286022
-0.0002699996039 -29.5263497 -41.3037524
242.21001 -4.059568109 37.9999026
-2.20033 -178.6778251 37.9999026
-0.0002699996039 -45.36787323 -36.0333234
87.8553 0.7001962907 -30.2573184
110.25681 -62.76436281 -17.3914504
126.55207 -89.10770344 37.9999026
247.82301 -66.19842796 33.9999026
6.16564 -171.0032861 37.9999026
188.71107 -47.56589585 5.759096602
246.4222 -64.81366338 16.5329856
115.6658 -86.96566292 33.9999026
208.77755 -4.588514089 5.424711602
15.33704 -16.44167315 -45.4006974
145.64149 -97.20869773 37.9999026
69.55174 -127.3237015 33.9999026
140.68205 -24.76285874 -8.413469398
21.83795 -161.3717263 33.9999026
165.79845 -60.83660265 37.9999026
127.79337 -79.9291133 37.9999026
154.31941 -16.71551348 -10.6449304
205.59193 -5.628778299 10.7403576
112.85466 -60.62090528 -22.8804484
89.56584 -103.5334136 33.9999026
239.11972 -69.40238696 37.9999026
144.85732 -68.00002403 -12.4306154
205.83679 -59.92793921 37.9999026
139.6322 -83.58989051 37.9999026
21.79626 -2.498931397e-05 -29.0976874
40.25121 -140.1137663 37.9999026
176.52215 -33.71439286 -4.093293398
-1.30161 -50.00002499 -3.008767398
227.89644 -63.2400129 33.9999026
29.54098 -2.498931397e-05 9.409421602
99.08871 -27.98926896 -20.6869724
140.02584 -2.498931397e-05 -4.335527398
249.99821 -42.88388446 37.9999026
68.07452 -158.0349621 37.9999026
75.31638 -2.498931397e-05 16.2838226
164.05341 -52.01909545 37.9222086
234.15948 -3.123980529 12.9144706
51.85181 -2.498931397e-05 39.0332056
38.71206 -11.08610726 -38.5031174
52.87712 -2.498931397e-05 22.1030396
212.81734 -27.95828115 37.9999026
-0.0002699996039 -17.71003868 22.2495446
133.35832 -40.38087135 -10.5745794
-0.0002699996039 -42.4550292 48.5345806
123.29783 -60.42066252 -13.5432654
95.88211 -134.9331975 33.9999026
-0.0002699996039 -9.739393199 17.7094126
141.27177 -55.7881919 -8.239453398
15.02926 -2.498931397e-05 27.9961526
144.75724 -117.7134659 33.9999026
128.55421 -62.72856374 -11.9921944
13.35676 -169.0856893 33.9999026
231.96926 -37.97325833 33.9999026
101.11271 -153.7825545 33.9999026
89.68915 -144.4801647 37.9999026
-0.0002699996039 -1.399655219 -13.9959624
-0.0002699996039 -34.75489844 -24.8205824
107.4663 -93.33196351 33.9999026
220.89629 -86.9990125 37.9999026
65.22576 -2.498931397e-05 38.8601406
104.40548 -98.80495311 33.9999026
27.88116 -66.28981078 -41.6991374
-0.0002699996039 -10.39486403 -27.3006204
-0.0002699996039 -13.39646279 -10.9190944
60.22568 -128.3360065 37.9999026
205.41181 -38.55214347 37.9999026
104.42602 -13.75840262 -25.3675924
-0.0002699996039 -24.96720885 -30.3646994
233.3441 -30.11930021 12.6738666
106.34953 -2.498931397e-05 -10.0269964
-0.0002699996039 -30.96008215 -31.4736934
236.77255 -42.57939468 33.9999026
-0.0002699996039 -19.87730968 31.9697856
-0.0002699996039 -45.53127296 54.3902226
120.4076 -146.3983535 37.9999026
206.78865 -36.12030746 11.0934896
-0.0002699996039 -8.353253079 33.8577976
239.31419 -12.69009866 37.9999026
151.16257 -74.77545343 33.9999026
145.47059 -129.3558741 37.9999026
232.55641 -47.70614526 33.9999026
82.72427 -4.031726119 -31.7713964
-0.0002699996039 -41.75260841 -31.6778434
170.94202 -67.91337745 37.9999026
116.75547 -138.0990709 33.9999026
17.70134 -180.1656998 37.9999026
192.59968 1.970162601 6.906559602
56.76081 -171.6885208 37.9999026
53.06901 -161.6208604 33.9999026
89.29623 -155.9682221 37.9999026
-0.0002699996039 -19.8401253 47.1135356
-0.0002699996039 -16.1738351 56.9329986
93.37637 -4.308797869 -28.6281484
152.69587 -123.6248691 37.9999026
180.2896 -29.59060485 -2.981582398
189.60951 -2.498931397e-05 22.8684896
139.11149 -137.57903 37.9999026
132.42008 -98.87580969 33.9999026
101.20619 -161.3957354 34.2485476
160.74453 -93.04098774 33.9999026
107.54056 -120.321243 33.9999026
240.57138 -63.98209853 14.8065106
4.81457 -213.4078216 33.9999026
12.46464 -56.60080563 -52.5037784
102.0857 -124.0015405 33.9999026
215.71011 -10.22407059 13.7260636
247.41264 -43.46115572 23.0809516
10.80016 -175.9560012 33.9999026
148.02694 -84.78834075 37.9999026
182.89064 -66.20973309 37.9999026
173.61124 -83.1255594 33.9999026
98.72714 -112.897999 37.9999026
164.60461 -2.498931397e-05 51.2413286
46.59975 -28.61033809 -36.1755924
-0.0002699996039 -15.02424676 -47.6972764
246.87739 -23.13649229 37.9999026
218.13597 -22.07567179 33.9999026
142.05369 -111.7981732 33.9999026
30.88651 -163.041611 33.9999026
247.39643 -65.28790709 23.0761676
229.30862 -11.68856357 36.9000276
65.90861 -175.9911283 33.9999026
3.60165 -188.4487355 37.9999026
30.64522 -136.3064452 37.9999026
41.49355 -198.3007103 35.3325836
115.44821 -126.6123054 37.9999026
111.2977 -119.0705752 37.9999026
104.99506 -39.67308383 -25.1996774
136.69179 -110.4590079 33.9999026
207.93372 -32.74541446 33.9999026
93.18194 -30.01092403 -22.4299624
-0.0002699996039 -11.48542645 27.5648186
29.78851 -204.7627201 37.9999026
150.2841 -107.4475105 37.9999026
208.87513 -12.30384962 11.7091746
58.81108 -162.4963858 33.9999026
160.02891 -53.25595623 -2.704532398
66.86055 -3.225322439 -30.1969674
127.41758 -65.18818529 -18.5831854
68.63738 -68.00002403 -32.9246174
112.52978 -14.74836516 -16.7207354
53.7841 0.8484432907 -34.0555284
154.03901 -42.22756123 -4.472051398
105.01603 -140.716486 37.9999026
110.53353 -110.2549472 33.9999026
140.90274 -73.08306459 33.9999026
51.30366 -2.498931397e-05 51.5737196
13.79804 -203.483282 33.9999026
76.42687 -134.9962332 37.9999026
73.65089 -149.0751899 37.9999026
244.8199 -39.22593911 33.9999026
8.52598 -157.7925899 37.9999026
147.22694 -132.9529286 34.5614566
249.16122 -2.498931397e-05 40.8693606
195.61872 -56.0296174 37.9999026
72.02478 -2.498931397e-05 36.5837336
124.78075 1.040875661 40.8057376
26.60491 -7.947798159 -42.0757354
155.62467 -2.498931397e-05 32.8019686
176.2897 -96.30082225 37.9999026
19.81471 -206.6372259 37.9999026
170.08022 -118.5431727 37.9999026
136.77932 -132.2196689 33.9999026
84.39111 -165.4935677 33.9999026
205.39045 -73.36295755 33.9999026
46.84327 -165.7330861 33.9999026
43.63813 -175.5545642 33.9999026
219.65957 -75.45920774 37.9999026
54.92516 -136.599684 37.9999026
48.98657 -129.8612681 33.9999026
225.61013 -19.6375259 37.9999026
-0.0002699996039 -40.77862004 41.1290056
133.84947 -2.498931397e-05 27.5014086
-0.0002699996039 -46.01265496 24.7574796
4.35661 -201.4419049 37.9999026
121.17119 -102.3300388 33.9999026
116.96557 -148.1885323 33.9999026
186.76353 -79.21163394 37.9999026
220.84383 -32.3417123 37.9999026
-0.0002699996039 -40.53116953 31.0141366
145.20614 -93.87822022 33.9999026
-0.0002699996039 -7.599127809 54.4166976
178.7946 -106.6252927 33.9999026
129.2375 -2.498931397e-05 23.7900416
169.94156 -53.45312528 37.9999026
216.73672 -55.13405973 37.9999026
238.4993 -12.58028875 14.1950756
6.86008 -2.498931397e-05 -46.9604264
134.29868 -20.19059149 -10.2970964
14.60867 -50.76080794 -51.8711124
237.86982 -8.769491739 20.2650236
227.06565 -50.41281322 37.9999026
6.46689 -204.5720437 33.9999026
4.55145 -45.90043408 -48.5833444
79.67876 -151.1742065 37.9999026
212.75285 -66.64727771 12.8534246
49.73983 -39.76370162 -41.5045264
26.02267 -2.498931397e-05 -38.2759204
35.63087 -175.3757704 33.9999026
77.09212 -143.1713399 33.9999026
82.23079 -66.8317539 -31.9170154
46.47283 -49.49807671 -42.4685584
202.4907 -80.36720248 37.9999026
59.43877 -122.9557968 37.9999026
17.11437 -192.3202778 33.9999026
-0.0002699996039 -34.47735693 58.4431256
94.79555 1.962242171 -21.9537884
84.18565 -136.8302058 33.9999026
218.76831 -29.3194014 33.9999026
53.27776 -2.498931397e-05 -20.4311694
-0.0002699996039 -12.02300527 48.8657026
167.03956 -98.22794786 33.9999026
235.75885 -35.47811231 37.9999026
18.95655 -185.8339527 37.9999026
173.16266 -94.35487576 33.9999026
218.47332 -43.32994043 33.9999026
249.00857 -30.40934929 33.9999026
37.08493 -195.7677104 33.9999026
225.84909 -30.19921548 33.9999026
24.30496 -35.15500306 -42.7544124
166.16977 -119.6553884 33.9999026
-0.0002699996039 -49.36804693 -47.5573934
-0.0002699996039 -45.94901817 12.9185436
72.36718 -162.7755681 33.9999026
-0.0002699996039 -5.401319089 -28.7751634
171.09829 -74.33488325 37.9999026
181.47632 -89.10319929 33.9999026
190.30804 -36.54969693 33.9999026
89.63237 -98.40033807 37.9999026
223.48411 -37.44392798 37.9999026
108.2728 -86.49391395 34.0914576
106.236 -148.1203693 33.9999026
34.17277 -193.0531193 37.9999026
221.24858 -67.72626207 9.104691602
81.6963 -105.0919287 37.9999026
228.63876 -44.24415596 17.5410916
95.3365 -59.74666625 -28.0497484
19.41272 -2.498931397e-05 33.3706026
-0.0002699996039 -25.91674554 -36.3959124
66.07717 -116.4131164 37.9999026
57.00132 -2.498931397e-05 58.3798596
53.34664 -156.481904 37.9999026
74.89592 -117.7381511 33.9999026
177.60798 -80.97257805 37.9999026
95.95627 -140.6708246 33.9999026
113.57364 -129.2013372 33.9999026
62.02768 -157.3480433 37.9999026
23.9061 -152.1199809 37.9999026
172.71397 -49.92778887 33.9999026
229.81393 -19.21673956 33.9999026
222.6467 -44.95587348 37.9999026
55.14498 -144.7340535 37.9999026
214.53332 -64.85612182 33.9999026
24.88607 -171.9787828 33.9999026
-0.0002699996039 -46.61868399 -12.2847784
12.04208 -146.1590758 37.9999026
29.01579 -181.7603269 37.9999026
62.39973 -165.4216164 37.9999026
49.3685 -188.455822 37.9999026
249.35433 -4.000024989 37.6158936
84.26119 -116.6746357 33.9999026
21.87165 -195.7092423 37.9999026
183.95864 -67.93674336 -1.898913398
37.0864 -2.498931397e-05 5.328739602
163.23565 -71.36178996 37.9999026
156.59494 -56.64044067 37.9999026
-0.7347999996 -68.00002403 -50.5333284
52.23346 1.063583151 -40.7686984
96.37077 -162.2698857 37.9999026
169.72469 -44.77175379 -6.099103398
24.30605 -188.2686645 33.9999026
241.49543 -52.79766656 33.9999026
-0.0002699996039 -35.5965693 -5.519021398
37.85981 -178.7350825 37.9999026
76.77418 -114.3692288 37.9999026
179.70764 -99.64099429 33.9999026
28.04808 -175.3103523 37.9999026
144.54058 -65.46386137 37.9999026
2.65168 -168.2997308 33.9999026
205.61829 -67.41318004 4.492466602
119.56205 -131.6573131 37.9999026
153.36668 -102.9818131 33.9999026
171.84186 -102.1770502 37.9999026
-0.0002699996039 -25.42045929 30.6574756
-0.0002699996039 -38.44991751 -0.7896473978
110.6416 -89.5626703 37.9999026
-0.0002699996039 -4.708532889 30.1036446
60.37961 -172.710739 33.9999026
-0.0002699996039 -4.225247379 18.5357746
226.11936 -84.19402438 37.9199386
140.15559 -91.73223012 33.9999026
110.10497 -2.498931397e-05 2.767677602
-0.0002699996039 -31.97170161 50.3920566
-0.0002699996039 -46.91148838 0.7792736022
11.58872 -193.6925113 37.9999026
114.57977 -82.59593226 37.5099626
221.32756 -53.2678939 33.9999026
25.39968 -2.498931397e-05 -23.6939434
3.67752 -182.3675912 33.9999026
36.38574 -183.9580298 37.9999026
60.58864 -133.6655503 37.9999026
142.34068 -75.71447503 37.9999026
43.98338 -7.380374169 -36.9476394
236.91217 -59.75712124 19.9824396
186.80691 -108.2746057 37.9999026
122.84668 -131.7694429 33.9999026
51.8447 -138.6579587 33.9999026
124.39139 -142.9410853 33.9999026
63.82726 -137.6530572 33.9999026
159.11529 -90.54340395 37.9999026
176.36336 -50.75316263 37.9999026
240.77714 -9.659507669 33.9999026
