# .PCD v0.7 - Point Cloud Data file format
VERSION 0.7
FIELDS x y z
SIZE 4 4 4
TYPE F F F
COUNT 1 1 1
WIDTH 1257
HEIGHT 1
VIEWPOINT 0 0 0 1 0 0 0
POINTS 1257
DATA ascii
20.00488134 49.85162378 1.398866703
9.878681342 124.1089726 -103.9717453
-23.94704866 -2.498673155e-05 -17.8425503
5.128151342 84.59200738 -103.9717453
21.13324134 -2.498673155e-05 -42.5307923
42.59057134 16.16972148 2.978212703
20.81738134 51.17129038 -97.9717453
38.79120134 17.12651528 -97.9717453
13.61605134 155.8125545 -113.9717453
34.16100134 -2.498673155e-05 -6.979725297
27.36047134 -0.6493510467 -113.9717453
-2.930998658 64.59644008 -113.9717453
12.26456134 98.14837628 -113.9717453
23.76174134 33.70424158 -113.9717453
-36.38654866 48.42445488 -2.544405297
-43.44506866 14.34971598 -3.037984297
-4.445898658 134.8207606 -103.9717453
-23.90039866 -1.847364757 -103.9717453
-41.38899866 -2.498673155e-05 -19.1777823
36.54624134 36.23905378 -103.9717453
14.82446134 -2.498673155e-05 -61.2841693
-27.53026866 20.03864528 -1.925113297
9.092151342 39.90215798 -97.9717453
-16.81988866 54.84945738 -1.176171297
6.168031342 20.54060778 0.4313007031
32.16443134 65.79508748 -113.9717453
17.11524134 109.2150872 -103.9717453
-3.946828658 -2.498673155e-05 -62.1772323
-9.144898658 19.20649388 -97.9717453
21.15708134 14.40646088 -103.9717453
-5.912588658 119.9064403 -113.9717453
44.84916134 -2.498673155e-05 -68.6401083
-17.60147866 159.5294449 -105.6624573
33.16410134 59.74329288 2.319049703
6.475991342 -2.341558597 -97.9717453
-18.82366866 -2.498673155e-05 -86.8143813
-10.54931866 -2.498673155e-05 -47.9459513
-12.50499866 -2.498673155e-05 -8.022442297
37.45174134 52.56957148 -97.9717453
42.29114134 -2.498673155e-05 -40.7158373
-38.70043866 53.47045158 -103.9717453
39.20458134 -2.498673155e-05 -90.6361333
-40.93937866 19.96543808 -103.9717453
-16.94778866 37.32493078 -113.9717453
-5.002148658 -2.498673155e-05 -84.2137503
32.38422134 114.7230292 -103.9717453
-32.69146866 -2.498673155e-05 -92.2249043
12.71824134 -2.498673155e-05 -15.5404323
8.625441342 -2.498673155e-05 -30.0204473
-13.34870866 26.11583808 -0.9334422969
13.98987134 -2.498673155e-05 -85.9536883
55.53400134 4.996220893 -97.9717453
51.94096134 54.79995718 -103.9717453
-2.039478658 47.56170298 -113.9717453
9.132101342 22.74604208 -113.9717453
-6.363518658 104.8174414 -113.9717453
-48.80716866 44.06357288 -3.412939297
41.98822134 -2.498673155e-05 -18.8581823
32.20710134 78.92693168 -113.9717453
-6.522488658 46.04634868 -0.4561062969
24.30773134 148.3260668 -113.9717453
-8.926808658 58.18759288 -103.9717453
-2.391988658 95.15668198 -103.9717453
-2.383018658 147.0565461 -113.9717453
19.98694134 63.53929088 -103.9717453
8.824981342 149.4256586 -103.9717453
-32.67100866 -2.498673155e-05 -34.2400603
-26.06687866 -2.498673155e-05 -48.4688383
-30.70672866 -2.498673155e-05 -62.6848363
-30.84822866 64.16278698 -103.9717453
21.52237134 -1.824131967 1.504980703
-42.11181866 67.62693798 -2.944754297
-0.5696086575 32.04538138 -97.9717453
-16.14672866 112.5173278 -113.9717453
18.90953134 80.65612338 -103.9717453
9.622821342 62.05779308 -113.9717453
-6.206578658 73.12641058 -103.9717453
-14.13140866 71.41213498 -113.9717453
13.20916134 -1.841356627 -113.9717453
-35.68580866 31.45957568 -2.495404297
-11.09399866 149.0050543 -103.9717453
21.71734134 135.349702 -113.9717453
-45.30446866 -2.498673155e-05 -7.597560297
-11.76851866 65.93382988 -0.8229442969
24.61136134 95.18383998 -113.9717453
23.60418134 40.95641708 -103.9717453
36.29516134 -2.498673155e-05 -29.5942663
3.829741342 74.67113888 -113.9717453
-0.8456886575 -1.569790977 -113.9717453
21.62567134 154.6211203 -103.9717453
53.03254134 32.32802288 -103.9717453
51.40902134 -2.498673155e-05 -58.5912153
13.46354134 135.5986783 -103.9717453
10.28975134 61.62600128 0.7195197031
12.31562134 113.665472 -113.9717453
12.09101134 83.28171358 -113.9717453
31.80055134 9.307945363 -103.9717453
10.41916134 29.87473688 -103.9717453
-7.079418658 -2.498673155e-05 -33.6700853
-27.07467866 39.23898518 -103.9717453
-31.78295866 25.26923608 -97.9717453
16.12065134 91.93666468 -103.9717453
-3.852058658 10.64269439 -103.9717453
-14.39944866 93.50634108 -103.9717453
32.39852134 130.5005133 -110.2999793
2.500041342 89.43675648 -113.9717453
44.87816134 27.30077448 3.138176703
11.32003134 41.39377788 0.7915637031
-17.60147866 80.64583838 -106.8852053
34.64945134 48.63512278 2.422915703
-1.926808658 15.99396118 -113.9717453
25.89957134 -2.498673155e-05 -87.9161173
32.82020134 -2.498673155e-05 -64.7255953
-30.07640866 -2.498673155e-05 -75.1052723
-17.60147866 97.99002718 -113.6616443
23.47465134 -2.498673155e-05 -10.0865533
30.86594134 99.37069838 -103.9717453
-14.81320866 133.2795243 -113.9717453
22.31020134 125.8803117 -103.9717453
0.8192813425 51.77707788 -103.9717453
32.39852134 26.47997638 -110.2143273
-2.588938658 130.7843174 -113.9717453
-17.52401866 15.67698848 -103.9717453
-11.04387866 34.85966968 -103.9717453
4.444451342 70.41714778 -103.9717453
-18.30216866 -2.498673155e-05 -57.3010813
36.99880134 6.952435463 2.587197703
-31.61595866 59.45092628 -2.210812297
18.52036134 11.41872028 -113.9717453
-17.33843866 136.3164021 -103.9717453
28.59607134 20.24651618 1.999621703
-22.98375866 -0.3707386867 -1.607251297
21.22018134 60.03918688 -113.9717453
-0.7758386575 -2.498673155e-05 -9.103135297
27.34800134 73.43396278 -103.9717453
-15.66636866 22.56083808 -113.9717453
2.105491342 67.99997498 2.594307703
-0.3738986575 117.8153146 -103.9717453
31.83618134 -0.8062035467 -97.9717453
-13.01509866 153.5166748 -113.9717453
11.86162134 56.77975368 -103.9717453
8.160901342 126.2996751 -113.9717453
15.32687134 25.36017888 1.071749703
8.217901342 7.444125773 -103.9717453
29.30687134 54.11768128 -103.9717453
-33.04887866 4.839873313 -103.9717453
31.99110134 141.7578253 -113.9717453
-16.64535866 -2.498673155e-05 -25.8469033
38.84311134 60.55954808 -103.9717453
22.57606134 81.80284268 -113.9717453
0.04429134246 159.999975 -113.4379093
6.153521342 34.98946478 -113.9717453
-17.60147866 4.653706083 -108.1403213
-22.20243866 6.837221823 -97.9717453
5.041811342 -2.498673155e-05 -39.2826203
-11.79762866 118.0125654 -103.9717453
-9.538588658 35.15824918 -0.6670132969
20.95163134 39.66847388 1.465070703
21.70296134 43.28145308 -113.9717453
21.54404134 110.3830805 -113.9717453
12.75208134 159.999975 -105.1725793
-18.27325866 54.77420198 -97.9717453
41.84755134 44.44885498 -103.9717453
-3.982518658 23.60406448 -0.2784952969
48.00289134 13.02506038 -103.9717453
11.16635134 100.2529953 -103.9717453
40.16960134 7.552211123 -97.9717453
13.75345134 45.76848318 -103.9717453
-10.15981866 0.7321126633 -113.9717453
38.32427134 38.47755838 2.679883703
43.76594134 25.16925828 -97.9717453
22.82047134 -2.498673155e-05 -68.9837763
22.54771134 58.91443458 1.576679703
-34.78690866 45.11595468 -97.9717453
-42.19667866 40.83217748 -103.9717453
28.63479134 24.36072108 -97.9717453
-23.82934866 62.34567888 -97.9717453
-2.160718658 10.31111146 -0.1511022969
-20.03530866 34.86605998 -97.9717453
45.36674134 -2.498673155e-05 -5.522872297
43.38685134 67.99997498 -99.1658093
0.03274134246 21.94715238 -103.9717453
32.39852134 147.5752909 -104.9447243
-1.227548658 39.01901288 -103.9717453
-17.60147866 62.27167158 -112.3470543
27.33858134 -2.498673155e-05 -49.2499553
-23.40343866 11.90500487 -1.636537297
13.86734134 19.81371828 -103.9717453
-40.61726866 40.21699728 -2.840246297
-17.98613866 42.28091828 -1.257723297
14.44723134 67.99997498 -98.3844903
33.00322134 -2.498673155e-05 -17.8643573
32.39852134 41.65854218 -109.8994933
15.07618134 -2.498673155e-05 -6.762639297
56.44566134 41.04373898 -103.9717453
-30.70955866 -2.498673155e-05 -25.5494273
17.15782134 146.2774149 -103.9717453
-10.23567866 -2.498673155e-05 -19.7321783
38.51941134 -1.769327197 2.693473703
-4.635798658 77.26070578 -113.9717453
4.045111342 110.5146149 -113.9717453
-9.811848658 85.95830228 -103.9717453
12.10814134 -2.498673155e-05 -45.3772373
9.465461342 50.01058328 0.6618797031
22.92329134 19.03104788 -113.9717453
27.14547134 -2.498673155e-05 -31.4696883
-31.15411866 18.96570478 -103.9717453
-24.96881866 51.95615968 -1.745999297
-17.60147866 43.82726028 -108.2934203
37.97321134 -2.498673155e-05 -74.9526133
31.32517134 39.50736828 -97.9717453
14.22755134 -2.498673155e-05 -72.9121483
-7.402978658 96.28990348 -113.9717453
12.57092134 -1.550742507 -103.9717453
50.32387134 -2.498673155e-05 -87.2942603
1.054771342 -2.498673155e-05 -90.2786753
27.54430134 13.67504438 -97.9717453
-42.78060866 -2.498673155e-05 -95.4715513
-27.30413866 55.20108478 -103.9717453
-10.79768866 43.21398048 -113.9717453
-9.411758658 106.7505524 -103.9717453
-30.88622866 39.60237938 -2.159785297
21.92516134 159.999975 -110.4776053
0.5875413425 100.0968125 -113.9717453
16.33426134 124.4377453 -113.9717453
18.50991134 89.11814178 -113.9717453
17.19773134 37.90790458 -97.9717453
56.45674134 27.74846238 -97.9717453
-31.37254866 -2.498673155e-05 -14.1642653
-11.61341866 29.77701278 -113.9717453
32.39852134 118.1168518 -113.4418643
-12.98890866 4.180612663 -0.9082822969
47.61145134 -2.498673155e-05 -47.0259953
32.39852134 91.73659748 -110.4587473
-8.471348658 141.4986947 -113.9717453
-34.90305866 -2.498673155e-05 -42.1685243
32.39852134 151.6946737 -113.6890473
-32.72974866 30.82137818 -103.9717453
7.913501342 92.49830648 -103.9717453
-10.98639866 27.21691028 -97.9717453
29.01270134 8.627249773 -113.9717453
52.61621134 -1.312203107 -103.9717453
-33.32086866 67.99997498 -1.706146297
-40.58540866 6.702186003 -2.838017297
32.39852134 17.46773088 -105.9089003
-46.28112866 -2.498673155e-05 -53.5812223
-46.50300866 -2.498673155e-05 -25.5199573
17.20671134 117.3610102 -103.9717453
-11.61153866 130.413673 -103.9717453
-7.921828658 52.80299628 -97.9717453
17.18161134 58.43221128 -97.9717453
-35.30992866 23.35660238 -2.469120297
47.84546134 48.98028758 3.345669703
22.61454134 -2.498673155e-05 -59.2012113
-3.204908658 -2.498673155e-05 -52.2710753
-39.44481866 -2.498673155e-05 -29.2982473
22.60344134 22.26630398 -103.9717453
-15.16374866 46.01334908 -97.9717453
-5.731848658 27.62294548 -103.9717453
35.23168134 24.65445718 2.463628703
6.295591342 -2.498673155e-05 -66.9657343
-4.826678658 0.7782114233 -103.9717453
-41.21234866 14.84046818 -97.9717453
2.089601342 11.64361882 -97.9717453
15.81525134 -2.498673155e-05 -26.7894463
50.08706134 17.60834258 -97.9717453
-9.106028658 58.57931548 -0.6367652969
26.08562134 29.52577048 -103.9717453
42.51512134 -2.498673155e-05 -83.5550093
-31.11018866 -2.498673155e-05 -82.8492423
6.518831342 139.150663 -103.9717453
26.90471134 44.68144798 1.881350703
-2.266278658 79.83924688 -103.9717453
16.01939134 34.10753148 -113.9717453
32.39852134 60.11879488 -108.2345303
-4.510308658 60.28134578 -97.9717453
-11.86441866 7.734660783 -103.9717453
25.80299134 0.7301175133 -103.9717453
36.96634134 67.99997498 -103.7653953
13.80709134 26.52674328 -97.9717453
47.60719134 61.10575078 -103.9717453
-18.81568866 -2.498673155e-05 -97.4950633
-8.298748658 159.999975 -109.1410693
0.2451413425 47.07755708 -97.9717453
16.27003134 32.93615338 1.137701703
21.05717134 102.6828697 -103.9717453
34.98765134 -2.498673155e-05 -38.5171613
-18.99520866 -2.498673155e-05 -45.6648693
6.170151342 45.93471888 -103.9717453
47.89377134 -2.498673155e-05 -75.5771293
-17.60147866 88.78292098 -108.9312083
9.988611342 11.68256426 -97.9717453
-3.284038658 66.17295578 -103.9717453
45.13822134 9.085832713 3.156360703
-42.43476866 58.92593658 -2.967338297
-17.49518866 113.137823 -103.9717453
54.97418134 10.37025322 -103.9717453
-37.10400866 11.10006035 -103.9717453
13.67411134 -2.498673155e-05 0.5480837031
7.264881342 -2.498673155e-05 -20.5820053
3.410041342 151.6817798 -113.9717453
-7.017818658 21.37242908 -113.9717453
40.14991134 -0.02573522673 -97.9717453
-17.60147866 83.23965778 -113.8087183
-16.26727866 58.94765928 -103.9717453
26.87864134 131.6504034 -103.9717453
3.907811342 -2.498673155e-05 -81.9963353
5.668421342 35.46660598 -103.9717453
28.80618134 -1.288213127 2.014257703
46.25971134 29.57094428 -103.9717453
-25.81509866 21.04453758 -97.9717453
-17.60147866 123.2589644 -113.4704133
-6.127098658 49.06777078 -103.9717453
35.36330134 16.98769908 2.472832703
7.180481342 -2.498673155e-05 -10.8443343
9.133401342 109.0051267 -103.9717453
-24.78588866 -2.498673155e-05 -31.9411043
28.38726134 11.08975773 1.985019703
14.90800134 10.21457242 -103.9717453
14.01053134 148.5874026 -113.9717453
-41.72701866 -2.498673155e-05 -46.0851493
17.73784134 24.06631598 -113.9717453
-11.26449866 -2.498673155e-05 -58.7856323
-3.301518658 102.7644977 -103.9717453
-34.24278866 -2.498673155e-05 -69.2639223
-7.383568658 -2.498673155e-05 -90.9813393
32.39852134 72.05642868 -110.4898413
2.332741342 152.4570342 -103.9717453
46.68754134 2.998715203 -97.9717453
1.934651342 131.6659851 -103.9717453
30.01409134 58.62789688 -97.9717453
-17.36788866 145.6711362 -103.9717453
20.34568134 -2.498673155e-05 -17.8949793
-9.695508658 56.70305098 -113.9717453
-6.911568658 8.235538233 -113.9717453
12.46632134 105.2212864 -113.9717453
-1.874248658 124.7261831 -103.9717453
6.775021342 159.999975 -108.9424233
26.89313134 88.50543128 -113.9717453
-2.599288658 3.277588813 -0.1817702969
-17.53843866 -2.498673155e-05 -74.9699113
9.476351342 47.51515468 -97.9717453
52.51904134 47.80057968 -103.9717453
6.832341342 30.51706998 -97.9717453
54.33321134 63.81013138 -103.9717453
15.64515134 -2.498673155e-05 -54.3272083
22.12667134 56.87933468 -103.9717453
13.04385134 71.95946458 -103.9717453
31.93366134 121.6830599 -103.9717453
20.70877134 136.9118342 -103.9717453
4.919321342 5.299329773 -97.9717453
49.34493134 14.62291438 3.450523703
-2.244808658 -2.498673155e-05 -97.5808573
-26.68154866 -2.498673155e-05 -69.0701523
32.39852134 107.804333 -104.2020253
-24.20590866 13.90188078 -103.9717453
-15.26428866 7.872221813 -97.9717453
12.93608134 41.44005738 -113.9717453
7.381361342 64.20359118 -103.9717453
29.98003134 159.6521426 -103.9717453
-34.83677866 17.72264728 -97.9717453
6.467651342 15.11429978 -103.9717453
-27.17098866 -1.977808317 -97.9717453
22.93291134 -2.498673155e-05 -78.0610013
-36.05366866 -1.477939107 -97.9717453
-17.60147866 36.58982838 -104.4594673
-26.34804866 32.36315858 -97.9717453
5.086631342 28.19719318 -113.9717453
19.69900134 4.734603003 -113.9717453
5.445441342 0.6574105133 -103.9717453
-11.56925866 142.1523645 -103.9717453
27.34240134 -2.498673155e-05 -4.478878297
48.12125134 20.05969398 -103.9717453
-11.99999866 45.72385408 -103.9717453
-18.86485866 -2.498673155e-05 -10.2939803
-5.854198658 155.9929437 -113.9717453
22.28726134 17.88267448 -97.9717453
29.86279134 6.962676483 -97.9717453
37.14455134 5.258534963 -103.9717453
5.991551342 56.42447008 -113.9717453
11.21440134 16.14804148 0.7841767031
51.94214134 51.86627468 -97.9717453
-43.19915866 47.66099318 -3.020789297
-3.361538658 -2.498673155e-05 -77.7447543
26.63010134 64.07815458 -103.9717453
25.75098134 114.2320303 -103.9717453
12.46237134 -2.498673155e-05 -35.4467863
-10.00394866 155.5485962 -103.9717453
-21.24981866 29.04522308 -1.485941297
9.153811342 67.99997498 2.115259703
-4.319868658 -2.498673155e-05 -45.7175533
3.633361342 145.330367 -103.9717453
-17.60147866 153.0076023 -104.8229693
56.28075134 38.37357028 -97.9717453
53.51986134 -2.498673155e-05 -93.0087153
-35.72863866 23.87743828 -103.9717453
14.58459134 139.3683731 -113.9717453
-2.438068658 111.1310506 -113.9717453
48.90017134 40.05686788 -103.9717453
15.94588134 127.2436063 -103.9717453
31.94285134 44.30679128 -103.9717453
-7.074148658 -2.498673155e-05 -25.3930843
-0.8146686575 16.64967358 -0.05697729693
16.23300134 26.68633428 -103.9717453
-47.61376866 19.29341598 -3.329488297
32.39852134 -0.4106122167 -104.3993983
8.190191342 34.08389678 0.5727037031
-11.97532866 117.3936722 -113.9717453
16.33309134 51.63026168 -103.9717453
25.13105134 51.04179928 -113.9717453
-17.88662866 15.11540368 -1.250765297
-17.60147866 20.93749648 -107.5711683
12.20404134 12.27376188 -113.9717453
54.55176134 12.42345038 -97.9717453
36.52254134 54.65760558 -103.9717453
48.92403134 67.99997498 -103.0921173
32.39852134 136.620435 -108.6606453
-12.81521866 57.98295728 -97.9717453
7.974401342 69.90247248 -113.9717453
18.62345134 144.2776905 -113.9717453
0.3027013425 -2.498673155e-05 -71.9515343
8.692971342 -2.498673155e-05 -4.586598297
7.208731342 93.61615548 -113.9717453
2.077711342 39.78490418 -113.9717453
-25.83639866 40.67562628 -97.9717453
28.67766134 35.25955278 -103.9717453
-20.67831866 17.41868808 -97.9717453
38.04546134 -2.498673155e-05 -11.9178383
28.49560134 38.90360768 -113.9717453
24.18470134 27.44430978 -113.9717453
10.32788134 59.18347758 -97.9717453
22.37609134 19.87204048 1.564678703
46.54879134 -2.498673155e-05 -23.1085413
24.26819134 39.43798108 -97.9717453
-8.264368658 125.6483928 -113.9717453
3.393391342 144.812578 -113.9717453
-14.92754866 92.43502838 -113.9717453
21.42619134 154.9478826 -113.9717453
53.64802134 -2.498673155e-05 -73.3888423
31.41625134 4.397700713 2.196827703
-10.38935866 64.15882338 -103.9717453
7.455481342 51.93696428 -103.9717453
14.61397134 44.18010398 -97.9717453
-15.82583866 5.221552413 -113.9717453
-12.72423866 101.676236 -113.9717453
42.87332134 43.83029088 -97.9717453
30.67177134 58.88797568 -113.9717453
-22.72643866 7.900124833 -103.9717453
26.15462134 -2.498673155e-05 -15.9944263
-25.16425866 -2.498673155e-05 -7.295982297
-41.19005866 41.25036398 -97.9717453
-0.9932686575 -2.498673155e-05 -39.9888453
30.83736134 96.43683998 -113.9717453
4.803401342 18.49426088 -113.9717453
20.92149134 95.64563288 -103.9717453
9.779011342 130.7795645 -103.9717453
12.94518134 79.56671918 -103.9717453
16.93546134 66.06401508 -113.9717453
13.93691134 63.87331688 -103.9717453
-1.789898658 58.65079988 -113.9717453
-8.305358658 22.14495568 -103.9717453
3.773101342 122.5686984 -103.9717453
-0.8487186575 15.97412538 -103.9717453
38.85589134 -2.498673155e-05 -64.6473613
38.22840134 16.82825248 -103.9717453
26.34954134 150.870136 -103.9717453
-16.50096866 -0.7092275267 -1.153930297
2.351981342 6.097410633 -103.9717453
0.8888413425 5.526588323 -113.9717453
18.43780134 104.7127434 -113.9717453
26.18786134 53.80805828 -97.9717453
32.39852134 66.08156288 -107.8856003
-3.149558658 67.72091288 -0.2202482969
17.38896134 130.3103727 -113.9717453
-26.71338866 -2.498673155e-05 -54.3997123
-41.00426866 19.78983888 -2.867307297
14.87904134 59.28275758 -113.9717453
-12.86344866 78.56752888 -103.9717453
42.23473134 34.54040388 -103.9717453
-17.60147866 74.99588348 -110.7540163
31.48821134 123.9571 -113.9717453
4.484171342 35.95225928 -97.9717453
14.74912134 53.01290628 -113.9717453
-41.05923866 33.88811668 -2.871151297
14.90908134 67.20777338 1.042534703
-6.343188658 145.4970216 -103.9717453
-9.040738658 51.36536668 -0.6321992969
31.42274134 -2.498673155e-05 -53.4888143
5.878951342 21.32655648 -103.9717453
2.671101342 124.2078039 -113.9717453
-19.47974866 67.99997498 0.3631317031
47.33081134 -2.498673155e-05 -54.3827173
32.39852134 0.02770211327 -110.2245613
0.2319013425 33.34575358 -103.9717453
0.08631134246 74.51248978 -103.9717453
11.12664134 53.41730478 -97.9717453
5.247401342 58.74061118 0.3669237031
-9.029578658 -2.498673155e-05 -12.6889343
-9.071988658 134.040123 -113.9717453
15.90513134 32.46295368 -103.9717453
-21.17358866 29.19568838 -97.9717453
-37.54808866 25.64558228 -97.9717453
33.70572134 34.24603438 -97.9717453
14.82859134 86.31048738 -103.9717453
-14.36482866 33.80292028 -97.9717453
-13.06032866 79.68915598 -113.9717453
-12.69796866 48.64347938 -113.9717453
-12.17379866 -2.498673155e-05 -29.4603303
32.39852134 86.05213008 -111.2780303
6.042301342 57.49992758 -103.9717453
8.680971342 23.94747678 -97.9717453
4.579891342 116.2197723 -113.9717453
21.73970134 76.13668398 -113.9717453
54.12901134 22.52543828 -97.9717453
4.209951342 83.98214898 -113.9717453
-28.48381866 -2.470862107 -1.991792297
30.04932134 18.81067268 -97.9717453
-14.33095866 27.98405318 -103.9717453
41.98756134 -2.498673155e-05 -29.4429753
23.28991134 115.7978686 -113.9717453
-17.60147866 68.47267198 -110.5580493
-11.67136866 18.11374698 -113.9717453
-17.83259866 22.65174648 -1.246986297
-17.60147866 119.9844069 -107.7149943
17.21662134 60.80910008 1.203892703
12.31283134 154.4766541 -103.9717453
-1.804898658 85.48496398 -103.9717453
-17.60147866 45.51751158 -113.6908023
-11.65617866 71.62006978 -103.9717453
32.39852134 53.36291978 -109.1772583
20.30836134 8.575755643 -103.9717453
28.12930134 14.33618108 -103.9717453
-16.27977866 62.57091498 -1.138402297
26.84174134 108.4703869 -113.9717453
17.90735134 -2.498673155e-05 -36.8728933
5.650141342 50.83091168 -113.9717453
2.566681342 97.75656548 -103.9717453
3.302661342 159.999975 -104.5840703
13.96985134 3.676730823 -113.9717453
19.11421134 44.28595248 -103.9717453
18.20292134 94.66864148 -113.9717453
25.91949134 64.03821258 -97.9717453
-28.14336866 67.99997498 -101.0115873
-6.361588658 41.12523778 -103.9717453
-0.9353786575 141.3432443 -113.9717453
26.34019134 25.29244818 1.841874703
-5.005228658 114.8035403 -103.9717453
28.16576134 155.2326845 -113.9717453
-9.075738658 94.94389978 -103.9717453
31.23400134 -2.498673155e-05 -86.5359943
21.55386134 -2.498673155e-05 -83.3911783
32.39852134 31.42297338 -112.6279993
-38.03496866 -2.498673155e-05 -14.8201373
49.24428134 5.441460743 3.443485703
28.75854134 44.39308818 -113.9717453
-0.7090586575 117.6875435 -113.9717453
-34.91899866 -2.498673155e-05 -59.1660313
-5.057948658 53.78526338 -113.9717453
-17.60147866 27.11989688 -111.6290473
-12.40352866 62.77445508 -113.9717453
-7.984878658 110.040178 -113.9717453
55.43168134 -1.247135137 -97.9717453
-7.197968658 68.00648668 -113.9717453
21.19496134 99.44468828 -113.9717453
-7.533358658 14.48397058 -113.9717453
27.71985134 20.40387458 -103.9717453
5.021651342 117.1335397 -103.9717453
-17.60147866 117.8301657 -113.7684433
-17.60147866 9.976864353 -112.0386033
22.59725134 65.28726468 -113.9717453
49.43421134 62.48975238 -97.9717453
1.975411342 63.17886078 0.1381237031
22.79185134 118.7555301 -103.9717453
-2.793628658 88.34469848 -113.9717453
-17.60147866 97.82616738 -104.4728013
-26.86228866 -2.498673155e-05 -92.9641543
33.08555134 11.28653404 -97.9717453
-8.615518658 7.320833413 -0.6024652969
-15.01698866 31.24142588 -1.050100297
3.069971342 79.06955148 -103.9717453
20.01725134 49.35162778 -113.9717453
-15.99338866 158.0033359 -113.9717453
12.03801134 130.753864 -113.9717453
10.40152134 -2.498673155e-05 -58.2567773
11.00311134 144.5369844 -103.9717453
-21.22071866 40.48526878 -103.9717453
-17.60147866 17.54786518 -111.6958693
22.99781134 130.1696211 -113.9717453
16.21208134 2.341991193 -103.9717453
-3.294578658 72.10504108 -113.9717453
-9.090968658 149.9396685 -113.9717453
1.996431342 133.428428 -113.9717453
-13.08119866 18.55027448 -103.9717453
28.84816134 78.49716028 -103.9717453
-21.91086866 -2.498673155e-05 -27.5169293
10.95178134 144.2918122 -113.9717453
-5.632028658 35.90348098 -103.9717453
23.30051134 9.199717083 -113.9717453
23.17174134 67.99997498 -103.3201853
11.94107134 117.2599083 -103.9717453
7.429911342 134.2057004 -113.9717453
2.046231342 66.29939338 -113.9717453
30.30413134 55.34082828 2.119060703
35.82811134 47.58032658 -97.9717453
46.23158134 -2.498673155e-05 -59.5107943
-10.09404866 53.07464298 -103.9717453
26.64206134 -0.2420412467 -97.9717453
52.88975134 27.11099468 -103.9717453
14.39972134 76.76728408 -113.9717453
32.39852134 31.62498458 -104.1785773
-2.075118658 14.75373938 -97.9717453
7.427451342 -2.498673155e-05 -93.4416313
-15.50969866 41.86900818 -103.9717453
0.5541613425 53.02981018 0.03874070307
26.57008134 15.35190568 -113.9717453
1.923911342 113.0038147 -103.9717453
29.42367134 74.57930658 -113.9717453
25.20005134 48.44462298 -97.9717453
26.12791134 97.33628868 -103.9717453
-17.60147866 155.1383903 -109.5180803
32.39852134 131.8388843 -105.3229803
-28.70278866 7.608430743 -103.9717453
-0.6031586575 56.72884068 -103.9717453
27.54398134 159.999975 -108.8381143
-6.591318658 129.2722654 -103.9717453
-6.336328658 150.9672142 -103.9717453
32.48542134 -2.498673155e-05 -71.7108773
-14.70639866 83.72399858 -103.9717453
27.47890134 145.3884621 -103.9717453
1.734541342 65.11434338 -103.9717453
-36.63797866 -2.498673155e-05 -6.501783297
23.11474134 77.73572528 -103.9717453
-5.021518658 3.480711143 -113.9717453
17.89919134 -2.498673155e-05 -67.5904443
48.09601134 -2.498673155e-05 -80.6867113
44.87354134 36.49796698 3.137853703
-1.753898658 64.58267688 -97.9717453
-13.22099866 124.9669541 -103.9717453
18.88205134 29.88312588 -113.9717453
-17.60147866 57.71474668 -110.0630423
-8.842698658 90.00794488 -113.9717453
-17.60147866 0.5199932333 -111.1212223
45.14000134 16.39606918 -97.9717453
7.806631342 44.54278378 -113.9717453
1.916701342 136.999372 -103.9717453
16.16013134 -1.478432627 -97.9717453
21.15897134 85.19039948 -103.9717453
42.50890134 52.76469828 -97.9717453
-30.24791866 -2.498673155e-05 -9.230579297
16.18813134 15.27847388 -103.9717453
-8.374638658 12.87020918 -103.9717453
-17.60147866 100.4716428 -109.2779153
10.43588134 32.33708588 -113.9717453
-16.31816866 10.78673684 -103.9717453
26.69347134 134.6153677 -113.9717453
18.33521134 141.3875093 -103.9717453
32.39852134 101.6235576 -109.6070263
46.48799134 46.31654878 -103.9717453
-17.60147866 114.4611267 -109.6057243
17.41008134 20.22666318 1.217420703
15.87600134 19.43611138 -113.9717453
-27.27990866 50.21244748 -103.9717453
1.709051342 92.33081348 -103.9717453
-17.60147866 148.3513374 -110.4383973
32.39852134 143.884329 -108.2734823
3.628621342 23.44966758 -113.9717453
3.987521342 1.645908813 -113.9717453
-36.89186866 -2.498673155e-05 -65.0642103
10.18035134 -2.498673155e-05 -49.9512193
20.81202134 0.5034385733 -103.9717453
-3.452978658 24.87699658 -113.9717453
-17.60147866 52.64634878 -109.3610793
16.89068134 115.5536942 -113.9717453
23.58731134 -2.498673155e-05 -28.0293553
-17.13035866 72.73681388 -103.9717453
28.92971134 19.89356308 -113.9717453
-16.31058866 -2.498673155e-05 -91.0696863
-15.22916866 -2.498673155e-05 -65.0473143
29.73304134 92.88715938 -103.9717453
32.39852134 50.29257318 -104.2894273
-4.488768658 61.39524708 -103.9717453
2.583121342 0.8870459433 -97.9717453
2.415001342 45.47793208 -113.9717453
-17.60147866 107.8383001 -113.5591293
16.00065134 -2.498673155e-05 -42.3725753
32.39852134 110.2114477 -108.4793923
3.111221342 138.5683492 -113.9717453
32.39852134 109.4501239 -113.9147523
-12.71993866 159.999975 -105.6160993
-36.90657866 15.99702348 -103.9717453
31.53232134 137.7497496 -103.9717453
33.61074134 10.47095035 2.350281703
9.406361342 159.999975 -113.0617473
27.06865134 67.25578648 -113.9717453
10.40468134 42.21259718 -103.9717453
12.12211134 94.96625488 -103.9717453
11.32757134 -2.498673155e-05 -24.8816043
32.39852134 72.93926288 -105.6974283
36.81342134 -2.498673155e-05 -43.0337543
-3.653428658 93.18073698 -113.9717453
-17.60147866 31.03013878 -106.5600293
27.81963134 144.2664125 -113.9717453
46.06770134 -1.827285357 -97.9717453
-12.51976866 137.38702 -103.9717453
16.73150134 109.7141397 -113.9717453
11.52636134 66.52739188 -113.9717453
-7.550258658 63.09700208 -113.9717453
1.451031342 32.73233388 -113.9717453
32.39852134 46.50658788 -109.8785293
-32.60115866 44.13377158 -2.279704297
10.20234134 37.17650548 -103.9717453
28.99297134 101.1241642 -113.9717453
-4.894558658 5.604497973 -103.9717453
-17.60147866 139.5089718 -112.0953573
-6.364968658 45.09823838 -113.9717453
-8.006968658 -1.943994847 -97.9717453
-25.84091866 57.97487588 -97.9717453
36.52845134 57.28748208 -97.9717453
-16.56508866 32.53400298 -113.9717453
-8.141508658 159.9789772 -103.9717453
30.56232134 153.1780439 -103.9717453
2.057291342 79.13139838 -113.9717453
-2.284628658 139.3147826 -103.9717453
32.39852134 154.2832408 -109.6576463
-39.20570866 11.28821522 -2.741540297
-7.418808658 30.39382158 -97.9717453
27.03576134 5.341311853 -103.9717453
28.35063134 159.999975 -113.8374423
9.603941342 74.38101848 -113.9717453
23.07826134 55.65347388 -113.9717453
24.40683134 4.042312073 -113.9717453
29.49765134 26.76379248 -113.9717453
18.75570134 0.07794043327 -113.9717453
-13.22599866 145.8791683 -113.9717453
22.13556134 131.4522156 -103.9717453
5.077561342 98.55725098 -113.9717453
26.07810134 78.05712428 -113.9717453
26.09190134 60.09252408 -113.9717453
17.98238134 82.94407578 -113.9717453
10.34932134 68.07359648 -103.9717453
-17.60147866 38.00727598 -109.3407353
-27.31760866 24.75647328 -1.910243297
-12.92367866 126.4128904 -113.9717453
39.35112134 12.74657998 2.751687703
16.88598134 67.55414138 -103.9717453
-35.53139866 63.66892228 -103.9717453
6.096041342 28.01523378 -103.9717453
23.32186134 105.3527378 -113.9717453
-9.117568658 -1.142069557 -103.9717453
-7.226218658 119.1048793 -103.9717453
27.38088134 126.979057 -103.9717453
7.515771342 39.85602118 -113.9717453
19.18684134 121.7644324 -103.9717453
-37.27635866 -2.498673155e-05 -82.8600523
30.93683134 61.42301958 -103.9717453
-30.66464866 -2.498673155e-05 -47.5576463
28.73801134 83.34525798 -103.9717453
37.81706134 60.19626668 2.644416703
7.126121342 88.68938408 -113.9717453
21.82307134 146.6817608 -103.9717453
-7.743248658 101.2860627 -103.9717453
30.79061134 68.08372558 -103.9717453
32.39852134 5.489159483 -113.2133083
23.67344134 52.46606358 -103.9717453
27.72221134 49.72148468 -103.9717453
-17.60147866 134.6650831 -110.4899873
-6.584258658 81.50397578 -113.9717453
23.69743134 33.84698528 -97.9717453
10.54400134 152.3082812 -113.9717453
-17.60147866 14.00233738 -108.6776183
39.47991134 -2.498673155e-05 -33.3540783
8.830331342 79.97736218 -113.9717453
18.54947134 39.87469698 -113.9717453
-35.24552866 -2.498673155e-05 -46.8270093
2.150161342 159.999975 -109.2635753
-12.62378866 35.65347388 -113.9717453
17.01291134 131.748275 -103.9717453
20.90316134 120.6128304 -113.9717453
14.83486134 103.0677832 -103.9717453
-5.156128658 33.36277278 -113.9717453
-17.28540866 127.9261881 -113.9717453
-8.169318658 139.0319588 -103.9717453
-5.732178658 54.85873488 -103.9717453
18.83097134 158.750538 -113.9717453
27.69896134 -2.498673155e-05 -44.6628873
9.699791342 85.05118278 -103.9717453
-2.912918658 44.15904348 -103.9717453
32.39852134 135.0794003 -112.9875863
-18.92395866 3.265723693 -103.9717453
22.33741134 26.84158868 -103.9717453
-17.60147866 141.4760323 -105.7912693
9.583141342 2.592794223 -103.9717453
32.39852134 148.0597231 -110.9227313
26.23396134 58.86529208 -103.9717453
32.39852134 21.95867928 -106.6814523
5.968341342 44.60712178 -97.9717453
12.19777134 139.9717259 -103.9717453
-13.88055866 88.98406558 -103.9717453
8.187711342 106.7408736 -113.9717453
-44.40667866 36.93935128 -3.105227297
32.39852134 35.69657498 -106.5255123
49.49443134 6.554114043 -97.9717453
32.39852134 76.50718978 -109.6989193
-46.81205866 -2.498673155e-05 -30.3708133
24.47505134 10.30459093 -103.9717453
32.39852134 12.23301398 -107.3429143
-17.60147866 48.43204548 -107.7842203
-6.750028658 40.61696528 -113.9717453
-17.60147866 110.0278576 -107.2148573
0.8823213425 155.3752713 -113.9717453
16.05770134 76.35685198 -103.9717453
-10.32138866 29.39648988 -0.7217512969
-7.387828658 111.0256862 -103.9717453
-7.211888658 -2.498673155e-05 -38.1270793
4.288151342 60.54351978 -113.9717453
8.961141342 104.5535526 -103.9717453
-10.29869866 76.19585968 -113.9717453
-31.24589866 42.41756448 -97.9717453
-12.25153866 159.999975 -112.6271513
18.60424134 157.8589151 -103.9717453
17.52477134 22.29819188 -103.9717453
8.596411342 -2.498673155e-05 -78.3920933
-24.97564866 53.42021028 -97.9717453
33.85822134 16.58535758 -97.9717453
7.347131342 80.14524288 -103.9717453
-1.458498658 125.7448399 -113.9717453
-42.69329866 29.82360138 -2.985415297
30.02175134 130.293707 -113.9717453
-4.315398658 50.32859108 -97.9717453
53.64679134 37.69163388 -103.9717453
14.01961134 61.51001768 -97.9717453
12.36420134 122.6313549 -113.9717453
40.69857134 4.665582443 2.845910703
-17.36313866 63.12178888 -103.9717453
18.02184134 7.820277963 1.260199703
18.37624134 40.03842928 -103.9717453
-28.19740866 61.57165608 -97.9717453
2.207331342 47.59341778 -103.9717453
-28.50801866 62.40638378 -1.993484297
23.83103134 36.69946708 -103.9717453
-30.58139866 -2.498673155e-05 -87.0736463
26.32484134 60.84127558 1.840802703
51.19762134 -2.498673155e-05 -96.5599213
-5.072488658 15.85692078 -103.9717453
9.737441342 12.47332348 -103.9717453
55.84372134 31.89088498 -97.9717453
3.975631342 61.60201778 -103.9717453
-9.495188658 4.311150803 -103.9717453
42.17505134 -2.498673155e-05 1.842949703
33.76496134 -2.498673155e-05 -11.1087033
-34.89123866 22.47752648 -97.9717453
-21.02988866 31.69367508 -103.9717453
-43.24212866 35.25322448 -97.9717453
-17.32396866 54.96806728 -103.9717453
-12.55603866 16.93880158 -97.9717453
27.68397134 40.83019208 -103.9717453
32.19004134 -2.498673155e-05 -35.5453803
-35.54565866 -2.498673155e-05 -30.5034073
1.489281342 -2.498673155e-05 -85.2778963
37.37728134 -2.498673155e-05 -78.9785223
-38.55703866 -2.498673155e-05 -33.2624643
-3.949328658 22.67036638 -103.9717453
3.070021342 17.29862038 -103.9717453
-1.748378658 57.33604638 -97.9717453
16.93545134 55.60543398 -103.9717453
-46.38874866 59.82658828 -3.243826297
-15.23921866 45.16754208 -1.065639297
3.712901342 12.25394688 -103.9717453
-6.810388658 55.37386808 -0.4762392969
-37.09929866 2.326730603 -97.9717453
10.59175134 31.71442198 -97.9717453
-15.78223866 -2.498673155e-05 -47.9547563
-12.80486866 61.05197458 -103.9717453
-43.23262866 -2.498673155e-05 -28.2558623
-4.901048658 13.10376408 -0.3427252969
53.38860134 8.263301033 -97.9717453
47.66528134 33.20690278 -103.9717453
6.714041342 9.572767453 -97.9717453
-45.13107866 56.12159248 -3.155881297
-23.59497866 66.21747108 -97.9717453
-28.99655866 67.99997498 -1.638159297
46.34088134 64.76000488 -103.9717453
-0.2092086575 29.50445598 -103.9717453
-42.35360866 2.905921973 -97.9717453
-10.57744866 16.31431798 -0.7396572969
-17.60147866 24.77802318 -104.6018163
9.633301342 -2.498673155e-05 -74.2123793
0.8070913425 -2.498673155e-05 -75.7310573
35.03666134 65.44761628 -97.9717453
48.62430134 -2.498673155e-05 -68.2076983
16.34107134 -2.498673155e-05 -16.6858383
47.84625134 39.21043948 -97.9717453
41.57966134 19.69114648 -97.9717453
-8.015528658 65.49513478 -0.5605102969
37.40025134 39.92484238 -103.9717453
29.92273134 28.23773978 2.092390703
38.43634134 4.202452613 -97.9717453
-35.78895866 -2.498673155e-05 -36.3325563
28.48858134 41.96587398 -97.9717453
15.50208134 -2.498673155e-05 -46.9747863
23.71140134 -2.498673155e-05 -5.411094297
7.157051342 31.69531968 -103.9717453
-40.93681866 62.34624858 -2.862590297
-0.5077786575 24.93963238 -0.03551729693
10.89860134 2.453605483 0.7620937031
51.92349134 60.99933828 -103.9717453
-27.70541866 62.21855298 -103.9717453
-11.36080866 67.95865178 -103.9717453
-20.68590866 17.52768168 -103.9717453
35.44894134 -0.2384982867 -97.9717453
23.46528134 -2.498673155e-05 -19.8072673
36.72805134 20.09907258 -97.9717453
4.109411342 53.26667208 -103.9717453
-33.41569866 -2.498673155e-05 -76.4215803
-17.47409866 58.37635238 -1.221918297
-2.637778658 -2.498673155e-05 -86.9014113
-39.53674866 -2.498673155e-05 -49.0766793
25.41404134 16.63863008 -103.9717453
40.28583134 -2.498673155e-05 -94.0269873
-49.77820866 40.65613628 -3.480840297
-26.60965866 13.39537368 -1.860738297
-7.145688658 -2.498673155e-05 -81.4099293
-13.09465866 1.766950893 -97.9717453
1.903921342 -2.498673155e-05 -17.2707843
16.72516134 50.98046068 1.169527703
32.80034134 -2.498673155e-05 -94.7385973
18.13613134 -1.123900047 1.268191703
48.92690134 27.36323658 -103.9717453
49.65270134 -2.498673155e-05 -24.6410803
-43.67292866 -2.498673155e-05 -21.7769723
-34.20372866 38.78008198 -2.391767297
-37.04599866 51.77775378 -2.590518297
47.90883134 -0.4157191967 -103.9717453
26.51557134 -2.498673155e-05 -0.1217662969
38.75942134 -2.498673155e-05 -82.0550853
-19.21649866 1.280628883 -1.343758297
51.79530134 14.34539728 -97.9717453
-34.59679866 27.23803768 -97.9717453
20.39957134 34.39374918 -97.9717453
-46.53540866 41.42941668 -3.254082297
24.85118134 20.01563298 -97.9717453
9.386011342 36.59251938 -97.9717453
13.26665134 60.18080958 0.9276847031
5.399211342 67.24349848 -103.9717453
-33.01588866 29.50980598 -2.308705297
3.353741342 -2.498673155e-05 -94.8820273
13.96384134 -2.498673155e-05 -82.6674863
16.91591134 34.63385168 -97.9717453
-11.82559866 62.65320958 -0.8269362969
-20.20525866 -2.074983757 -1.412959297
-28.22886866 10.828934 -103.9717453
20.52642134 -2.498673155e-05 -56.7094103
4.951721342 33.91022768 0.3462487031
9.273821342 49.25782178 -103.9717453
-6.014248658 59.51579808 -0.4205672969
-12.65448866 55.01493048 -103.9717453
23.16465134 -2.498673155e-05 -72.1639763
19.14217134 67.99997498 -101.7492343
-0.3617986575 35.23055258 -97.9717453
12.03139134 27.12188958 -103.9717453
27.19475134 -2.498673155e-05 -7.660183297
23.88329134 56.00365948 -97.9717453
-28.90749866 21.19447478 -103.9717453
29.73970134 -2.498673155e-05 -78.9413263
-20.95914866 41.22882588 -1.465616297
28.75717134 4.014369683 -97.9717453
2.926221342 57.09173228 -103.9717453
-27.44631866 67.25005418 -103.9717453
19.83651134 -2.498673155e-05 -39.3340343
-2.552148658 -2.498673155e-05 -55.3155743
25.04313134 -2.498673155e-05 -46.2875723
12.60140134 48.65885938 -103.9717453
-8.005288658 62.17421778 -103.9717453
-46.21063866 -2.498673155e-05 -37.6647763
21.91344134 45.57026458 -103.9717453
-17.55428866 51.78214918 -97.9717453
50.99794134 21.12199198 -103.9717453
40.13666134 4.624787713 -103.9717453
55.97013134 13.25626998 -103.9717453
52.02762134 20.31608568 -97.9717453
-34.73419866 13.00328568 -103.9717453
-14.31984866 42.28127658 -1.001351297
11.85358134 45.67905948 -97.9717453
44.97469134 -2.498673155e-05 2.875778703
3.503151342 44.64073368 -103.9717453
-16.22869866 30.71701008 -103.9717453
26.24108134 33.60532328 -103.9717453
-14.78879866 67.64940788 -103.9717453
56.85156134 38.14158838 -103.9717453
35.44384134 -2.498673155e-05 -19.4727093
49.25634134 64.87049108 -103.9717453
4.833931342 1.153282733 0.3380117031
-26.02181866 -2.498673155e-05 -66.2501013
-3.971218658 55.85110438 -0.2777052969
31.47322134 22.31313548 -103.9717453
42.34363134 -2.498673155e-05 -92.0054793
-25.77897866 -2.498673155e-05 -51.3207813
-15.38710866 13.75481878 -1.075981297
10.01160134 15.29077168 -103.9717453
30.15441134 -2.498673155e-05 -49.3560063
-32.31962866 -2.498673155e-05 -89.2799783
26.08631134 -2.498673155e-05 -26.7518703
-31.43309866 28.33305948 -103.9717453
-31.05360866 67.99997498 0.2646837031
33.80201134 16.01261828 -103.9717453
-29.03290866 10.08683602 -97.9717453
18.98963134 47.06408738 -103.9717453
-1.581668658 22.21467268 -0.1106112969
-26.77021866 57.92601858 -103.9717453
26.12371134 -2.498673155e-05 -90.6780563
-20.89010866 55.56156638 -97.9717453
34.38357134 67.16954988 -103.9717453
34.12772134 -2.498673155e-05 -15.3890953
26.29663134 12.80641318 1.838829703
8.631711342 -2.498673155e-05 -24.9468883
-29.48403866 23.86435188 -97.9717453
-24.94006866 51.53834588 -103.9717453
-39.71398866 31.55700858 -97.9717453
-6.721708658 38.46598988 -103.9717453
21.01690134 -2.498673155e-05 -0.3912332969
13.03313134 -2.498673155e-05 -54.8998463
-29.31826866 -2.498673155e-05 -91.9154603
-9.602318658 54.87639028 -97.9717453
-2.145798658 48.25323858 -97.9717453
42.86779134 10.46071025 2.997597703
3.724141342 9.548422613 -97.9717453
-41.18353866 -2.498673155e-05 -31.3006423
-9.962158658 50.43309778 -103.9717453
-42.73086866 -0.8355995767 -97.9717453
1.368741342 38.60753248 -103.9717453
-34.11354866 41.40612888 -2.385461297
14.41680134 57.38976168 -103.9717453
16.43263134 -0.2749555267 -103.9717453
30.67105134 30.75284288 2.144718703
43.18883134 22.61314498 -97.9717453
18.78358134 60.50311858 -97.9717453
18.72383134 15.92312288 -103.9717453
-5.603938658 8.099881323 -103.9717453
-6.176388658 8.135274613 -0.4319052969
9.348121342 27.53642158 -103.9717453
-1.309378658 42.16542728 -103.9717453
-18.76483866 39.84462918 -1.312175297
-25.52727866 64.57173038 -97.9717453
6.882961342 -2.498673155e-05 -0.6002452969
23.66000134 10.53925949 1.654457703
1.879371342 34.13274798 -97.9717453
-9.173998658 66.80693818 -103.9717453
10.21391134 32.31948738 -103.9717453
4.027191342 -2.474327097 -97.9717453
24.44505134 23.75087478 1.709354703
37.42065134 1.986485073 -97.9717453
53.17425134 12.00941333 -103.9717453
32.06932134 63.57767168 -103.9717453
29.32980134 44.78030668 2.050929703
-17.49342866 6.908537663 -97.9717453
8.425281342 57.95646828 -103.9717453
-9.268548658 55.35599358 -103.9717453
-1.340108658 -2.498673155e-05 -90.5897943
-27.17395866 64.41360008 -1.900198297
33.17539134 17.98257198 2.319838703
-19.67581866 -2.498673155e-05 -65.7624073
-3.849448658 48.31452428 -103.9717453
28.95127134 -2.498673155e-05 -85.8519153
28.27199134 64.38139548 -97.9717453
10.19098134 44.57947248 -103.9717453
-6.826428658 60.12099378 -103.9717453
21.92396134 67.73762278 1.533062703
25.24012134 -2.498673155e-05 -43.9509233
8.987791342 41.42364838 0.6284777031
7.029241342 57.23839338 0.4915227031
4.954901342 -2.498673155e-05 -20.8529323
25.12663134 -2.498673155e-05 -18.1931153
43.10036134 66.04221548 -97.9717453
-31.02639866 67.03787278 -2.169586297
-20.53206866 8.421074223 -97.9717453
32.86364134 52.51416668 -103.9717453
-39.18763866 -2.498673155e-05 -81.2974613
-31.25375866 66.41135878 -103.9717453
19.04732134 11.54787459 1.331908703
24.39636134 64.43268208 -103.9717453
46.62100134 67.99997498 3.457420703
-44.18906866 28.15050238 -3.090010297
-1.171538658 -2.498673155e-05 -78.2282913
0.9560913425 19.91051068 -103.9717453
-37.06304866 24.72876798 -2.591710297
-33.87953866 -0.9956291667 -97.9717453
24.01199134 21.56750018 1.679071703
22.45449134 38.17991478 -97.9717453
-30.24940866 -2.498673155e-05 -23.3926473
24.58665134 69.53530928 -103.9717453
53.64361134 19.95687078 -103.9717453
4.343601342 55.51539988 -103.9717453
-27.65247866 -2.498673155e-05 -50.3698963
-18.74524866 16.71239018 -97.9717453
34.11257134 -2.498673155e-05 -13.1319983
40.71552134 15.34510288 2.847096703
41.10062134 17.70486268 -97.9717453
-34.32790866 14.99712678 -103.9717453
0.7732813425 67.99997498 1.062395703
47.02245134 40.81570118 -103.9717453
22.81829134 51.02062998 -97.9717453
-4.068288658 9.705028783 -0.2844922969
13.92215134 32.72214958 -103.9717453
10.17465134 25.27716538 -97.9717453
-14.34738866 63.03725038 -1.003276297
-1.725958658 33.81956548 -97.9717453
-9.035718658 -2.498673155e-05 -33.5389803
-16.89656866 -2.498673155e-05 -87.1503423
-16.17952866 16.04667768 -1.131392297
40.06442134 -2.498673155e-05 -29.5299963
32.95581134 14.90350918 -97.9717453
10.24551134 55.77608858 -103.9717453
-25.74913866 -2.498673155e-05 -18.4518083
24.86997134 0.3768640733 -97.9717453
12.57525134 42.75553098 0.8793367031
-11.71311866 -2.498673155e-05 -27.6650953
-14.60460866 59.75407988 -103.9717453
23.89209134 -2.498673155e-05 -21.5983113
22.56927134 28.66472768 -103.9717453
50.26028134 54.12037098 -103.9717453
-13.34016866 27.92415148 -0.9328452969
-27.23711866 -1.169631397 -1.904614297
54.11268134 39.42702178 -103.9717453
-1.784048658 37.32159878 -103.9717453
32.90481134 42.81714228 -103.9717453
49.43824134 64.25967478 -97.9717453
36.76335134 54.19939408 -97.9717453
35.56014134 16.19274978 -103.9717453
21.68244134 64.00610248 -103.9717453
-31.85115866 62.71880458 -103.9717453
6.068931342 63.04907368 -103.9717453
-24.61202866 33.76834878 -1.721050297
-44.42862866 -2.498673155e-05 -9.103132297
6.148371342 -2.498673155e-05 -9.443679297
-1.505708658 -2.498673155e-05 -88.2077903
-4.959458658 65.77304218 -103.9717453
33.36568134 9.952362453 -103.9717453
52.11243134 0.1463256333 -97.9717453
30.19880134 20.76329568 2.111695703
-13.96089866 19.98937998 -103.9717453
48.17381134 42.42935348 3.368630703
-30.08163866 14.18531748 -97.9717453
24.20171134 11.94390299 -103.9717453
39.59385134 3.045250893 -97.9717453
22.49382134 42.13451198 -103.9717453
23.66546134 -2.498673155e-05 -79.5031363
-16.60892866 64.52463158 -103.9717453
-36.18972866 9.825520893 -103.9717453
-3.618998658 -2.498673155e-05 -85.6805633
29.10691134 41.48095008 -103.9717453
44.36779134 43.39861608 -97.9717453
32.06677134 12.42246988 -97.9717453
28.45269134 27.86968998 1.989595703
29.17053134 13.23488278 -103.9717453
16.75309134 50.18270868 -103.9717453
50.77476134 63.58916008 -97.9717453
24.83843134 -0.4067790267 -103.9717453
-16.05471866 58.00004978 -1.122665297
27.80848134 45.82173208 1.944548703
9.532271342 4.039896943 -103.9717453
-44.32293866 46.75386198 -3.099371297
53.16890134 21.44554648 -97.9717453
45.32388134 -2.498673155e-05 -69.9966553
34.05487134 -0.5590198267 -97.9717453
-48.80018866 56.93303608 -3.412451297
7.988391342 31.34038038 -97.9717453
15.24805134 27.66909548 -103.9717453
-23.56587866 6.726679523 -97.9717453
1.015071342 48.17707078 -97.9717453
5.148151342 -2.498673155e-05 -48.5189123
-5.527338658 46.93416058 -0.3865192969
51.95082134 -2.453804187 -103.9717453
-0.7980486575 15.07138738 -97.9717453
26.36619134 62.80890888 -103.9717453
7.508931342 57.05731728 -103.9717453
9.801761342 67.99997498 -102.8536263
-30.38347866 59.33751438 -2.124629297
-41.61147866 -2.498673155e-05 -20.3802893
48.03801134 5.347365263 3.359134703
-0.3490286575 51.99863028 -103.9717453
-1.081708658 58.31494108 -97.9717453
8.136571342 -2.498673155e-05 -77.3143233
-9.068128658 5.400404583 -103.9717453
-35.43264866 15.37173338 -103.9717453
40.26170134 -2.498673155e-05 -91.1197553
-23.92737866 -0.9885085367 -1.673236297
24.06548134 -2.498673155e-05 -78.4515303
27.11860134 29.08525218 -103.9717453
-29.18116866 67.99997498 -101.4065743
-7.338998658 53.72838308 -97.9717453
-11.49020866 16.82997268 -97.9717453
-4.659698658 -2.498673155e-05 -83.2188963
-40.77745866 32.87473908 -2.851447297
45.77189134 45.59060438 -103.9717453
1.297551342 33.29612798 -97.9717453
38.27621134 53.15863458 -97.9717453
18.88422134 -2.498673155e-05 -67.3780823
7.100781342 -1.561256347 -97.9717453
33.45565134 -2.498673155e-05 -65.4662393
26.00677134 24.38087148 1.818560703
6.321211342 -2.498673155e-05 -74.0606713
31.92693134 -2.498673155e-05 -54.2494953
47.21128134 67.99997498 4.147406703
26.38634134 -2.498673155e-05 -15.1228323
-41.32978866 39.68383418 -2.890069297
37.75492134 59.33150738 2.640070703
-13.75849866 59.60731808 -103.9717453
31.92156134 66.13207418 -97.9717453
48.72400134 -2.498673155e-05 -80.1250743
6.419431342 8.789123043 -97.9717453
-37.83212866 -2.498673155e-05 -51.6597373
-7.307128658 29.58941668 -97.9717453
-1.860998658 58.32759318 -97.9717453
-26.37879866 -2.498673155e-05 -50.8645233
14.88812134 -2.498673155e-05 -46.6125923
-12.00947866 7.047809893 -103.9717453
-8.039608658 66.17094838 -0.5621942969
15.53217134 15.16428288 -103.9717453
49.99306134 -2.498673155e-05 -86.7427663
27.43788134 -2.498673155e-05 -48.6814483
-27.34422866 20.57645248 -1.912104297
-27.21202866 -2.498673155e-05 -93.4025073
11.46069134 46.04380998 -97.9717453
14.52037134 10.55359555 -103.9717453
24.79860134 64.16112368 -103.9717453
-5.957358658 36.24912118 -103.9717453
-30.85364866 19.31821708 -103.9717453
5.126101342 -2.498673155e-05 -48.9525693
6.711001342 -1.383266057 -97.9717453
6.705561342 9.994124073 -97.9717453
-1.933478658 48.60330518 -97.9717453
19.09782134 46.67291248 -103.9717453
21.99087134 26.72223058 -103.9717453
-7.769388658 30.30947608 -97.9717453
20.05965134 8.781812253 -103.9717453
36.75556134 -2.498673155e-05 -42.7765353
20.97787134 0.6323497833 -103.9717453
-2.788438658 -2.498673155e-05 -87.0011663
-41.79268866 67.99997498 -98.9110163
43.38685134 67.99997498 -99.1658093
14.44723134 67.99997498 -98.3844903
36.96634134 67.99997498 -103.7653953
19.14217134 67.99997498 -101.7492343
48.92403134 67.99997498 -103.0921173
-29.18116866 67.99997498 -101.4065743
23.17174134 67.99997498 -103.3201853
-17.33797866 67.99997498 -102.5689263
-28.14336866 67.99997498 -101.0115873
9.801761342 67.99997498 -102.8536263
-28.70278866 7.608430743 -103.9717453
53.64361134 19.95687078 -103.9717453
10.01160134 15.29077168 -103.9717453
18.72383134 15.92312288 -103.9717453
-34.32790866 14.99712678 -103.9717453
-36.18972866 9.825520893 -103.9717453
9.532271342 4.039896943 -103.9717453
-24.20590866 13.90188078 -103.9717453
