# .PCD v0.7 - Point Cloud Data file format
VERSION 0.7
FIELDS x y z
SIZE 4 4 4
TYPE F F F
COUNT 1 1 1
WIDTH 1219
HEIGHT 1
VIEWPOINT 0 0 0 1 0 0 0
POINTS 1219
DATA ascii
243.1385017 10.2887769 -130.5775828
-252.7941883 50.11826818 -17.67710376
-399.6955783 53.63155368 -27.94944876
-412.0697083 1.671141183 -28.81473176
-290.7838283 -2.381990047 -20.33359776
-4.017858272 66.18402958 -130.5775828
322.2802217 -2.498668042e-05 4.680762238
-93.43777827 -2.498668042e-05 -87.19950876
-94.50807827 32.37955998 -136.5775828
-13.59485827 -2.498668042e-05 -118.1574288
400.6778117 13.67526628 28.01810224
-146.5920683 24.42919428 -130.5775828
-351.2358083 67.99997498 -24.54529976
73.82174173 49.63474998 5.162102238
96.79964173 -2.498668042e-05 -70.14922276
381.0232017 -2.498668042e-05 3.264067238
443.7463617 36.31505638 31.02974824
-121.1746883 -2.498668042e-05 -89.36647076
458.1055717 -1.671444907 -130.5775828
-14.65354827 19.84229398 -146.5775828
41.53715173 -2.498668042e-05 -123.2619838
-294.2963483 -2.498668042e-05 -76.49700476
-25.43680827 33.68443948 -1.778729762
392.5102317 -2.498668042e-05 -95.44859876
410.4858517 -2.498668042e-05 13.19015724
-4.196798272 24.99804908 -0.2934837624
-14.92544827 -2.498668042e-05 -80.60880176
35.00511173 -2.498668042e-05 -33.56266776
462.5876917 158.0883522 -146.5775828
-59.30104827 44.12202898 -130.5775828
-244.5738683 18.22651608 -17.10228276
334.5205217 7.266382223 23.39193424
-250.1756283 -2.498668042e-05 -24.42217876
424.7412517 67.99997498 -131.2149978
-77.64056827 -2.498668042e-05 -56.97509276
-50.18829827 -1.743415747 -3.509522762
-220.3316983 1.218582253 -15.40710576
-9.871688272 102.6409808 -146.5775828
-351.3974283 -2.498668042e-05 -87.28746876
152.9694817 61.01834478 -130.5775828
33.60034173 47.30272608 2.349549238
294.7203817 66.72002618 -130.5775828
-2.783558272 53.64946118 -0.1946607624
202.2602017 -2.498668042e-05 2.580170238
449.7246617 -2.498668042e-05 -99.79999976
250.7588117 -2.498668042e-05 -72.66825276
-21.88949827 -2.498668042e-05 -40.38054676
-322.8910283 -0.6586239167 -22.57879976
149.3580217 -2.498668042e-05 -115.6026368
117.2464417 -2.498668042e-05 -25.75994876
-392.9220183 2.839043733 -136.5775828
-255.2482883 -2.322177947 -136.5775828
-396.0833983 15.24048378 -27.69685976
312.9725717 -2.498668042e-05 -96.34281976
415.9976917 13.69365928 29.08937224
324.4445517 65.27070468 -136.5775828
-38.67289827 138.6764691 -146.5775828
392.1612317 31.44317678 -136.5775828
350.7233417 -2.498668042e-05 -13.12729976
68.93577173 16.33563248 4.820443238
-326.5904583 36.96904938 -130.5775828
-217.8921483 65.10434518 -136.5775828
-433.8866783 31.42297338 -145.2338368
-419.9443183 64.76000488 -136.5775828
273.3997917 -2.498668042e-05 -106.3373698
-59.93949827 67.99997498 -132.4365558
-213.8249783 -2.498668042e-05 -87.12284076
53.31221173 30.51783768 -130.5775828
-380.2962783 -2.498668042e-05 -115.8422558
445.9620617 -2.498668042e-05 15.16228824
191.8575217 9.034776053 -130.5775828
12.32478173 -2.498668042e-05 -107.3932028
-172.0768683 63.68958138 -12.03279976
276.5987217 -2.498668042e-05 -56.28518476
-122.0150183 -2.498668042e-05 -49.19672476
150.8951817 -2.498668042e-05 -79.86337576
-2.674118272 75.04117298 -146.5775828
-267.3428883 -2.498668042e-05 -91.14080076
129.5223317 -2.498668042e-05 -110.9833988
421.5359217 37.19832288 -130.5775828
274.0236017 -2.498668042e-05 -75.96354876
135.7829917 40.78956588 -130.5775828
53.95008173 63.02608118 3.772541238
-85.50776827 46.28931198 -5.979299762
112.0410317 -2.498668042e-05 -78.63142776
297.9012217 32.64273908 -130.5775828
147.4694417 -2.498668042e-05 -52.59136976
-229.7662783 40.40570378 -16.06683576
-301.0687483 -2.498668042e-05 -97.15727976
-465.7310383 53.02981018 -32.56709676
-138.3626783 35.05472568 -9.675274762
410.2935017 -2.498668042e-05 -21.65682276
261.8819017 -2.498668042e-05 -23.51369576
-378.9719183 18.60135688 -130.5775828
342.2118317 -2.498668042e-05 -101.9522928
-1.381358272 146.1785191 -146.5775828
-48.72638827 112.9571995 -136.5775828
-176.0623583 32.14693658 -130.5775828
472.1327117 -2.498668042e-05 -70.81794176
291.8425117 -2.498668042e-05 -4.911109762
-350.5479083 -2.498668042e-05 -122.3832458
-42.94004827 90.39608848 -136.5775828
-43.05201827 -1.858414937 -146.5775828
329.5663917 -2.498668042e-05 -8.565749762
-349.7940883 -2.498668042e-05 -64.18356476
-31.35778827 63.62975808 -130.5775828
-445.3484183 67.99997498 -28.94857076
280.1146617 17.58114538 -136.5775828
-240.2873383 -2.498668042e-05 -85.14495976
-95.46892827 1.994697173 -136.5775828
335.5505417 30.86367098 23.46396124
166.8912617 11.96859842 -130.5775828
41.80611173 -2.498668042e-05 -77.70646876
450.0170717 -2.498668042e-05 -53.35643976
9.025961728 -2.498668042e-05 -18.41274276
434.7249117 -2.498668042e-05 -3.301375762
348.6647117 -2.498668042e-05 -69.06984976
-14.76317827 146.6579218 -136.5775828
467.9625117 32.87492998 -7.283697762
-428.2397383 -2.498668042e-05 -44.52367576
-260.3275283 -2.498668042e-05 -68.28458876
456.7015317 16.49389578 12.22168924
127.6130217 -2.498668042e-05 -70.76271576
-94.47914827 -2.498668042e-05 -60.45604376
-206.8215383 19.20212358 -136.5775828
436.0426517 52.59697518 -136.5775828
-345.0757783 20.99721148 -24.13005976
-295.9348583 -2.498668042e-05 -56.09892376
381.7017517 -2.498668042e-05 -15.14931476
-104.8260083 28.14157398 -7.330162762
-426.9340783 12.74657998 -29.85414976
-232.2950283 13.07551748 -136.5775828
37.02483173 -2.020659757 2.588991238
-274.4883183 37.70775358 -136.5775828
-52.41494827 1.064391363 -130.5775828
99.83409173 -2.498668042e-05 -127.8148978
442.9748417 -2.498668042e-05 -67.59790976
-138.9662583 -2.498668042e-05 -124.0629428
-426.6913483 3.045250893 -130.5775828
175.9616117 1.486061663 -136.5775828
46.52475173 47.61198608 -130.5775828
305.0483317 -2.498668042e-05 -110.2361918
343.5469217 53.33322568 -136.5775828
204.4240717 27.85300008 -130.5775828
16.12320173 -2.498668042e-05 -121.3364148
-206.9704183 -2.498668042e-05 -124.6007858
-263.3452383 26.46256518 -18.41490576
290.7242217 -2.275389997 -61.01923276
-157.5486583 -2.498668042e-05 -122.4010718
362.8488117 39.99558808 -136.5775828
123.7777317 62.29006588 8.655365238
351.3094117 -2.498668042e-05 -127.5008518
-342.8509483 46.77683628 -23.97448476
25.59356173 29.28165218 -130.5775828
220.0676517 -2.498668042e-05 -73.52951876
-391.7636183 67.99997498 -131.2398138
-201.3335283 53.85171688 -136.5775828
-170.4394283 59.12368938 -130.5775828
-455.3334183 144.2918122 -146.5775828
-19.29837827 159.999975 -142.5364438
241.9269717 -2.498668042e-05 -19.09424976
314.3817817 15.21148728 -136.5775828
-415.9613283 -2.498668042e-05 -119.9000978
69.44390173 -1.185787777 4.855974238
-136.6275383 -2.498668042e-05 -42.98707176
-123.2626083 13.03895768 -8.619374762
-433.8866783 109.4501239 -146.5205898
-89.79415827 12.42380088 -6.279033762
418.2278817 -2.498668042e-05 -95.81981376
378.7772117 -2.498668042e-05 -127.5271478
93.16466173 54.81418538 -136.5775828
196.7208717 -2.498668042e-05 -103.0147208
-447.3756683 80.65612338 -136.5775828
307.1047817 -2.498668042e-05 -47.77024076
-301.5275683 17.48900758 -21.08487376
-172.2300283 -2.498668042e-05 -70.62421476
399.8612417 -2.498668042e-05 -116.6466418
-53.96255827 18.96720998 -130.5775828
254.9872317 67.99997498 18.28136624
-157.4769383 51.87396038 -11.01187376
183.6695317 35.63260768 -130.5775828
92.05503173 -2.498668042e-05 -37.55635676
-40.12411827 -2.498668042e-05 -15.07534376
-18.46681827 -2.368480607 -1.291365762
-436.9553983 44.78030668 -30.55490776
-28.96306827 -2.498668042e-05 -68.18007176
308.3510317 27.69405848 21.56198624
426.0401717 -2.359629257 29.79161924
-296.6269583 47.14672798 -136.5775828
290.1677217 -2.498668042e-05 18.55244424
-91.44744827 62.43987098 -6.394642762
61.74597173 16.12397178 -136.5775828
223.0077417 -2.498668042e-05 -54.53196276
-129.4464983 9.024620173 -136.5775828
-16.35819827 137.0323152 -146.5775828
-348.3939683 21.20614368 -136.5775828
120.8010417 8.693565263 8.447214238
-423.7762983 52.76469828 -130.5775828
334.3007117 -2.498668042e-05 -36.57117776
-441.8101483 10.30459093 -136.5775828
-414.8761783 -2.498668042e-05 -91.19705276
304.3014117 -2.498668042e-05 -63.16852576
115.5511417 45.31829418 8.080106238
-420.0254883 29.57094428 -136.5775828
-27.36531827 16.46164538 -130.5775828
175.9265517 -2.498668042e-05 -103.2798558
122.7508017 31.44238618 8.583555238
225.5304317 53.56175038 -136.5775828
410.1807217 46.36855638 -130.5775828
43.55916173 34.49615818 3.045937238
-186.6669083 -2.498668042e-05 -100.0620938
347.2503717 26.70426338 -130.5775828
-108.1494683 -2.111291377 -7.562561762
199.9957117 52.17091658 -130.5775828
-222.8205183 37.24760748 -136.5775828
169.7927817 30.22861148 11.87305024
-138.8927983 56.06089518 -136.5775828
54.80229173 56.81617508 -136.5775828
474.8257417 130.4434277 -136.5775828
-365.1915183 61.85213608 -136.5775828
310.8732317 58.45464828 21.73835524
-47.31211827 -2.498668042e-05 -64.00585076
229.9684517 31.68136098 -136.5775828
-143.3922583 67.65505658 -10.02697776
221.8351817 6.819934703 -136.5775828
251.9096317 48.49381398 -130.5775828
339.6319717 1.123241373 -136.5775828
-337.5410783 45.71248928 -136.5775828
305.2967717 5.791002783 21.34841124
-9.522518272 11.95908132 -0.6658947624
98.37566173 11.6923109 6.879080238
80.35806173 12.77293348 -136.5775828
134.6116117 -2.498668042e-05 -4.004380762
280.8632817 52.35048868 -130.5775828
-123.2194283 -2.498668042e-05 -103.5755998
244.2952217 -2.498668042e-05 -106.8237658
4.849011728 14.73285458 -136.5775828
352.5346717 -2.498668042e-05 -52.71937976
157.1200117 38.59294928 -130.5775828
-161.6318383 15.60182418 -130.5775828
-398.3562283 37.16830788 -130.5775828
164.7065417 54.63408158 -136.5775828
90.90882173 -2.498668042e-05 -100.6220278
-155.9401683 37.84814648 -130.5775828
-38.45291827 35.36503828 -130.5775828
477.7591717 1.197501173 -146.5775828
-13.34168827 -2.498668042e-05 -29.96776176
336.5696117 -2.498668042e-05 12.23595924
-169.0200183 -2.498668042e-05 -53.82715176
-321.6480283 30.13459888 -22.49183276
461.6853317 99.67821478 -136.5775828
-443.9749983 125.8803117 -136.5775828
381.2101317 54.85024728 -130.5775828
173.5718117 -2.498668042e-05 -123.4420888
137.8226917 54.28658858 9.637484238
-272.4490683 14.83623528 -19.05150676
-8.890808272 36.74920478 -146.5775828
-363.9533583 -0.6741058167 -130.5775828
394.3464617 -2.498668042e-05 -71.24989276
390.8956317 -2.498668042e-05 14.98392524
-279.7772283 22.71886548 -130.5775828
233.9255617 -2.498668042e-05 -117.0788548
-218.8559283 -2.076013767 -130.5775828
268.1199217 -2.498668042e-05 17.11654324
-85.67381827 -2.498668042e-05 -41.25233576
-34.54294827 149.1074651 -136.5775828
210.9876017 46.76448168 -136.5775828
-281.5536683 -2.498668042e-05 -124.4260098
-84.60742827 -2.498668042e-05 -117.5864388
168.1358117 -2.498668042e-05 -21.76695476
-42.08139827 49.20204208 -146.5775828
220.0162717 -2.498668042e-05 -96.53398076
-315.1782183 49.04104738 -22.03941976
-267.4215383 -2.498668042e-05 -30.56110076
-246.4848483 67.99997498 -16.81209176
-113.9790183 55.21305988 -130.5775828
-31.93783827 66.94402698 -2.233325762
475.7908617 15.05446528 -136.5775828
24.42009173 8.842179413 1.707604238
-217.5806083 -2.498668042e-05 -29.81262876
-38.24809827 24.15649188 -2.674582762
-33.65392827 74.41284308 -146.5775828
-109.0720683 -2.498668042e-05 -26.16055476
164.9631517 54.14775038 11.53533024
460.1920617 3.399048453 6.175357238
-258.2813883 -2.498668042e-05 -100.7560808
64.85812173 -2.498668042e-05 -119.6357418
-414.3884883 55.09080828 -28.97687676
-63.56531827 56.56043958 -4.444934762
-445.4678183 51.17129038 -130.5775828
113.1181117 -2.498668042e-05 -48.11061576
102.7090517 -2.498668042e-05 -10.58397076
289.0778017 43.50314538 20.21427024
370.5555617 -2.498668042e-05 -105.0698718
321.4515317 35.30042718 22.47806224
260.7836517 -2.498668042e-05 -50.24293676
390.4919817 40.91864468 27.30583924
26.78085173 12.24639518 -136.5775828
-97.32390827 66.20519568 -130.5775828
137.7970417 -2.498668042e-05 -80.53976876
413.8390017 30.49879818 28.93842224
418.2990117 -2.498668042e-05 -110.6165668
177.8745417 -2.498668042e-05 8.441020238
-41.21524827 22.69457468 -146.5775828
373.0024717 -2.498668042e-05 -52.63079376
-338.5332083 -2.498668042e-05 -89.17781476
-74.30814827 -2.498668042e-05 -92.08054676
-456.5477583 12.47332348 -136.5775828
32.71546173 44.57266948 -130.5775828
428.8406617 -0.2924604967 -130.5775828
-443.1205483 -2.498668042e-05 -104.7698138
-127.2740083 36.22745468 -136.5775828
-141.1216383 67.99997498 -132.0403598
420.2415717 -2.498668042e-05 -69.80359776
121.6362117 65.09567898 -130.5775828
-1.982788272 127.5946533 -146.5775828
216.7156717 66.54294898 15.15421824
-448.1490683 -1.123900047 -31.33764576
241.2769217 52.53398778 16.87170824
-283.9284883 -2.498668042e-05 -60.82043276
242.4777517 -2.498668042e-05 -57.63186876
-187.9312183 -1.649103087 -13.14144376
-263.4419783 9.616015743 -130.5775828
-447.1430283 67.99997498 -134.3550718
-37.39385827 36.80747678 -146.5775828
-231.0348183 54.46016278 -136.5775828
-281.6260983 64.26365998 -130.5775828
-243.8321483 -2.498668042e-05 -71.04044076
-401.6187383 52.81024218 -130.5775828
189.2537017 57.30096058 13.23389024
387.0614417 21.47851508 27.06595324
-192.7604183 -2.498668042e-05 -115.6397308
-333.3384083 -0.2180833367 -136.5775828
30.30196173 -2.498668042e-05 -100.8724798
-174.2587583 -2.498668042e-05 -35.93378976
-261.3700383 -0.7981088867 -18.27682976
-394.9962283 -2.498668042e-05 -104.3322198
195.1674217 20.66505228 -136.5775828
-419.6641983 67.99997498 -29.14841676
381.1369617 29.17325238 -130.5775828
-49.12516827 47.86314418 -3.435180762
-70.65023827 -2.498668042e-05 -126.9272348
182.2810117 -2.498668042e-05 -73.59303776
137.1132817 53.46500828 -130.5775828
-32.26877827 -2.498668042e-05 -99.69388876
73.89335173 38.83391528 -136.5775828
-307.7565783 13.46229288 -130.5775828
203.9661917 -2.498668042e-05 -120.5722188
226.1636317 35.35507098 15.81488324
266.6304717 25.71523588 18.64460024
-403.2777883 -2.498668042e-05 -64.94129076
262.0437717 -2.498668042e-05 -97.77040176
-326.0949483 -2.498668042e-05 -109.1413968
264.0975217 -2.498668042e-05 -83.82200076
76.57898173 -2.498668042e-05 -68.96358476
135.8500017 -2.498668042e-05 -39.00001876
436.5996417 -2.498668042e-05 -30.25674476
-429.9900383 -2.498668042e-05 -62.20010376
-246.4962483 -2.498668042e-05 -123.6490628
89.21045173 27.90773758 6.238186238
51.20599173 12.03796829 3.580655238
81.20147173 62.22799028 5.678144238
-361.5837683 23.76561198 -25.28441076
-111.5432983 -2.498668042e-05 -111.8958558
107.4416217 62.69166728 -136.5775828
5.141691728 25.80670938 -130.5775828
-190.5518983 -2.498668042e-05 -77.37416376
414.5358217 -2.498668042e-05 -51.32376376
-36.45388827 105.363942 -136.5775828
-326.5888083 -2.498668042e-05 -83.07620476
274.2001717 -2.498668042e-05 -16.79816576
449.6214117 36.68079938 -136.5775828
348.8996017 12.49831298 24.39741724
356.2873317 -2.498668042e-05 -79.06002876
-301.7553783 -2.498668042e-05 -120.9872218
327.4706617 36.47194828 -136.5775828
157.6373917 14.41230318 11.02306324
-59.16351827 28.64882448 -136.5775828
368.4159717 -2.498668042e-05 -82.81988976
249.5472817 5.195421283 17.45002824
313.1741217 -2.498668042e-05 -25.16304176
13.41345173 -2.498668042e-05 -62.94646776
15.46266173 66.10267358 1.081239238
390.9857917 67.99997498 29.14285024
352.1896617 67.99997498 -136.2323098
216.7088317 21.88739878 -136.5775828
273.0956217 55.89689878 19.09668824
420.4613517 25.29500588 -136.5775828
-76.39258827 4.258064933 -5.341904762
-26.32579827 1.443295003 -146.5775828
41.27863173 -2.498668042e-05 -109.6607338
435.4657917 23.28575398 -136.5775828
459.4232717 49.14257238 17.50621524
-39.17539827 -2.498668042e-05 -31.61893076
248.1020917 -2.498668042e-05 -121.3488538
454.8181517 35.79031488 25.48303524
-179.9470583 -1.587338777 -136.5775828
-434.1207683 65.79508748 -146.5775828
-349.3615983 -2.498668042e-05 -49.93229476
18.12130173 -2.498668042e-05 -76.87544776
-6.310428272 83.97928338 -136.5775828
-6.577958272 -2.498668042e-05 -53.56871776
-441.9774683 148.3260668 -146.5775828
252.7370317 15.21884218 -136.5775828
-156.3371783 1.307737273 -10.93217376
-339.4787183 -2.498668042e-05 -32.33648476
-1.585488272 61.69389598 -146.5775828
-9.763508272 -1.821156307 -130.5775828
113.1772617 -2.498668042e-05 -105.1917708
373.3504617 11.126809 26.10718824
-3.306778272 11.58111318 -146.5775828
-13.00258827 96.28347958 -136.5775828
-314.7033083 -2.498668042e-05 -120.4958928
-444.5678583 135.349702 -146.5775828
-455.8836783 -2.498668042e-05 -90.86261476
-408.5185783 6.903535283 -130.5775828
-378.7210183 -2.498668042e-05 -62.03191576
471.0115317 118.2140646 -146.5775828
232.6057617 10.72807312 16.26536124
105.3564617 -2.498668042e-05 -22.97340976
-109.5256283 7.153454983 -130.5775828
14.76812173 30.29679868 -136.5775828
-270.1155483 56.18301028 -136.5775828
224.0648117 -1.337588127 15.66811324
-435.7228783 153.1780439 -136.5775828
-26.13586827 140.2745656 -136.5775828
118.2784717 8.747884763 -130.5775828
54.43225173 -2.498668042e-05 -8.470027762
-382.9878483 -2.498668042e-05 -37.04076676
475.7953917 100.0835223 -136.5775828
153.6781417 -2.498668042e-05 -127.6959798
-233.4404583 -2.498668042e-05 -112.2114448
-13.80243827 31.11624328 -136.5775828
66.64006173 37.95985938 4.659911238
-440.5342183 114.2320303 -136.5775828
215.2508817 -2.498668042e-05 -23.59353776
456.3914117 -2.498668042e-05 -30.95421976
83.23077173 50.11043148 -130.5775828
-261.2936183 38.85973508 -18.27144176
-458.3716983 92.49830648 -136.5775828
400.2698917 -2.498668042e-05 26.52741624
430.6493617 12.84932728 30.11391724
270.2189017 -2.498668042e-05 -5.034572762
-361.8303583 -0.9306080067 -25.30165476
-11.08616827 112.1682682 -136.5775828
-69.92039827 -2.498668042e-05 -75.35214676
-9.771588272 46.47419688 -136.5775828
-70.38580827 -2.498668042e-05 -17.08585376
-229.8217383 -2.498668042e-05 -57.81128276
144.6541717 -2.498668042e-05 -19.65003876
-62.59055827 -2.498668042e-05 -30.28456076
169.9714317 -2.498668042e-05 -88.12155476
-177.4471283 50.70713408 -136.5775828
-55.71520827 -2.498668042e-05 -52.43728176
-147.4660083 -2.498668042e-05 -88.95112176
363.7224217 -2.498668042e-05 11.96354724
-207.0883483 54.52888768 -14.48104076
398.0498317 21.58064808 -130.5775828
288.0461417 30.91362938 20.14213024
-383.6545483 57.56759458 -130.5775828
-374.2910783 39.13670808 -130.5775828
307.4076317 25.81538948 -136.5775828
452.1371417 -2.498668042e-05 -115.3516788
74.73450173 -2.498668042e-05 -41.54535876
98.52643173 -2.498668042e-05 -58.29828576
93.93109173 -2.498668042e-05 -88.44150476
111.8753617 21.91617048 -136.5775828
-409.8284583 27.74846238 -130.5775828
410.5404517 -2.498668042e-05 -36.41554976
178.3429217 -2.498668042e-05 -50.37652776
213.0078917 17.38948458 14.89494524
465.2714217 25.43461688 -136.5775828
-0.02566827228 -2.498668042e-05 -27.64999776
452.0653117 67.99997498 -135.3083758
219.2404617 -2.498668042e-05 -115.3757258
432.2909917 39.47840918 30.22871024
297.5299317 56.17689318 20.80530024
-330.6045083 22.32539808 -23.11813076
-383.4436783 7.143703163 -26.81300476
-53.10506827 -2.498668042e-05 -14.88838076
10.54125173 -2.498668042e-05 -37.39275976
-192.5327983 32.56208088 -130.5775828
416.1017917 59.27166468 29.09665224
-72.63426827 45.55625048 -130.5775828
324.6553517 -2.498668042e-05 -48.64109076
-24.50103827 87.48542498 -136.5775828
-290.8175583 34.58109018 -20.33595676
-349.0985783 11.03575029 -130.5775828
-270.7957883 58.21633758 -18.93589876
258.2522117 27.78654898 -136.5775828
-67.41883827 22.69877658 -130.5775828
-330.1181383 -2.498668042e-05 -64.05978976
-404.4997183 -2.498668042e-05 -39.39870576
-434.7730683 50.50265888 -146.5775828
-456.6623783 62.05779308 -146.5775828
-59.29935827 12.82973828 -4.146629762
-36.32738827 11.80313757 -136.5775828
-128.8594383 45.27197908 -9.010743762
198.1706117 6.274917893 13.85742124
-260.0370983 56.06057858 -130.5775828
-16.98235827 49.83512768 -1.187536762
-48.54855827 81.87738358 -146.5775828
461.1133217 123.704418 -137.3710898
-46.13818827 65.98990088 -130.5775828
-13.65208827 123.5955953 -136.5775828
-456.8088483 47.51515468 -130.5775828
-136.8353483 17.97500048 -130.5775828
-428.0567983 16.82825248 -136.5775828
199.3636617 49.46654988 13.94084724
-154.5040283 -2.498668042e-05 -74.08249176
-48.88667827 138.0289448 -140.9445178
467.0439517 39.02437928 4.307044238
297.5165317 7.503289833 -136.5775828
320.8592917 25.11962358 -130.5775828
467.5077017 10.0766666 -6.495373762
-439.0904483 -2.498668042e-05 -40.26602076
-201.0601483 11.04905334 -130.5775828
200.1610917 -2.498668042e-05 -8.866826762
-96.58197827 -2.498668042e-05 -113.4573758
14.27887173 2.999131113 -136.5775828
188.9329417 19.69960128 13.21146124
241.8270417 -2.498668042e-05 -80.05572276
-415.7382083 -2.498668042e-05 -61.47984376
-142.5479283 -2.498668042e-05 -33.06122076
193.3560817 67.99997498 14.69720224
-86.17867827 55.63946838 -130.5775828
404.8733817 -2.498668042e-05 -92.94707876
-13.72011827 73.69660068 -136.5775828
389.5649617 -2.498668042e-05 -123.4497218
53.69249173 -2.498668042e-05 -122.4969978
-234.0578983 23.18333788 -16.36693476
-437.3890283 88.02950218 -136.5775828
374.0222317 11.61396629 -130.5775828
474.4538517 53.42629608 -146.5775828
83.48609173 66.10428718 -130.5775828
-23.11011827 96.89540938 -146.5775828
1.113321728 34.51547578 -141.3936588
-21.62590827 45.01798708 -136.5775828
-46.25319827 -2.498668042e-05 -120.9587108
81.04602173 32.05792078 -130.5775828
336.3329117 10.32789301 -130.5775828
-167.2464283 14.69697128 -11.69502276
354.5654517 39.41912818 24.79361224
-455.9954483 61.62600128 -31.88631776
-300.4122783 -2.498668042e-05 -66.61361076
87.11752173 40.10946848 6.091834238
-298.6045383 34.50429918 -136.5775828
-257.3158383 -2.498668042e-05 -53.87612376
213.6515617 -2.498668042e-05 3.334706238
21.36499173 19.83464438 1.493970238
-43.70021827 123.4600219 -136.5775828
-361.3479983 42.76446568 -25.26792476
160.6316417 -2.498668042e-05 -4.485871762
476.3988017 106.7816133 -146.5775828
-208.6665783 41.44319368 -136.5775828
68.92479173 -2.498668042e-05 -26.51260276
443.5063717 46.47150218 -130.5775828
440.0079617 -2.498668042e-05 -13.36607976
-29.95922827 49.41050418 -2.094967762
-368.5724183 -2.498668042e-05 -51.86359776
-414.3442383 54.79995718 -136.5775828
-396.1561183 -2.498668042e-05 -76.88941176
-358.5419083 20.72717498 -130.5775828
-190.4721983 67.99997498 -131.0449388
-19.19536827 -2.498668042e-05 -13.55478676
314.7397717 13.15506058 22.00873024
-406.9804583 44.29328928 -28.45885676
-436.1307883 -2.498668042e-05 -81.96184376
463.3344817 83.46836588 -136.5775828
388.2361117 -2.498668042e-05 -46.23572776
472.9527417 -2.498668042e-05 -118.6119328
143.4415117 38.87806028 10.03039024
392.0073417 -2.498668042e-05 -108.5303798
364.3026417 -2.498668042e-05 -12.92848176
411.0406717 23.62889168 -130.5775828
215.2411817 67.99997498 -130.6322428
176.1704517 62.91380918 -136.5775828
-454.3441283 117.2599083 -136.5775828
-34.12490827 124.8412541 -146.5775828
152.8078817 -2.498668042e-05 -62.51585976
-357.1225683 66.91752848 -130.5775828
7.805831728 7.156419903 0.5458212376
-149.5119583 -1.665750507 -130.5775828
77.10828173 -2.498668042e-05 -10.42353276
289.4291017 -2.498668042e-05 -35.84679076
-212.7736983 36.01763208 -14.87859976
-375.3252583 -2.498668042e-05 -74.08946576
-321.2176283 6.704706643 -130.5775828
128.7066217 29.85246788 -130.5775828
-195.1696383 9.405912483 -13.64760376
266.5891617 46.80191938 18.64171224
42.71330173 23.33922488 2.986789238
417.7160817 9.202239413 -130.5775828
-313.0967783 -2.498668042e-05 -40.71709076
-356.0398783 -2.498668042e-05 -99.81596576
351.4254917 -2.498668042e-05 10.03692924
462.1871817 28.84122798 12.71967924
470.0006917 38.64613788 -136.5775828
-449.5205883 72.12199758 -146.5775828
369.4280617 21.95713938 25.83290724
-319.1836883 43.26302048 -136.5775828
-242.5254083 6.425630363 -136.5775828
-152.3307783 -2.498668042e-05 -51.77130276
237.5635217 -2.498668042e-05 -93.99407076
-135.8999883 -2.498668042e-05 -20.04028476
-179.2534683 -2.498668042e-05 -58.16861676
-163.0052883 -2.498668042e-05 -111.6681728
-116.5698583 19.47923438 -136.5775828
231.9784317 -2.498668042e-05 -14.14544376
-432.5794783 34.24603438 -130.5775828
278.2633217 45.91845758 19.45804824
349.8115617 -2.498668042e-05 -24.18792976
3.695191728 -2.498668042e-05 -7.552083762
-182.1911283 58.01752188 -12.74005776
-127.3561283 -2.498668042e-05 -79.60208676
357.1291717 17.29053548 -130.5775828
-12.52877827 150.8243436 -146.5775828
-325.0802483 -2.498668042e-05 -49.02147876
-275.8222283 -2.498668042e-05 -47.69164276
119.5828917 -2.288263077 8.362019238
456.2136817 27.42725838 -130.5775828
298.7701017 54.45142768 -136.5775828
-135.8073883 -2.498668042e-05 -113.3088458
-194.7237283 -2.498668042e-05 -37.57360676
7.701861728 58.50733808 -136.5775828
-210.1441283 1.037396703 -136.5775828
-456.8788383 159.999975 -145.6675848
95.68086173 33.94204028 -136.5775828
184.6944717 -2.498668042e-05 -130.0325128
-454.9651683 41.39377788 -31.81427376
-290.6943183 -2.498668042e-05 -100.8481838
-341.4295083 54.40364968 -130.5775828
325.6798217 -2.498668042e-05 -123.1848848
-23.60219827 26.24512088 -146.5775828
136.4793717 10.74888568 -136.5775828
287.2565717 -2.498668042e-05 -87.01901976
380.0983017 -2.498668042e-05 -26.29361676
63.64032173 -2.498668042e-05 -83.54903776
369.5955817 52.53576898 -130.5775828
359.8368017 31.29016548 -130.5775828
335.8703917 65.15933778 23.48632724
467.1456717 6.368722343 -136.5775828
-24.23065827 -2.498668042e-05 -127.4496568
-21.72801827 126.3343141 -146.5775828
183.3122217 -2.498668042e-05 -30.79215176
-173.9791183 -2.498668042e-05 -22.84374476
226.0662617 -2.498668042e-05 -40.87870176
115.9216717 41.68491758 -136.5775828
0.7563117277 102.4969481 -136.5775828
169.6958717 22.56186498 -130.5775828
464.3597717 135.045277 -136.5775828
39.02007173 24.56829818 -136.5775828
204.8308117 -2.498668042e-05 -53.31497376
-164.6738883 -2.498668042e-05 -41.19539576
-296.1014483 56.43214408 -130.5775828
314.8744317 45.12216848 -136.5775828
-53.55281827 37.88726838 -3.744792762
319.1290517 -2.498668042e-05 -72.04119176
-244.1509983 39.44807838 -130.5775828
98.36509173 44.13330498 -130.5775828
143.1738417 -0.2340854767 -130.5775828
-19.37170827 10.0303366 -146.5775828
319.5956017 -2.358944567 -136.5775828
-238.2236983 47.19311228 -16.65823676
-339.1965383 22.31986388 -130.5775828
378.0314617 -2.498668042e-05 -97.20210176
-41.63137827 158.4323712 -136.5775828
317.4548317 -2.498668042e-05 -85.27885976
-402.5094083 22.38687878 -136.5775828
476.1057817 85.97150878 -146.5775828
-96.03762827 21.40688808 -130.5775828
131.5172817 -2.498668042e-05 -58.71977476
-227.7374183 -2.498668042e-05 -33.52321176
-136.5744283 47.37034218 -130.5775828
273.6822217 60.43317318 -130.5775828
-385.3170083 12.22785268 -136.5775828
168.3483817 9.085108483 11.77204824
318.9025417 -2.498668042e-05 -6.823894762
282.9581817 20.50060658 19.78634524
375.5705417 -0.2821631467 -64.96214676
-379.4533883 49.62941178 -136.5775828
89.17342173 -2.498668042e-05 -121.5338748
436.6111817 66.84081398 30.53080824
-181.0841683 32.05376008 -12.66265176
42.58840173 57.66380868 -130.5775828
-281.5053383 46.40766728 -19.68478276
160.0617717 -2.498668042e-05 -44.71127576
-217.7823583 -2.498668042e-05 -64.70375176
378.9116617 67.99997498 27.47392324
405.2305717 -1.184913087 -130.5775828
-116.6040083 25.03666938 -8.153760762
-74.33282827 39.45619448 -5.197872762
-299.8186883 54.47098108 -20.96537676
201.0636417 67.18102138 -130.5775828
64.33575173 55.04150238 -130.5775828
1.113321728 123.8462709 -137.0100548
88.43747173 -0.7613930667 6.184116238
-433.8866783 135.0794003 -145.5934238
475.8371817 141.830074 -136.5775828
-32.73090827 101.8144934 -146.5775828
-437.6891283 20.24651618 -30.60621576
397.6928517 40.60973878 -136.5775828
248.4892817 40.32147788 -136.5775828
129.9357017 -2.498668042e-05 -100.2917168
-350.3768683 33.83368848 -130.5775828
11.72032173 28.73369168 0.8195492376
45.73632173 -2.498668042e-05 -28.77904176
-18.22136827 18.71553038 -136.5775828
-9.686128272 8.696762013 -136.5775828
154.2660617 6.404582723 -136.5775828
-214.4737583 11.3003232 -14.99747876
375.5608017 -2.498668042e-05 12.43100724
-333.8628883 -1.200655177 -23.34602776
33.31043173 -2.498668042e-05 -10.90544376
10.63240173 38.67480628 -130.5775828
-102.6577783 35.70383598 -130.5775828
1.113321728 152.1894131 -138.1453458
-418.4389483 39.21043948 -130.5775828
451.6878917 4.332703293 -136.5775828
-427.9609283 38.47755838 -29.92595376
260.0893617 55.60471278 -130.5775828
120.8233617 22.61919088 -130.5775828
-71.46703827 65.95418888 -136.5775828
-446.2679483 49.35162778 -146.5775828
-453.8188783 105.2212864 -146.5775828
256.0484317 25.34234788 17.90463224
-117.2164083 -2.498668042e-05 -59.29580976
359.6045617 3.563816883 25.14598124
-269.3082483 -2.498668042e-05 -80.71636176
-98.79947827 -2.498668042e-05 -19.72833376
-271.7847483 47.60090578 -130.5775828
-161.0747183 41.91191768 -11.26345476
-293.8677083 6.858673663 -130.5775828
463.3009017 -2.498668042e-05 -38.97306776
84.23316173 18.57641968 5.890140238
196.1553317 -0.6327714867 -130.5775828
-34.83355827 9.033629173 -2.435814762
-328.8839783 66.88562598 -136.5775828
26.42561173 64.10151838 1.847843238
-439.6431383 -0.2420412467 -130.5775828
246.8270417 -2.498668042e-05 8.464788238
-71.85268827 27.01123088 -5.024443762
-368.8098083 15.77414768 -136.5775828
-81.69380827 20.17472198 -5.712601762
180.2442817 51.22707568 12.60389024
193.3625617 30.04321188 -130.5775828
-288.4542483 44.30849288 -130.5775828
422.7930117 -2.498668042e-05 -9.950731762
288.7450617 18.09530738 -130.5775828
-76.96481827 10.58104236 -130.5775828
-38.46669827 54.96723788 -136.5775828
-39.57368827 135.6140205 -136.5775828
323.0628117 -2.498668042e-05 -28.67823476
-391.7573383 24.77924888 -27.39435276
335.7829717 20.39996678 23.48021324
438.1725417 25.97992528 30.63998924
-3.863058272 -2.498668042e-05 -95.98638076
-323.4615683 61.76190928 -22.61864776
-314.1327283 -2.498668042e-05 -29.36117476
329.2764617 -2.498668042e-05 -106.9025658
-339.0994683 -2.498668042e-05 -117.8788508
-297.8245883 7.735717443 -20.82593576
26.48716173 38.74302898 -136.5775828
21.67482173 61.75016038 -130.5775828
476.9483317 128.3947438 -146.5775828
-98.41669827 -2.498668042e-05 -49.28118776
-435.4478383 96.43683998 -146.5775828
337.8607817 40.46787968 -130.5775828
110.4265117 8.068630553 7.721757238
474.0540417 71.52394618 -136.5775828
254.4065617 67.74350438 -136.5775828
-456.0712883 32.31948738 -136.5775828
-3.361368272 25.43612388 -136.5775828
461.1133217 90.18826168 -144.4890408
179.8484017 -2.498668042e-05 -112.9244198
-445.3637083 95.64563288 -136.5775828
51.20139173 9.422503543 -130.5775828
-169.0479983 -2.498668042e-05 -94.56382076
-148.6778483 59.56649478 -130.5775828
394.9295317 57.54514858 27.61614324
110.4163717 -2.498668042e-05 -1.153596762
-47.90867827 10.51592327 -130.5775828
181.0280417 24.42681768 -130.5775828
343.1845117 50.00476538 23.99778024
283.4686917 44.29377218 -136.5775828
-277.2535783 7.161724913 -130.5775828
-460.1171683 20.54060778 -32.17453676
135.8652817 10.39239377 9.500609238
-450.4699483 -2.498668042e-05 -59.39528376
447.9218117 14.96809538 27.42743724
464.7220417 66.22096258 -146.5775828
-94.56570827 57.71070278 -136.5775828
247.2391217 -2.498668042e-05 -43.35163176
-428.3119883 -2.498668042e-05 -107.5584508
98.67376173 8.301534013 -136.5775828
-403.3681983 24.17890928 -28.20626276
356.7819017 56.06738338 24.94860124
-461.9341683 -2.498668042e-05 -82.20286176
149.0524017 36.19265358 -136.5775828
-440.0512383 58.86529208 -136.5775828
432.6431017 -2.498668042e-05 -67.36221476
-155.5667683 7.234322733 -130.5775828
-251.4945683 43.55342548 -136.5775828
-387.7156283 41.09950098 -27.11172876
240.2510217 -2.498668042e-05 -29.28055876
127.4027117 -2.498668042e-05 -121.0832798
-348.5746283 -2.498668042e-05 -37.21099676
-230.4221183 -2.498668042e-05 -82.12738076
305.2220417 -2.498668042e-05 -0.6902757624
-288.5324883 55.51190678 -20.17616876
334.8457417 18.57632808 -136.5775828
-190.6026083 -2.498668042e-05 -87.68153576
-344.4039083 60.29570088 -24.08307876
-93.90412827 10.22018037 -130.5775828
-140.1187083 11.25011808 -9.798068762
-83.60147827 36.75288298 -130.5775828
59.81824173 48.48489418 4.182883238
163.2880117 -2.498668042e-05 -122.0730488
-239.4867983 -2.498668042e-05 -101.9141388
328.7504817 57.58934518 -130.5775828
437.3419117 -2.498668042e-05 -90.78854076
-197.0273083 -2.498668042e-05 -98.07192076
-137.6234583 -2.498668042e-05 -67.01905776
-56.60567827 -2.498668042e-05 -74.79321176
37.03024173 -2.498668042e-05 -86.78684476
-459.1047183 -2.498668042e-05 -43.45017176
-454.2471883 130.753864 -146.5775828
-57.59598827 58.20522358 -130.5775828
462.0427217 54.48185298 -136.5775828
-41.36039827 94.74172888 -146.5775828
52.44547173 22.27458558 -136.5775828
-31.37669827 39.67139698 -136.5775828
-23.31401827 65.59220138 -136.5775828
76.46771173 -2.498668042e-05 -55.88035576
237.4676617 66.22344248 -130.5775828
-193.0870283 48.46664868 -13.50197376
-433.8866783 72.93926288 -138.3032658
152.8498317 60.55977758 10.68828424
-229.2016683 -2.498668042e-05 -43.63223376
-76.09240827 -2.498668042e-05 -67.21343576
-126.5472383 -2.498668042e-05 -24.14396076
429.2284617 40.21606358 -136.5775828
285.2500417 -2.498668042e-05 -122.0220038
-142.8671083 -2.196894757 -9.990255762
-345.0335883 10.30472891 -24.12710976
-4.769448272 55.37604548 -136.5775828
-27.13739827 156.1162641 -136.5775828
147.3744517 67.99997498 -135.4584698
-255.2877283 19.96956548 -136.5775828
27.13605173 -2.498668042e-05 -126.4516518
437.4679617 -2.498668042e-05 24.27664024
-444.7313383 -2.498668042e-05 -115.9970158
5.848751728 -2.498668042e-05 -77.31776176
-137.3292883 28.05493698 -136.5775828
-23.41464827 68.22700688 -146.5775828
-80.51160827 -2.498668042e-05 -16.16505976
98.14191173 -2.498668042e-05 -45.69423276
-448.7604283 22.29819188 -136.5775828
-379.9933583 60.01182978 -26.57173576
462.0484817 144.7797161 -146.5775828
-67.07228827 -2.498668042e-05 -53.55873976
-146.5151883 45.34075288 -130.5775828
1.113321728 4.553689543 -140.6486968
-50.73554827 60.07181638 -3.547789762
58.74773173 -2.498668042e-05 -19.29486676
-37.52015827 -2.498668042e-05 -61.37261376
-442.9846883 9.199717083 -146.5775828
-393.8893383 30.33927738 -136.5775828
36.18174173 -2.498668042e-05 -61.16420676
351.9877217 47.63336488 -136.5775828
-183.9571383 40.81990188 -136.5775828
-359.4895883 56.02862948 -130.5775828
-146.7946883 -2.498668042e-05 -100.4525458
397.5245917 -2.498668042e-05 -81.67451176
-63.98108827 35.17901028 -130.5775828
260.8764217 -2.498668042e-05 -127.5171168
463.0345517 -2.498668042e-05 -99.66071276
474.3396217 11.33794373 -146.5775828
215.5613217 57.92061198 -130.5775828
316.0616917 63.22629498 -130.5775828
-47.71843827 112.341809 -146.5775828
-100.2706683 8.198747993 -7.011621762
-290.1324283 -2.498668042e-05 -34.84015476
166.0231217 19.94258228 11.60945024
214.1777417 33.53823398 -136.5775828
-211.0027083 -2.498668042e-05 -22.20298676
81.24300173 -2.498668042e-05 -89.07816676
154.1798317 -2.498668042e-05 9.955640238
-443.7091383 81.80284268 -146.5775828
-209.7387383 -2.498668042e-05 -114.9387898
299.0770617 44.23327858 20.91348624
73.85730173 -2.498668042e-05 -80.75554676
463.3975617 158.5917837 -136.5775828
-312.0126883 27.98015038 -130.5775828
260.7339117 -2.498668042e-05 -73.77729576
-263.7562183 37.00452688 -130.5775828
302.5513917 -2.498668042e-05 -87.36066776
464.7716217 49.00068298 8.242612238
-249.0169283 7.079660833 -17.41297176
-36.70291827 75.59763738 -136.5775828
64.35946173 26.68551108 4.500435238
454.2647017 45.54948658 -136.5775828
288.6193217 28.90313758 -130.5775828
-455.2820883 144.5369844 -136.5775828
-335.7052783 53.99662048 -23.47481176
-106.0642283 -0.05614759668 -136.5775828
-340.8662183 -2.498668042e-05 -127.7171438
-35.54000827 115.3141856 -136.5775828
-44.96069827 72.56612008 -146.5775828
363.0098617 -2.498668042e-05 -113.7473358
-26.30783827 136.383207 -146.5775828
-280.5700283 -1.755225607 -136.5775828
419.9982717 59.72774668 -136.5775828
471.4497117 -2.498668042e-05 -83.28184876
-442.9633383 105.3527378 -146.5775828
-458.8577483 -2.498668042e-05 -126.0474688
430.9318117 -2.498668042e-05 -45.81354776
273.5512117 -2.498668042e-05 -65.75266276
-21.53497827 109.1740504 -146.5775828
-20.92926827 113.5423694 -136.5775828
-44.65664827 2.745985643 -136.5775828
-234.9912483 45.49690558 -130.5775828
-95.28303827 -2.498668042e-05 -74.09046876
9.095731728 52.65736078 0.6360202376
38.82174173 49.58347008 -136.5775828
-253.1615083 29.13864468 -17.70278976
32.16855173 20.65923638 -130.5775828
-190.4670583 52.55977708 -136.5775828
-424.4376483 44.44885498 -136.5775828
170.4769717 34.33665738 -136.5775828
63.72118173 -2.498668042e-05 -64.47305976
341.8831917 39.84592638 23.90678224
297.5319917 -2.498668042e-05 -18.88352376
383.1227017 46.49246418 -136.5775828
302.5102717 43.29008298 -130.5775828
342.1130317 -2.498668042e-05 -30.51975376
-365.4697183 -2.498668042e-05 -103.9091218
262.4894717 61.58268598 18.35503324
-13.55769827 62.67362258 -136.5775828
43.56194173 -2.498668042e-05 -9.146007762
89.08786173 -2.498668042e-05 -63.99534376
151.0380417 -2.498668042e-05 -27.96840676
-25.02145827 -2.498668042e-05 -114.8983018
287.0830617 60.00076638 -130.5775828
271.9181717 32.88583508 -130.5775828
219.8136917 -2.498668042e-05 -85.68591676
-204.6470383 -2.498668042e-05 -83.04422676
53.80698173 -2.498668042e-05 -83.88011276
325.2456017 16.42735598 -136.5775828
221.6742517 29.33657978 -130.5775828
-398.4370183 59.92448348 -136.5775828
-78.56195827 57.28891698 -136.5775828
-246.3691083 -2.498668042e-05 -92.87016476
-48.10290827 103.1543829 -136.5775828
-132.1630283 -0.4103217167 -136.5775828
-121.0722083 58.37004398 -136.5775828
-221.5331583 -2.498668042e-05 -52.56042376
37.23075173 -2.498668042e-05 -43.11599576
-445.3335683 39.66847388 -31.14076676
57.20448173 37.22561508 -136.5775828
-47.48920827 24.42958698 -136.5775828
187.1258117 -2.498668042e-05 -104.9775968
-83.91489827 -2.498668042e-05 -89.48580676
-456.7020583 2.592794223 -136.5775828
197.2670517 -2.498668042e-05 -46.10431376
-379.1074983 32.01009748 -26.50978976
393.6907617 60.29030598 -130.5775828
457.0018317 13.75241708 21.70162824
311.1077617 -2.057882157 21.75475524
348.8000617 -2.498668042e-05 -94.73235276
-308.4533283 0.7345729533 -130.5775828
-13.50434827 45.36081248 -146.5775828
-225.5995583 64.93449198 -130.5775828
62.64976173 -2.498668042e-05 -105.1359618
110.6663417 -2.498668042e-05 -127.8560638
-37.54670827 9.658757233 -146.5775828
232.6580717 -2.498668042e-05 -126.7521598
-21.44940827 -2.498668042e-05 -105.0390908
-47.97592827 46.33618428 -136.5775828
-437.4790183 -1.288213127 -30.59157976
27.46427173 -2.498668042e-05 -23.96714976
-238.0656583 23.57671248 -130.5775828
296.8794817 22.84932758 -136.5775828
378.4276717 5.342964973 -136.5775828
399.0080317 67.99997498 -134.2649058
-159.4950183 50.37333568 -130.5775828
-420.9184583 -2.498668042e-05 -38.12870976
359.9208217 8.321577433 -136.5775828
456.2228617 -2.498668042e-05 -45.87967476
-225.0461283 5.407029693 -130.5775828
210.2552117 5.673185133 -136.5775828
461.5481217 66.35397138 -136.5775828
21.05093173 6.514916963 -130.5775828
-48.88667827 157.1718473 -145.5292148
-179.9368683 -2.498668042e-05 -78.62908076
397.5441117 22.85302768 27.79897224
461.1133217 13.14998838 -140.0863908
-15.90292827 74.35393608 -146.5775828
-307.5452883 67.56258518 -136.5775828
235.5616817 9.671663443 -136.5775828
279.3923217 -2.498668042e-05 -46.01134476
-434.3515383 121.6830599 -136.5775828
-362.9239183 59.41488038 -25.37812376
-392.7154983 10.51188228 -130.5775828
-6.860538272 111.8385896 -146.5775828
136.9803117 -2.498668042e-05 -90.18312376
252.1546717 -2.498668042e-05 -57.55959076
-167.0977083 -2.498668042e-05 -123.9668178
-9.757638272 -2.498668042e-05 -72.22149176
226.6263317 42.86868688 -136.5775828
-347.4791483 66.65032688 -136.5775828
-434.2184283 12.42246988 -130.5775828
115.2550617 54.72217558 -136.5775828
-18.13482827 7.629898803 -1.268125762
372.7395517 54.10282858 26.06446824
144.0996717 56.33461278 -136.5775828
101.0672317 55.02841768 7.067293238
448.3656617 25.15904258 32.19042824
368.9411117 34.47396418 -130.5775828
-103.8110583 -2.498668042e-05 -85.04998576
150.4548517 -2.498668042e-05 -8.096741762
91.52300173 -2.498668042e-05 -23.37349776
-356.4189283 -0.8934479667 -136.5775828
286.7767517 -2.498668042e-05 -104.1369628
-459.9896083 -2.498668042e-05 -99.57157176
194.0445817 -2.498668042e-05 -58.24616276
25.54058173 -2.498668042e-05 -1.906613762
-214.8121483 -2.498668042e-05 -106.1077538
-115.4420283 -2.498668042e-05 -42.18266576
-366.4286183 -2.498668042e-05 -80.50529876
-408.6673083 14.40824228 -136.5775828
-110.2254383 48.71393008 -136.5775828
-2.776748272 -2.498668042e-05 -124.2397878
-170.5197983 37.19874918 -136.5775828
-3.798548272 84.57794948 -146.5775828
276.1197617 -2.498668042e-05 -115.8442698
-232.7406083 2.433009683 -136.5775828
204.1378817 -2.498668042e-05 -93.75749476
-440.0441183 33.60532328 -136.5775828
194.3337917 63.51643638 -136.5775828
402.6671417 -2.498668042e-05 -13.67496176
467.7474817 10.11732674 3.089290238
-23.12540827 55.66849228 -136.5775828
157.7866617 51.84133248 -130.5775828
0.01845172772 42.71015078 -136.5775828
-144.2300583 17.04580828 -136.5775828
270.4398717 11.33277535 18.91097924
245.7425917 -0.7798368667 -130.5775828
337.6891017 -2.498668042e-05 -64.64442576
101.3534717 53.98640128 -130.5775828
36.12956173 11.16783735 -130.5775828
-35.19944827 149.3472013 -146.5775828
-447.4542283 158.750538 -146.5775828
-14.02217827 55.31758168 -146.5775828
343.7014517 -2.498668042e-05 -114.7247418
-392.5929983 -2.498668042e-05 -38.59822976
190.0404117 -2.498668042e-05 -22.49051976
-226.7439383 -2.498668042e-05 -121.8541708
410.6180417 3.882464173 -136.5775828
220.7528517 15.69498118 -130.5775828
-1.607608272 73.17030738 -136.5775828
47.58164173 -0.6599339067 -130.5775828
442.9390717 45.77939748 30.97329624
-58.51599827 -2.498668042e-05 -43.36438776
-373.8391583 -2.498668042e-05 -108.3843108
-323.5268683 8.806530923 -22.62321376
122.1563217 -0.7399353567 -130.5775828
222.2513317 -0.5114078867 -130.5775828
-372.7517783 -2.498668042e-05 -122.4362858
304.5988817 60.52881078 -130.5775828
124.8752017 -2.498668042e-05 0.8565882376
1.113321728 105.2691205 -145.6176278
225.9981017 64.82761038 15.80330824
288.3067917 -2.498668042e-05 5.751835238
-401.0376283 7.699915053 -136.5775828
-443.7374883 58.91443458 -31.02915776
13.55647173 50.20152518 -136.5775828
157.9042317 29.13504068 11.04172324
-455.8493183 32.33708588 -146.5775828
-91.29941827 -2.498668042e-05 -127.5988738
266.0517617 6.751225643 -136.5775828
377.6340917 67.30496818 -130.5775828
81.48082173 -2.498668042e-05 -98.50421176
327.2081917 -2.498668042e-05 -79.56788176
-368.6484283 7.488892343 -130.5775828
238.0092417 -2.498668042e-05 5.172901238
-456.4834383 67.99997498 -135.4594638
267.0042917 40.55830468 -136.5775828
-449.1699583 109.2150872 -136.5775828
-324.2665883 51.32247448 -22.67493976
375.2638617 38.96962968 26.24098624
308.2254617 -2.498668042e-05 -119.0717118
362.3045317 61.02567378 -130.5775828
425.9913017 -2.498668042e-05 1.297928238
-123.0714883 5.652398023 -130.5775828
425.0126217 33.54048008 29.71975724
149.8782617 -2.498668042e-05 -89.17460676
451.1655117 -2.498668042e-05 30.84996524
-228.6493683 5.704427293 -15.98873376
148.9825817 19.27857908 -130.5775828
452.9190617 29.54503958 18.77265224
144.9292417 29.88394418 -130.5775828
133.8675817 33.37723178 9.360916238
-332.1262283 52.70690508 -130.5775828
-439.1397283 -2.498668042e-05 -64.07552576
-161.5561783 -2.498668042e-05 -81.81007876
236.4713917 24.98038088 -136.5775828
-61.32844827 -2.498668042e-05 -108.4106848
236.0616217 35.42540648 -130.5775828
36.62348173 67.99997498 -134.3292278
277.1789517 -2.498668042e-05 -33.20792576
-250.1156383 -2.498668042e-05 -33.74281476
-210.6424383 53.40292778 -136.5775828
-96.97975827 -2.498668042e-05 -98.71277676
412.3345117 39.68387188 28.83321824
-275.7154083 -2.498668042e-05 -117.1771768
-184.6481583 -2.498668042e-05 -38.05925276
30.49483173 23.93157128 2.132390238
-305.5866683 42.95549808 -136.5775828
-401.2838083 -2.498668042e-05 -55.27855276
426.7581917 56.04240778 29.84182024
-171.7447783 26.07354528 -136.5775828
-199.9747083 26.64191488 -13.98360676
-58.26209827 5.086483763 -136.5775828
-77.72342827 -2.498668042e-05 -80.39225876
-80.73953827 4.579522633 -136.5775828
-251.8188583 59.35461098 -17.60890176
-253.6205183 -2.498668042e-05 -117.6913448
219.7451017 48.02853228 15.36605724
400.0521217 47.29213968 -130.5775828
317.8902817 -2.498668042e-05 -105.3128018
-182.0933583 8.581423303 -130.5775828
-261.3513083 -2.498668042e-05 -109.5083178
-286.8281583 -2.498668042e-05 -70.68004276
-333.0285083 29.23805268 -130.5775828
111.0236717 7.108840233 -136.5775828
-313.8563683 7.870278953 -136.5775828
-239.0269783 60.53898258 -130.5775828
409.3600717 22.40733558 28.62522524
-228.7579683 15.60832378 -15.99632776
404.8046417 -2.498668042e-05 -29.10182376
407.6493517 -2.498668042e-05 -121.6327208
-5.586488272 65.67555348 -0.3906607624
-129.4623683 52.63483818 -136.5775828
-116.2416183 9.165537523 -136.5775828
5.243591728 -2.498668042e-05 -101.4784458
-198.9481083 25.83467608 -136.5775828
79.70677173 -2.498668042e-05 -0.09966476242
240.1876917 57.22574008 -130.5775828
-179.2870083 67.99997498 -131.8499408
-312.5869283 58.63683528 -136.5775828
471.8439517 38.36928068 -146.5775828
-150.6151583 38.44384408 -10.53205176
3.458161728 -2.498668042e-05 -113.1117898
-39.99806827 63.20275708 -146.5775828
66.38920173 4.622559953 -136.5775828
182.4534017 6.686359163 12.75836724
-401.2938183 -2.498668042e-05 -114.6054728
177.2698417 45.44802508 -136.5775828
-167.6580383 67.99997498 -135.5349808
70.27405173 31.93942618 -130.5775828
97.35960173 16.88799658 -130.5775828
318.3453217 4.452558463 -130.5775828
-317.7542083 -2.498668042e-05 -79.13656676
-240.9866783 15.96444158 -136.5775828
74.28652173 52.04624948 -130.5775828
477.1137817 60.61625498 -136.5775828
-284.9081783 -2.498668042e-05 -27.33410576
208.2701717 9.575713983 14.56365124
111.0361717 36.40939208 7.764389238
195.0005717 -2.498668042e-05 -31.54196776
-421.4070383 27.30077448 -29.46766076
188.1689917 18.72826308 -130.5775828
-212.0102983 26.72136738 -136.5775828
279.1083817 5.422509803 -136.5775828
-280.2499583 -2.498668042e-05 -81.63595276
-31.25140827 -2.498668042e-05 -12.96385776
-86.26392827 -2.498668042e-05 -23.22348076
-270.2532483 10.33278862 -136.5775828
141.2878417 -2.498668042e-05 -111.4015568
-91.54584827 45.23022558 -130.5775828
351.9075617 -2.498668042e-05 -103.9229758
104.0095417 37.58806608 -136.5775828
-159.0983083 57.33724208 -136.5775828
-155.7626783 -2.498668042e-05 -31.12559676
-234.0754483 32.26246028 -16.36816176
416.8108917 48.86344158 -136.5775828
-287.7491783 -2.477852727 -130.5775828
-39.08060827 84.12176258 -146.5775828
342.3381517 -2.498668042e-05 -18.43663876
-28.94204827 45.30126228 -146.5775828
165.0759517 -2.498668042e-05 -99.81537276
16.53822173 -2.498668042e-05 -92.46333076
-213.4826483 36.64915798 -130.5775828
-78.49900827 -2.498668042e-05 -47.95418176
326.1041917 -2.498668042e-05 13.28657824
199.4590917 -2.498668042e-05 -112.7122728
-23.28837827 53.78133838 -146.5775828
-444.6595283 154.6211203 -136.5775828
-166.1602483 30.48727148 -11.61906976
360.4914517 -2.498668042e-05 -25.79889976
391.6492717 13.61328818 27.38676524
-443.7913783 42.13451198 -136.5775828
75.18039173 22.85807938 5.257109238
400.4597817 -2.498668042e-05 -37.51437076
256.9488917 43.98791488 -136.5775828
-250.4578483 50.23103448 -130.5775828
207.1793717 44.96475128 14.48737524
303.6550017 36.10250748 21.23360824
269.8859517 -2.498668042e-05 -27.70444976
-442.5234583 33.70424158 -146.5775828
-222.9603983 18.08313688 -136.5775828
282.5750517 -2.498668042e-05 13.68130624
-107.4953783 36.75540928 -7.516823762
-156.0231583 -2.498668042e-05 -100.8218648
371.0248817 -2.498668042e-05 -32.81610576
-346.5106683 46.61618718 -136.5775828
-428.7839583 -2.498668042e-05 -87.17903976
-58.48111827 -2.498668042e-05 -99.36210476
