# .PCD v0.7 - Point Cloud Data file format
VERSION 0.7
FIELDS x y z
SIZE 4 4 4
TYPE F F F
COUNT 1 1 1
WIDTH 1297
HEIGHT 1
VIEWPOINT 0 0 0 1 0 0 0
POINTS 1297
DATA ascii
65.76863 -2.498931907e-05 94.6589576
245.2329 -2.498931907e-05 -91.4772204
243.23754 -50.00002499 48.0581486
6.37453 -2.498931907e-05 37.0591416
73.97674 -121.8692199 -137.0000974
59.8448 -2.498931907e-05 -7.074771398
176.36829 -44.84284385 -137.0000974
72.67607 -2.498931907e-05 33.3892856
239.44757 -58.30762463 158.9999026
-0.0002699995839 -7.865099459 -55.5635344
194.50893 -48.96852193 152.9999026
234.51 -38.38438612 72.2752586
48.96764 -2.498931907e-05 20.5968636
243.86217 -5.196394349 43.4933886
246.93061 -50.00002499 34.0709466
231.29456 -10.98269109 -156.6752244
120.05549 -2.498931907e-05 84.9775346
219.66829 -13.49084261 117.9528436
102.80539 -114.8458228 -141.0000974
225.66624 -36.82252008 99.4934036
187.00139 -2.498931907e-05 -109.4621824
13.49395 -2.498931907e-05 -125.2140514
6.81469 -191.2910795 -141.0000974
194.175 -2.498931907e-05 -21.4803814
86.45031 -2.498931907e-05 -142.8480604
93.46587 -60.33965073 158.9999026
-0.0002699995839 -31.3303469 145.2994326
212.17658 -2.498931907e-05 -0.5897833977
117.52307 -2.498931907e-05 54.6781006
61.16841 -37.22534667 158.9999026
-0.0002699995839 -45.61489972 -38.5377254
28.69436 -2.498931907e-05 96.9136226
37.31931 -50.13257015 152.9999026
174.29904 -52.98787754 152.9999026
202.51932 -2.498931907e-05 53.6866656
250.69737 -30.46942561 -150.9497774
143.76108 -49.89445057 158.9999026
90.88624 -32.63644263 158.9999026
27.91696 -2.498931907e-05 11.6798076
178.49489 -2.498931907e-05 13.6953316
124.78146 -2.498931907e-05 97.7083496
12.73473 -2.498931907e-05 -70.9863174
31.5424 -134.69598 -141.0000974
110.20546 -49.09067121 152.9999026
150.63601 -2.498931907e-05 -139.4256804
17.31036 -155.7615232 -141.0000974
-0.0002699995839 -37.98121111 60.5369356
84.45968 -157.5222992 -141.0000974
142.68968 -2.498931907e-05 -22.6839764
14.01866 -27.93033707 158.9999026
170.71134 -2.498931907e-05 -11.5008374
183.27776 -27.81074087 152.9999026
-0.05208999958 -50.00002499 21.8043016
37.52467 -2.498931907e-05 -23.0364954
-0.0002699995839 -20.91480712 118.8880856
107.4663 -93.33196351 -141.0000974
143.39676 -2.498931907e-05 96.4504506
-0.0002699995839 -49.72761179 117.2307096
2.08478 -19.88911016 152.9999026
208.72531 -2.498931907e-05 117.4985476
118.43779 -6.632741899 158.9999026
221.31172 -54.88691153 152.9999026
11.83427 -2.498931907e-05 61.2818176
164.67504 -2.498931907e-05 60.6396156
12.15577 -215.9301583 -137.0000974
226.15047 -2.498931907e-05 -119.0015204
154.76454 -2.498931907e-05 31.4462176
74.4931 -27.5627718 158.9999026
-0.0002699995839 -37.94334106 -97.1296754
236.80096 -2.498931907e-05 -6.330987398
37.43559 1.029179641 152.9999026
15.95511 -67.70672716 152.9999026
251.84405 -39.4818234 158.9999026
174.92879 -2.498931907e-05 49.9389116
183.05091 -84.79007811 -141.0000974
53.02299 -2.498931907e-05 84.3497586
-0.0002699995839 -39.61988716 -61.7168174
-1.68648 -2.498931907e-05 137.1391436
233.46228 -16.20450089 75.4993416
48.99791 -193.6626931 -140.0049834
193.45978 -2.498931907e-05 -47.3666694
217.1528 -2.498931907e-05 -38.7016654
119.05599 -30.80605056 158.9999026
86.28561 -109.2574887 -141.0000974
206.09683 -2.498931907e-05 -158.7062444
196.06504 -2.498931907e-05 21.8554356
198.92232 -59.7878459 -141.0000974
96.80927 -2.498931907e-05 43.7211156
-0.0002699995839 -13.42840392 -92.5830354
20.51139 -2.498931907e-05 121.1457326
42.97791 -60.42321265 158.9999026
197.0299 -2.498931907e-05 -76.7155994
150.2841 -107.4475105 -137.0000974
127.99775 -74.30873292 -137.0000974
221.05483 -2.498931907e-05 -145.7194724
181.82362 -10.46744903 158.9999026
201.66075 -85.93455637 -141.0000974
223.61093 -2.498931907e-05 38.8759906
219.65957 -75.45920774 -137.0000974
52.98385 -2.498931907e-05 57.6137586
115.13602 -2.498931907e-05 -148.4369694
126.07357 -129.8373036 -137.0000974
180.75673 -66.70722005 152.9999026
136.09569 -8.371474889 152.9999026
-0.0002699995839 -31.16006716 -52.4562504
213.24529 -39.5457035 137.7210386
40.36646 -2.498931907e-05 -83.7481024
-0.0002699995839 -49.5502772 -89.9169784
-0.0002699995839 -42.27194569 -7.839817398
3.90864 -54.69064993 158.9999026
15.96536 -2.498931907e-05 -13.8981824
-0.0002699995839 -10.56194778 105.6971296
131.57909 -57.81134513 158.9999026
-0.0002699995839 -25.72763683 30.0831666
155.31459 -2.498931907e-05 -67.8952814
248.19384 -36.03694413 30.1607976
236.83636 -2.498931907e-05 -21.7089024
109.35693 -2.498931907e-05 140.8468896
-0.0002699995839 -9.152741469 73.8602666
36.03815 -164.4613515 -141.0000974
219.89738 -28.89302588 117.2478886
-0.0002699995839 -23.62391628 94.8261106
-0.0002699995839 -17.30328372 46.7637146
37.2679 -2.498931907e-05 38.2082866
223.53212 -12.14981673 152.9999026
160.15954 -12.20792081 152.9999026
246.47298 -2.498931907e-05 -138.6698044
172.35087 -2.498931907e-05 146.6141956
72.28022 -2.498931907e-05 7.646779602
83.13117 -9.945766249 158.9999026
-0.3847499996 -2.498931907e-05 -81.7195474
151.87717 -59.54453564 -137.7209704
-0.0002699995839 -38.01509165 111.8967466
-0.0002699995839 -31.77477796 -130.1057094
252.20182 -12.42785504 152.9999026
232.18146 -2.498931907e-05 15.1679406
225.29589 -2.498931907e-05 64.5906256
-2.06149 -50.00002499 -117.6388964
229.73286 -2.498931907e-05 126.9404816
236.48637 -2.498931907e-05 -47.2872164
250.52326 -15.92245513 -151.0011564
74.08154 -2.498931907e-05 113.1158366
138.00597 -2.498931907e-05 120.4289726
150.3428 -2.498931907e-05 -5.811206398
164.60257 -45.44167388 152.9999026
143.48374 -134.42702 -137.0000974
130.33355 -116.3909475 -141.0000974
-0.0002699995839 -19.29328037 -50.7765154
92.56851 -2.498931907e-05 122.5026736
71.92275 -178.1411303 -141.0000974
37.04676 -2.498931907e-05 -8.120528398
62.07515 -2.498931907e-05 -117.3847484
51.2297 -2.498931907e-05 -45.8413064
8.86402 -2.498931907e-05 -101.7873944
233.95195 -68.00002403 154.7646936
236.22932 -7.411268339 -138.9837244
137.15589 1.723501061 -118.3310524
234.63594 -35.97014664 88.0695676
-2.44349 -50.00002499 133.0458846
191.05929 -2.498931907e-05 89.7288246
130.27251 -97.43405814 -137.0000974
48.11913 -2.498931907e-05 42.8671676
211.98209 -36.15642579 -141.0000974
200.3137 -2.498931907e-05 -108.7145294
53.66471 -131.2263197 -137.0000974
237.77465 -17.63939744 62.2272996
119.75976 -17.46834908 152.9999026
65.34077 -2.498931907e-05 22.5647396
105.36312 -2.498931907e-05 111.9368916
110.24354 -2.498931907e-05 26.4436586
28.44293 -20.42837658 158.9999026
32.78846 -177.073891 -137.0000974
240.15008 -18.47177677 -137.0000974
-0.0002699995839 -28.22774711 129.6066636
241.13809 -2.498931907e-05 87.1777376
216.73672 -55.13405973 -137.0000974
27.4135 -2.498931907e-05 48.7038776
59.49761 -151.3566653 -141.0000974
175.56968 -2.498931907e-05 34.1757966
208.24671 -18.98488773 152.9999026
149.45899 -2.498931907e-05 110.6349736
24.95804 -194.8351099 -141.0000974
160.95142 -84.5032806 -137.0000974
239.54677 -60.43265025 -141.0000974
61.03426 -2.498931907e-05 -66.9857774
18.12316 -2.498931907e-05 147.0884456
179.97208 -2.498931907e-05 -73.2109584
-0.0002699995839 -8.510072249 -129.8716504
215.22745 -2.498931907e-05 -14.0682454
190.73598 -2.498931907e-05 -9.274752398
244.4332 -60.39897357 -152.7982314
160.33913 -64.19608636 152.9999026
127.60225 -2.498931907e-05 141.7723706
27.8885 -2.498931907e-05 -105.6996284
183.09272 -2.498931907e-05 -18.6519484
101.00527 -22.58411034 158.9999026
-0.0002699995839 -44.93124605 36.0191816
227.06416 -16.35159415 95.1906496
198.68126 -2.498931907e-05 122.9080306
87.90945 -2.498931907e-05 30.6575446
-0.0002699995839 -2.929481369 13.0898696
-0.0002699995839 -11.3694891 -67.2243934
84.38501 -39.74685132 152.9999026
225.41483 -2.498931907e-05 -82.4095854
189.60951 -2.498931907e-05 -152.1315104
245.20436 -28.5385187 39.3613276
183.61662 -69.71389438 -141.0000974
205.51134 -67.38768242 152.9999026
185.60968 -58.2945475 158.9999026
239.49889 -2.498931907e-05 -108.0990674
-0.0002699995839 -20.78218161 -23.5865394
30.69217 -41.39011645 158.9999026
145.64149 -97.20869773 -137.0000974
202.57393 -2.498931907e-05 -65.7101204
149.69078 1.962309761 158.9999026
-0.0002699995839 -46.91076892 -141.7075474
147.8173 -2.498931907e-05 125.8259756
223.88281 -2.498931907e-05 -108.0366484
51.37965 -41.09236203 152.9999026
86.13357 -2.498931907e-05 150.7934206
52.24953 1.099502821 158.9999026
170.25976 -2.498931907e-05 96.8974826
135.4643 -2.498931907e-05 72.8327996
169.43602 -104.0948068 -141.0000974
238.10986 -5.521229439 77.3770936
47.53355 -2.498931907e-05 -151.1037334
210.07595 -2.498931907e-05 103.4857356
64.70064 -2.498931907e-05 148.1456306
226.67475 -31.77584598 152.9999026
-0.0002699995839 -20.86135611 -157.3149134
57.46079 -2.498931907e-05 70.4643606
-0.1530599996 -2.498931907e-05 112.4905396
196.11706 -2.498931907e-05 62.6464576
40.25121 -140.1137663 -137.0000974
232.55641 -47.70614526 -141.0000974
85.28811 -2.498931907e-05 111.6255716
7.42794 -2.498931907e-05 71.5044306
52.45656 -2.498931907e-05 -79.6116914
90.53191 -134.072821 -137.0000974
72.0886 0.5290467107 -84.1540324
58.76329 -9.776676389 158.9999026
9.56665 -41.81231523 152.9999026
177.33172 -2.498931907e-05 -55.2732674
141.51474 -2.498931907e-05 -146.7131464
77.19776 -131.4770053 -141.0000974
9.39004 -2.498931907e-05 -60.6200574
154.87963 -2.498931907e-05 -30.4460834
200.28958 -42.10035352 -137.0000974
91.07791 -149.9249112 -137.0000974
216.96358 -49.02752212 142.4594376
65.70236 -2.498931907e-05 -104.3630534
37.29039 -68.00002403 153.7878596
214.34665 -2.498931907e-05 138.6031646
169.68678 -6.642144259 158.9999026
62.01765 -2.498931907e-05 -131.0103024
147.68102 -2.498931907e-05 82.3520346
219.64456 -10.54560751 134.2072896
125.41892 -2.498931907e-05 -161.2658644
98.68679 -68.00002403 153.5503636
-0.0002699995839 -30.86039972 -2.827509398
170.08022 -118.5431727 -137.0000974
221.58136 -38.48535557 128.2473116
-0.0002699995839 -37.40566525 -74.1120604
222.6467 -44.95587348 -137.0000974
248.82599 -11.74601249 28.2153396
232.08008 -27.66427793 -137.0000974
203.32223 -2.498931907e-05 80.8433656
49.85166 -2.498931907e-05 145.5281166
251.60963 -2.498931907e-05 -32.4484234
149.46502 -117.3252148 -141.0000974
246.44573 -4.186924589 -158.4600724
186.27244 -2.498931907e-05 121.3520866
167.82075 -70.41257195 -141.0000974
137.48599 -21.03648014 152.9999026
37.97761 -2.498931907e-05 15.1908286
221.22331 -27.12877188 -137.0000974
154.31287 -2.498931907e-05 101.1754276
90.66794 -2.498931907e-05 19.1426426
108.15783 -2.498931907e-05 84.4439376
224.16937 -11.33627017 104.1003586
200.42141 -2.498931907e-05 -133.9221474
147.77469 -2.498931907e-05 45.8927356
117.37316 -59.69365187 158.9999026
55.65366 -175.1579322 -141.0000974
221.8615 -3.472562859 158.9999026
146.77625 -73.59988616 -141.0000974
101.36636 -52.5395022 158.9999026
185.89844 -39.35415237 -141.0000974
-0.0002699995839 -49.74592742 -64.5196784
168.26932 -90.86650699 -141.0000974
193.79988 -2.498931907e-05 100.8034136
231.28457 -19.6550023 158.9999026
32.45525 -2.498931907e-05 -33.3560624
-0.0002699995839 -6.595501649 -101.9933704
174.54499 -34.94280309 158.9999026
50.03289 -2.498931907e-05 -92.0722604
241.17548 -2.498931907e-05 34.8334396
21.10665 -2.498931907e-05 104.0318456
67.70927 -55.7427552 158.9999026
225.84649 -2.498931907e-05 -45.9912134
126.80639 -38.25357991 158.9999026
189.51986 -2.498931907e-05 -136.8946514
148.87228 -59.29327073 152.9999026
219.26364 -2.498931907e-05 -73.9159874
155.27101 -2.498931907e-05 150.4825966
210.10504 -75.95252719 -141.0000974
50.68207 -23.34726742 158.9999026
-0.0002699995839 -0.05273035932 -110.0163054
213.45843 -24.14568898 137.0647696
250.24434 -38.92789846 -141.0000974
156.7288 -2.498931907e-05 -41.2758004
-0.0002699995839 -10.32147028 -5.484226398
173.56814 -2.498931907e-05 134.4728466
45.68213 -50.31672602 158.9999026
220.69314 -2.498931907e-05 118.2781786
205.12384 -95.59134799 -141.0000974
4.43191 2.140741601 158.9999026
98.95741 -2.498931907e-05 96.9986546
143.62119 -39.22756829 158.9999026
244.88663 -2.498931907e-05 -68.8371444
228.16999 -2.498931907e-05 86.7401666
-0.0002699995839 -29.87141864 -151.0062754
-0.0002699995839 -32.92791536 85.5591716
16.547 -176.7501273 -141.0000974
19.95229 -43.97295445 158.9999026
110.16017 -39.93209943 158.9999026
242.46615 -67.70853094 -159.6343754
-0.0002699995839 -23.95390552 73.0925906
240.63377 -2.498931907e-05 54.2580856
105.28977 -2.498931907e-05 64.7789506
191.76348 -104.9889417 -141.0000974
117.6309 -93.01035599 -141.0000974
69.22624 -2.498931907e-05 -94.3912504
41.67919 -6.028250469 158.9999026
231.95008 -44.44402954 96.3358236
237.79671 -2.498931907e-05 120.7741746
188.0141 -61.4940784 -137.0000974
232.00253 -70.437099 -137.0000974
79.90063 0.3085009707 -16.7874504
220.95218 -53.51428584 -159.7270884
38.8434 -30.75481737 152.9999026
22.20907 -2.498931907e-05 -45.0667974
168.00363 -2.498931907e-05 -95.1077224
249.13622 -2.498931907e-05 17.8985736
177.2599 -2.498931907e-05 -87.9976654
226.21431 -49.85009972 113.9886056
247.12277 -2.498931907e-05 112.9033376
-0.0002699995839 -0.2537279893 -147.1523284
11.13318 -2.498931907e-05 110.5879766
251.24258 -30.7259134 152.9999026
-0.0002699995839 -22.40229018 -137.5903064
219.68039 -65.42472809 -137.0000974
251.19043 -33.48106261 20.9382826
59.78258 -2.498931907e-05 -145.2473064
45.36657 -151.5195462 -137.0000974
230.65114 -0.1322205193 100.3324106
23.07118 -2.498931907e-05 -133.0861564
172.634 -2.498931907e-05 -109.2791774
158.44561 -2.498931907e-05 -115.5792914
242.3551 -2.498931907e-05 135.5462466
157.11643 -2.498931907e-05 -88.6196414
221.51283 -2.498931907e-05 -127.8308254
100.56809 -2.498931907e-05 150.4095986
12.04208 -146.1590758 -137.0000974
156.63636 -23.46038966 152.9999026
242.74185 -42.0241398 -159.5530234
251.49826 -5.948407749 36.1722446
243.94818 -39.71589025 152.9999026
120.4076 -146.3983535 -137.0000974
236.69153 -4.113184889 -161.3383644
137.53232 -77.1467057 -141.0000974
-0.0002699995839 -8.353253079 -141.1422024
172.152 -2.498931907e-05 -149.9845664
8.52598 -157.7925899 -137.0000974
195.15703 -23.33780335 158.9999026
43.38281 -2.498931907e-05 -129.2868004
222.97709 -83.82744047 -141.0000974
-0.0002699995839 -21.05717428 -1.940586398
184.0483 -2.498931907e-05 -44.5208674
199.81816 -6.508442329 152.9999026
7.55956 -179.6783229 -137.0000974
38.05441 -2.498931907e-05 134.7416106
127.44956 -2.498931907e-05 19.6266686
28.29402 -157.2578274 -137.0000974
73.53503 -168.5074936 -137.0000974
207.62902 -2.498931907e-05 -36.5162114
-0.0002699995839 -40.77862004 -133.8709944
179.56997 -17.79656095 152.9999026
138.62541 -31.12097029 152.9999026
238.45517 -2.498931907e-05 -84.5227104
244.55925 -10.60238222 57.5284586
236.27324 -2.498931907e-05 24.8598906
242.34989 -2.498931907e-05 9.908025602
-0.4877999996 -2.498931907e-05 92.3291026
137.88111 -2.498931907e-05 142.2172766
211.14656 -2.498931907e-05 12.1221106
-0.0002699995839 -6.677871089 56.4942156
223.58361 -2.498931907e-05 -3.675564398
101.11271 -153.7825545 -141.0000974
39.47507 -2.498931907e-05 113.2104216
-0.0002699995839 -31.55838978 -105.3379404
17.49426 -2.498931907e-05 16.0946256
-0.8875699996 -215.2376454 -137.0000974
70.65375 -2.498931907e-05 128.8594396
-0.1864799996 -27.01573776 158.9999026
211.86066 -33.73874084 152.9999026
230.32273 -58.06603149 152.9999026
159.83632 -39.74555522 158.9999026
159.82417 -2.498931907e-05 -8.196810398
-0.0002699995839 -36.03949547 136.9974916
110.81935 -145.7899793 -141.0000974
8.61839 -2.498931907e-05 -88.8722574
19.34098 -2.498931907e-05 -81.1149974
126.56837 -11.58669458 158.9999026
101.33607 -4.006610529 158.9999026
33.94838 -2.498931907e-05 86.5604306
-0.0002699995839 -23.81097366 -114.5051334
188.794 -2.498931907e-05 -98.3859724
103.49721 -2.498931907e-05 33.3163316
4.08963 -2.498931907e-05 127.0543806
70.42011 -145.3829283 -141.0000974
14.25394 -2.498931907e-05 85.9191776
200.37665 -68.24445441 -137.0000974
247.50801 -2.498931907e-05 -120.7995174
150.08648 -2.498931907e-05 -101.7630584
113.57364 -129.2013372 -141.0000974
249.10196 -20.41458004 -141.0000974
-0.0002699995839 -9.739393199 -157.2905874
215.96692 -19.5597029 145.5264706
150.18517 -2.498931907e-05 15.7353226
193.20767 -83.67180504 -137.0000974
48.40096 -182.5758396 -137.0000974
-0.0002699995839 -10.49995073 134.5169766
21.38139 -2.498931907e-05 56.2292346
93.62986 -115.8600418 -137.0000974
58.9002 -62.10416892 152.9999026
219.0307 -50.00002499 123.0358216
-0.0002699995839 -49.24696899 93.6566946
242.37646 -30.33378166 48.0646946
185.19522 -2.498931907e-05 108.1321986
233.21124 -42.33859879 -156.1096454
38.51026 -15.78184923 152.9999026
108.04461 -108.2800095 -137.0000974
-0.0002699995839 -37.5591415 -18.0025264
165.79845 -60.83660265 -137.0000974
31.34781 -2.498931907e-05 -68.2602634
237.02377 -23.00591932 80.7204626
97.789 -2.498931907e-05 -152.0967234
208.97517 -2.498931907e-05 31.4974846
229.06458 -49.34577322 89.0343786
89.63237 -98.40033807 -137.0000974
80.0718 -57.91861482 152.9999026
234.98341 -2.498931907e-05 -60.6062364
16.58203 -195.6645842 -137.0000974
43.0884 -2.498931907e-05 -50.1530884
-0.0002699995839 -40.38349783 -29.5999074
80.31917 -31.37081135 152.9999026
-0.0002699995839 -29.26171123 53.6862096
239.40898 -50.00002499 70.6933326
216.92639 -15.82180583 126.3913566
199.76096 -2.498931907e-05 -56.9787804
70.99754 -21.56888909 152.9999026
43.29932 -2.498931907e-05 -106.4192124
218.61442 -18.2980368 -137.1272884
-0.0002699995839 -26.36095261 20.9445816
197.12425 -2.498931907e-05 146.6106436
-0.07256999958 -50.00002499 151.1245446
-0.0002699995839 -3.851592189 -16.3936194
9.76227 -2.498931907e-05 -26.7422774
76.3592 -2.498931907e-05 104.2596696
177.27146 -2.498931907e-05 -126.6366394
159.03042 -2.498931907e-05 -134.6649724
213.60899 -2.498931907e-05 69.7184046
46.08582 -2.498931907e-05 -6.783971398
235.15664 -2.498931907e-05 2.654067602
128.4991 -28.93370077 152.9999026
96.18371 -2.498931907e-05 26.7925786
43.6384 -2.498931907e-05 63.8365206
24.13725 -2.498931907e-05 -151.9854694
5.67228 -2.498931907e-05 -35.8187684
137.04389 -2.498931907e-05 -136.6894824
129.05164 -2.498931907e-05 126.1104056
226.54231 -10.1589475 112.9786256
31.42569 -29.03877206 158.9999026
142.20042 -113.5665048 -137.0000974
77.51821 -13.86728497 152.9999026
184.48259 -101.2649128 -137.0000974
37.08536 -201.0251612 -140.9396304
175.45707 -2.498931907e-05 -23.5927374
228.2837 -40.7688682 152.9999026
233.62071 -2.498931907e-05 39.8803846
-1.31386 -2.498931907e-05 1.963395602
-0.0002699995839 -14.19536285 66.3052876
204.74918 -2.498931907e-05 -88.0238744
61.40362 -143.4316889 -137.0000974
206.21776 0.1061478707 158.9999026
243.73838 -2.498931907e-05 144.5032816
-0.0002699995839 -39.02681852 -47.9563614
247.2332 -2.498931907e-05 -7.850965398
201.22599 -51.78531402 -137.0000974
115.95037 -2.498931907e-05 -139.4242234
110.29573 -2.498931907e-05 15.9272536
202.77839 -58.09729273 152.9999026
140.21733 -60.78460335 158.9999026
229.13053 -2.498931907e-05 -140.0419074
19.15974 -2.498931907e-05 -102.9888724
-0.0002699995839 -34.02717933 -88.9929564
189.0723 -2.498931907e-05 68.9238946
215.9234 -2.498931907e-05 110.6273426
11.12995 -7.576597489 152.9999026
-0.0002699995839 -47.62016475 55.5240886
252.26969 -28.08269472 33.7985876
-0.0002699995839 -7.858154649 41.8771936
173.7519 -41.58129864 152.9999026
249.05628 -54.45574829 -157.6897464
230.85037 -23.11125213 99.7201646
154.00024 -2.498931907e-05 -77.2323444
210.66065 -2.498931907e-05 -144.4197624
-0.0002699995839 -41.24825011 -157.3179474
-0.0002699995839 -29.27362727 64.5936526
94.12006 -2.498931907e-05 -138.2321474
140.37138 -2.498931907e-05 10.4734116
223.10564 -30.91776593 107.3739626
205.21318 -2.498931907e-05 -21.3640094
88.92142 -2.498931907e-05 94.0531106
148.12942 -125.4732039 -137.0000974
185.59621 -93.37703403 -141.0000974
88.63154 -55.44994792 152.9999026
74.88201 -2.498931907e-05 -112.7007434
79.67876 -151.1742065 -137.0000974
-0.0002699995839 -10.03523655 -23.8694554
25.17676 -2.498931907e-05 -122.8397934
14.50384 -2.498931907e-05 -5.133202398
236.41919 -35.70912602 158.9999026
125.42351 -2.498931907e-05 108.7719966
217.21587 -2.498931907e-05 -48.0456674
248.23955 -12.38909446 46.2017756
98.69628 0.2319121007 6.899435602
222.27433 -39.33465658 109.9326126
97.47194 -2.498931907e-05 129.8803716
84.90474 -2.498931907e-05 6.974536602
65.812 -29.80580027 152.9999026
26.53473 -183.7142443 -141.0000974
-0.0002699995839 -39.7985147 -109.5160854
227.03662 -59.64948844 -157.9316714
74.15873 -64.81793556 152.9999026
230.74327 -16.81583324 83.8675696
190.77536 -2.498931907e-05 139.8780366
-0.0002699995839 -25.04766714 10.5526746
66.52088 -2.498931907e-05 -155.4495974
53.19773 -2.498931907e-05 -54.4211224
122.87091 -111.1537786 -137.0000974
197.10184 -40.90292575 158.9999026
-0.2362699996 -50.00002499 75.6997346
45.82777 -134.6255892 -141.0000974
-0.0002699995839 -0.3427698593 -51.0382314
25.3073 -26.01281353 152.9999026
66.76662 -112.1465241 -139.7668324
1.68297 -198.5906052 -141.0000974
54.07456 -31.43559483 158.9999026
214.9652 -32.7857599 132.4275916
9.13872 -32.02242172 152.9999026
187.43155 -13.46345368 152.9999026
140.45001 -2.498931907e-05 -3.024864398
208.89678 -58.05069538 -141.0000974
250.4808 -2.498931907e-05 -103.2983624
28.33283 -1.472374099 158.9999026
116.28218 -2.498931907e-05 46.0677566
37.85391 -2.498931907e-05 -75.4271494
96.25807 -2.498931907e-05 60.9370896
219.91853 -2.498931907e-05 13.4138436
216.91172 -2.498931907e-05 -120.4713204
56.6934 -2.498931907e-05 117.7971626
155.31359 -2.498931907e-05 63.6273816
0.5408200004 -170.2983887 -137.0000974
117.33153 -44.17902422 152.9999026
158.22238 -2.498931907e-05 2.240525602
208.31246 -2.498931907e-05 62.4600356
99.46468 -33.67105836 158.9999026
130.23488 -51.74163035 152.9999026
235.75885 -35.47811231 -137.0000974
232.37792 -33.19318715 78.8369886
92.38163 -22.16222904 158.9999026
82.18375 -2.498931907e-05 -1.893258398
133.91347 -68.00002403 156.2635266
176.36309 -2.498931907e-05 89.8028486
5.08981 -2.498931907e-05 19.3959396
52.21252 -2.498931907e-05 8.327633602
75.31638 -2.498931907e-05 -158.7161774
42.35298 -2.498931907e-05 -120.7478854
237.03859 -41.02362007 64.4930566
100.35467 -16.47392333 152.9999026
51.85181 -2.498931907e-05 -135.9667944
140.15559 -91.73223012 -141.0000974
136.55958 -2.498931907e-05 26.3430216
-0.8238099996 -191.43527 -137.0000974
57.06935 -2.674963629 152.9999026
64.70759 -123.4097322 -137.0000974
238.12151 -60.44314434 -160.9164034
-0.0002699995839 -5.987800549 31.3776606
213.79925 -63.03315992 152.9999026
182.70171 -2.498931907e-05 39.6931246
-0.0002699995839 -6.384555019 -35.4727194
62.28145 -2.498931907e-05 53.3329966
52.18729 -2.498931907e-05 107.9684546
44.28901 -2.498931907e-05 80.7619816
89.21603 -141.6697906 -141.0000974
249.43009 -35.67192515 -157.5794414
192.4067 -2.498931907e-05 36.2462486
154.31851 -2.498931907e-05 40.4412986
155.93747 -2.498931907e-05 -147.4494574
15.2609 -163.0026731 -137.0000974
24.17039 -65.47425253 152.9999026
-0.0002699995839 -11.37942428 -47.6889844
178.44386 -2.498931907e-05 124.6399316
149.7571 -2.498931907e-05 -124.4212084
170.98588 -2.498931907e-05 -63.7494034
181.91037 -2.498931907e-05 54.7593056
166.56657 -56.46758112 152.9999026
169.94156 -53.45312528 -137.0000974
-0.0002699995839 -12.30316756 85.3527046
79.5964 -2.498931907e-05 -131.3145804
241.93886 -68.00002403 157.5339476
49.31538 -123.6523823 -141.0000974
-0.0002699995839 -15.8787595 -30.4640184
-0.8008399996 -39.80106217 151.9999026
171.00829 1.686477481 158.9999026
72.13051 -2.498931907e-05 89.1238566
173.00733 -11.54408786 152.9999026
156.37866 -5.863213589 158.9999026
251.53173 -15.74177159 19.8875036
210.26592 -2.498931907e-05 -94.3576624
21.79708 -58.28183618 158.9999026
182.51239 -48.62545979 152.9999026
127.76417 -2.498931907e-05 76.1214076
176.32613 -2.498931907e-05 21.7823176
75.03525 -46.47066133 158.9999026
37.52286 -2.498931907e-05 6.832425602
2.34058 -14.06969596 158.9999026
79.30669 -113.8625749 -141.0000974
-0.0002699995839 -35.05745273 120.4174736
204.0395 -2.498931907e-05 1.586847602
225.47604 -61.25589198 158.9999026
60.42284 -2.498931907e-05 -29.5702524
-0.0002699995839 -13.75822953 114.5961586
239.43251 -52.51439101 152.9999026
239.89738 -2.498931907e-05 -38.9627594
135.47197 -129.0713295 -137.0000974
102.0857 -124.0015405 -141.0000974
215.55911 -16.29229502 158.9999026
71.00264 0.3520739807 -56.8132554
232.50953 -31.29355057 94.6139256
12.25775 -47.33923575 158.9999026
98.47677 -57.55602007 152.9999026
140.03042 -2.498931907e-05 -159.0569414
187.74129 -2.498931907e-05 60.7368876
-0.0002699995839 -11.57034432 13.7014156
65.63765 -23.52243816 158.9999026
125.09369 -139.5751223 -137.0000974
117.50747 -67.46233889 152.9999026
-0.0002699995839 -26.88434069 38.5870146
38.91631 -182.3465993 -141.0000974
66.46212 -2.498931907e-05 1.768195602
64.94788 -10.6664837 152.9999026
218.32034 -2.498931907e-05 -57.3206054
-0.0002699995839 -42.0956188 68.6608196
215.9904 -5.852340789 152.9999026
151.36671 -29.89631143 152.9999026
240.11494 -13.92462894 71.2066956
238.15482 -2.498931907e-05 -135.9477884
-0.0002699995839 -20.07137953 128.4890276
117.4938 -2.498931907e-05 118.6137756
242.93775 -2.498931907e-05 64.8620536
54.20525 -2.498931907e-05 128.5635646
56.9396 -2.498931907e-05 100.9120506
221.77914 -35.21871616 -159.4830664
241.55191 -41.36691746 50.6024696
152.16923 -2.498931907e-05 92.0366906
34.42651 -2.498931907e-05 -89.3772734
70.96291 -2.498931907e-05 -20.3265384
93.49324 -2.498931907e-05 78.3856186
47.03494 -15.65775268 152.9999026
238.70399 -73.69702035 -141.0000974
-0.1023599996 -2.498931907e-05 -133.0321294
226.52094 -2.498931907e-05 -64.4913644
122.70855 -83.02077083 -137.0000974
224.00684 -50.0722409 158.9999026
203.65605 -2.498931907e-05 -29.3596794
177.9153 -73.98815592 -137.0000974
-0.0002699995839 -37.3893744 -124.2176644
23.72466 -208.4210629 -141.0000974
228.91198 -41.310109 105.6861236
56.20183 -2.498931907e-05 43.6467656
56.73285 -2.498931907e-05 22.9533656
185.72862 -18.65172409 158.9999026
252.43658 -38.37171211 -150.4365654
96.14516 -2.498931907e-05 114.4819156
30.95817 -2.498931907e-05 19.2370096
249.68637 -2.498931907e-05 -24.5803744
60.01422 -2.498931907e-05 -98.6015644
201.11391 -17.47190189 158.9999026
102.65409 -2.498931907e-05 136.3416826
243.2485 -2.498931907e-05 -77.5249464
163.82415 -2.498931907e-05 52.1144016
113.82457 -26.84894387 152.9999026
162.64176 -2.498931907e-05 33.1818336
-0.0002699995839 -21.88906807 -10.6464564
32.63374 -2.498931907e-05 -14.8692644
74.40577 -2.498931907e-05 76.1382496
-0.0002699995839 -31.5792857 -68.5392204
63.69686 -2.498931907e-05 37.5387286
114.09412 -2.498931907e-05 126.7126746
146.84462 -2.498931907e-05 32.9014366
234.57724 -2.498931907e-05 72.7023876
189.228 -48.03243355 158.9999026
218.62935 -17.88869275 137.3323496
71.00733 1.134934141 152.9999026
115.81309 -110.3495788 -141.0000974
87.29488 -13.29954044 152.9999026
19.41272 -2.498931907e-05 -141.6293974
26.65125 -144.6732104 -137.0000974
223.02075 -2.498931907e-05 151.7566926
77.55423 -2.498931907e-05 45.9968996
214.18763 -44.66999219 158.9999026
-0.0002699995839 -21.99925116 -77.2792514
168.16346 -2.498931907e-05 -2.847083398
160.21504 -104.7971838 -141.0000974
7.13854 -2.498931907e-05 46.5064206
9.12602 -2.498931907e-05 -43.0432624
4.96664 -150.3415751 -137.5274294
195.61808 -2.498931907e-05 -126.2611384
133.91069 -34.5679273 158.9999026
225.95726 -23.21588701 114.7795316
172.02283 -2.498931907e-05 -141.6122674
117.89413 0.1529557707 152.9999026
222.18978 -9.813453489 126.3739006
220.63004 -32.80915798 158.9999026
70.25571 -138.4803575 -137.0000974
47.60214 -2.498931907e-05 34.9095946
182.52581 -37.79509783 152.9999026
60.41507 -2.498931907e-05 -80.0759394
84.39111 -165.4935677 -141.0000974
171.04679 -2.498931907e-05 42.9766086
237.72134 -31.32466735 62.3916586
81.65195 -2.498931907e-05 52.9504596
166.84035 -1.481601919 152.9999026
201.2944 -30.14181492 -137.0000974
250.74702 -2.498931907e-05 -49.6115784
178.06476 -27.38020024 158.9999026
54.83559 -58.43419495 158.9999026
31.81426 -52.95381545 158.9999026
-0.8717799996 -14.41156495 148.0553326
1.04897 -162.7821894 -141.0000974
118.33271 -2.498931907e-05 102.3413926
249.69858 1.735521451 36.8591726
179.4744 -2.498931907e-05 5.405173602
200.51479 -2.498931907e-05 44.0257436
163.96255 -2.498931907e-05 12.4689936
102.60637 -138.3842081 -141.0000974
174.0957 -60.42653454 158.9999026
60.212 -45.05155565 158.9999026
119.83532 -55.21291333 152.9999026
241.49543 -52.79766656 -141.0000974
180.45005 -2.498931907e-05 144.7961916
188.94611 -2.498931907e-05 -36.9276384
139.6322 -83.58989051 -137.0000974
145.03148 -10.05859925 152.9999026
192.03762 -30.55575251 158.9999026
162.03369 -2.498931907e-05 73.8140866
210.8839 -35.8245533 144.9885456
22.603 -2.498931907e-05 -33.3892454
64.16516 -2.498931907e-05 -13.6273104
192.88484 -1.670501099 152.9999026
149.40368 -48.15371339 152.9999026
61.32082 -2.498931907e-05 132.3979136
130.04665 -2.498931907e-05 49.6561356
211.1709 -2.498931907e-05 86.8707006
215.37193 -2.498931907e-05 38.8151986
156.17499 -117.9290997 -137.0000974
244.5863 -22.4140993 57.4454776
141.0332 -17.47612977 158.9999026
75.80285 -7.218467869 158.9999026
194.1211 -48.51013091 -137.0000974
117.96049 -2.498931907e-05 76.7786136
-0.0002699995839 -47.33628632 125.9385726
248.52381 -2.498931907e-05 105.2243066
104.67107 -2.498931907e-05 -159.5895714
186.76353 -79.21163394 -137.0000974
85.54769 -118.0697127 -137.0000974
201.13391 -2.498931907e-05 130.2950846
44.46656 -25.05715152 152.9999026
22.45393 -2.599001239 152.9999026
151.79638 -77.99011081 -137.0000974
110.47375 -116.1084385 -141.0000974
181.20512 -2.498931907e-05 71.2805776
212.30191 -51.19779342 152.9999026
133.20808 0.07370096068 -124.8053304
184.63808 -2.498931907e-05 -91.6715964
45.08692 -2.498931907e-05 27.3109826
137.91516 -0.4799442993 152.9999026
196.00715 -2.498931907e-05 -3.594489398
148.56914 1.998308631 -72.0800744
190.47268 -2.498931907e-05 -54.5114954
154.13056 -2.498931907e-05 -108.3571744
38.49332 -58.4970186 152.9999026
-0.0002699995839 -41.95545649 100.9813006
-0.9770299996 -2.498931907e-05 120.6934496
251.14111 -46.58703655 -141.0000974
103.84571 -2.498931907e-05 102.9516136
224.15137 -2.498931907e-05 -30.7963894
215.02453 -43.39969609 148.4271356
-0.0002699995839 -15.69710543 -103.5320804
92.96451 -2.757262719 152.9999026
47.61135 -59.20350146 152.9999026
147.63091 -2.498931907e-05 133.4991146
-0.0002699995839 -26.1690087 -46.6325744
95.26152 -35.9347331 152.9999026
11.60313 -172.4683202 -137.0000974
-0.0002699995839 -37.41224723 48.5483426
212.60438 -2.498931907e-05 94.3977566
5.77014 -2.498931907e-05 56.6037156
240.54732 -6.365934879 152.9999026
62.02768 -157.3480433 -137.0000974
134.11748 -12.71361068 158.9999026
156.27448 -15.99231782 158.9999026
159.50844 -2.498931907e-05 118.0304076
188.08533 -2.498931907e-05 -1.219632398
82.49247 -27.20450669 158.9999026
240.62386 -2.498931907e-05 -99.9367674
251.61725 -2.498931907e-05 -87.3356974
-0.0002699995839 -7.599127809 -120.5833024
240.26162 -4.099868869 -154.0291934
246.40908 -19.84365131 152.9999026
155.08238 -45.66329039 158.9999026
-0.0002699995839 -13.67692782 53.4296996
125.88535 -122.5285234 -141.0000974
114.03365 -2.498931907e-05 67.3404146
164.86016 -2.498931907e-05 -129.1141004
172.91939 -109.5031484 -137.0000974
222.97665 -30.59270619 123.9529576
233.40482 -47.86656611 152.9999026
65.84291 -2.498931907e-05 -48.6947634
31.06359 -33.60601022 152.9999026
230.64365 -10.31737315 100.3560616
68.71331 -2.498931907e-05 -33.8297434
152.26292 -62.35059443 158.9999026
241.66863 -7.737198649 50.2439806
-0.0002699995839 -40.61431822 6.797654602
68.4817 -35.42798426 158.9999026
238.25703 -42.95441963 76.9250856
31.86545 -2.498931907e-05 -119.4113024
96.43583 -2.498931907e-05 51.2239646
109.8206 -53.5927928 158.9999026
88.74865 -2.498931907e-05 70.5059306
85.27328 -58.61098368 158.9999026
249.95192 -49.57679403 40.9317586
52.63367 -45.42260346 158.9999026
159.17316 -31.58243669 158.9999026
-2.46551 -42.05474616 158.9999026
239.03865 -2.498931907e-05 96.1532046
134.95907 -3.846922639 158.9999026
128.24518 -17.59845613 152.9999026
184.7461 -32.25279014 158.9999026
28.77669 -2.498931907e-05 60.3802286
105.16119 -24.16469929 152.9999026
163.74056 -21.17394022 152.9999026
202.7245 -62.53490069 158.9999026
124.2379 -93.0698518 -137.0000974
38.94574 -158.895872 -137.0000974
238.4993 -12.58028875 -160.8049244
47.09422 -168.9154182 -137.0000974
88.08787 -2.498931907e-05 101.4451736
203.18997 -2.498931907e-05 151.7471476
45.50609 -2.498931907e-05 126.8873976
-0.0002699995839 -35.47339083 104.9260236
232.89502 -20.02374154 -137.0000974
224.37306 -7.547370989 119.6554736
230.50406 -24.63631009 152.9999026
162.67562 -123.4049851 -140.3791924
136.71721 -2.498931907e-05 101.0153966
6.46689 -204.5720437 -141.0000974
191.33909 -68.16019966 -141.0000974
119.29332 -35.12732814 152.9999026
-0.0002699995839 -25.42045929 -144.3425244
197.67911 -67.84252134 152.9999026
243.40642 -39.47271837 61.0769356
107.98894 -6.031215489 152.9999026
17.6381 -2.498931907e-05 -58.7692404
28.67304 -16.12383028 152.9999026
218.47763 -27.86512969 -160.4572864
81.6963 -105.0919287 -137.0000974
-0.0002699995839 -24.21414194 147.2105296
15.64365 -11.64450535 158.9999026
46.48188 -32.89170557 158.9999026
19.93959 -2.498931907e-05 0.6314516023
134.30393 -2.498931907e-05 40.8885606
244.04612 -44.8023813 42.9260066
201.32646 -40.60283445 152.9999026
113.17267 -1.158202779 158.9999026
242.87739 -0.6601353893 158.9999026
247.75215 -18.94984991 31.5198826
21.74813 -2.498931907e-05 -9.401459398
202.5324 -36.15151022 -141.0000974
120.48561 -2.498931907e-05 140.0400136
244.56246 -26.90408389 -152.7600874
112.25593 -11.79544389 158.9999026
12.05179 -2.498931907e-05 152.0432486
158.81187 -2.498931907e-05 84.6481506
250.7468 -8.622827459 -150.9351924
151.12161 -36.57499939 158.9999026
189.55344 -43.61866626 152.9999026
62.21002 -178.3484958 -141.0000974
171.39022 -2.498931907e-05 -83.6743884
148.51313 -2.498931907e-05 -12.8615114
39.2209 -2.498931907e-05 73.0277016
-0.0002699995839 -29.67945304 -137.8225564
-0.0002699995839 -18.32242694 89.8395526
20.79178 -2.498931907e-05 -69.6763514
48.07459 -2.498931907e-05 95.5945286
78.97222 -2.498931907e-05 152.0530236
164.60429 -2.498931907e-05 -67.2321524
177.57462 -103.5005083 -137.0000974
250.82984 -8.521267249 22.0486666
166.28181 -2.498931907e-05 102.9481896
226.44798 -5.408112899 97.0885676
179.95553 -2.498931907e-05 83.5221136
50.79951 -2.498931907e-05 -116.2110474
84.41314 -131.0794186 -141.0000974
184.75599 -66.33045024 158.9999026
80.58567 -124.7754506 -137.0000974
-0.0002699995839 -39.056439 -81.1326854
195.26819 -2.498931907e-05 -141.8492344
-0.0002699995839 -31.06560302 -21.1380744
132.15029 -2.498931907e-05 64.6506656
194.42751 -27.35660662 152.9999026
-0.0002699995839 -19.77173238 106.1669266
237.73884 -2.498931907e-05 -93.2990364
91.8071 -2.498931907e-05 144.8058386
4.81457 -213.4078216 -141.0000974
184.24285 -1.546848269 158.9999026
159.32923 -78.74769626 -141.0000974
169.92524 -42.59655746 158.9999026
199.07269 -100.9100291 -140.2157004
48.72711 -12.07998494 158.9999026
241.55665 -14.82512326 -153.6470534
237.15892 -24.19886054 -141.0000974
87.67678 -30.34091436 152.9999026
125.59722 -105.851852 -141.0000974
58.38488 -2.498931907e-05 -110.0637864
120.72953 -9.814433549 152.9999026
186.80691 -108.2746057 -137.0000974
215.17895 -2.498931907e-05 -102.4747594
58.03896 -135.2460479 -141.0000974
102.73472 -46.0935722 152.9999026
240.67393 -50.00002499 54.7435716
157.68705 -50.51128306 152.9999026
6.82239 -49.74160083 152.9999026
99.81275 -95.5400027 -141.0000974
73.54658 -2.498931907e-05 97.3834346
5.54659 -2.498931907e-05 140.0861716
233.0518 -2.498931907e-05 91.9456886
238.31989 -21.52796222 -154.6021664
243.26216 -52.06981838 158.9999026
243.07706 -33.4644602 -141.0000974
220.97908 -26.34460732 152.9999026
245.58633 -36.08948747 158.9999026
247.03959 -61.21551782 -137.0000974
69.55174 -127.3237015 -141.0000974
226.25285 -78.94881247 -137.0000974
249.41774 -44.10172863 26.3938466
243.74001 -9.513086699 -137.0000974
226.86942 -2.498931907e-05 106.3471946
218.70932 -2.498931907e-05 -112.9044754
8.6115 -22.68545994 152.9999026
166.25557 -2.498931907e-05 68.1063996
-0.0002699995839 -48.75664646 28.7916706
156.13052 -90.48652364 -141.0000974
72.36718 -162.7755681 -141.0000974
240.70639 -36.52874813 69.3867346
149.59037 -19.51758418 158.9999026
234.21189 -2.498931907e-05 60.5675646
242.92284 -2.498931907e-05 22.4509366
25.60802 -2.498931907e-05 83.8974716
176.45062 -30.75105995 152.9999026
75.65485 -2.498931907e-05 1.441056602
108.76429 -100.2726778 -141.0000974
118.14893 -2.498931907e-05 25.2745026
70.16483 -58.99602844 152.9999026
220.79828 -44.38583348 152.9999026
169.37918 -2.498931907e-05 -36.7307954
31.56467 -2.498931907e-05 103.7092416
135.06157 -44.36014364 158.9999026
106.9063 -46.16614887 158.9999026
219.78002 -21.40685978 117.6089186
1.98402 -6.924376279 152.9999026
11.41801 -38.65425151 158.9999026
248.67379 -32.48029392 44.8656426
158.6837 -61.1265787 -137.0000974
227.06565 -50.41281322 -137.0000974
197.59702 -2.498931907e-05 84.8865076
99.57198 -7.167979069 152.9999026
25.02926 -2.498931907e-05 42.1166506
43.70546 -65.29791091 152.9999026
235.52404 -14.91217694 -141.0000974
36.70336 -2.498931907e-05 64.8062856
8.29494 -2.498931907e-05 94.0336546
240.20803 -2.498931907e-05 127.3400266
-0.0002699995839 -16.1738351 -118.0670014
132.15988 -2.498931907e-05 135.2109046
-1.99875 -32.98855753 152.9999026
29.25927 -67.62232993 158.9999026
-0.0002699995839 -5.865931549 -90.0952314
21.77467 -200.3358383 -137.0000974
199.40883 -79.17515868 -141.0000974
74.0134 -2.498931907e-05 24.1436736
45.22547 -44.38556744 152.9999026
9.01766 -2.498931907e-05 29.4143166
164.94599 -16.23378304 158.9999026
161.61714 -2.498931907e-05 -36.2801344
187.83026 -2.498931907e-05 146.1911436
240.46316 -61.69118969 152.9999026
17.60381 -2.498931907e-05 140.1474596
142.51743 -2.498931907e-05 -113.4749964
96.60514 -122.4561071 -137.0000974
170.14537 -2.498931907e-05 25.9418466
232.71809 -49.36720667 77.7900446
29.03486 1.971637571 152.9999026
21.83795 -161.3717263 -141.0000974
97.37076 -132.8913114 -137.0000974
216.96734 -44.21579072 126.2658896
109.925 -2.498931907e-05 106.2960736
21.16622 -13.17668948 152.9999026
212.39302 -43.98903089 -137.0000974
24.88607 -171.9787828 -141.0000974
90.17664 -2.498931907e-05 11.4676516
8.82755 -56.38971793 152.9999026
228.31519 -15.68742182 107.5225036
9.06983 -199.5719592 -137.0000974
189.65763 -10.87616386 158.9999026
129.80176 -35.70711733 152.9999026
160.8235 -2.498931907e-05 98.6786056
212.8314 -22.74061366 -141.0000974
108.2728 -86.49391395 -140.9085424
231.29344 -42.25781675 -137.0000974
74.23177 -41.89593379 152.9999026
223.60381 -2.498931907e-05 93.9327376
165.65254 -52.55284637 158.9999026
233.85492 -20.70100808 90.4731056
43.14308 -2.498931907e-05 144.1046046
247.41264 -43.46115572 -151.9190484
234.44165 -2.498931907e-05 84.0007266
218.26654 -2.498931907e-05 20.2592856
143.76425 -2.498931907e-05 116.7384256
53.393 -154.4382927 -141.0000974
81.97648 -2.498931907e-05 -10.2739194
231.49658 -24.69762411 -156.6156104
215.71011 -10.22407059 -161.2739364
16.79746 -2.498931907e-05 7.707979602
91.62837 -18.58340928 152.9999026
215.3815 -2.498931907e-05 28.5575216
248.89816 -2.498931907e-05 130.8043846
25.3928 -2.498931907e-05 116.3728256
14.23549 -2.498931907e-05 -131.9985994
95.95627 -140.6708246 -141.0000974
213.97368 -2.498931907e-05 121.8422896
240.55595 -7.265784049 69.8491496
146.74336 -2.498931907e-05 142.6978796
183.78803 -2.498931907e-05 -159.7346264
183.22525 -45.61173546 -141.0000974
164.08386 -99.83857964 -137.0000974
236.6069 -38.31021134 82.0036356
35.66745 -21.95188121 152.9999026
245.93595 -27.85248559 53.2917696
237.02746 -13.70130634 80.7089516
233.27516 -26.23939741 76.0754446
110.19464 -2.498931907e-05 -143.0169444
201.27927 -49.40662019 152.9999026
141.20277 -2.498931907e-05 3.742029602
238.5003 -25.02897174 59.9941576
182.94708 -56.99904684 -137.0000974
54.1033 -38.81114811 158.9999026
219.6702 -2.498931907e-05 -137.5699234
119.56205 -131.6573131 -137.0000974
-0.9036699996 -50.00002499 -28.9554514
25.39292 -32.08447467 158.9999026
165.9337 -2.498931907e-05 -108.4071854
23.9061 -152.1199809 -137.0000974
236.06642 1.728399851 -155.2673024
43.70327 -161.5281975 -141.0000974
242.20355 -2.498931907e-05 80.5137946
175.33685 -69.21293237 -141.0000974
153.36668 -102.9818131 -141.0000974
44.29995 -187.926038 -137.0000974
146.93184 -2.498931907e-05 -133.7949134
90.75269 -2.498931907e-05 130.4041156
85.10709 -146.5009997 -137.0000974
225.65872 -20.85998307 -158.3382664
24.70062 -2.498931907e-05 -89.8465274
220.30483 -38.935986 -141.0000974
213.5326 -23.09124489 152.2834466
237.34407 -41.01581995 152.9999026
33.66899 -2.498931907e-05 -98.0450864
233.80131 -62.89934815 -137.0000974
6.43134 -2.498931907e-05 1.359401602
-0.0002699995839 -11.44203294 27.4438736
94.33001 -38.82215793 158.9999026
9.73214 -63.12085055 158.9999026
238.46715 -47.04225878 -160.8144124
161.32635 -2.498931907e-05 -93.8390834
72.26076 -114.8087465 -137.0000974
194.7901 -2.498931907e-05 -28.7420254
199.53206 -2.498931907e-05 16.1253306
138.99547 -98.03009363 -137.0000974
207.08962 -2.498931907e-05 -118.2447344
194.12413 -57.74356693 158.9999026
78.08673 -2.498931907e-05 37.3267916
251.49133 -2.498931907e-05 -69.9068414
58.59636 -42.5829958 152.9999026
21.69056 -68.00002403 158.6702106
148.25714 -2.498931907e-05 103.9978506
203.07679 -2.498931907e-05 -79.5557294
67.13907 -48.66356455 158.9999026
26.17496 -2.498931907e-05 4.762482602
101.5839 -107.0651949 -141.0000974
84.20005 -3.357809369 158.9999026
199.35167 -2.498931907e-05 -41.3066684
252.04751 -31.61704829 -137.0000974
58.81108 -162.4963858 -141.0000974
148.56194 -56.39482078 158.9999026
106.74069 -29.30650322 158.9999026
217.505 -2.498931907e-05 -151.3631924
-0.0002699995839 -30.31829196 47.1040736
-0.0002699995839 -2.497245649 71.7838966
229.37052 -50.78724552 -157.2429764
153.53476 -16.92109567 152.9999026
60.22568 -128.3360065 -137.0000974
158.30799 -2.498931907e-05 -55.4693724
169.3966 -2.498931907e-05 -55.3098144
152.98309 -2.498931907e-05 -130.2450104
192.42518 -2.498931907e-05 -113.3185544
225.1 -29.30749525 101.2359556
96.0845 -2.498931907e-05 14.5198036
66.65292 -2.498931907e-05 -87.9393734
249.31944 -23.1912258 42.8784306
230.44983 -43.88620344 84.7711286
77.09212 -143.1713399 -141.0000974
-0.0002699995839 -3.946512139 106.2536426
144.20867 -80.91983733 -141.0000974
230.04658 -10.42466276 152.9999026
236.77255 -42.57939468 -141.0000974
127.33327 -2.498931907e-05 82.7367556
-0.0002699995839 -18.90953188 39.1716806
193.01237 -2.498931907e-05 119.4845366
211.36765 -2.498931907e-05 -87.7323844
26.22977 -12.45232818 158.9999026
134.06176 -51.67959298 158.9999026
246.67026 -2.498931907e-05 46.4715176
-0.0002699995839 -36.69626489 -152.5266254
92.7871 -108.0716959 -141.0000974
214.35154 -6.697769479 138.4649476
203.42944 -55.40979937 158.9999026
243.70946 -19.27178469 158.9999026
209.76738 -21.27586486 158.9999026
174.86713 -55.26067595 -141.0000974
238.64918 -34.58372586 75.7181396
89.18861 -44.47452742 152.9999026
205.0533 -2.498931907e-05 124.5695106
243.60542 -37.24294472 44.2824766
122.91537 -25.45286547 152.9999026
182.87591 -62.42054196 -141.0000974
166.22234 -2.498931907e-05 -101.4855784
216.86982 -37.3572939 142.7478576
220.11571 -2.498931907e-05 68.7967066
28.51347 -149.6804021 -141.0000974
60.37811 -2.498931907e-05 -124.6476564
94.79956 -127.4424904 -141.0000974
131.36783 -134.876871 -137.0000974
106.35809 -54.41241442 152.9999026
232.91571 -33.81830315 152.9999026
175.92483 -2.498931907e-05 -103.5979724
151.48686 -65.21715408 -141.0000974
43.17048 -2.498931907e-05 -19.6890084
244.57955 -2.498931907e-05 -114.9270184
146.5943 -16.43104424 152.9999026
189.45214 -98.68077368 -141.0000974
72.671 -2.498931907e-05 -39.0513074
246.01406 -42.6254049 158.9999026
30.26878 -2.498931907e-05 131.9573606
142.28575 -41.46293398 152.9999026
67.38232 -2.498931907e-05 -62.2486464
20.58831 -55.24398247 152.9999026
212.08528 -3.170951569 158.9999026
92.34118 -2.498931907e-05 35.4566026
65.3802 -65.3249185 152.9999026
-0.0002699995839 -3.908870159 79.1648016
238.33356 -2.498931907e-05 -66.2072344
246.86372 -2.498931907e-05 59.6499626
53.54523 -182.8732285 -141.0000974
211.57609 -2.498931907e-05 75.9159336
214.90396 -2.498931907e-05 146.9548256
-0.0002699995839 -2.273373619 98.4185266
37.86313 -2.498931907e-05 121.4936456
227.89644 -63.2400129 -141.0000974
16.73262 -213.5938556 -141.0000974
219.80019 -1.077840529 133.7279806
143.20461 -8.327764129 158.9999026
231.48246 -2.498931907e-05 66.6010936
115.30257 -45.63695662 158.9999026
221.66302 -45.52243344 111.8141406
147.51949 1.879167791 -46.6727534
27.62129 -2.498931907e-05 -48.6361874
85.92611 -2.498931907e-05 62.3962546
233.15335 -50.30285812 158.9999026
49.84997 1.538745621 152.9999026
149.15422 -2.498931907e-05 -22.8123294
212.84196 -65.24202642 158.9999026
-0.0002699995839 -3.810436899 132.2015946
216.30258 -8.219752639 158.9999026
59.31938 -2.498931907e-05 94.3543076
111.2905 -124.6117812 -137.0000974
230.62176 -2.498931907e-05 -51.1372514
131.33992 -126.148029 -141.0000974
172.07729 -67.11906223 152.9999026
37.32626 -2.498931907e-05 -124.9351664
19.04015 -169.5852728 -137.0000974
73.39534 -2.498931907e-05 69.7720066
-0.0002699995839 1.291493021 -31.8842304
69.42119 -6.324995829 158.9999026
176.40224 -66.4336656 158.9999026
170.01574 -64.36542932 -141.0000974
29.9931 -194.7345328 -137.0000974
53.34444 -2.498931907e-05 -148.3534804
-0.0002699995839 -49.55866026 -108.6813774
196.22915 -50.45382324 158.9999026
214.53332 -64.85612182 -141.0000974
245.74804 -44.94467546 53.8700616
226.38712 -35.91049139 113.4567346
195.61872 -56.0296174 -137.0000974
244.89797 -17.79406825 40.3040726
-0.0002699995839 -20.37361609 -58.8205174
188.46739 -6.307612689 152.9999026
91.43208 -163.0544324 -141.0000974
244.6526 -11.10001355 41.0597446
6.18776 -26.44141661 158.9999026
34.10398 -157.7125946 -141.0000974
196.73969 -2.498931907e-05 -83.0994014
55.85591 -2.498931907e-05 -41.4420944
81.63971 -49.71060499 152.9999026
-0.0002699995839 -49.3697447 15.4545376
12.65588 -184.8254773 -137.0000974
-0.0002699995839 -41.07603066 89.6322506
123.3545 -116.6756023 -141.0000974
181.77211 -2.498931907e-05 -147.1343614
61.55059 -34.54419605 152.9999026
221.32756 -53.2678939 -141.0000974
131.55731 -103.6690073 -137.0000974
57.19395 -2.498931907e-05 -12.8607384
212.41863 -2.498931907e-05 5.896159602
14.12522 -46.23881993 152.9999026
79.31927 -2.498931907e-05 -151.6936454
-0.0002699995839 -36.33378682 0.3759326023
-0.7473399996 -210.201444 -141.0000974
6.28865 -2.498931907e-05 -159.7999344
68.7277 -2.498931907e-05 54.8838126
-0.0002699995839 -9.331524419 1.218621602
207.46497 -42.76539879 158.9999026
142.34068 -75.71447503 -137.0000974
-0.0002699995839 -2.326421469 38.7939336
-0.0002699995839 -45.00351152 -45.8627034
37.71914 -2.498931907e-05 -36.8761504
11.50493 1.757736151 158.9999026
250.30842 -29.40967436 -157.3202604
103.14597 -2.498931907e-05 26.9980186
210.26433 -22.53379691 146.8951016
152.90415 -2.498931907e-05 144.1369886
210.32961 -15.39060766 146.6940666
162.72879 -2.498931907e-05 148.4382806
192.02763 -2.498931907e-05 75.5531456
251.84914 -46.17312575 35.0927856
210.49885 -2.498931907e-05 128.8819496
78.14115 -160.2333111 -141.0000974
82.22864 -33.50627119 158.9999026
227.62787 -40.86612071 93.4562126
166.45813 -76.17473738 -137.0000974
31.43273 -2.498931907e-05 -21.4157534
191.44395 -2.498931907e-05 -88.2976124
-0.0002699995839 -14.16439428 -55.7128314
89.29623 -155.9682221 -137.0000974
-0.0002699995839 -10.54965079 47.9604696
227.79214 -25.80269237 109.1324216
99.39839 -2.498931907e-05 144.2241896
230.33573 -8.284705999 85.1228176
12.48409 -2.498931907e-05 -107.2116794
168.62057 -2.498931907e-05 -157.7122944
-0.0002699995839 -35.00245121 67.1705956
-0.0002699995839 -3.470155759 -45.0154874
217.53699 -35.46559494 124.5125256
