# .PCD v0.7 - Point Cloud Data file format
VERSION 0.7
FIELDS x y z
SIZE 4 4 4
TYPE F F F
COUNT 1 1 1
WIDTH 1244
HEIGHT 1
VIEWPOINT 0 0 0 1 0 0 0
POINTS 1244
DATA ascii
-51.99973636 -7.609311116 175.8148606
69.24661064 -2.498586889e-05 243.5041366
48.00026364 -18.80917857 196.2517776
19.09203564 -2.498586889e-05 60.59720761
12.53474064 -2.498586889e-05 109.1467376
48.00026364 -75.10432488 186.6561646
29.29346464 -2.498586889e-05 144.2120756
54.40255264 -2.498586889e-05 202.9465606
52.00026364 -14.93092028 5.211417614
-51.99973636 -7.072618856 19.69953861
-12.71746236 -28.29307808 -9.738562903e-05
-51.99973636 -65.94284132 173.0080196
48.00026364 -8.514479476 32.26413661
-51.99973636 -54.43794458 230.3181416
-17.54116036 -2.498586889e-05 228.1234326
-51.99973636 -24.13896367 79.45549661
40.31009364 -2.498586889e-05 148.6670076
52.00026364 -94.89790871 238.9618396
58.09370664 -2.498586889e-05 133.7338466
-47.99973636 -20.1293151 147.9158826
55.35702464 -2.498586889e-05 189.3062036
-48.79648436 -56.05942259 47.40345361
52.00026364 -5.832278826 46.97940361
-25.32555736 -2.498586889e-05 51.98094361
-51.99973636 -15.44921175 77.90663761
-47.99973636 -51.87226027 175.4496786
48.00026364 -46.65320973 211.3544336
9.124800641 -63.15853367 -9.738562903e-05
-51.99973636 -64.0792965 202.7522126
-52.71971736 -60.50327425 -9.738562903e-05
48.00026364 -3.777619966 79.66636661
52.00026364 -19.38358869 107.2843946
-47.99973636 -55.93855384 152.0026456
50.04417664 -2.498586889e-05 93.91681361
71.08118464 -2.498586889e-05 167.3294496
17.84408064 -36.32520591 -9.738562903e-05
-37.56668836 -2.498586889e-05 146.7579296
48.00026364 -34.10443229 4.904237614
-54.73567136 -2.498586889e-05 16.18641061
52.00026364 -55.46280481 44.98296261
-47.99973636 -15.68698662 95.18981661
56.31137164 -26.86532532 -9.738562903e-05
-47.99973636 -2.199465626 64.17230361
48.00026364 -76.70371085 242.1696446
65.68013964 -2.498586889e-05 112.2834416
-66.84823236 -2.498586889e-05 24.68753361
-51.99973636 -65.1745637 114.9030276
48.00026364 -35.57454855 24.98371561
-51.99973636 -25.78546628 119.4188226
54.63195564 -9.144005536 -9.738562903e-05
52.00026364 -34.35805895 172.6441156
52.00026364 -25.6423102 237.5038596
-51.99973636 -34.46924063 5.305526614
61.47392764 -2.498586889e-05 89.42102961
-47.99973636 -56.67353306 168.3239786
48.00026364 -20.08333633 168.8528866
-51.99973636 -15.52462167 132.2506336
52.00026364 -44.40885845 220.7904606
48.00026364 -61.56665181 242.2984836
48.52973764 -95.15986744 209.4979466
48.00026364 -22.88717742 206.0745136
-27.97228036 -2.498586889e-05 114.8043936
52.00026364 -7.112580886 57.40848961
-2.697092359 -33.85125638 -9.738562903e-05
-47.99973636 -48.9260527 202.1330666
-47.99973636 -96.33998962 249.6918616
-37.83786936 -44.01409447 -9.738562903e-05
-23.89235536 -2.498586889e-05 143.1642526
52.00026364 -66.77675529 124.4321656
-46.86199236 -2.498586889e-05 129.7055456
-10.12737336 -2.498586889e-05 60.74603461
-47.99973636 -53.10986905 91.82541961
52.00026364 -34.10720137 156.2620846
27.03322664 -2.498586889e-05 214.6434086
48.00026364 -21.13566315 56.44804861
48.51023864 -52.73201746 24.18991761
-51.99973636 -46.27637101 34.05899861
-37.29925336 -6.780283686 -9.738562903e-05
-5.540315359 -68.00002403 -0.9745703856
-44.76196736 -2.498586889e-05 50.45202761
-47.99973636 -59.13710062 241.1117396
-51.99973636 -84.13698473 229.6043316
-71.47179336 -2.498586889e-05 227.5279436
-64.58595836 -58.57531064 -9.738562903e-05
-51.99973636 -51.80694397 106.1640426
48.00026364 -10.49401479 135.9891316
52.34193764 -2.498586889e-05 236.1777816
-31.09725136 -2.498586889e-05 245.9615686
66.60710764 -2.498586889e-05 6.882790614
45.22893664 -2.498586889e-05 4.969778614
48.00026364 -22.25179912 16.58753861
48.00026364 -86.6224542 205.4689926
-51.99973636 -28.72120133 137.3781696
-47.99973636 -42.85756003 41.07219661
-47.99973636 -43.61434104 104.2484546
-47.99973636 -33.51823087 143.1088876
-47.99973636 -68.89856409 188.5562776
24.00857664 -2.498586889e-05 78.59000261
52.00026364 -19.18681097 48.63280561
52.00026364 -25.41967265 158.6399026
36.82443864 -2.498586889e-05 44.00757161
29.46890364 -2.498586889e-05 6.040048614
41.52894164 -25.83083014 -9.738562903e-05
-16.66487236 -2.498586889e-05 85.19762961
-47.99973636 -73.65577388 210.4981116
-51.99973636 -75.66260478 182.8206256
-47.99973636 -54.4962365 81.14158461
60.50535864 -2.498586889e-05 151.8930066
-2.986825359 -10.06328756 -9.738562903e-05
48.00026364 -9.531458136 150.5486396
26.08988364 -2.498586889e-05 197.3223226
39.07251864 -2.498586889e-05 25.27870061
69.92115464 -2.498586889e-05 146.3814426
-51.99973636 -7.912278456 149.3512906
52.00026364 -32.22299566 39.90812161
18.33463664 -2.498586889e-05 205.2463476
52.00026364 -3.014994496 217.1722116
-9.850490359 -2.498586889e-05 100.1484376
22.55947964 -2.498586889e-05 155.0221806
24.25826064 -2.498586889e-05 166.0137486
52.00026364 -44.1245951 245.7108426
48.00026364 -45.40525683 202.5295146
52.00026364 -94.70911663 227.5909786
-47.99973636 -32.16545877 234.5956206
52.00026364 -99.49496958 250.6014216
-43.81723936 -2.498586889e-05 8.544870614
-51.99973636 -61.48679692 133.0110976
48.00026364 -10.4639332 199.6888056
-47.99973636 -5.876140816 34.82370461
-51.99973636 -10.70907206 67.64068361
-47.99973636 -13.92930168 112.1305676
-47.99973636 -21.79457013 1.747633614
52.00026364 -66.58109774 160.3901846
-23.18999736 -2.498586889e-05 153.2890026
-58.75531036 -2.498586889e-05 199.9453136
51.51631264 -58.32658275 61.31336461
48.00026364 -47.3622424 32.65735361
-47.99973636 -46.56697889 17.49140761
52.00026364 -44.28884637 108.3223076
-51.99973636 -19.89603914 182.7461786
52.00026364 -81.48643647 224.8070186
55.47546464 -2.498586889e-05 170.5684496
10.27075864 -24.94314706 -9.738562903e-05
-51.99973636 -1.674812966 232.8808536
52.00026364 -12.02045714 116.7750106
-47.99973636 -12.85894532 248.3901936
46.58306664 -2.498586889e-05 157.8196276
51.78883764 -1.714734746 -9.738562903e-05
-13.90024436 -2.498586889e-05 241.4954696
-47.99973636 -58.03500053 195.6952616
-24.94766536 -2.498586889e-05 133.4608336
52.00026364 -74.5635765 168.7599736
48.00026364 -51.22649417 61.40834461
48.00026364 -48.28219797 187.3002716
48.00026364 -33.66866236 216.9430036
-49.17683736 -65.05995854 97.24060761
19.21299464 -3.651729626 -9.738562903e-05
40.45295864 -2.498586889e-05 76.69810761
-50.82736236 -59.21563149 66.44334661
-51.99973636 -9.973910986 54.30892061
48.00026364 -63.14221709 207.7260296
-47.99973636 -50.21843998 53.86347961
11.69066864 -51.15705778 -9.738562903e-05
52.00026364 -59.02472496 72.71645961
-46.70052636 -48.36670766 -9.738562903e-05
52.00026364 -46.15240572 15.07866061
-17.88070136 -2.498586889e-05 105.3151866
-51.99973636 -28.65006542 45.73894361
8.478179641 -2.498586889e-05 73.69673361
6.899828641 -2.498586889e-05 193.0898006
-47.99973636 -83.71154974 174.2434056
-41.82183036 -26.3812198 -9.738562903e-05
-48.06092936 -106.9143998 242.8988816
50.94223264 -2.498586889e-05 126.3642366
41.42193264 -48.99592822 -9.738562903e-05
-47.49875936 2.439290794 76.21875661
-47.99973636 -96.8157652 216.3009776
-51.99973636 -41.78017496 166.5743646
-47.99973636 -79.07174312 195.5815826
-51.99973636 -6.840832516 105.8304366
-47.99973636 -33.87572848 37.40287961
3.727483641 -2.498586889e-05 166.2781556
-51.99973636 -29.74438192 210.2127016
52.00026364 -59.84189519 91.58029461
4.477998641 -2.498586889e-05 150.5099416
48.00026364 -8.596992986 230.6027306
-51.79083936 -2.498586889e-05 123.1795976
48.00026364 -53.1977122 235.0315266
33.25499464 -2.858007966 -9.738562903e-05
-5.993023359 -2.498586889e-05 225.9875266
-15.64260736 -41.51413749 -9.738562903e-05
48.00026364 -49.02639942 133.1510676
48.00026364 -40.57623145 102.6224796
48.00026364 -58.72132402 114.5152586
-47.99973636 -36.23414745 184.0467996
-59.49611136 -2.498586889e-05 138.4252906
-51.99973636 -56.50434324 144.7260806
48.81564164 -2.498586889e-05 54.72225261
-51.99973636 -6.861443176 249.0055416
52.00026364 -31.37309473 80.34124061
-12.99473936 -2.498586889e-05 140.5225186
52.00026364 -0.3139379359 243.3852016
27.69012264 -56.94991032 -9.738562903e-05
-33.65950036 -2.498586889e-05 82.95016961
1.225167641 -2.498586889e-05 87.50323361
-51.99973636 -38.97326358 126.6640556
52.00026364 -43.78020373 148.6432256
-8.231476359 -2.498586889e-05 71.41695861
25.08574164 -2.498586889e-05 67.65104861
48.00026364 -74.09265779 160.3997086
45.55222664 -2.498586889e-05 177.2862856
4.523122641 -2.498586889e-05 54.53780061
-47.04198236 -37.46680509 -9.738562903e-05
-72.26391036 -2.498586889e-05 191.0034826
48.00026364 -35.29162793 90.64118261
40.02301164 -12.65296135 -9.738562903e-05
-51.99973636 -20.15088567 35.35154261
-42.95376736 -2.498586889e-05 236.9394616
-51.99973636 -32.57713912 121.4880096
50.07131664 -23.48682772 -9.738562903e-05
38.57667364 -2.498586889e-05 50.88245361
-51.99973636 -0.3163620459 49.96259161
-50.34991236 -2.498586889e-05 94.24577161
-48.70512536 -2.498586889e-05 184.0650216
30.14835564 -2.498586889e-05 53.71425661
52.00026364 -9.673175976 100.2282246
-47.99973636 -63.72754155 167.4117056
-24.70262636 -2.498586889e-05 239.8326266
18.27052464 -48.60420871 -9.738562903e-05
65.19212364 -2.498586889e-05 71.67172661
-2.289026359 -2.498586889e-05 3.758428614
63.49060364 -2.752287116 -9.738562903e-05
-47.99973636 -44.7384695 24.89006261
12.09778564 -8.985654136 -9.738562903e-05
48.00026364 -93.99613148 244.9817126
52.00026364 -5.234981676 194.6386276
-47.99973636 -20.73891807 21.03548661
-51.99973636 -15.3087877 188.0545226
-25.57397636 -2.498586889e-05 34.04487461
-47.99973636 -23.6263378 236.6386176
-21.44604336 -21.4969349 -9.738562903e-05
-62.07944736 -2.498586889e-05 178.6536136
52.00026364 -14.77121344 230.5811816
52.00026364 -22.39577826 96.08778361
-51.99973636 -0.9134768159 37.70160661
-47.99973636 -64.95265482 245.3370116
-47.99973636 -2.910446116 145.5877816
52.00026364 -11.35836571 19.15809461
-51.99973636 -16.37205084 171.6678096
49.38796864 -81.06421901 163.2083106
-51.99973636 -23.78363194 50.74232661
-47.99973636 -94.3858497 226.4779276
-47.99973636 -52.31253487 162.8804996
52.00026364 -20.62240438 9.237351614
21.67087064 -2.498586889e-05 141.9754056
-18.20511436 -2.498586889e-05 95.87570861
48.00026364 -68.26096389 138.3528746
52.00026364 -28.93276533 69.69741361
-47.99973636 -12.44643768 232.4312586
-69.51524636 -2.498586889e-05 96.23040361
43.81534264 -2.498586889e-05 221.4181846
-51.99973636 -58.45843687 224.6924396
-3.272271359 -2.498586889e-05 103.9221796
-47.99973636 -78.68299845 163.3385416
54.38013864 -2.498586889e-05 59.63842061
-51.43073536 -61.63182601 80.10763561
25.18717764 -2.498586889e-05 205.8304266
-26.90785736 -37.33732573 -9.738562903e-05
52.00026364 -7.449336636 6.107510614
-18.49718736 -2.498586889e-05 235.4204526
-51.99973636 -64.84062975 141.9823036
-1.881104359 -41.14192747 -9.738562903e-05
17.46324964 -18.48029883 -9.738562903e-05
41.74968864 -2.498586889e-05 39.27348161
48.00026364 -16.90558618 77.00002661
48.00026364 -26.4891208 111.5310096
-51.94249536 -2.498586889e-05 163.5065136
52.00026364 -45.46016216 239.0257876
-64.19857736 -0.2690646159 -9.738562903e-05
-12.82378936 -2.498586889e-05 215.7832686
52.00026364 -79.75105175 175.4485776
-31.41459436 -2.498586889e-05 131.3594296
48.00026364 -34.72739343 141.2868166
34.04633764 -20.96585908 -9.738562903e-05
46.43293064 -2.498586889e-05 145.7407076
48.00026364 -37.89627994 194.5868366
30.93782664 -42.44057443 -9.738562903e-05
-51.99973636 -19.04028538 142.5526646
48.00026364 -79.81980574 218.0655826
48.00026364 -14.92035303 219.8632826
66.37459064 -2.498586889e-05 207.5233446
-47.99973636 -29.10895174 114.6106796
18.42916664 -2.498586889e-05 185.3994566
-47.99973636 -71.83711517 201.2314256
46.14508264 -2.498586889e-05 113.6700566
48.00026364 -55.20829454 226.3596206
-47.99973636 -31.89444724 132.5562506
-51.99973636 -88.09040439 245.2245776
-51.99973636 -9.374197806 195.3502476
-15.99685436 -17.59601685 -9.738562903e-05
48.00026364 -7.618628706 85.14020361
52.00026364 -69.0770353 214.3862286
31.33212364 -2.498586889e-05 164.8506496
52.00026364 -81.55874082 201.7895496
-51.83056936 -2.498586889e-05 24.93733561
52.00026364 -90.92054361 213.2732886
-47.99973636 -8.813079956 125.2064896
12.37180864 -2.498586889e-05 125.3814066
-68.25242436 -24.54767433 -9.738562903e-05
-51.99973636 -23.66939319 25.62084061
48.00026364 -57.73527649 126.2780336
52.00026364 -67.04335856 175.3123906
52.00026364 -6.225401376 129.1797946
-38.83399036 -2.498586889e-05 47.47484061
52.00026364 -57.1513468 168.3839566
-47.99973636 -79.47214255 247.4232106
52.00026364 -60.24815127 151.4143736
48.00026364 -41.28827794 118.9573686
27.68374964 -2.498586889e-05 84.07914161
26.73298664 -2.498586889e-05 250.1900836
56.34694564 -2.498586889e-05 107.1303776
52.00026364 -27.82705069 249.5854086
-53.89857136 -2.498586889e-05 112.4116646
48.00026364 -37.13604937 83.24743861
13.51276364 -2.498586889e-05 89.41452561
-51.99973636 -73.70365545 168.7686976
52.00026364 -74.77340871 227.2967376
48.00026364 -45.00118688 171.7319366
-16.20479536 -2.498586889e-05 180.2093836
-52.49875936 1.856297104 216.5174896
-56.51465636 -2.498586889e-05 228.0153066
52.00026364 -26.56942442 122.1382506
-47.99973636 -27.98060495 197.1736416
-51.99973636 -45.49142645 132.6417736
52.00026364 -46.34879461 59.64126661
9.879515641 -2.821676896 -9.738562903e-05
-51.99973636 -74.28265436 149.8649316
-47.99973636 -4.918324666 224.6750196
-19.55618836 -2.498586889e-05 1.494028614
48.00026364 -2.834316226 27.77052061
-51.99973636 -50.25453725 211.2974006
-26.23341836 -2.498586889e-05 210.8323116
-51.99973636 -49.18089833 70.16819261
-40.74424636 -2.498586889e-05 93.32021161
-47.99973636 -54.82664795 181.2468606
-2.479772359 -2.498586889e-05 189.4137686
48.00026364 -21.25972294 179.3321656
52.00026364 -24.62327992 42.51629061
-51.99973636 -0.3123624859 202.4857166
66.37534564 -14.47005013 -9.738562903e-05
48.00026364 -47.73006368 94.20490161
-47.99973636 -22.77927034 123.5162936
48.00026364 -81.45391757 185.4884316
-51.99973636 -5.621851246 156.0696826
-3.705337359 -2.498586889e-05 33.34971361
48.00026364 -20.38333461 34.90009361
39.24029564 -2.498586889e-05 115.1339886
-47.99973636 -78.35816323 227.0822976
-47.99973636 -25.32527922 151.6959496
-66.32889536 -2.498586889e-05 248.7911006
-9.965865359 -6.454972526 -9.738562903e-05
-47.99973636 -48.24959282 146.9155376
51.73336064 -38.71546963 1.499902614
-51.99973636 -28.74085279 11.98655361
-47.99973636 -82.12774073 188.2843996
-47.99973636 -15.48525097 55.65245661
-51.99973636 -43.9468809 202.6533876
52.80667164 -2.498586889e-05 68.47272161
48.00026364 -37.12442418 68.54822261
52.00026364 -53.10808807 138.3213136
-47.99973636 -80.07249798 219.0419166
16.32183664 -2.498586889e-05 39.92705161
22.56216864 -32.02141816 -9.738562903e-05
-51.99973636 -15.57172453 10.22979261
-47.99973636 -26.70175942 18.74568661
-47.99973636 -6.026702596 243.8026966
48.00026364 -25.40247286 219.9092536
-51.82804836 -72.7141453 131.4065286
52.00026364 -29.61916178 96.98343761
48.00026364 -21.00922244 82.73038661
-51.98140336 -2.498586889e-05 7.773181614
52.00026364 -26.17062958 186.6422086
-51.99973636 -7.246482526 46.22107261
52.00026364 -18.13856283 118.4209436
-47.99973636 -19.95757603 207.7661466
-47.99973636 -25.92077837 101.0356286
-51.99973636 -1.715498936 81.99389061
-51.99973636 -18.2775121 91.05246061
-17.02318636 -2.498586889e-05 44.01628661
-47.99973636 -101.2109183 245.5859296
-48.30028336 -2.498586889e-05 136.1403816
14.67353364 -2.498586889e-05 249.5023626
-33.90345836 2.416317884 195.9046476
-66.56385336 -2.498586889e-05 210.5298706
52.00026364 -28.04130149 53.80483961
48.00026364 -75.86304828 200.8122946
4.041575641 -2.498586889e-05 97.57826361
56.69477064 -2.498586889e-05 229.9435436
48.00026364 -73.47141273 194.0379256
-51.99973636 -99.94753829 230.8685826
-51.99973636 -20.37478016 15.77362461
52.00026364 -26.03050823 147.6772066
52.00026364 -23.84965827 137.3334626
-51.99973636 -39.44208088 144.4549416
56.56527864 -67.04577814 -9.738562903e-05
48.00026364 -50.79031314 55.16464961
-58.54962136 -2.498586889e-05 92.24970561
-51.99973636 -44.56310794 238.1072266
53.01289264 -2.498586889e-05 116.5977986
66.05952164 -2.498586889e-05 224.8125566
48.00026364 -51.33382829 248.7821786
-51.99973636 -94.86430722 220.7505836
-1.176107359 -2.498586889e-05 147.8619256
52.00026364 -41.34932156 232.8639706
52.00026364 -64.40737474 112.8548196
41.05288364 -2.498586889e-05 137.6325876
65.68690464 1.185478604 201.1980256
-14.25223936 -2.498586889e-05 249.4263346
-14.04551836 -2.498586889e-05 76.14154161
-47.99973636 -34.94793982 173.3983616
2.827449641 -2.498586889e-05 68.15492361
52.00026364 -51.73744303 200.2309746
52.00026364 -6.039550946 201.4256716
48.00026364 -31.49713613 117.6737086
52.00026364 -60.97546107 122.2388856
-47.99973636 -5.627600336 101.2577986
48.00026364 -40.30089341 153.0593156
48.00026364 -17.29012932 132.5459736
-47.99973636 -4.395280716 193.3794886
-47.99973636 -54.12424498 250.8729736
-51.99973636 -55.54110092 131.3206776
-20.45500036 -2.498586889e-05 174.3056186
48.00026364 -49.38992359 144.9069556
48.00026364 -68.21779446 180.1441396
-15.77038036 -2.498586889e-05 113.2769066
55.72996764 -2.498586889e-05 145.0459016
48.00026364 -37.9973187 204.6799736
-47.99973636 -0.4567605759 157.9929736
48.00026364 -52.38771798 111.8094836
48.00026364 -14.1505797 146.3324316
-47.99973636 0.6130796341 70.32914961
48.00026364 -5.526565696 241.0282436
-68.57422136 -2.498586889e-05 204.3318396
48.00026364 -36.38353997 168.4275866
52.00026364 -56.79718489 213.7170136
-47.49875936 0.2843175641 219.8052026
-38.48551636 -2.498586889e-05 64.30659561
-47.99973636 -37.26972488 225.1117136
-66.15930636 -2.498586889e-05 232.0655636
47.50124064 1.405001174 71.63913661
52.00026364 -50.15741751 84.38965861
52.00026364 -73.87281835 153.0917006
-51.99973636 -31.52365394 105.6809386
-51.99973636 -25.37873438 232.3324396
23.83687364 -8.599286116 -9.738562903e-05
48.00026364 -67.2065938 222.9525686
-47.99973636 -49.1302435 37.71494361
-6.823296359 -2.498586889e-05 200.8927556
-47.99973636 -64.75016958 129.7378196
48.80157364 -71.53966443 126.5344226
-62.10572236 -12.18182872 -9.738562903e-05
27.59838864 -2.498586889e-05 230.7010026
-51.99973636 -9.710927676 216.1171206
48.00026364 -27.01062685 181.3157176
-51.78932536 -53.54292598 30.25567261
-47.99973636 -26.99597283 160.2485246
-45.92010136 -2.498586889e-05 244.7171566
-51.99973636 -61.28176993 234.9837786
-7.236562359 -2.498586889e-05 148.2539156
52.00026364 -6.520801966 184.1510786
52.00026364 -55.40409004 189.0575756
48.00026364 -74.29763681 137.7754516
48.00026364 -14.41577265 33.82851561
52.00026364 -87.98738364 233.2380416
-47.99973636 -24.48908656 86.34710161
48.00026364 -44.44093573 46.10404561
-51.99973636 -8.968780486 136.7478346
-47.99973636 -47.81664744 82.56726661
-51.99973636 -86.76612851 197.0680456
-51.99973636 -12.0202036 158.5911776
-51.99973636 -47.37539561 175.9903446
18.42119664 -2.498586889e-05 167.5043616
47.62497964 -2.498586889e-05 106.3239046
59.51025964 -21.7626308 -9.738562903e-05
52.00026364 -30.73481948 45.74296261
-45.26027536 -4.087616016 -9.738562903e-05
-47.99973636 -5.525657006 110.1307436
48.00026364 -9.498261486 163.9746126
-51.99973636 -69.65539763 183.0367766
-51.99973636 -31.65814153 33.07390061
-47.99973636 -44.12830623 184.0799346
-66.01074736 -2.498586889e-05 138.8666436
48.00026364 -2.131734456 189.5716416
48.00026364 -23.86284488 72.69821061
52.00026364 -51.38486525 157.8680236
-47.99973636 -61.28314133 117.4223096
48.00026364 -42.77991343 36.51621461
7.465690641 -2.498586889e-05 49.10801261
-47.99973636 -41.53925521 30.41232261
-51.99973636 -55.93229995 199.6201886
-2.566704359 -2.498586889e-05 17.00423961
37.82629764 -2.498586889e-05 201.2379576
-6.282306359 -2.498586889e-05 48.67545961
48.00026364 -72.35866066 235.5042576
48.00026364 -32.35487697 226.9969426
52.00026364 -27.48388351 164.6192566
-49.12646736 -91.85094555 199.3789176
-47.99973636 -63.34503357 177.6469766
7.395634641 -2.498586889e-05 173.3651866
52.00026364 -30.41402328 213.3465206
-56.60166836 -2.498586889e-05 149.8307016
64.11229664 -2.498586889e-05 215.0526716
-51.99973636 -22.95416773 187.8721056
-51.99973636 -72.10238927 224.0328536
48.00026364 -36.1821634 106.6526626
52.00026364 -21.97078727 199.3394776
-47.99973636 -38.04553898 190.9726846
-47.99973636 -27.28770901 75.71590561
-51.99973636 -27.45981094 130.6926746
48.00026364 -6.991369926 122.8666056
-19.37089136 -53.36896691 -9.738562903e-05
49.62135064 -51.8302374 16.70036461
10.15840364 -2.498586889e-05 14.13601461
-47.99973636 -79.71948479 181.1237536
60.26401864 -2.498586889e-05 12.00182461
35.23500764 -2.498586889e-05 144.1364876
52.00026364 -42.33792453 30.93563161
-57.09595436 -2.498586889e-05 79.48704461
-51.99973636 -39.48105354 111.9187296
-51.99973636 -48.45074642 2.654276614
-51.99973636 -8.492026906 1.806055614
1.722090641 -2.498586889e-05 28.05761061
-47.99973636 -76.58638997 172.9820576
48.00026364 -92.46646417 235.3464616
52.00026364 -55.03859115 129.6996626
48.00026364 -13.24350707 250.3404736
-51.99973636 -33.79632111 89.51026761
48.00026364 -63.81238377 118.1833096
48.00026364 -58.80769221 107.9832646
52.00026364 -14.93031369 237.1371686
-55.20519936 -2.498586889e-05 174.6350506
44.94978164 -44.27897096 -9.738562903e-05
52.00026364 -17.78507283 165.1950896
-51.99973636 -42.22847252 76.07616461
-22.73741636 -11.42287246 -9.738562903e-05
-47.99973636 -1.811290466 89.00418061
48.00026364 -41.961699 140.8686456
-22.01465436 -2.498586889e-05 75.45284461
-51.99973636 -18.59574562 126.4968076
-47.99973636 -54.1234106 245.0239976
48.52262364 -29.3799172 1.499902614
-47.99973636 -73.00867422 139.8609146
30.43011664 -2.498586889e-05 208.4109766
-47.99973636 -5.773939146 55.01430861
-51.99973636 -30.03815175 216.0456446
-47.99973636 -66.75797673 197.7730836
-51.99973636 -37.28145243 241.1251576
48.00026364 -64.65232453 148.8090126
48.00026364 -40.20182558 21.43648961
-47.99973636 -66.65051312 108.1998876
52.00026364 -62.03061091 200.9750566
52.00026364 -99.98751913 225.1308096
48.00026364 -49.41605084 123.1955696
48.00026364 -71.17730273 244.0001746
48.00026364 -11.61611079 104.5937846
-51.99973636 -76.33830912 230.8075656
-47.99973636 -23.97060496 33.54925761
-47.99973636 -53.69494697 71.48598361
52.00026364 -42.82973081 41.60107461
52.00026364 -63.23198681 189.1751396
-47.99973636 -43.26460225 171.1570656
-51.99973636 -67.26914101 229.3801036
-47.99973636 -96.1214613 238.6108896
-51.99973636 -59.20439127 154.6476946
-47.99973636 -56.55513922 53.12135161
-57.78288436 -2.498586889e-05 50.09057761
48.00026364 -19.4083856 4.890819614
-56.62142036 -2.498586889e-05 192.2239016
-51.99973636 -76.267926 240.8595436
52.00026364 -54.25116695 230.4258536
-51.99973636 -53.37100482 85.16282861
-60.49102636 -2.498586889e-05 218.1838206
-40.01140336 -2.498586889e-05 12.88834161
-51.99973636 -12.5920405 108.1863986
48.00026364 -20.03373636 152.1698306
48.00026364 -20.12968753 113.2795076
48.00026364 -51.83037919 71.78848161
52.00026364 -57.48409957 244.6485326
52.00026364 -78.72533054 206.7958946
-47.99973636 -37.83854571 197.8710046
-47.99973636 -44.84889147 219.3516256
-47.99973636 -34.86130429 98.61944461
-47.99973636 -53.68277675 59.03402461
-51.99973636 -4.478984406 68.96575061
23.99335364 -2.498586889e-05 7.753590614
31.47073864 -2.498586889e-05 18.50796961
48.00026364 -104.6991524 239.7536776
-51.99973636 -38.63397047 180.7109066
52.00026364 -15.30274133 59.60526661
-51.99973636 -33.86361696 65.83553161
52.00026364 -42.39851427 6.931895614
5.280651641 -2.498586889e-05 81.17926861
-51.99973636 -65.14909612 154.7967316
-51.99973636 -48.69852611 223.3785046
-47.99973636 -17.33279318 42.89318461
41.29037364 -2.498586889e-05 161.6933096
-51.99973636 -32.63152809 55.13004861
-47.99973636 -86.66890255 207.2954736
-51.99973636 -26.73054973 55.63028861
48.00026364 -13.49943246 120.5679096
-17.10173636 -59.2698957 -9.738562903e-05
-47.99973636 -18.08745068 160.4144476
52.00026364 -25.51631039 19.01062261
52.00026364 -62.60503958 86.56533661
52.00026364 -16.26144348 199.4152586
-3.414507359 -2.498586889e-05 237.9847576
52.00026364 -62.41142115 128.0951186
-51.99973636 -30.32188084 173.9013636
-47.99973636 -41.60537589 98.92078761
48.00026364 -104.4872028 252.3990136
-51.99973636 -15.26154518 28.09403461
64.97722064 -2.498586889e-05 99.36140261
52.00026364 -36.69632134 8.966968614
52.00026364 -4.361618026 247.3792296
52.00026364 -15.65511633 44.18351561
-47.99973636 -73.65249482 237.6560126
-51.99973636 -23.88223562 109.6211816
-51.99973636 -49.38845466 125.1889156
48.00026364 -4.425572226 100.7765716
52.00026364 -33.88863741 130.8812906
-25.48335636 -2.498586889e-05 99.10275961
48.00026364 -45.20027509 112.7407516
48.00026364 -35.81788053 189.3149496
52.00026364 -53.6818519 37.04988061
48.00026364 -50.04623655 206.8242156
48.00026364 -0.3838049559 41.04692661
-47.99973636 -61.71476195 205.9806876
-51.99973636 -33.36042047 127.2954346
52.00026364 -37.52848256 77.96661361
-51.99973636 -40.11331723 5.839104614
52.00026364 -35.81621891 52.75867261
48.00026364 -46.41567839 26.37497061
-68.70806236 -2.498586889e-05 42.51441461
52.00026364 -68.57729228 249.5608836
64.47362464 -2.498586889e-05 246.4931026
-47.99973636 -50.69536608 227.1440346
-28.63136236 -31.97847156 -9.738562903e-05
-51.99973636 -45.72774879 61.57560061
-47.99973636 -30.04896371 191.4262166
52.00026364 -19.62995324 101.2341996
51.71291464 -76.9052722 147.8717056
52.00026364 -16.77355079 187.8472546
-47.99973636 -52.47360997 138.9644086
52.00026364 -23.82145771 170.1030006
-47.99973636 -47.59940769 92.89396861
-47.99973636 -18.51154448 107.1377116
-32.73324336 -2.498586889e-05 7.059908614
-47.99973636 -2.380474686 211.4202526
48.00026364 -87.80596159 215.6656116
48.00026364 -54.69533524 220.0239006
-51.99973636 -63.7472703 163.3794236
-51.99973636 -56.2309384 162.7873636
52.00026364 -64.23149053 100.6013606
48.00026364 -25.30301487 133.6204006
-67.84799936 -2.498586889e-05 7.840640614
52.00026364 -70.82117442 133.8775686
-47.64506536 -54.55929774 -9.738562903e-05
52.00026364 -49.46082548 177.1864746
52.00026364 -56.86366328 155.8683786
-47.99973636 -55.46716795 190.1746376
-51.99973636 -41.70422528 85.58953461
52.00026364 -72.26662161 205.7132826
-51.99973636 -60.68328077 99.26083161
-47.99973636 -31.62268058 43.22068061
-47.99973636 -31.00377132 7.083639614
48.00026364 -51.01841911 162.6532686
48.00026364 -7.791192676 50.34360861
-51.99973636 -30.56614195 230.2720076
52.00026364 -53.37158348 209.3111266
-47.99973636 -43.69854854 143.4712456
48.00026364 -6.644420106 218.5471436
48.00026364 -5.752621206 225.8112496
-47.99973636 -69.21654438 155.5849846
-47.99973636 -10.54680208 169.4433336
52.00026364 -97.42241964 233.2062876
-51.99973636 -38.18296795 55.51511461
-51.99973636 -22.87699738 223.7459826
38.01315564 -2.498586889e-05 12.04948561
48.00026364 -77.94184398 250.6669496
-47.99973636 -22.19266849 65.67602261
52.00026364 -2.726041636 161.7023296
48.00026364 -54.54859454 92.77923861
48.00026364 -70.92131051 227.3079806
52.00026364 -10.29931148 146.2865716
-51.99973636 -31.21943246 20.07074261
-47.99973636 -36.78927458 84.13947961
-51.99973636 -23.79916845 95.22719461
-66.26093736 -50.8262886 -9.738562903e-05
49.95466064 -87.40970988 185.0732756
48.00026364 -61.15116302 166.5213766
48.00026364 -31.68862975 146.3940326
48.00026364 -4.269183556 153.8781026
-51.99973636 -19.47909165 116.0259316
48.00026364 -49.64072288 227.1618836
52.00026364 -32.6900242 65.63744761
-51.99973636 -6.835333266 187.3032526
48.00026364 -87.99752586 250.3435066
-51.99973636 -40.62606564 157.1721276
-51.99973636 -35.67915342 167.1556426
-47.99973636 -62.57628436 250.4473526
-51.99973636 -81.16078771 177.0722906
43.57632264 -62.95866764 -9.738562903e-05
-51.99973636 -52.69162745 216.6076386
48.00026364 -12.1424054 71.40232761
-47.99973636 -25.46973747 141.6575506
19.92784564 -2.498586889e-05 44.08924061
-6.985661359 -2.498586889e-05 122.0782026
48.00026364 -66.12974951 108.6889316
48.00026364 -24.25813239 61.30934661
-47.99973636 -42.45377221 162.6167096
70.93452364 -2.498586889e-05 60.62953761
-51.99973636 -46.34560451 115.9320576
-47.99973636 -32.26421762 81.01756161
-51.99973636 -20.04960942 74.89793661
-32.56990836 -2.498586889e-05 153.8830336
13.15809164 -2.498586889e-05 158.9788736
-51.99973636 -13.73654457 235.9640026
18.07703864 -2.498586889e-05 234.5416216
52.50124064 2.294578994 209.2090586
-47.99973636 -90.43110857 218.5608326
-47.99973636 -60.691618 103.4346126
-51.99973636 -20.35867187 166.9323896
-47.99973636 -77.97104281 213.9784226
-51.99973636 -15.94939585 218.7312836
48.00026364 -15.50164618 82.85112861
52.00026364 -44.36855151 88.19294061
-51.99973636 -59.1096409 172.4642576
48.00026364 -85.08338916 235.5975936
29.39895664 -30.83869072 -9.738562903e-05
-51.99973636 -58.88290663 91.36397261
52.00026364 -65.11303681 134.0569846
52.00026364 -4.919401226 31.24324461
48.00026364 -7.604591846 189.5275176
35.54189864 -2.498586889e-05 82.51878661
66.83280764 -2.498586889e-05 123.9782666
52.00026364 -53.18911134 58.02060361
52.00026364 -78.96879549 188.2687736
-51.99973636 -59.71829286 108.5716496
48.00026364 -10.82665283 155.8546936
-47.17618636 -2.498586889e-05 199.9440016
52.00026364 -46.62184117 65.46204861
48.00026364 -81.88473604 198.0870326
12.27692864 -2.498586889e-05 225.1204376
-47.99973636 -10.08083122 222.9090846
-51.99973636 -23.2804337 249.0992616
-47.99973636 -11.61317423 91.46247061
52.00026364 -24.84065644 28.00149261
31.50047764 -2.498586889e-05 12.28686861
-51.99973636 -37.41054299 73.52468861
48.00026364 -11.42912239 130.2593906
12.98910464 -2.498586889e-05 57.22285961
48.00026364 -2.259799716 67.26664361
48.00026364 -86.47229537 242.7945496
48.00026364 -60.98668278 232.1059106
13.06359664 -2.498586889e-05 174.8253896
-51.99973636 -64.28510298 147.7506736
52.00026364 -30.05195969 7.129436614
71.65202264 -2.498586889e-05 157.9772866
52.00026364 -49.21424554 190.8624336
-51.99973636 -15.21281883 83.39446361
-51.99973636 -7.984596276 37.82799361
-12.30845636 -2.498586889e-05 157.5590546
-47.99973636 -4.605462296 119.5214776
52.00026364 -11.31517249 203.2538976
-51.99973636 -51.90212668 95.28549461
-51.99973636 0.9982287641 65.96250761
56.85795364 -2.498586889e-05 194.5170326
53.02326764 -2.498586889e-05 14.60946161
12.70314564 -2.498586889e-05 101.7015006
52.00026364 -56.99739399 174.3998936
-27.64055136 -64.30072167 -9.738562903e-05
52.00026364 -60.65015489 220.9918976
-51.99973636 -52.870897 51.36524761
-47.99973636 -55.53963204 214.1953286
-51.99973636 -5.753979756 85.59359861
52.00026364 -4.145479756 170.5533716
52.00026364 -13.30039562 94.72236861
48.00026364 -28.79842836 82.91266361
-51.99973636 -43.82138974 208.1159626
-47.99973636 -18.33678654 215.9913296
48.00026364 -30.84385012 100.4038816
-47.99973636 -48.16431629 179.5357056
52.00026364 -20.83607889 67.83517461
-47.99973636 -41.19848879 16.89040061
48.00026364 -35.51984726 62.30668761
10.05039764 -2.498586889e-05 42.78767461
-68.80815036 -2.498586889e-05 34.75800261
-47.99973636 -14.21001518 70.70108861
29.01862564 -2.498586889e-05 113.3580846
-48.51794536 -2.498586889e-05 112.8190896
-51.99973636 -101.1185059 238.9214206
-47.99973636 -43.66017239 250.8027386
48.00026364 -63.20629626 196.3851966
-51.99973636 -2.251270456 102.5253756
-47.99973636 -10.36093122 116.5196596
-47.99973636 -8.313454796 152.9319916
-51.99973636 -28.50019098 221.2045076
-41.88179336 -2.498586889e-05 218.7410806
-47.99973636 -78.13417904 201.2233346
48.00026364 -53.57135366 83.25060561
-48.45760236 -51.92715216 17.50527061
-47.99973636 -64.88773531 135.1157326
48.00026364 -46.36961639 72.52327361
48.00026364 -41.41415851 184.8182076
52.00026364 -50.82118426 47.68658261
-51.99973636 -27.52676071 66.27471961
-60.67120636 -22.64775574 -9.738562903e-05
52.00026364 -27.10219681 202.5562436
-47.99973636 -25.51131571 47.60267961
50.83948164 -66.18746648 -9.738562903e-05
-34.28143536 0.9373320841 -9.738562903e-05
-51.99973636 -93.26333045 206.3821596
52.00026364 -9.515912506 245.7554686
-47.99973636 -14.485876 18.88927661
-51.99973636 -30.82528441 39.73676661
-70.61004836 -2.498586889e-05 56.51026661
48.00026364 -61.49462863 133.6194386
-47.99973636 -48.23559833 9.564967614
52.00026364 -21.43966617 240.8296776
52.00026364 -14.92763935 225.2260946
48.00026364 -39.21018451 54.95807661
-51.99973636 -8.389061016 233.6274256
-47.99973636 -28.90896329 91.75912761
52.20812264 0.1706685341 80.09375261
48.00026364 -16.19271511 183.8274606
52.00026364 -42.23716566 204.1367496
48.00026364 -39.0790928 228.5053566
48.00026364 -31.54894014 109.8025226
52.00026364 -34.20804027 101.5849426
48.00026364 -13.20117787 22.59429261
-47.99973636 -44.20613151 120.2195876
48.00026364 -18.01407685 245.7771886
48.00026364 -33.38792518 152.7981946
52.00026364 -21.02006088 209.0712016
62.28120664 -2.498586889e-05 43.14648361
52.00026364 -42.39405978 169.3546426
-51.99973636 -74.25782656 198.6671026
48.00026364 -16.60729808 124.9508566
48.00026364 -31.72329794 203.9966046
52.00026364 -36.9888514 245.8143116
52.00026364 -18.08195046 21.93192761
-47.99973636 -84.2635935 215.7561636
-51.99973636 -13.335256 163.7504836
-47.99973636 -6.816118306 25.25318661
52.00026364 -48.4774433 38.15173061
-47.99973636 -68.02946912 225.6063476
-47.99973636 -38.34752434 77.35694661
48.00026364 -34.55374185 135.6441416
48.00026364 -58.36493724 144.5180556
48.00026364 -40.67937128 245.1408146
52.00026364 -22.4300518 52.83678961
-21.64205736 -2.498586889e-05 48.15914161
52.00026364 -51.160734 115.0750286
48.00026364 -105.3062827 245.3202606
48.00026364 -40.18921834 215.6060206
52.00026364 -29.08199533 24.25700561
-51.99973636 -7.405274106 58.95315161
-51.99973636 -77.25162527 221.0577046
-51.99973636 -37.66248612 247.6731726
-51.99973636 -49.56145841 136.3403436
48.00026364 -21.31876824 163.1707856
-51.99973636 -50.9835446 78.32919861
-47.99973636 -39.73379314 218.0207416
48.00026364 -48.48005576 106.1054086
52.00026364 -11.01445196 177.7377756
48.00026364 -66.31438607 200.8699196
-51.99973636 -39.27533784 13.98517561
-51.99973636 -79.15050173 159.9321366
48.00026364 -10.57477343 62.23004961
-27.15076936 1.982893094 205.3075196
-22.07242236 -2.498586889e-05 58.36670661
-47.99973636 -25.89512238 5.047351614
-47.99973636 -54.97645222 157.1771076
48.00026364 -23.95294457 93.04261361
48.00026364 -12.35321633 7.455417614
52.00026364 -30.42339465 181.1435576
-47.99973636 -3.175445496 229.8130146
-12.79274436 -2.498586889e-05 125.2460226
-51.99973636 -81.0583602 224.9967266
48.00026364 -61.91372708 103.1035286
52.00026364 -46.79082397 135.7210606
-51.90919236 -2.498586889e-05 188.2269436
-47.99973636 -24.15687367 129.2874136
-51.99973636 -6.146522066 143.6729346
52.00026364 -89.72872466 198.2128256
-47.99973636 -42.99570417 153.7852026
48.00026364 -97.58095483 236.8800336
-51.99973636 -27.74140602 246.3367336
52.00026364 -25.25952721 225.4301966
48.00026364 -39.93813726 126.5572666
-51.99973636 -28.79482216 28.09577861
-47.99973636 -17.51119646 25.16477861
-51.99973636 -41.21353347 214.0670906
52.00026364 -95.61250057 220.1357926
48.00026364 -11.05501347 224.4566676
-51.99973636 -23.6898132 162.6886706
-51.99973636 -89.56905644 221.8310446
-47.99973636 -12.79372839 242.9107536
-13.85532336 -2.498586889e-05 9.856905614
-51.99973636 -70.9288141 217.7654666
48.00026364 -1.350581476 20.40411661
37.87693064 -2.498586889e-05 63.09309561
52.00026364 -10.4968511 75.81878061
48.00026364 -27.81233239 66.54137061
-51.99973636 -38.83386158 97.04425761
52.00026364 -27.79345023 108.4542476
-51.05060536 -2.498586889e-05 44.84888761
52.00026364 -44.30027404 54.85407261
-51.99973636 -17.0768797 252.4293316
48.00026364 -27.89535964 160.8669806
-47.99973636 -49.53817052 242.5639316
-47.99973636 -5.721538686 11.53161661
52.00026364 -7.907221506 154.2582366
48.00026364 -83.59440561 174.4133646
-51.99973636 -25.18467881 195.3729996
-47.99973636 -19.12452018 30.44392561
48.00026364 -45.83859776 216.4884056
-47.99973636 -28.83221497 206.8080536
-51.99973636 -50.37547181 250.6435096
52.00026364 -72.20266147 143.1267686
9.863197641 -2.498586889e-05 210.0114756
-51.99973636 -103.190279 248.2418986
-51.99973636 -80.81957436 215.6679556
4.631515641 -9.667809286 -9.738562903e-05
-51.99973636 -39.54935071 41.03092061
50.10254364 -2.498586889e-05 174.3188536
52.00026364 -14.4384653 37.12467761
48.00026364 -40.59509847 159.4538246
48.00026364 -79.86181901 178.7409346
-47.99973636 -18.08201767 121.3298786
-51.99973636 -15.37823836 246.2720846
-51.99973636 -49.14029704 41.00629961
52.00026364 -9.708301576 68.90167461
-47.99973636 -30.28761352 242.5854606
52.00026364 -13.37641606 161.6064246
48.00026364 -9.124568126 80.19398761
-51.99973636 -13.82542691 4.536681614
52.00026364 -17.31365263 53.57346661
48.00026364 -6.837670806 18.38052461
-47.99973636 -90.52317529 230.3800026
-47.99973636 -36.06862186 214.3792456
-47.99973636 -18.68693655 131.4278936
48.00026364 -35.95572024 235.1236596
48.00026364 -17.71035796 235.4232346
-51.99973636 -15.101354 98.40239961
-47.99973636 -58.30437156 133.7304426
14.23731164 -2.498586889e-05 120.0475746
48.00026364 -23.5145255 244.2147976
48.00026364 -75.0704677 222.8229236
-47.99973636 -12.54013366 181.8068046
-47.99973636 -24.0265492 202.9503956
-51.99973636 -14.3350441 193.9514106
52.00026364 -10.34073132 227.6229286
52.00026364 -23.69739249 13.68241261
-47.99973636 -44.81472191 45.83639561
48.00026364 -52.54967608 190.5922356
-47.99973636 -38.76262888 141.2866906
-51.99973636 -22.70838934 209.4669416
-47.99973636 -56.99302199 174.9788876
-47.99973636 -32.14563997 152.2228926
52.00026364 -63.29550195 139.8913166
52.00026364 -69.3827798 165.4750126
52.00026364 -49.90371521 129.4791756
21.84055464 -2.498586889e-05 72.54351961
-47.99973636 -18.64094946 5.801447614
48.00026364 -47.33373399 245.4340356
-49.33352736 -69.26111926 116.5037806
-44.85841936 -2.498586889e-05 195.3631826
-52.13502736 -2.498586889e-05 147.3001696
48.00026364 -37.18083547 130.8816866
-47.99973636 -26.42858348 179.0561016
48.00026364 -55.95227287 165.4083456
40.54295664 -2.498586889e-05 99.40695961
-51.99973636 -44.8295212 29.14510761
-47.99973636 -74.57624761 248.9238326
-47.99973636 -12.25836073 77.92662661
52.00026364 -26.65767257 231.4202036
-51.99973636 -57.08636575 77.83435561
48.00026364 -37.53844063 36.64738661
52.00026364 -49.97581082 120.0481176
52.00026364 -55.30682238 103.4800326
-47.99973636 -22.94193601 183.6375376
52.00026364 -20.79877397 73.52239561
-51.99973636 -3.323193106 30.24030561
52.00026364 -36.83491945 216.9391786
52.00026364 -65.33399585 182.3260866
48.00026364 -67.75748356 172.2301616
52.00026364 -19.46053484 227.8779266
-51.99973636 -39.58408939 233.9107786
-51.99973636 -31.41420937 99.95211561
7.918670641 -2.498586889e-05 3.766853614
-51.99973636 -62.102348 184.5539786
-51.99973636 -36.13662924 222.1634316
-47.99973636 -31.86893033 158.7587176
-47.99973636 -89.6917268 235.9609586
-47.99973636 -19.98545845 170.0655386
-47.99973636 -14.33711882 142.8997546
48.00026364 -44.22515001 17.57633761
48.00026364 -11.59001505 88.32927361
-52.49875936 1.041013134 60.87954261
48.00026364 -14.54200595 114.8825816
-51.99973636 -13.41517466 146.9584116
-51.99973636 -13.2940884 59.16554461
-51.99973636 -5.506370816 63.98032661
-47.99973636 -42.95685842 65.78071361
52.00026364 -55.74293369 123.3648396
52.00026364 -23.52651231 80.72822461
44.94699564 -2.498586889e-05 232.2423016
-47.99973636 -31.097467 15.95617461
44.17155864 -2.498586889e-05 209.9438166
52.00026364 -20.82113131 148.3690996
-53.21013736 -2.498586889e-05 207.4136646
51.50445164 -2.498586889e-05 193.6530526
48.00026364 -49.88596231 238.8857116
52.00026364 -7.834725366 35.40396061
-47.99973636 -17.17090002 37.54450761
-47.99973636 -8.278140826 208.0504396
48.00026364 -2.280417586 164.7990936
52.00026364 -23.98166724 33.72838461
-50.76429136 -2.498586889e-05 19.97611561
-47.99973636 -52.94042989 65.81368861
-51.99973636 -16.86329234 111.0684856
-47.99973636 -37.34423528 63.98070261
52.00026364 -84.23373276 192.2065666
52.00026364 -35.85920844 43.44362961
48.00026364 -31.42984826 11.59595661
48.00026364 -53.16318849 185.0586836
51.59743764 -2.498586889e-05 29.94079561
48.00026364 -76.60160129 165.1603416
48.00026364 -48.80214071 21.03850761
48.00026364 -7.902995866 41.69912961
48.00026364 -8.798766866 209.3673436
48.00026364 -34.03109259 32.51971161
52.00026364 -14.41548237 170.3363766
-51.99973636 -2.312248886 12.27141561
36.85363664 -8.712449326 -9.738562903e-05
-51.99973636 -50.19548718 233.0687696
52.00026364 -89.83397697 192.9979946
-47.99973636 -47.78315921 107.2212356
-47.99973636 -98.67188379 233.6841616
-47.99973636 -52.45892043 124.8329896
-51.99973636 -80.93933459 209.1151646
-47.99973636 -51.02631472 87.16689961
48.00026364 -72.89774457 182.0428776
-47.99973636 -5.909562186 198.1975156
-51.99973636 -33.47890598 237.3825596
52.00026364 -2.331374146 222.1746396
48.00026364 -10.0774952 56.57239961
-51.99973636 -67.8874625 246.2720506
-47.99973636 -3.635835096 180.6347826
45.98216464 -2.498586889e-05 76.24291961
-47.99973636 -35.47534348 12.58385261
48.00026364 -43.9404813 79.50245961
-16.30092836 -2.498586889e-05 61.61242661
-47.99973636 -47.9830075 187.3278856
-47.99973636 -12.70762102 227.4004446
-51.99973636 -49.18811806 206.3741336
-51.99973636 -14.62656291 117.3775486
-47.99973636 -68.39645714 214.5981026
48.00026364 -43.34916253 131.7610506
52.00026364 -11.40412031 25.67639961
48.00026364 -57.92423395 238.8247456
52.00026364 -28.68383146 171.4015786
23.01724164 -2.498586889e-05 122.5817286
48.00026364 -25.19766663 234.4861086
52.00026364 -27.14874406 195.7541436
19.16950564 -2.498586889e-05 35.78326761
48.00026364 -31.04207683 71.89472061
48.00026364 -44.46292661 194.3773566
-51.99973636 -36.06915414 117.7443776
42.86154164 -2.498586889e-05 21.98060261
52.00026364 -12.66443382 184.9593056
48.00026364 -52.39562469 34.14027861
-47.99973636 -23.00760715 230.4378586
48.00026364 -57.21828185 139.3001916
-51.99973636 -17.65682529 201.8071426
52.00026364 -57.56197655 184.5261996
52.00026364 -5.919733296 81.80992461
-51.99973636 -58.31232127 119.8240306
-54.90652236 -2.498586889e-05 156.6201116
-51.99973636 -69.39606805 196.2941566
-47.99973636 -47.31170215 157.8757956
48.00026364 -30.96442656 50.49779261
-51.99973636 -7.529496926 91.44014361
52.00026364 -50.00570196 98.63601561
-51.99973636 -44.33690931 93.77866561
51.97701664 -50.10422256 2.365294614
-47.99973636 -49.64087376 215.2273886
-47.99973636 -59.65340718 246.3804366
48.00026364 -27.67798581 16.92651161
52.00026364 -30.66082061 91.49612361
-51.99973636 -52.03920126 141.9283256
-47.99973636 -19.84900717 198.5575186
-47.99973636 -28.59283673 212.9720416
-51.56324536 -74.01362952 136.5116566
52.00026364 -57.30371409 199.3669896
48.00026364 -6.843366756 139.3869386
-51.99973636 -38.2304861 137.6095636
-47.99973636 -7.849424526 16.03982661
-47.99973636 -28.53329256 35.55612161
-51.99973636 -12.10050462 94.39595261
48.00026364 -9.079310056 117.2028966
52.00026364 -17.75431832 158.1174056
48.00026364 -18.15830921 60.44284561
-25.87982736 -2.498586889e-05 128.1247256
-47.99973636 -57.27361003 229.4658896
-47.99973636 -54.90192098 223.1952106
-47.99973636 -33.90272044 246.9121476
-51.99973636 -31.54277511 75.58173861
48.00026364 -29.12029087 123.7604126
-51.99973636 -44.11270581 107.1577156
48.00026364 -96.74654695 251.6764606
-51.99973636 -8.724703176 122.2650846
52.00026364 -91.61179636 223.0775486
19.23088764 -41.58165523 -9.738562903e-05
52.00026364 -5.083811146 104.4770826
48.00026364 -0.09394564587 216.8389276
-47.99973636 -17.16622765 233.9675436
-48.14597836 -58.50240573 62.32789761
-47.99973636 -44.97958071 87.22835361
-51.99973636 -7.142651766 204.1304606
-46.45371136 -59.37533895 -9.738562903e-05
-47.99973636 -11.10827959 51.60506361
52.00026364 -14.39518734 134.8410196
-51.99973636 -0.9276119559 77.09829961
-51.99973636 -11.4156926 86.58223761
-47.99973636 -39.86021662 37.12305961
-35.76049736 -17.47921969 -9.738562903e-05
-51.99973636 -10.70210027 130.7766046
-47.99973636 -33.02143234 47.97428561
52.00026364 -65.08502771 230.9230696
48.00026364 -41.41490394 220.4054616
52.00026364 -20.25662253 122.8981436
-47.99973636 -3.232432156 235.3510316
-47.99973636 -2.871989676 150.9355896
51.73511664 -96.81543087 214.3805976
-47.99973636 -36.95546122 113.3756006
-47.99973636 -36.26936401 147.2204716
4.017354641 -2.498586889e-05 248.8053316
52.00026364 -69.95169619 156.3492106
48.00026364 -28.4147453 215.4568986
-51.99973636 -29.88830515 59.43334161
48.00026364 -24.60436631 86.82571961
-51.99973636 -47.82351722 103.2400816
52.00026364 -79.39420378 243.2541976
52.00026364 -47.85749368 161.3281566
-51.99973636 -66.23492358 187.4116556
-51.99973636 -12.834043 204.3661796
-47.99973636 -69.94496593 193.4522056
52.00026364 -35.16105425 227.7052606
-71.80881136 -2.767663686 -9.738562903e-05
-51.99973636 -46.9709905 197.2689516
-47.99973636 -34.19193535 103.6415116
-47.99973636 -55.4985835 209.2608036
-51.99973636 -53.78370902 153.9278916
-51.99973636 -25.46511344 126.1798106
48.00026364 -39.11704916 4.700875614
1.899350641 -2.498586889e-05 223.5459866
-51.99973636 -15.64343272 180.2461466
52.00026364 -23.53158856 58.51625861
52.00026364 -64.77441131 243.8065786
-51.99973636 -72.20585997 208.0063836
48.00026364 -58.82610073 215.7646186
48.00026364 -3.495296686 211.3330376
-51.99973636 -45.72276106 12.40964361
-51.99973636 -9.909787146 210.4224756
-51.99973636 -59.4000705 114.8456026
48.00026364 -13.99589656 140.7014486
-51.99973636 -41.73761049 229.4800236
48.00026364 -14.79094743 165.4367856
52.00026364 -104.7627891 249.5401226
-47.99973636 -52.77592189 185.9529696
48.00026364 -40.7702825 200.6122596
-51.99973636 -44.92845032 127.2709326
-51.99973636 -55.51610391 126.3994256
-47.99973636 -25.75727023 174.1465106
-47.99973636 -31.93569544 28.57550261
48.00026364 -32.85071801 128.0895596
50.07958164 -2.712638816 6.787288614
52.00026364 -32.7956712 236.2075656
-51.99973636 -20.65520831 99.39675361
-47.99973636 -62.78214493 189.7677296
48.00026364 -76.90489158 154.6230586
-51.66842636 -50.71519412 7.439596614
52.00026364 -68.96125773 201.9274736
52.00026364 -55.52545006 96.77019561
-47.99973636 -17.20222948 74.93269461
48.00026364 -77.08611137 174.4491716
-40.70437836 -2.498586889e-05 76.41928961
-40.95318636 -2.498586889e-05 210.1814156
52.00026364 -31.00945912 138.6290176
-47.99973636 -51.07964759 170.5903136
48.00026364 -13.28097755 179.5190306
48.00026364 -6.550917886 90.94570861
48.00026364 -58.26483444 81.83734261
28.48487364 -15.02136414 -9.738562903e-05
52.00026364 -91.55557676 243.5551796
-47.99973636 -91.67861524 247.2489756
-51.99973636 -18.36450317 238.3093256
-47.99973636 -40.84374617 130.4632066
-21.21555936 -32.98669666 -9.738562903e-05
48.00026364 -46.61232054 182.7007006
48.00026364 -38.99737718 114.6354296
52.00026364 -39.24992306 183.0173246
-47.99973636 -43.71975286 190.9637506
-51.99973636 -66.18854516 234.1500826
52.00026364 -5.956292396 10.76433361
52.00026364 -30.99356678 242.4252226
52.00026364 -18.71854636 193.4444406
-51.99973636 -12.59928788 175.9943216
-51.99973636 -32.65093484 187.8061946
48.00026364 -7.823314096 107.6708956
-47.99973636 -5.062157946 160.8672126
48.00026364 -17.33768089 109.2726406
-51.99973636 -28.21843652 199.9645496
52.00026364 -71.74630404 173.9999746
-47.99973636 -100.794141 228.2000896
-47.99973636 -45.42401626 138.1179636
51.50598164 -2.498586889e-05 24.66724861
48.00026364 -44.8192126 226.3964306
52.00026364 -4.331591996 121.9959326
52.00026364 -42.04565577 121.6512286
-47.99973636 -39.46250595 231.1030796
-51.99973636 -22.1463089 57.30052561
-47.99973636 -19.31562199 245.6518596
-47.99973636 -62.017849 198.9188906
-47.99973636 -44.71542333 77.32855361
52.00026364 -67.37299863 149.3806816
61.56683664 -56.82916444 -9.738562903e-05
48.00026364 -6.734997766 168.2567416
-51.99973636 -92.45611594 241.7339346
-51.99973636 -34.03640661 84.48973661
52.00026364 -22.67020704 110.8759246
48.00026364 -23.34812263 146.9709086
