# .PCD v0.7 - Point Cloud Data file format
VERSION 0.7
FIELDS x y z
SIZE 4 4 4
TYPE F F F
COUNT 1 1 1
WIDTH 1191
HEIGHT 1
VIEWPOINT 0 0 0 1 0 0 0
POINTS 1191
DATA ascii
-65.898453 -2.498601151e-05 -167.1391514
329.793959 -2.498601151e-05 -101.5933264
8.684687 -2.498601151e-05 -42.11702039
-331.309322 -2.498601151e-05 -15.23958639
-277.633464 -38.50128438 -9.738580411e-05
-284.270789 -2.498601151e-05 -235.3480664
73.748019 -2.498601151e-05 -61.30275239
-437.840455 -34.04188947 -9.738580411e-05
-101.714352 -2.498601151e-05 -61.61659139
417.500215 -49.36664779 -35.93218239
109.40534 -2.498601151e-05 -105.7441714
436.773033 -47.46733171 -9.738580411e-05
421.500215 1.389100284 -164.4550364
390.843045 -2.498601151e-05 -119.9160614
15.23166 -2.498601151e-05 -166.2876754
-380.32389 -2.498601151e-05 -92.50906039
49.676985 -53.09526692 -9.738580411e-05
-149.692585 -32.59134396 -9.738580411e-05
-116.539399 -2.498601151e-05 -204.7835284
-362.266082 -2.498601151e-05 -16.06329239
5.498262 -2.498601151e-05 -92.48090339
-91.854622 -2.498601151e-05 -76.16124039
-265.903091 -4.383078886 -9.738580411e-05
5.019872 -2.498601151e-05 -235.7120004
-215.493854 -2.498601151e-05 -132.5195304
417.500215 -225.7955004 -171.8312114
417.500215 -23.86372428 -8.892722386
309.120774 -2.498601151e-05 -139.5905044
-52.093904 -2.498601151e-05 -198.6693054
6.141477 -2.498601151e-05 -122.3688064
-20.88425 -67.79375297 -9.738580411e-05
86.034946 -2.498601151e-05 -129.3761054
133.049799 -2.498601151e-05 -249.2527654
-180.667554 -2.498601151e-05 -61.80097939
225.516628 -2.498601151e-05 -64.63633339
-348.171727 -2.498601151e-05 -80.15303039
421.500215 -125.876101 -89.79641139
394.201215 -2.498601151e-05 -232.3888124
421.500215 -86.28714994 -103.7459524
366.241744 -27.61325092 -9.738580411e-05
413.500215 -48.68335237 -249.4251554
417.500215 -83.25628796 -130.9123284
-75.682546 -2.498601151e-05 -44.93375539
-71.431962 -2.498601151e-05 -134.9920424
254.171381 -2.498601151e-05 -62.32424739
104.462247 -51.31158035 -9.738580411e-05
413.500215 -80.63309732 -170.0424614
400.158216 -2.498601151e-05 -54.82555139
128.166175 -2.498601151e-05 -210.7304264
248.495847 -2.498601151e-05 -206.0046744
-322.79877 -2.498601151e-05 -0.6171023858
-18.907494 -2.498601151e-05 -245.4891804
421.500215 -56.52028465 -181.4634024
114.199647 2.054428124 -9.738580411e-05
-267.249034 -2.498601151e-05 -46.21776839
-168.609905 -65.38460834 -9.738580411e-05
413.500215 -34.945008 -123.8764504
5.861045 -2.498601151e-05 -219.0004474
417.500215 -215.6792292 -124.0911784
243.49512 -2.498601151e-05 -226.0183044
3.401032 -24.19845137 -9.738580411e-05
-179.361988 -2.498601151e-05 -126.9518794
-205.227487 -2.498601151e-05 -207.7806474
-438.231643 -2.498601151e-05 -124.8526974
374.075993 -2.498601151e-05 -182.9644144
417.500215 -235.8435668 -95.66819239
-253.263114 -2.498601151e-05 -169.0065614
227.788536 -2.498601151e-05 -22.75022439
417.500215 -11.45117873 -148.1315874
421.500215 -201.3131922 -96.13973539
309.497389 -2.498601151e-05 -215.7621704
-47.030098 -1.512933016 -9.738580411e-05
-137.384784 -2.498601151e-05 -43.61935839
179.758188 -2.498601151e-05 -54.74969539
20.103245 -2.498601151e-05 -138.3061234
-383.078144 -2.498601151e-05 -174.1582354
-365.403637 -65.50566853 -9.738580411e-05
-291.728717 -2.498601151e-05 -217.0063244
365.073117 -50.97787454 -9.738580411e-05
-88.245412 -2.498601151e-05 -120.2709204
326.899201 -30.44348644 -9.738580411e-05
-353.674533 -13.25651032 -9.738580411e-05
417.500215 -100.0995795 -185.6010544
-192.742748 -2.498601151e-05 -105.9540104
413.509638 -139.8411837 -175.0532754
-354.308906 -2.498601151e-05 -153.7309294
78.219573 -2.498601151e-05 -96.43406739
417.500215 -56.76340073 -152.8787924
396.762708 -51.91118779 -9.738580411e-05
-26.878916 -2.498601151e-05 -212.3753054
153.725916 -2.498601151e-05 -109.7011654
421.500215 -248.7268845 -75.43572739
200.926236 -28.92672717 -9.738580411e-05
-248.239531 -2.498601151e-05 -28.36394739
-366.733826 1.502555814 -9.738580411e-05
241.887373 -64.7227149 -9.738580411e-05
140.2087 -2.498601151e-05 -168.8423244
-10.686782 -2.498601151e-05 -205.2069564
-249.805157 -0.870247206 -9.738580411e-05
281.689936 -2.498601151e-05 -234.6826104
306.875079 -2.498601151e-05 -238.1729234
432.049325 -2.498601151e-05 -130.7463614
2.195161 -5.561890496 -9.738580411e-05
128.809378 -2.498601151e-05 -82.46769139
-116.441834 -2.498601151e-05 -186.8012544
-135.505439 -2.498601151e-05 -152.6720104
39.439125 -2.498601151e-05 -125.0177124
417.500215 -211.547799 -65.61067939
-243.263381 -2.498601151e-05 -137.9813414
-161.472439 -2.498601151e-05 -113.9249694
256.235645 -2.498601151e-05 -244.0179684
-429.279518 -2.498601151e-05 -159.1189374
-106.011379 -55.9098556 -9.738580411e-05
429.321426 -2.498601151e-05 -101.7981254
-115.214509 -2.498601151e-05 -128.7520194
-162.16132 1.083015134 -27.25314639
-207.108552 -2.498601151e-05 -248.5358524
282.892968 -2.498601151e-05 -210.8206304
270.749671 -2.498601151e-05 -137.8348464
-9.371268 -2.498601151e-05 -151.6935344
-285.918859 -2.498601151e-05 -81.67243539
-340.525552 -26.72009654 -9.738580411e-05
430.661834 -53.9280539 -44.00009739
-389.574062 -2.498601151e-05 -71.73551739
-59.048495 -36.43108275 -9.738580411e-05
-351.194266 -50.75863265 -9.738580411e-05
433.391573 -208.8547314 -40.00009739
320.312329 -2.498601151e-05 -82.63462439
220.005512 -2.498601151e-05 -107.3864264
19.893026 -2.498601151e-05 -78.86719239
217.718493 -2.498601151e-05 -147.0872064
-393.996038 -2.498601151e-05 -238.1009404
420.600158 -225.7470542 -198.2987734
-385.464139 -11.03927308 -9.738580411e-05
159.721758 -2.498601151e-05 -195.8252374
-434.666217 -2.498601151e-05 -187.8738904
-66.61818 -2.498601151e-05 -222.9238014
106.487246 -2.498601151e-05 -57.31943939
185.016635 -2.498601151e-05 -186.3513794
-371.197243 -2.498601151e-05 -30.02934939
145.936333 -2.498601151e-05 -141.3087774
-312.716478 -50.92610781 -9.738580411e-05
417.500215 -144.2580743 -77.10872239
-260.96388 -68.00002403 1.163836614
-333.072534 -2.498601151e-05 -31.29326039
-15.671545 -2.498601151e-05 -186.0037934
-145.088994 -2.498601151e-05 -204.7939274
249.958471 -2.498601151e-05 -5.941458386
421.590535 -148.8465247 -47.22371439
-38.50837 -2.498601151e-05 -134.7776934
75.773405 -2.498601151e-05 -175.5451334
27.822654 -2.498601151e-05 -56.14453739
295.450397 -38.38986279 -9.738580411e-05
421.500215 -25.08229205 -175.6074904
420.824801 -2.498601151e-05 -193.5890704
-163.720317 -48.71549545 -9.738580411e-05
170.081741 -2.498601151e-05 -30.07975639
365.860506 -2.498601151e-05 -9.789079386
-380.648293 -2.498601151e-05 -214.8594044
282.210061 -2.498601151e-05 -15.31773239
190.134878 -2.498601151e-05 -234.6459374
427.30203 -16.92707882 -199.2254774
-402.944466 -2.498601151e-05 -112.9425854
417.500215 -101.418822 -148.9071254
-418.771404 -2.498601151e-05 -240.6223544
189.745539 2.207003394 -9.738580411e-05
-329.072672 -2.498601151e-05 -55.85079539
-426.407573 -47.17207713 -9.738580411e-05
417.500215 -17.1983911 -80.15810239
222.9077 -2.498601151e-05 -251.9471904
-214.518365 0.951636254 -9.738580411e-05
417.500215 -137.3131834 -141.4486854
-162.308964 -2.498601151e-05 -247.9460884
359.464344 -2.498601151e-05 -111.9510604
421.500215 -51.9137895 -65.87533839
-200.633923 -59.0944647 -9.738580411e-05
118.205509 -26.74491521 -9.738580411e-05
-66.172516 -2.498601151e-05 -188.5993524
-225.474844 -2.498601151e-05 -145.0573174
58.338087 -21.668861 -9.738580411e-05
-208.532054 -2.498601151e-05 -111.5027554
-375.466757 -2.498601151e-05 -65.56069539
-211.178159 -29.79447868 -9.738580411e-05
421.500215 -173.1382302 -73.13402039
185.741126 -2.498601151e-05 -109.2856044
-185.586444 -2.498601151e-05 -7.961995386
53.617832 -2.498601151e-05 -132.1042584
-73.749491 -2.498601151e-05 -11.80278239
286.092081 -2.498601151e-05 -153.0018844
-342.949277 -2.498601151e-05 -63.24912039
260.06669 -2.498601151e-05 -33.29562939
425.443552 -78.44987732 -199.9945054
-166.822246 -2.498601151e-05 -55.22688839
413.500215 -48.93054816 -168.0260304
351.057817 -24.91756626 -9.738580411e-05
-337.567837 -2.498601151e-05 -232.6588494
198.27891 -2.498601151e-05 -12.26513839
186.993395 -2.498601151e-05 -158.9037844
158.685809 -2.498601151e-05 -225.7168894
420.087037 -105.8862224 -42.14303239
392.895091 -34.68466999 -9.738580411e-05
364.963561 -2.498601151e-05 -161.7007954
-309.517282 -2.498601151e-05 -179.4154744
335.549591 -2.498601151e-05 -247.0547034
252.891059 -2.498601151e-05 -178.7627084
-94.358095 -21.68751741 -9.738580411e-05
-278.568071 -2.498601151e-05 -14.45678339
252.747809 -2.498601151e-05 -117.5317224
-127.178485 -2.498601151e-05 -115.9368254
-319.003817 -2.498601151e-05 -110.3860654
-351.029046 -2.498601151e-05 -99.05031939
-226.049493 -2.498601151e-05 -180.6491484
421.500215 -167.705988 -124.7545154
238.380621 -2.498601151e-05 -36.38755839
16.724545 -2.498601151e-05 -22.08287039
-398.650707 -22.53135925 -9.738580411e-05
329.067312 -2.498601151e-05 -211.6502074
421.500215 -12.28781449 -111.1951454
116.308006 -2.498601151e-05 -147.5594894
-292.019055 -52.82067032 -9.738580411e-05
-135.162572 -2.498601151e-05 -235.6808824
-37.609591 -2.498601151e-05 -178.8790624
-426.18031 -66.40235728 -9.738580411e-05
355.637813 -2.498601151e-05 -69.48856139
436.209381 -237.7380965 -200.0000974
244.175061 -2.498601151e-05 -93.27524339
-248.728914 -36.83860195 -9.738580411e-05
134.432692 -49.11550479 -9.738580411e-05
-209.930971 -2.498601151e-05 -233.2821454
417.500215 -169.1508077 -175.4815444
422.170185 -129.7749868 -199.2681014
-306.108927 -2.498601151e-05 -213.4831764
-187.180165 -29.50633712 -9.738580411e-05
143.832676 -2.498601151e-05 -91.81651639
369.434689 -2.498601151e-05 -240.4316654
-436.374804 -2.498601151e-05 -37.28770239
-154.141412 -2.498601151e-05 -186.9219874
398.663747 -2.498601151e-05 -249.9068644
421.500215 -246.5638871 -154.3509124
217.074276 -13.7740462 -9.738580411e-05
-258.663129 -2.498601151e-05 -138.5088104
413.500215 -160.0353458 -142.2310094
-169.508244 -2.498601151e-05 -148.2086034
-229.455545 -62.34010051 -9.738580411e-05
-156.29993 -2.498601151e-05 -79.26986539
-54.861865 -2.498601151e-05 -12.31378039
-320.818328 -36.88130613 -9.738580411e-05
-138.955193 -64.56101802 -9.738580411e-05
209.973884 -2.498601151e-05 -178.1479134
156.171247 -2.498601151e-05 -35.11484339
417.500215 -162.0328105 -51.86482939
-268.93305 -2.498601151e-05 -111.5344894
272.443282 -64.99285598 -9.738580411e-05
168.363169 -29.84852661 -9.738580411e-05
-435.580786 -2.498601151e-05 -1.754506386
24.969756 -2.498601151e-05 -154.9342704
81.226339 -2.498601151e-05 -206.0093314
417.500215 -118.6478439 -110.8370844
-334.319628 -65.90135351 -9.738580411e-05
-226.871615 -15.90367467 -9.738580411e-05
417.500215 -90.41274851 -72.38898739
-292.262169 -26.25333349 -9.738580411e-05
392.029037 -2.498601151e-05 -4.558801386
417.500215 -251.8714726 -183.3734624
-384.996633 -48.64285453 -9.738580411e-05
-408.936463 -2.498601151e-05 -206.8856014
371.441217 -2.498601151e-05 -66.52858539
-100.511459 -2.498601151e-05 -232.8717884
301.583916 -68.00002403 0.8207096142
267.5043 -24.18633996 -9.738580411e-05
-243.8942 -2.498601151e-05 -201.0295544
99.085748 -2.498601151e-05 -228.5493804
-437.63894 -2.498601151e-05 -104.0003664
87.187797 -2.498601151e-05 -143.9372354
20.696526 -2.498601151e-05 -187.9202484
417.500215 -211.3004652 -159.6849304
421.500215 -28.76792728 -97.71315939
424.240968 -251.8027805 -44.23644739
421.500215 -134.8231488 -185.7545084
-260.30333 -2.498601151e-05 -247.2051764
84.657155 -2.498601151e-05 -48.14878439
101.63545 -37.33783622 -9.738580411e-05
421.500215 -69.4158468 -187.5340454
-35.302349 -32.00793764 -9.738580411e-05
-351.722838 -2.498601151e-05 -138.3690654
-153.006755 -2.498601151e-05 -100.4810634
393.533234 -2.498601151e-05 -192.9427114
70.510788 -10.37038009 -9.738580411e-05
-354.402902 -2.498601151e-05 -36.57955639
421.500215 -232.0309344 -183.9265754
417.500215 -69.03166972 -227.2663364
414.009305 -25.18201786 -148.6348514
-57.426172 -2.498601151e-05 -90.20905739
-183.474088 -2.498601151e-05 -172.4863444
-325.309415 -2.498601151e-05 -165.0139534
249.991658 -2.498601151e-05 -151.8990144
158.698393 -2.498601151e-05 -240.4991784
394.747669 -2.498601151e-05 -147.4887524
-277.887719 -53.58268284 -9.738580411e-05
62.743055 -2.498601151e-05 -29.49420439
42.234265 -2.498601151e-05 -81.73838139
425.997584 -2.498601151e-05 -243.5737434
-229.138763 -2.498601151e-05 -47.79747239
387.027552 -2.498601151e-05 -97.38925839
413.500215 -94.97720026 -94.89165239
298.490434 -2.498601151e-05 -35.14022039
413.500215 -71.40842551 -80.58795039
423.685682 -110.4317023 -199.7907334
-192.192832 -2.498601151e-05 -250.2999774
408.917794 -33.28064332 -9.738580411e-05
-156.048714 -2.498601151e-05 -10.50510939
429.531013 -2.498601151e-05 -13.43764839
108.149847 -2.498601151e-05 -159.6035604
-45.705837 -2.498601151e-05 -35.94833439
413.500215 -61.61739151 -59.68381739
16.36059 -2.498601151e-05 -109.2105534
-376.334955 -28.22752634 -9.738580411e-05
-297.670543 2.116367654 -9.738580411e-05
417.500215 -42.79888196 -75.71041339
-47.331671 -2.498601151e-05 -62.86519039
293.204919 -2.498601151e-05 -101.5623854
14.74814 -57.44612716 -9.738580411e-05
421.500215 -73.41863051 -154.3178324
420.542534 -185.1493816 -198.2505504
276.27235 -2.498601151e-05 -78.14356339
417.500215 -197.7939638 -153.7553674
417.500215 -48.8709307 -130.4238764
125.852005 -2.498601151e-05 -30.20792339
201.782564 -2.498601151e-05 -121.5283874
403.672167 -2.498601151e-05 -221.0725634
-78.280245 -2.498601151e-05 -239.1463834
413.500215 -46.84830581 -195.5360554
-31.960393 -2.498601151e-05 -154.6607684
426.63289 -2.498601151e-05 -38.34897139
-258.54171 -2.498601151e-05 -212.2076994
118.848499 -56.5441923 -9.738580411e-05
-380.503316 -2.498601151e-05 -40.23513339
277.019712 -2.498601151e-05 -193.2057424
421.500215 -158.8721433 -186.0730394
-311.352672 -24.24553237 -9.738580411e-05
426.56027 -118.0727979 -44.00009739
-243.805134 -2.498601151e-05 -15.19539139
421.500215 -126.8664532 -63.97813239
68.609002 -2.498601151e-05 -75.62644939
48.502037 -2.498601151e-05 -226.5245754
56.508856 -2.498601151e-05 -14.85168339
417.500215 -75.39550549 -96.39822739
-211.979756 -2.498601151e-05 -176.8307624
-179.353501 -2.498601151e-05 -89.47159439
-339.844504 -11.80268454 -9.738580411e-05
413.500215 -155.9719968 -161.4893924
45.589631 -2.498601151e-05 -40.71543739
-105.961934 -2.498601151e-05 -97.03288239
-146.438708 -2.498601151e-05 -251.7383074
426.581405 -96.9327946 -200.0000974
232.821804 -2.498601151e-05 -171.0027364
372.00446 -2.498601151e-05 -93.83845339
-262.828286 -2.498601151e-05 -29.24307439
101.978025 -2.498601151e-05 -74.79566239
328.405207 -2.498601151e-05 -167.1174094
-73.315509 -2.498601151e-05 -70.78204539
-382.5269 2.245252944 -9.738580411e-05
413.500215 -41.21915655 -101.5100094
-216.792209 -2.498601151e-05 -200.6298964
380.201061 -2.498601151e-05 -209.9606264
123.082151 -2.498601151e-05 -100.0935624
421.500215 -111.8927506 -158.3747394
416.789477 -2.498601151e-05 -59.45996339
-420.199922 -2.498601151e-05 -180.5269204
430.093633 -145.3368626 -200.0000974
-80.694708 -60.70585991 -9.738580411e-05
-371.226377 -2.498601151e-05 -189.3824094
406.930602 -2.498601151e-05 -194.7001904
385.221544 -61.11888072 -9.738580411e-05
99.904737 -2.498601151e-05 -245.5261004
208.702402 -2.498601151e-05 -48.28658439
417.500215 -111.2198514 -122.3079974
-189.013858 -2.498601151e-05 -33.96992539
-81.064021 -2.498601151e-05 -183.9735424
-412.998354 -47.89456789 -9.738580411e-05
3.859217 -2.498601151e-05 -205.5256154
307.517658 -2.498601151e-05 -47.33861139
421.607346 -14.69411487 -9.738580411e-05
423.31225 -174.7946949 -44.73986539
-398.953201 -2.498601151e-05 -195.5621444
402.029607 -2.498601151e-05 -127.3109484
0.9328630002 -2.498601151e-05 -160.2733704
-35.171179 -2.498601151e-05 -101.2298984
-43.234968 -2.498601151e-05 -147.3238804
-102.298453 1.808670094 -9.738580411e-05
417.500215 -180.7360155 -102.3720134
-389.486394 -2.498601151e-05 -125.7079464
159.885238 0.500238654 -9.738580411e-05
355.7449 -2.498601151e-05 -204.2392334
-8.455906 -15.10148048 -9.738580411e-05
-95.481993 -2.498601151e-05 -185.2852024
-136.109153 -2.498601151e-05 -56.90556239
-51.954845 -53.02194472 -9.738580411e-05
-365.35265 -2.498601151e-05 -245.4578504
-205.145456 -2.498601151e-05 -83.15166939
417.500215 -129.0916228 -155.9268104
413.500215 -87.01792933 -143.5018864
-296.474056 -2.498601151e-05 -127.5700924
428.483673 -169.4442651 -200.0000974
356.624707 -2.498601151e-05 -231.5186344
286.968094 -11.79264898 -9.738580411e-05
421.500215 -62.4576442 -48.41439639
417.500215 -12.5215281 -178.6333734
-68.230853 -2.498601151e-05 -209.7667134
421.500215 -113.1730217 -175.6098614
307.466285 -2.498601151e-05 -86.21805739
-393.553853 -2.498601151e-05 -92.84262539
421.500215 -8.070602986 -134.3025724
413.500215 -13.00705465 -20.61910539
163.550774 -2.498601151e-05 -171.9535724
-19.875216 -2.498601151e-05 -65.75400839
69.850051 -2.498601151e-05 -235.5910054
-260.133337 -2.498601151e-05 -98.93338039
106.969255 -2.498601151e-05 -216.5440754
366.299158 -2.498601151e-05 -28.75194439
-337.403063 -2.498601151e-05 -202.9456474
348.275913 -2.498601151e-05 -58.34735739
-121.39186 -11.65291258 -9.738580411e-05
111.236881 -2.498601151e-05 -37.93951239
376.138113 -2.498601151e-05 -124.7923984
-200.331358 -2.498601151e-05 -224.3731594
413.500215 -33.84792659 -37.84203239
-195.139722 -2.498601151e-05 -182.2910824
-258.859452 -2.498601151e-05 -56.24125139
133.486048 -2.498601151e-05 -0.6471153858
376.636241 -2.498601151e-05 -53.18267139
216.458935 -2.498601151e-05 -37.09732939
328.696751 -2.498601151e-05 -135.1865844
-229.493445 -2.498601151e-05 -12.62418239
-183.018876 -2.498601151e-05 -142.2259434
425.981171 -28.39177715 -40.00009739
-79.047395 1.462979504 -9.738580411e-05
-214.838035 -2.498601151e-05 -57.58093239
214.3874 -2.498601151e-05 -80.14518739
327.606008 -2.498601151e-05 -194.1928214
434.556604 -2.498601151e-05 -160.1161354
-317.112052 -2.498601151e-05 -72.42091139
421.500215 -132.3236759 -104.0073364
131.847052 -2.498601151e-05 -116.6506654
-400.692443 -2.498601151e-05 -12.55562839
66.979528 -32.76175231 -9.738580411e-05
-156.939425 -2.498601151e-05 -63.60365839
413.500215 -18.79698106 -247.3884484
326.727642 -2.498601151e-05 -114.1675004
-166.106408 -2.498601151e-05 -101.0756324
-116.320318 -48.08784899 -9.738580411e-05
-219.78165 -44.9252612 -9.738580411e-05
417.500215 -241.1492959 -126.6758654
-312.938556 -8.761952426 -9.738580411e-05
413.500215 -50.41976496 -11.57881039
421.623699 -158.3401765 -198.9655434
417.272544 -68.05401315 -31.61595039
129.423547 -2.498601151e-05 -61.05274439
-72.810325 -2.498601151e-05 -100.8689994
253.721236 -54.93325748 -9.738580411e-05
437.773037 -236.7461228 -40.00009739
58.819987 -2.498601151e-05 -190.3531664
421.500215 -151.2289719 -102.1295914
413.500215 -15.96743537 -43.90549239
-192.339034 -2.498601151e-05 -53.19177539
417.500215 -207.4549163 -133.9870704
224.442361 -44.26992798 -9.738580411e-05
168.058796 -55.34603602 -9.738580411e-05
417.500215 -240.404725 -108.8083014
-240.510743 -48.91338125 -9.738580411e-05
51.215187 -2.498601151e-05 -167.5605164
-162.43773 -2.498601151e-05 -164.8018164
321.544255 -8.174112736 -9.738580411e-05
-183.004656 -2.498601151e-05 -239.6070354
60.894921 -2.498601151e-05 -57.85086039
-8.722727 -2.498601151e-05 -90.32821439
261.029282 -2.498601151e-05 -168.1425834
165.003199 -2.498601151e-05 -159.0380884
-330.668215 -2.498601151e-05 -87.40627639
311.504715 1.860207554 -9.738580411e-05
-167.755286 -2.498601151e-05 -219.1391374
-71.286316 -2.498601151e-05 -56.95757639
421.500215 -133.5748247 -129.8765674
79.173097 -2.498601151e-05 -83.41138539
-31.675138 2.193464924 -9.738580411e-05
268.131065 -2.498601151e-05 -108.5208884
311.302392 -2.498601151e-05 -113.1014534
-119.089528 -2.498601151e-05 -251.4322534
-199.814996 -20.10954876 -9.738580411e-05
417.500215 -146.2213201 -119.0217874
171.337898 -16.02899966 -9.738580411e-05
409.366713 -2.498601151e-05 -85.17360739
304.198496 -2.498601151e-05 -186.0678864
417.500215 -217.8102865 -110.6517414
-283.168667 -2.498601151e-05 -181.9357404
421.500215 -19.48116053 -121.6433754
-95.882066 -2.498601151e-05 -31.77935839
116.428064 -2.498601151e-05 -116.8160584
417.500215 -81.97531002 -52.27998839
198.537461 -50.88502865 -9.738580411e-05
138.227961 -13.9087163 -9.738580411e-05
417.500215 -116.1548236 -70.22375439
134.469468 -2.498601151e-05 -133.0562684
421.500215 -167.6375327 -84.48262939
421.500215 -35.39208703 -110.8137184
-36.930204 -2.498601151e-05 -204.7745724
-87.491063 -2.498601151e-05 -206.5671134
101.875927 -2.498601151e-05 -92.15572239
175.822557 -2.498601151e-05 -136.4839964
421.500215 -167.1095445 -110.7932594
-353.388321 -2.498601151e-05 -187.6563494
-123.948371 -2.498601151e-05 -42.24214039
228.401503 -2.498601151e-05 -10.24128339
-294.220495 -2.498601151e-05 -113.4662554
421.500215 -148.8510291 -144.0980214
413.974136 -90.43364384 -220.9441984
-348.659959 -2.498601151e-05 -226.9316814
-246.54469 -2.498601151e-05 -236.7307124
-119.31371 -2.498601151e-05 -72.64349239
88.224422 -2.498601151e-05 -21.67106439
116.835076 -2.498601151e-05 -181.5806074
-14.665736 -2.498601151e-05 -233.7791714
413.500215 -70.12772097 -205.2163634
417.39646 -2.498601151e-05 -105.3646904
417.500215 -104.7120447 -65.35208139
131.798183 -2.498601151e-05 -233.2324174
-266.651392 -2.498601151e-05 -166.4671144
-341.034036 -2.498601151e-05 -177.7815804
324.713568 -55.98312847 -9.738580411e-05
366.611207 -2.498601151e-05 -222.5728354
-398.822346 -63.51136795 -9.738580411e-05
123.589696 -68.00002403 0.7434096142
210.02254 -2.498601151e-05 -137.3418724
75.854152 -2.498601151e-05 -152.0838224
380.898276 -2.498601151e-05 -193.3313174
-179.961196 -2.498601151e-05 -202.4833094
368.07997 -2.498601151e-05 -145.9733084
100.089899 0.737620844 -9.738580411e-05
275.307427 -2.498601151e-05 -41.69156339
413.500215 -7.903286006 -220.5096604
78.908337 -2.498601151e-05 -31.41706339
172.758621 -2.498601151e-05 -79.75929939
-143.471945 -2.498601151e-05 -180.7173164
413.500215 -109.2067039 -89.82875639
-311.089864 -2.498601151e-05 -239.2184604
199.622603 -2.498601151e-05 -205.4085474
321.047354 -2.498601151e-05 -50.87253339
413.500215 -103.7306467 -104.3650584
364.66472 -2.498601151e-05 -251.7962444
-137.103547 -2.498601151e-05 -10.34796839
-5.778536 -2.498601151e-05 -138.3658384
417.500215 -62.29942542 -112.9617154
141.543927 -37.36723784 -9.738580411e-05
343.451006 -51.57097218 -9.738580411e-05
40.772445 -2.498601151e-05 -109.1113954
187.405854 -2.498601151e-05 -204.1075594
-342.440764 -38.85468807 -9.738580411e-05
297.130187 -2.498601151e-05 -129.0624374
-24.416812 -23.33680972 -9.738580411e-05
417.500215 -93.19348158 -175.4577454
-75.289346 -49.70091881 -9.738580411e-05
-100.486077 -2.498601151e-05 -120.8211354
417.500215 -49.02593216 -224.7871784
-6.14915 -64.24140911 -9.738580411e-05
262.898539 -2.498601151e-05 -126.3249074
232.647481 -2.498601151e-05 -89.14404839
178.067535 -68.00002403 1.191440614
343.740381 -2.498601151e-05 -177.2040694
424.139105 -29.01628231 -9.738580411e-05
58.468932 -2.498601151e-05 -150.1083704
87.00136 -6.646547876 -9.738580411e-05
386.384759 -2.498601151e-05 -76.25845439
-314.161961 -2.498601151e-05 -27.08590639
85.401546 -2.498601151e-05 -227.7909084
-336.429255 -2.498601151e-05 -111.3703084
413.645459 -108.4975908 -136.4301834
421.500215 -220.5709908 -76.53331539
413.500215 -30.34977256 -166.3503694
-299.354932 -2.498601151e-05 -187.1487694
-2.666591 -2.498601151e-05 -36.99159539
-415.244077 -2.498601151e-05 -89.85713639
421.500215 -88.48873755 -118.7551634
303.588297 -2.498601151e-05 -61.81392939
149.373248 -64.30142411 -9.738580411e-05
-88.008848 -2.498601151e-05 -87.65562439
329.327094 -2.498601151e-05 -236.6763684
413.500215 -68.8327804 -239.4881194
424.53045 -2.498601151e-05 -88.48781339
438.263896 -73.84808066 -200.0000974
413.500215 -121.9703155 -177.7795974
-396.257685 -2.498601151e-05 -145.0783994
-234.342813 -2.498601151e-05 -27.50609639
-57.36891 -7.737567206 -9.738580411e-05
241.419332 -2.498601151e-05 -62.92016139
210.80358 -2.498601151e-05 -156.9591644
417.933606 -224.4943373 -45.51712139
423.756946 -199.3015276 -40.20605839
297.674064 -2.498601151e-05 -207.2794704
340.586962 -2.498601151e-05 -151.1545924
-29.750362 -2.498601151e-05 -89.38214739
-49.965502 -68.00002403 0.8972026142
24.783596 -2.498601151e-05 -218.6376474
252.950017 -2.498601151e-05 -84.58317339
352.77752 -2.498601151e-05 -0.9419113858
-237.441436 -2.498601151e-05 -148.4567934
49.130186 -2.498601151e-05 -181.2205474
-423.22717 -2.498601151e-05 -207.2112824
388.419044 -10.46826662 -9.738580411e-05
-254.696302 -11.78820575 -9.738580411e-05
-166.192527 -18.88779638 -9.738580411e-05
-8.161683 -2.498601151e-05 -12.57454439
421.500215 -11.86183162 -69.22703439
417.500215 -190.070823 -121.4820624
421.500215 -226.1134782 -88.27629439
421.742517 -251.5688198 -199.0367564
381.313941 -2.498601151e-05 -31.19791239
413.500215 -118.8555453 -165.3827274
417.500215 -236.3307219 -67.69183339
421.500215 -55.08762758 -139.7641404
421.500215 -63.81069252 -69.55244539
247.238779 -35.3653578 -9.738580411e-05
169.620039 -2.498601151e-05 -245.2182974
-386.156789 -2.498601151e-05 -187.5926614
-279.415111 -2.498601151e-05 -60.30940339
180.982212 -2.498601151e-05 -13.72876739
-416.548402 -2.498601151e-05 -78.04981739
413.500215 -26.59075731 -186.6280164
421.500215 -218.7487218 -136.0003074
266.605136 -2.498601151e-05 -216.1681634
233.750931 -2.498601151e-05 -158.4484904
194.950345 -2.498601151e-05 -31.05648639
421.500215 -98.96655796 -86.43061639
413.500215 -91.08929812 -164.4730504
-112.46789 -2.498601151e-05 -18.81553839
417.500215 -88.60723587 -196.8533714
413.500215 -72.54545803 -179.3888264
413.500215 -29.96462297 -207.9925104
149.364995 -2.498601151e-05 -76.74196039
433.18066 -120.5641748 -200.0000974
-317.87386 -2.498601151e-05 -214.5969104
165.338716 -2.498601151e-05 -214.9677694
355.259822 -2.498601151e-05 -186.7621944
221.02276 -2.498601151e-05 -182.9904714
-136.361089 -2.498601151e-05 -223.9512274
-206.389037 -2.498601151e-05 -9.543586386
161.016848 -2.498601151e-05 -57.12849939
-138.414535 -2.498601151e-05 -124.8750134
-260.616957 -2.498601151e-05 -154.8476214
269.432534 -2.498601151e-05 -239.1399504
89.963305 -34.3046554 -9.738580411e-05
-51.285895 -2.498601151e-05 -23.63818339
-375.530644 -2.498601151e-05 -133.6792804
-139.738813 -12.9794083 -9.738580411e-05
425.801587 -215.3561367 -200.0000974
354.136118 -2.498601151e-05 -46.27408839
205.886286 -40.00326666 -9.738580411e-05
290.217749 -2.498601151e-05 -242.7368484
417.500215 -238.2925637 -144.8830514
165.10311 -2.498601151e-05 -183.5770434
-51.228872 -2.498601151e-05 -77.16949439
236.785185 -2.498601151e-05 -49.30909639
417.500215 -183.6089529 -69.73955439
-264.838932 -2.498601151e-05 -222.0715244
429.726577 -2.498601151e-05 -216.8388484
421.500215 -41.34794938 -60.85938939
-400.356604 -36.52028956 -9.738580411e-05
-250.756555 -2.498601151e-05 -183.1720244
-433.301809 -2.498601151e-05 -63.85667539
-277.554456 -2.498601151e-05 -136.9491814
-111.275451 -2.498601151e-05 -49.17109539
128.033943 -2.498601151e-05 -160.8810454
-340.902624 -2.498601151e-05 -130.2182824
180.030936 -2.498601151e-05 -213.7296184
-86.908888 -37.42048246 -9.738580411e-05
56.182041 -2.498601151e-05 -45.54439439
-325.786711 -11.23020163 -9.738580411e-05
-423.293321 -2.498601151e-05 -49.31556339
404.834446 -2.498601151e-05 -9.825455386
413.500215 -173.4803018 -148.8152244
436.812419 -193.9793334 -200.0000974
-411.762723 -2.498601151e-05 -6.231063386
231.512535 -2.498601151e-05 -118.6939834
419.405823 -2.498601151e-05 -144.6885164
-252.115328 -49.43261315 -9.738580411e-05
230.759839 -2.498601151e-05 -189.3208354
376.226647 -2.498601151e-05 -82.09057239
104.717433 -2.498601151e-05 -10.66607639
-130.423087 -2.498601151e-05 -69.30401639
255.266263 -2.498601151e-05 -196.5932724
400.503717 -2.498601151e-05 -93.89000239
338.752431 -2.498601151e-05 -94.25232939
64.36696 -2.498601151e-05 -247.3708094
-294.922953 -2.498601151e-05 -55.68356039
-186.43612 -2.498601151e-05 -117.8120804
418.431941 -206.3548204 -195.6733884
185.422404 -2.498601151e-05 -83.47902639
-314.133059 -2.498601151e-05 -127.4134184
-156.767057 -2.498601151e-05 -229.2967074
190.501945 -2.498601151e-05 -176.1904954
-87.183671 -2.498601151e-05 -18.88064539
-217.938442 -2.498601151e-05 -119.6394444
413.500215 -54.68503811 -89.53154439
417.500215 -92.79251098 -208.9003504
59.329603 -2.498601151e-05 -213.3480444
413.500215 -23.01657078 -69.10228939
209.362418 -2.498601151e-05 -198.6893964
-95.649565 -2.498601151e-05 -9.191146386
315.433061 -26.63848843 -9.738580411e-05
413.500215 -17.55982851 -201.9786654
-153.979896 -2.498601151e-05 -173.1300804
-27.316947 -2.498601151e-05 -132.3500134
-427.112559 -2.498601151e-05 -231.7733574
-83.972025 -16.86738151 -9.738580411e-05
-279.563493 -2.498601151e-05 -105.5334524
424.802566 -2.498601151e-05 -49.64831639
438.339489 -159.390703 -44.00009739
190.325982 -2.498601151e-05 -63.80617639
282.98492 -2.498601151e-05 -180.5261324
201.901334 -2.498601151e-05 -71.84307839
-240.504166 -2.498601151e-05 -215.4469684
-306.83103 -2.498601151e-05 -168.3101814
-193.986524 -2.498601151e-05 -210.9090784
-309.661705 -2.498601151e-05 -98.44650839
-79.085887 -2.498601151e-05 -112.1472844
-429.391483 -2.498601151e-05 -117.6555454
-233.948747 -2.498601151e-05 -109.0323534
336.183547 -2.498601151e-05 -120.6794344
373.926528 -2.498601151e-05 -168.7238914
438.320363 -190.8263451 -44.00009739
312.33223 -2.498601151e-05 -29.03975539
351.177528 -2.498601151e-05 -79.95286339
421.500215 -214.2238703 -169.9150034
278.130834 -33.96921186 -9.738580411e-05
-285.046522 -2.498601151e-05 -48.40423239
-353.169485 -2.498601151e-05 -170.3966024
421.500215 -72.33934406 -106.5572004
225.946817 -21.08902724 -9.738580411e-05
267.138254 -2.498601151e-05 -149.7208034
403.197094 -2.498601151e-05 -239.5224864
421.500215 -193.2616306 -108.5114604
414.379219 -2.498601151e-05 -130.7893004
7.204301 -2.498601151e-05 -30.89376139
39.103942 -35.87642236 -9.738580411e-05
417.500215 -51.96469732 -204.8050074
218.409473 -2.498601151e-05 -206.7993954
-217.940839 -2.498601151e-05 -105.2177724
417.500215 -36.14397434 -135.7144484
424.21267 -73.96084131 -40.12695539
417.500215 -7.582704066 -29.68339339
319.133668 -2.498601151e-05 -156.5126654
-196.169694 -2.498601151e-05 -92.60172439
437.259717 -36.19258729 -9.738580411e-05
-398.169928 -2.498601151e-05 -64.43562039
204.623 1.746064614 -9.738580411e-05
40.397205 -2.498601151e-05 -198.4902554
283.026822 -2.498601151e-05 -165.5472634
-275.55209 -2.498601151e-05 -228.0821104
-62.285987 -2.498601151e-05 -156.4723414
421.500215 -23.61951426 -156.8823204
324.66647 -2.498601151e-05 -64.68849239
-110.368268 -6.799196376 -9.738580411e-05
287.796856 -2.498601151e-05 -122.6671374
-295.982336 -2.498601151e-05 -243.6208564
-414.752138 -2.498601151e-05 -134.2990554
417.500215 -236.6886555 -56.46439839
18.476026 -68.00002403 0.8772196142
8.752889 -2.498601151e-05 -80.25615039
417.500215 -202.2839738 -181.1860764
31.497929 -2.498601151e-05 -132.9505504
-377.780908 -2.498601151e-05 -150.4908924
109.777065 -2.498601151e-05 -240.2071164
-123.32915 -2.498601151e-05 -150.0990364
-205.938363 -2.498601151e-05 -142.6114544
346.090111 -2.498601151e-05 -211.3248894
421.500215 -198.7846378 -82.79759239
415.107222 -157.6325072 -124.4349794
417.581599 -184.222719 -47.26833039
413.500215 -75.88290899 -195.6343594
421.500215 -121.6294473 -121.5875194
417.500215 -52.06624671 -105.9733324
421.500215 -136.3662821 -70.29338939
-195.717869 -2.498601151e-05 -12.81847839
280.871619 -2.498601151e-05 -88.30837239
43.015079 -64.07075817 -9.738580411e-05
-348.484986 -2.498601151e-05 -201.7148464
-332.410895 -2.498601151e-05 -42.42279439
421.500215 -71.39815759 -120.9807184
342.525528 -2.498601151e-05 -16.45442739
-22.143247 -34.22749656 -9.738580411e-05
421.500215 -155.9328655 -91.67822939
-409.863323 -2.498601151e-05 -185.9011044
-400.208458 -2.498601151e-05 -170.3853814
-288.885373 -2.498601151e-05 -203.4780164
-43.791216 -2.498601151e-05 -52.35968339
413.500215 -107.6656545 -192.9260604
-157.727692 -3.076396036 -9.738580411e-05
423.075608 -40.91396937 -40.41557439
-247.088148 -2.498601151e-05 -127.5923604
-22.103931 -10.16322273 -9.738580411e-05
425.89313 -67.39300179 -200.0000974
215.17613 -2.498601151e-05 -243.7155174
-31.838431 -2.498601151e-05 -242.1581374
-285.554978 -2.498601151e-05 -250.4057954
-10.030674 -2.498601151e-05 -27.77460039
-140.449998 -53.32704296 -9.738580411e-05
417.500215 -116.4029895 -82.46065139
251.925969 -2.498601151e-05 -218.8913044
132.190328 -2.498601151e-05 -71.73577739
149.859772 -2.498601151e-05 -10.49015639
35.31099 -51.16458216 -9.738580411e-05
-366.267048 -34.79462433 -9.738580411e-05
173.299113 -2.498601151e-05 -234.4408774
145.900991 -53.84762839 -9.738580411e-05
413.500215 -33.76373369 -11.59124639
3.188925 -2.498601151e-05 -52.83866539
97.227866 -2.498601151e-05 -160.9311424
232.436691 -36.71189226 -9.738580411e-05
387.577273 -2.498601151e-05 -52.07446139
417.500215 -19.10949203 -101.1155864
-236.408826 -2.498601151e-05 -39.55722939
421.500215 -96.6188174 -107.4822744
-176.880029 -8.480478626 -9.738580411e-05
284.036345 -2.498601151e-05 -3.486401386
140.223616 -2.498601151e-05 -210.6801584
-413.909562 -2.498601151e-05 -112.4009894
-69.023556 -2.498601151e-05 -177.6618694
359.021681 -63.18606316 -9.738580411e-05
413.500215 -29.64214233 -222.4907144
-269.851925 -14.74411208 -9.738580411e-05
213.321665 -2.498601151e-05 -116.0883754
421.500215 -186.906016 -60.06960739
210.401876 -22.48317567 -9.738580411e-05
-140.621495 -2.498601151e-05 -99.87969339
-361.855407 -2.498601151e-05 -235.0745234
28.187751 -1.899768506 -9.738580411e-05
399.343806 -2.498601151e-05 -65.74496639
-215.626527 -2.498601151e-05 -166.5069824
40.266915 -2.498601151e-05 -10.77037839
-342.804926 -2.498601151e-05 -154.5582334
-145.375865 -2.498601151e-05 -193.8311214
312.484572 -2.498601151e-05 -18.00085639
-355.668878 -2.498601151e-05 -48.39662339
15.444276 -8.978575586 -9.738580411e-05
-61.384989 -2.498601151e-05 -236.0585404
-390.231795 -2.498601151e-05 -45.18497039
417.500215 -21.80262156 -90.05474439
-41.73661 -2.498601151e-05 -124.1892874
421.500215 -173.1445265 -166.1587924
122.017877 -2.498601151e-05 -243.1402134
-21.844171 -2.498601151e-05 -48.56144339
-68.910705 -27.6437543 -9.738580411e-05
-192.24018 -52.14875549 -9.738580411e-05
-360.065625 -2.498601151e-05 -211.8014024
-294.905513 -2.498601151e-05 -87.83043839
-106.599512 -66.78649987 -9.738580411e-05
-428.191527 -2.498601151e-05 -28.50489539
298.82345 -2.498601151e-05 -164.8505434
421.500215 -145.272603 -167.3357064
-388.838069 -2.498601151e-05 -83.04193339
-360.732762 -2.498601151e-05 -27.09482139
24.408986 -2.498601151e-05 -240.5150134
-226.793061 -2.498601151e-05 -83.83014639
340.791316 -28.43766232 -9.738580411e-05
435.142933 -209.8048331 -200.0000974
313.39118 -2.498601151e-05 -229.3115074
74.754866 -2.498601151e-05 -109.4041084
210.118783 -2.498601151e-05 -14.50485039
-323.188553 -53.71241428 -9.738580411e-05
329.996773 -0.504784786 -9.738580411e-05
-262.884804 -37.30854621 -9.738580411e-05
421.500215 -184.1397827 -141.2249554
-65.198128 -2.498601151e-05 -125.0050854
421.500215 -64.77326345 -92.11267039
14.557244 -2.498601151e-05 -51.39890039
-72.476549 -2.498601151e-05 -33.53391339
49.79494 -6.684971976 -9.738580411e-05
-377.478382 -2.498601151e-05 -104.3778804
436.541552 -41.76519323 -200.0000974
-289.957869 -8.678684236 -9.738580411e-05
197.318815 -2.498601151e-05 -133.9545694
400.571931 -2.498601151e-05 -184.8004044
200.166022 -2.498601151e-05 -246.9708524
-420.597798 -23.03660138 -9.738580411e-05
421.500215 -144.9285118 -180.1446114
49.329822 -2.498601151e-05 -144.4413814
-124.698743 -2.498601151e-05 -197.3881074
239.882239 -2.498601151e-05 -179.1054354
-213.296867 -2.498601151e-05 -37.22864039
417.500215 -40.52388104 -203.2442554
276.046022 -17.67437765 -9.738580411e-05
-63.223031 -46.32710977 -9.738580411e-05
-293.135614 -2.498601151e-05 -12.17611739
191.108302 -2.498601151e-05 -98.36415339
-220.916415 -2.498601151e-05 -67.05311639
29.415508 -2.498601151e-05 -83.81419239
-28.590133 -2.498601151e-05 -121.6789814
431.956827 -2.498601151e-05 -189.6141604
-357.553373 -2.498601151e-05 -73.44520539
-226.10581 -2.498601151e-05 -195.3056494
421.500215 -48.88924501 -160.8794614
119.541331 -2.498601151e-05 -10.57507139
392.193061 -2.498601151e-05 -163.3628794
221.161514 -55.07795902 -9.738580411e-05
421.500215 -20.24508037 -60.52070839
-297.384581 -2.498601151e-05 -139.3654714
421.500215 -39.90037484 -171.0624394
287.0126 -2.498601151e-05 -110.2910894
-268.236674 -2.498601151e-05 -205.7028374
-426.419741 -2.498601151e-05 -127.9303304
266.429089 -2.498601151e-05 -47.65497939
80.282461 -2.498601151e-05 -10.32476839
417.500215 -10.96996851 -241.3050114
-131.011274 -33.76603182 -9.738580411e-05
428.315707 -58.39273107 -9.738580411e-05
339.015321 -2.498601151e-05 -67.54230739
-31.102128 -51.74598752 -9.738580411e-05
413.500215 -45.99044148 -235.3336444
417.500215 -138.5158506 -86.11141639
-173.444604 -2.498601151e-05 -190.9831274
23.857281 -2.498601151e-05 -46.20172339
270.499354 -2.498601151e-05 -30.91865439
80.474991 -2.498601151e-05 -69.55924239
-236.833668 -2.498601151e-05 -70.77603339
-422.937016 -2.498601151e-05 -147.9974314
156.381794 -2.498601151e-05 -126.9942384
410.076263 -43.84329623 -9.738580411e-05
413.500215 -59.30412465 -249.1307434
-243.412149 -2.498601151e-05 -92.25806039
417.500215 -177.5027075 -92.25736239
151.954585 -2.498601151e-05 -169.3248394
417.500215 -184.7921815 -130.6893204
129.329945 -2.498601151e-05 -194.7400524
216.5377 -2.498601151e-05 -56.70969039
186.717108 -34.67522577 -9.738580411e-05
417.500215 -7.175513036 -201.3652764
417.500215 -76.95586988 -220.2408984
305.2998 -2.498601151e-05 -199.9317554
417.500215 -99.37592289 -50.06736439
-367.582709 -2.498601151e-05 -93.31743139
289.842806 -2.498601151e-05 -24.79291139
421.500215 -186.9792889 -178.4847894
243.994252 -11.58957104 -9.738580411e-05
184.71923 -2.498601151e-05 -42.21471039
421.500215 -219.5698133 -154.5227434
115.85738 -2.498601151e-05 -210.8931534
-408.466811 -2.498601151e-05 -238.4470734
228.176183 -2.498601151e-05 -100.7574784
342.473096 -2.498601151e-05 -48.49023939
-334.440306 -2.498601151e-05 -0.6956763858
235.46569 -2.498601151e-05 -203.6817324
435.804169 -171.1689577 -44.00009739
-387.837649 -2.498601151e-05 -222.5230544
421.500215 -241.8593677 -83.38284639
-240.732953 -2.498601151e-05 -59.93235939
-331.051776 -2.498601151e-05 -133.8557354
-45.375031 -2.498601151e-05 -225.2928884
391.038014 -2.498601151e-05 -131.7204564
-274.566446 -2.498601151e-05 -78.85022639
26.467155 -14.12370494 -9.738580411e-05
147.524069 -2.498601151e-05 -234.1139784
-229.535928 -49.94721935 -9.738580411e-05
-20.959053 -2.498601151e-05 -8.300427386
-430.258943 -2.498601151e-05 -219.5395564
299.777318 -51.76926981 -9.738580411e-05
413.500215 -92.8105334 -132.5476364
271.573941 -2.498601151e-05 -7.551072386
30.738748 -2.498601151e-05 -177.1650444
18.291082 -33.42717891 -9.738580411e-05
227.234554 -2.498601151e-05 -138.4989964
-124.188839 -2.498601151e-05 -13.00833739
421.500215 -41.39900145 -150.6302314
-420.032022 -8.279638736 -9.738580411e-05
406.991248 -2.498601151e-05 -72.89202239
417.500215 -60.4351822 -9.832503386
-34.957899 -21.5500849 -9.738580411e-05
-432.32184 -2.498601151e-05 -198.8338254
437.276003 -51.40191628 -196.0000974
-189.610237 -2.498601151e-05 -67.22361239
429.330824 -100.2062951 -40.00009739
363.557732 -2.498601151e-05 -211.1780264
421.500215 -82.50514564 -176.7263714
384.855822 -2.498601151e-05 -237.0561254
-234.452483 -29.61856543 -9.738580411e-05
417.500215 -80.35049895 -75.14505239
437.204376 -62.051536 -44.00009739
22.483857 -2.498601151e-05 -13.21459539
161.21768 -2.498601151e-05 -251.3893134
176.257461 -2.498601151e-05 -159.4451964
-411.10157 -2.498601151e-05 -33.46602339
37.800285 -2.498601151e-05 -33.82051439
148.983753 -2.498601151e-05 -218.2399344
-54.310606 -2.498601151e-05 -244.5252214
399.34389 -26.52838475 -9.738580411e-05
-216.392508 -2.498601151e-05 -186.2435504
421.500215 -252.0633338 -171.6770634
-291.729488 -2.498601151e-05 -227.3960774
421.500215 -206.292726 -57.59455039
171.405486 -2.498601151e-05 -18.17243339
-107.294718 -2.498601151e-05 -28.47391139
431.024017 -82.49067508 -44.00009739
235.114427 -2.498601151e-05 -233.9568974
288.684798 -2.498601151e-05 -38.51395039
-155.929935 -2.498601151e-05 -154.0800494
-409.248277 -26.07240036 -9.738580411e-05
-102.194551 -45.53510683 -9.738580411e-05
-437.689087 -47.42129853 -9.738580411e-05
421.500215 -71.9974801 -164.5779634
-339.742575 -2.498601151e-05 -242.7846554
-169.460467 -2.498601151e-05 -13.84682339
-379.470505 -38.91707219 -9.738580411e-05
421.500215 -54.8533419 -170.8697874
-371.316595 -2.498601151e-05 -210.3878314
421.500215 -83.49691379 -164.1433044
-220.100202 -55.25824986 -9.738580411e-05
211.576823 -2.498601151e-05 -101.4025724
-33.787163 -2.498601151e-05 -72.58079639
-361.22346 -2.498601151e-05 -131.4703074
-377.448907 -2.498601151e-05 -53.13530539
413.500215 -40.18820327 -29.69026139
-152.377491 -42.55926527 -9.738580411e-05
421.500215 -102.0803674 -161.5815434
413.500215 -25.79313211 -18.20973939
153.333417 -2.498601151e-05 -45.03807339
417.500215 -28.4002248 -238.2350864
-288.606382 -2.498601151e-05 -36.52847939
-125.17995 -2.498601151e-05 -238.2365864
11.271953 -2.498601151e-05 -133.0011374
297.46538 -2.498601151e-05 -11.21955039
-98.700365 -2.498601151e-05 -106.9896784
249.806235 -2.498601151e-05 -32.47706639
438.363288 -217.503724 -44.00009739
139.921755 -2.498601151e-05 -80.83454939
394.025147 -2.498601151e-05 -217.4890864
365.883988 -3.171111886 -9.738580411e-05
-207.002211 -46.90233097 -9.738580411e-05
413.500215 -66.22779384 -152.8868224
417.500215 -57.89839049 -29.53980039
-61.065502 -2.498601151e-05 -57.95714339
78.042627 -63.6128378 -9.738580411e-05
437.368462 -15.07403513 -200.0000974
352.123581 -2.498601151e-05 -160.1966594
-39.150006 -2.498601151e-05 -168.0312254
-105.439235 -2.498601151e-05 -248.1515624
-147.986697 -2.498601151e-05 -31.71432839
-274.932151 -2.498601151e-05 -239.6104744
-20.086377 -2.498601151e-05 -152.8032534
-290.64799 -37.31117503 -9.738580411e-05
-381.927369 -2.498601151e-05 -24.77737439
-291.851692 -2.498601151e-05 -155.7080264
-102.122739 -2.498601151e-05 -87.55918839
-26.561998 -2.498601151e-05 -252.2576184
432.124476 -135.7439568 -44.00009739
417.500215 -123.6510937 -100.3893194
413.500215 -72.96847017 -132.8755814
-102.640721 -2.498601151e-05 -71.77816039
-196.886467 -2.498601151e-05 -156.6270294
-80.15617 -2.498601151e-05 -81.16458639
-308.242458 -2.498601151e-05 -2.222031386
-270.829916 -2.498601151e-05 -21.08116339
362.61827 -37.13289681 -9.738580411e-05
417.500215 -1.172788226 -155.4450294
4.367663 -57.94318148 -9.738580411e-05
-1.11363 -2.498601151e-05 -227.5887234
421.500215 -222.6535841 -66.57233439
413.500215 -56.17770464 -48.16483539
75.418557 -2.498601151e-05 -164.9031104
382.763194 -33.86125062 -9.738580411e-05
270.530298 -2.498601151e-05 -86.53064339
-178.045712 -2.498601151e-05 -223.8166864
143.638455 -2.498601151e-05 -111.0140114
-104.8425 -2.498601151e-05 -136.4229344
421.500215 -31.55046627 -78.56001839
224.753053 1.360335654 -9.738580411e-05
420.449865 -0.500024986 -176.6848264
373.044709 -2.498601151e-05 -154.8222284
-13.640679 -2.498601151e-05 -54.87482139
351.912029 -2.498601151e-05 -123.7275634
401.032822 0.970724934 -9.738580411e-05
389.643918 -2.498601151e-05 -107.1842884
417.500215 -152.2161296 -61.20058239
-189.736253 -2.498601151e-05 -134.3477524
-122.630204 -2.498601151e-05 -94.01117939
74.621492 -2.498601151e-05 -51.22935239
276.997184 -2.498601151e-05 -147.4788024
-87.665978 -2.498601151e-05 -159.9544824
421.500215 -51.68024453 -191.6919214
-16.599948 -58.64284 -9.738580411e-05
103.385237 -2.498601151e-05 -21.93567339
417.500215 -141.5940035 -105.0407414
-180.200206 -2.498601151e-05 -79.26062939
-242.883303 -2.498601151e-05 -176.8489624
170.112942 -39.79207014 -9.738580411e-05
426.518536 -34.32016691 -200.0000974
-111.235923 -2.498601151e-05 -214.9385004
-15.302953 -2.498601151e-05 -196.0904384
134.353613 -2.498601151e-05 -35.64725939
417.500215 -189.0657728 -160.0753084
413.500215 -39.02677135 -66.55045139
-121.155201 -2.498601151e-05 -31.78939839
413.500215 -81.84215369 -156.8644404
191.887159 -2.498601151e-05 -148.3732704
387.05539 -2.498601151e-05 -184.6368114
-286.627298 -2.498601151e-05 -22.92274439
-261.235492 -2.498601151e-05 -70.29403539
421.500215 -119.9697512 -142.4870614
-304.86914 -2.498601151e-05 -89.21810139
-337.367484 -2.498601151e-05 -79.90744839
-9.750356 -2.498601151e-05 -171.7535784
-10.393546 -2.498601151e-05 -101.0971144
98.006336 -2.498601151e-05 -113.7140404
413.500215 -134.9822494 -166.2630514
-133.722447 -0.351509256 -9.738580411e-05
421.500215 -40.98800965 -123.3338034
-182.156979 -2.498601151e-05 -100.3043364
413.500215 -152.9591809 -74.09835039
-44.667046 -15.23205865 -9.738580411e-05
-328.202976 -2.498601151e-05 -193.8353214
375.997326 -57.26000472 -9.738580411e-05
230.59982 -58.37828602 -9.738580411e-05
133.889583 -2.498601151e-05 -92.86607339
160.346998 -2.498601151e-05 -150.1903274
241.602396 -2.498601151e-05 -118.7351854
88.198818 -2.498601151e-05 -95.85892139
417.278865 -78.05684584 -240.2454314
433.308089 -8.679584526 -9.738580411e-05
421.500215 -125.6429367 -53.04989739
-305.086945 -61.43530362 -9.738580411e-05
-230.300225 -2.498601151e-05 -155.4342594
421.500215 -102.2912946 -120.3760394
-177.406115 -34.17024289 -9.738580411e-05
-374.79287 -62.14967618 -9.738580411e-05
-12.676852 -2.498601151e-05 -72.84195539
413.500215 -63.80370802 -39.79119739
413.500215 -36.99111945 -55.28003839
413.500215 -35.42539141 -150.7800224
128.474914 -40.63693937 -9.738580411e-05
406.961269 -2.498601151e-05 -34.36360039
-356.699356 -2.498601151e-05 -7.830912386
428.408028 -2.498601151e-05 -79.35094039
-19.880048 -2.498601151e-05 -225.3356114
-140.940315 -2.498601151e-05 -166.8969564
421.500215 -152.9910926 -80.63531239
-223.643409 -2.895026116 -9.738580411e-05
426.662784 -2.498601151e-05 -60.21576639
-436.999785 2.030184194 -87.75852939
-159.310562 -68.00002403 2.141148614
-369.634432 -2.498601151e-05 -172.1651424
61.817957 -2.498601151e-05 -111.8577834
-78.409187 -8.405113346 -9.738580411e-05
413.500215 -50.37159563 -177.8074814
421.500215 -36.41703166 -189.2162434
55.192558 -61.29395145 -9.738580411e-05
413.500215 -88.83449032 -108.9565594
413.500215 -147.9249214 -85.79883339
374.863559 -22.54542853 -9.738580411e-05
-94.204133 -2.498601151e-05 -224.6663264
314.057249 -2.498601151e-05 -186.0289174
421.694381 -51.08973503 -9.738580411e-05
-133.322142 -2.498601151e-05 -90.23998939
-346.109004 -2.498601151e-05 -89.79025939
197.905806 -2.498601151e-05 -227.6913144
421.500215 -224.6781474 -124.2667814
252.000392 -2.498601151e-05 -74.78167039
145.514202 -2.498601151e-05 -186.2259214
-73.346589 -2.498601151e-05 -230.1061034
413.500215 -62.24664256 -135.3957764
417.500215 -10.09464843 -121.1009974
-78.005753 -2.498601151e-05 -210.8551584
-63.130374 -2.498601151e-05 -104.3050814
410.328316 -2.498601151e-05 -116.2784534
237.023862 -2.498601151e-05 -14.94891039
-375.676715 -4.785092836 -9.738580411e-05
-141.196247 -2.498601151e-05 -138.3386204
283.756668 -2.498601151e-05 -49.70721539
67.064735 -2.498601151e-05 -128.4062054
-430.573305 -2.498601151e-05 -10.17743339
-248.867205 -2.498601151e-05 -209.4689454
97.060255 -62.55672236 -9.738580411e-05
-262.264318 -2.498601151e-05 -188.9021844
-232.815406 -2.498601151e-05 -244.2908584
329.587484 -2.498601151e-05 -90.84976939
-399.386758 -2.498601151e-05 -22.24299339
335.159715 -2.498601151e-05 -143.0268084
214.729657 -45.35075331 -9.738580411e-05
272.17466 -2.498601151e-05 -224.1955734
61.011859 -2.498601151e-05 -229.5301664
-137.576779 -2.498601151e-05 -81.35561239
413.500215 -25.31722271 -57.51786439
365.406418 -2.498601151e-05 -187.4219764
319.652942 -2.498601151e-05 -146.4582944
-259.25339 -58.29620986 -9.738580411e-05
