# .PCD v0.7 - Point Cloud Data file format
VERSION 0.7
FIELDS x y z
SIZE 4 4 4
TYPE F F F
COUNT 1 1 1
WIDTH 1233
HEIGHT 1
VIEWPOINT 0 0 0 1 0 0 0
POINTS 1233
DATA ascii
-47.99998036 -8.947928224 69.95795161
-51.99998036 -12.62675842 27.41833861
-51.99998036 -93.93684294 239.0491696
52.00001964 -19.51737651 134.3462206
52.00001964 -16.18885146 99.71439561
57.92164764 -2.498428239e-05 142.4095136
-51.99998036 -11.79797553 219.1237626
52.00001964 -29.07062842 89.23164161
48.00001964 -54.48042129 219.9295346
20.61620964 -2.498428239e-05 99.97589361
51.20223364 -55.83731979 45.89001261
-61.18502036 -67.01983943 -9.738558629e-05
-51.99998036 -19.81657653 242.5342186
52.00001964 -11.81428295 183.8983416
-51.99998036 -18.17991399 46.59801861
52.44413264 -2.498428239e-05 31.72766961
52.00001964 -34.62716024 136.5124736
49.44008664 -2.498428239e-05 115.8341706
-70.27021236 -21.21985952 -9.738558629e-05
-51.92648236 -53.61302054 30.73330761
44.30109164 -42.83188506 -9.738558629e-05
72.79227864 -2.498428239e-05 168.9060356
-10.59812236 -2.498428239e-05 77.86270961
52.00001964 -21.8623888 174.0579236
-47.99998036 -43.2293591 37.43758761
0.6746556415 -2.498428239e-05 72.68414061
-47.99998036 -24.90100498 25.39463161
14.15913864 -8.693678694 -9.738558629e-05
48.00001964 -12.77568226 156.9653716
38.64236964 -2.498428239e-05 120.4934686
-37.33649936 -2.498428239e-05 230.6695476
48.00001964 -60.74896364 93.79186661
52.00001964 -27.89678031 206.9965836
52.00001964 -10.45551769 78.49525861
-47.99998036 -60.7266585 129.1841016
22.76307064 -34.54796429 -9.738558629e-05
-38.59343736 -61.8707727 -9.738558629e-05
8.627014641 -2.498428239e-05 92.47979361
-51.99998036 -44.97608282 116.2262536
50.48067864 -94.95833671 208.9035846
48.00001964 -4.841306424 47.85086961
-34.03824936 -2.498428239e-05 217.6821056
48.00001964 -77.12834166 206.4035456
-47.99998036 -66.29773338 204.5531576
-47.99998036 -64.81369295 161.8576766
39.18762664 -2.498428239e-05 135.3044716
48.00001964 -26.15998499 242.6928646
33.14740464 -22.67494011 -9.738558629e-05
69.75416464 2.386430686 204.9900276
-17.58171936 -2.498428239e-05 159.1198946
48.00001964 -55.82808712 245.1480546
-2.689293359 -2.498428239e-05 120.7526526
-14.81454636 -2.498428239e-05 102.5684906
10.20329664 -29.79263026 -9.738558629e-05
52.00001964 -40.94713528 224.5241346
-37.01329536 -2.498428239e-05 116.2497376
-51.99998036 -23.23172237 7.659491614
-51.99998036 -30.40102642 53.56803661
-3.986456359 -2.498428239e-05 195.9894446
-64.08951136 -2.498428239e-05 66.79519761
-25.64829136 -55.99807826 -9.738558629e-05
-51.99998036 -45.02652625 249.4380536
52.00001964 -10.34907554 220.8737346
52.00001964 -32.87841148 31.80560961
-26.84653236 -2.498428239e-05 91.15311561
72.99156364 -2.498428239e-05 46.12213961
-47.99998036 -48.97300686 195.0705196
72.32265364 -36.66092689 -9.738558629e-05
42.90683164 -2.498428239e-05 240.7857576
-38.92675736 -2.498428239e-05 31.82042061
9.922647641 -2.498428239e-05 78.80631261
-16.48872936 -2.498428239e-05 175.3910116
18.57144064 -2.498428239e-05 113.3455206
52.00001964 -72.72254078 135.1609766
-61.81916436 -2.498428239e-05 144.8752236
48.00001964 -9.639919634 137.2085406
52.00001964 -39.38993871 104.0629996
-47.99998036 -25.42035007 177.1462676
48.16336364 -63.8542756 -9.738558629e-05
3.582782641 -2.498428239e-05 27.56791461
68.63762064 1.639484216 26.04201361
-47.99998036 -12.12246191 110.7987446
52.00001964 -39.6533432 204.3844066
-28.92553236 -2.498428239e-05 190.7828546
-51.99998036 -71.99139858 231.0076606
21.32571364 -2.498428239e-05 131.3192896
-48.73695036 -2.498428239e-05 183.6752296
-29.60532836 -2.498428239e-05 25.40937361
-7.369293359 -2.498428239e-05 9.105544614
48.00001964 -0.5642035943 9.653467614
-47.99998036 -8.674225184 203.2266336
-51.99998036 -20.77723532 34.49620861
-51.99998036 -23.42034797 64.13679661
48.00001964 -7.569704834 92.06027361
52.00001964 -26.6491945 114.0029866
50.14640764 -87.70025203 186.0091396
-51.99998036 -36.13968779 193.7280536
-59.51429336 -2.498428239e-05 30.90632261
52.00001964 -0.4459856343 179.2210576
48.00001964 -33.07010305 12.18994261
48.00001964 -43.2487427 243.0545786
-47.99998036 -8.530136214 237.1069776
69.00000364 -2.498428239e-05 77.52251361
-47.99998036 -44.96350956 177.1943456
-51.38418136 -30.88991105 -9.738558629e-05
21.11632264 -2.498428239e-05 146.2077106
-22.91129436 -26.98435202 -9.738558629e-05
52.00001964 -41.84390497 128.4377426
-47.99998036 -22.91553922 139.1101146
52.00001964 -29.08566861 186.6567716
48.00001964 -13.78802921 38.24419161
-4.456446359 -50.06972571 -9.738558629e-05
-59.44298536 -2.498428239e-05 1.653285614
52.00001964 -70.49123584 193.5597216
-47.99998036 -11.28890625 123.8314466
-47.99998036 -34.84713886 87.15112161
52.00001964 -50.4288308 84.06075061
24.80171564 -8.384134404 -9.738558629e-05
-47.99998036 -12.58652839 171.5064126
-39.88004236 -2.498428239e-05 44.38427261
14.12421564 -2.498428239e-05 7.350815614
52.00001964 -75.28990242 244.0005866
48.03799064 -51.94162924 17.62550761
-29.46256236 -2.498428239e-05 243.9001756
-57.79491536 -2.498428239e-05 159.9884256
-51.99998036 -79.17853132 217.2639946
-39.60057936 -10.95741754 -9.738558629e-05
42.28552364 -2.498428239e-05 68.42549161
70.56984164 -14.13142401 -9.738558629e-05
-52.49900336 1.861261176 71.89811161
-71.15692336 -2.498428239e-05 13.62438261
-47.99998036 -9.434007714 140.9998186
5.495677641 -2.498428239e-05 37.69406261
52.00001964 -22.20047883 220.8797166
-51.99998036 -23.73353261 83.20668861
45.10721764 -52.99951698 -9.738558629e-05
48.00001964 -25.40635106 80.60300561
-42.39492836 -2.498428239e-05 57.51395861
-47.99998036 -49.76190304 9.471267614
71.74404964 -2.498428239e-05 233.2528546
-12.49531136 -2.498428239e-05 219.8606846
52.00001964 -67.80770156 152.3380506
52.00001964 -35.39736376 64.01997561
66.51969464 -2.498428239e-05 147.7254126
-51.99998036 -66.25069406 137.9501866
30.36053564 -2.498428239e-05 89.15772661
-47.99998036 -25.67252297 104.4225976
-39.01427736 -2.498428239e-05 18.77971461
48.00001964 -48.46278299 184.1168366
-51.99998036 -13.79928682 195.2546416
36.80985464 -2.498428239e-05 155.0757286
-13.47711436 -2.498428239e-05 125.8723536
-21.37514536 -41.53941941 -9.738558629e-05
27.84179164 -2.498428239e-05 199.7168326
58.99403064 -2.498428239e-05 125.1721736
17.57638564 -2.498428239e-05 218.9654526
-47.99998036 -31.17963409 17.61988261
52.00001964 -0.1078280543 168.4452926
-51.99998036 -27.16136356 235.7514686
-65.76739736 -2.498428239e-05 103.4274376
-49.53302936 -2.498428239e-05 101.4142886
52.00001964 -61.4764175 228.6901686
-51.99998036 -26.99290615 157.3771726
32.39162964 -2.498428239e-05 37.41078661
-47.99998036 -25.45657774 249.6814766
56.28184564 -2.498428239e-05 44.12519161
-72.68979236 -41.73316514 -9.738558629e-05
52.00001964 -61.35460635 209.4514516
-58.51556836 -2.498428239e-05 205.6507606
50.46471264 -68.537866 113.3198656
-59.79592636 -2.498428239e-05 48.84145661
-65.17196336 -2.498428239e-05 191.5188466
-36.28536636 -2.498428239e-05 153.8683666
48.00001964 -9.200207154 124.9552286
68.94695364 -2.498428239e-05 55.33715961
12.69990064 -2.498428239e-05 55.77547561
48.00001964 -9.294201414 230.8394016
48.00001964 -12.47166714 108.1421826
-60.34068736 -2.498428239e-05 123.3436606
48.00001964 -7.358063354 212.5280806
48.00001964 -36.10188011 95.83473761
52.00001964 -39.27509852 185.6714026
52.00001964 -79.92225533 160.1145616
35.39959864 -2.498428239e-05 9.514091614
-47.99998036 -44.08337909 160.2812506
-13.59145636 -2.498428239e-05 28.09215361
-51.87710636 -2.498428239e-05 247.7928546
52.00001964 -42.90718855 35.05853961
-15.64363536 -2.498428239e-05 141.1799406
-47.99998036 -66.09474845 103.7380526
-47.99998036 -60.66042753 220.0649766
52.00001964 -87.50439975 229.0021036
-47.99998036 -47.18697765 205.8640886
-4.700661359 -25.97455966 -9.738558629e-05
-47.99998036 -60.60151321 182.6963076
-22.00392736 -2.498428239e-05 52.91530761
-51.99998036 -55.88267611 74.71663761
67.71854464 -2.498428239e-05 96.06889761
15.42084564 -2.498428239e-05 196.0092726
52.00001964 -22.96615857 16.01513261
-51.99998036 -38.38157902 219.3568296
48.00001964 -52.19906934 149.1309436
52.00001964 -56.04014226 170.6906916
52.00001964 -14.53388126 4.771847614
28.62732764 -2.498428239e-05 182.4497006
52.00001964 -100.1783925 247.7498056
-39.63871436 2.126096516 -9.738558629e-05
-47.99998036 -69.92920431 153.8917246
48.00001964 -18.5464102 251.0136096
48.00001964 -40.75724348 84.19643061
-47.99998036 -38.1404381 96.01642361
-47.99998036 -5.452307424 131.9382236
-47.99998036 -105.4091873 240.0852616
-0.8000613585 -2.498428239e-05 111.5106736
-51.99998036 -56.84371794 138.4271956
16.06829264 -68.00002402 -0.1774103856
48.00001964 -16.19647754 144.7059366
52.00001964 -44.80250779 215.9702166
64.00833764 -2.498428239e-05 107.9269186
48.00001964 -1.325519014 199.4952916
52.00001964 -20.65417735 27.93093761
48.00001964 -35.07600674 114.3902696
-47.99998036 -36.56512802 70.59505761
52.00001964 -70.68855711 225.7941246
52.00001964 -50.10923453 196.5090296
48.00001964 -20.56670715 182.3523006
0.7910136415 -2.498428239e-05 210.7122446
-59.82196636 -41.86564201 -9.738558629e-05
-47.99998036 -9.231018674 49.11702761
-51.99998036 -86.42900732 207.2067956
-7.132506359 -2.498428239e-05 57.37582861
-8.629161359 -13.38066203 -9.738558629e-05
-28.88181936 -7.149834724 -9.738558629e-05
41.72318664 -2.498428239e-05 29.38693761
-2.667199359 -2.498428239e-05 143.7657466
-51.99998036 -47.99316828 230.7403106
31.48062264 -2.498428239e-05 130.2617726
52.00001964 -27.34618933 230.7395436
-2.874688359 -2.498428239e-05 175.2778236
-62.94936436 -2.498428239e-05 240.7819646
48.00001964 -30.51508549 164.6959866
52.22610764 -2.498428239e-05 245.9733136
-47.99998036 -21.44840704 220.1119246
52.00001964 -9.301643504 251.8528296
48.00001964 -59.93153102 182.1964806
52.00001964 -46.51825338 46.73498761
-69.86283236 -2.498428239e-05 222.0983306
52.00001964 -31.28270348 150.4320316
-51.99998036 -47.10705539 104.4693406
52.00001964 2.176501116 65.61680061
-62.00435836 -2.498428239e-05 231.7120926
-43.59449736 -40.83120866 -9.738558629e-05
-14.60821536 -2.498428239e-05 237.2538876
-51.99998036 -29.48892186 201.6664596
1.765763641 -2.498428239e-05 243.7139406
52.00001964 -63.50647402 137.3314516
-27.30212836 -2.498428239e-05 40.27754661
49.61059964 -2.498428239e-05 138.8987936
-51.99891736 -98.71327554 219.9777936
20.38015164 -60.11667603 -9.738558629e-05
52.00001964 -32.10103214 47.42173461
-51.99998036 -43.29308481 17.26634161
52.00001964 -17.80034882 61.68637061
-51.99998036 -59.69110133 118.4061256
-51.99998036 -61.30245469 174.0495366
-23.76171236 -2.498428239e-05 8.584318614
52.00001964 -20.57653502 153.2920516
-51.99998036 -41.84240192 136.8915406
72.07800964 -2.498428239e-05 178.5087136
-51.99998036 -16.50626934 72.40401461
-25.96884236 -2.498428239e-05 234.6332186
-51.99998036 -10.77251422 227.9311306
52.00001964 -13.92131302 167.7549176
-9.234431359 -60.16637258 -9.738558629e-05
5.061212641 -2.498428239e-05 13.04321261
-69.18687136 -2.498428239e-05 212.5757956
-17.36823436 -2.498428239e-05 88.41781661
-47.99998036 -70.45408872 168.6077906
28.09346364 -51.09435156 -9.738558629e-05
-47.99998036 -54.69960352 240.8855596
56.94846964 -2.498428239e-05 155.9532626
48.00001964 -60.47936778 237.7359996
48.00001964 -21.9207506 50.80533761
-58.50003236 -58.05732401 -9.738558629e-05
-51.99998036 -53.52367702 124.9282026
-66.21552036 -2.498428239e-05 41.40268661
-2.771068359 -2.498428239e-05 221.8343986
52.00001964 -75.86984653 214.3209046
-47.99998036 -84.78596569 244.7184276
-51.99998036 -77.63191208 180.9654176
-47.99998036 -26.73273415 149.2813316
37.34077464 -2.498428239e-05 233.0551856
49.52405264 -2.498428239e-05 95.91642161
60.97117264 1.978801676 -9.738558629e-05
-3.274638359 0.5946559857 -9.738558629e-05
-47.99998036 -93.66262825 230.0730066
-47.99998036 -54.55139626 226.8187216
48.00001964 -44.19602103 231.6991686
52.00001964 -91.65446794 219.2783886
42.71639764 -2.498428239e-05 174.1450706
-51.99998036 -18.03619796 92.63075461
48.00001964 -21.60174596 127.0547846
-51.99998036 -24.04319617 185.4074206
-47.99998036 -72.32314505 212.5102146
14.65110364 -2.498428239e-05 34.70533461
38.69901864 -2.498428239e-05 199.5149366
-47.99998036 -46.33037013 28.78661061
40.22350464 -2.498428239e-05 101.5863736
-45.36135736 -67.83710061 -9.738558629e-05
30.90126364 -2.498428239e-05 22.64638161
4.100555641 -56.84181008 -9.738558629e-05
-47.99998036 -41.45612246 147.0604546
-53.68198436 -2.498428239e-05 42.67600661
-51.99998036 -48.0668675 66.57613361
17.74286564 -2.498428239e-05 236.8028056
48.00001964 -44.65605238 153.5379526
-51.99998036 -67.33907958 249.6202636
52.00001964 -6.945735884 59.14044661
18.85615364 -2.498428239e-05 157.0314346
52.00001964 -34.36652126 244.0231986
48.00001964 -46.7315812 137.4013006
-51.99998036 -30.06986424 111.0625166
-48.36047836 -19.77543076 -9.738558629e-05
49.45954164 -31.01811102 1.499902614
52.00001964 -83.82409486 178.8388976
52.00001964 -56.34001282 252.4511906
48.00001964 -7.474359284 163.5583036
52.00001964 -46.45691607 2.167831614
-47.99998036 -46.26895443 214.4509096
48.15352964 -56.97476902 53.51314161
-46.56873436 -2.498428239e-05 233.8901406
-54.32122736 -2.498428239e-05 94.68833161
48.00001964 -63.4419616 164.0415956
48.00001964 -19.05372839 204.8497896
52.50099664 0.9247525157 228.1660366
-51.99998036 -39.63799562 128.4668376
52.00001964 -87.21914134 204.5819816
-47.99998036 -3.538655844 218.2207306
48.00001964 -50.53662363 163.6522176
48.00001964 -37.01551438 123.1438436
-47.99998036 -25.87300018 208.0267326
-34.60383636 -2.498428239e-05 69.85186361
-51.99998036 -35.3731908 34.67149661
56.85495864 -24.39309781 -9.738558629e-05
48.00001964 -55.9734711 200.5677706
-13.66852436 -2.498428239e-05 37.19657661
-47.99998036 -27.40056801 130.4737866
-50.07671636 -2.498428239e-05 13.82341961
-31.89800136 -46.17651204 -9.738558629e-05
46.56272664 0.2351116857 -9.738558629e-05
52.00001964 -20.13998334 238.1460796
-51.99998036 -58.48649119 105.5775716
-51.99998036 -34.42232551 80.14399861
49.77737964 1.050960136 81.43998061
-47.99998036 -9.734066934 19.26952661
-51.99998036 -29.05051486 142.7209146
-65.94055936 -2.498428239e-05 163.2583606
52.00001964 -65.47604351 186.3785676
-17.72258036 -9.424552994 -9.738558629e-05
-22.65706036 -2.498428239e-05 111.0986326
-47.99998036 -74.02070914 199.0051856
33.25303164 -64.14935006 -9.738558629e-05
-47.99998036 -7.302088554 85.30948261
48.00001964 -4.131033414 73.26485961
-47.99998036 -4.641632804 107.6908866
48.00001964 -18.21233273 77.21691661
-53.29434436 -68.00002402 -1.735653386
-51.99998036 -39.25067099 238.9358946
-47.99998036 -26.03870413 226.6981286
-56.81978136 -2.498428239e-05 78.30153161
-47.99998036 -30.22893443 63.31762661
-51.99998036 -44.80153117 94.38656561
-51.99998036 -40.01082369 110.0248836
67.12294064 -67.18524261 -9.738558629e-05
13.44015864 -2.498428239e-05 228.2763496
19.75955764 -2.498428239e-05 202.6013766
-70.66260136 -31.71171092 -9.738558629e-05
-51.99998036 -13.92726249 6.851904614
-51.99998036 -5.412158554 30.54588061
-46.34910436 -2.498428239e-05 93.93324261
28.65044564 -2.498428239e-05 97.24768261
-47.99998036 -36.06918309 173.1723616
-47.99998036 -25.49770601 118.9668316
48.00001964 -83.77950048 246.3492766
-51.99998036 -5.727931464 211.4329546
-35.26163836 -2.498428239e-05 172.5816256
-47.99998036 -78.51569378 226.9553056
-51.99998036 -10.30613001 37.69635261
52.00001964 -7.047482654 38.17078061
-37.14857836 -2.498428239e-05 183.2857216
-27.81891636 -2.498428239e-05 200.7790576
-16.68141536 -2.498428239e-05 208.2248256
66.39633264 -2.498428239e-05 128.2482726
-51.99998036 -8.191518664 117.8652716
-51.24731036 -39.2196886 -9.738558629e-05
16.83684964 -39.64441961 -9.738558629e-05
-51.99998036 -13.10758351 135.3811016
48.00001964 -75.93439439 198.6842356
52.00001964 -33.1473479 224.1597996
48.00001964 -54.53222599 137.1644096
52.00001964 -36.37527016 144.1144466
-47.99998036 -11.4595846 154.7812426
-53.29263936 -2.498428239e-05 189.9948986
52.00001964 0.3027971057 218.2119566
48.00001964 -33.54801594 201.7122826
-6.904388359 -2.498428239e-05 70.97499661
-47.99998036 -20.34828034 199.6818376
48.00001964 -8.819496954 100.0575046
-51.99998036 -16.74264935 120.0696066
48.00001964 -93.72199551 226.1651566
52.00001964 -75.99669628 171.5628566
14.02396564 -2.498428239e-05 188.4003096
-47.99998036 -77.63275762 154.5191036
52.00001964 -7.071786134 8.481755614
-47.99998036 -54.94725835 151.2361516
-63.48001236 -2.498428239e-05 199.5327226
-54.32588136 -2.498428239e-05 230.1566626
48.00001964 -49.6745211 238.8155176
1.658319641 -10.76176441 -9.738558629e-05
-51.99998036 -48.05054894 49.04435061
-42.68699936 -2.498428239e-05 165.7786596
52.00001964 -76.21208213 236.3666466
-47.99998036 -16.55535791 178.5922726
-51.99998036 -14.83366154 104.8295366
-51.99998036 -88.01274838 217.8617336
48.00001964 -26.95139455 137.0250796
48.00001964 -91.1580553 244.2971996
-47.99998036 -34.54148673 45.43542961
48.00001964 -75.40321216 152.4110356
48.00001964 -42.41000248 168.6710006
63.66843664 -2.498428239e-05 227.2049736
52.00001964 -51.46125989 119.5657656
62.52634064 -2.498428239e-05 198.4716696
-51.99998036 -94.59589347 246.6178646
52.00001964 -97.18035928 233.1774306
-68.46709536 -2.498428239e-05 74.59904861
-51.04331636 -2.498428239e-05 163.4273106
48.00001964 -26.02422418 61.24525361
-51.99998036 -82.02262512 191.6526646
-47.99998036 -5.025264524 56.85279861
16.92781464 -2.498428239e-05 93.39046661
48.00001964 -22.85429374 93.13194161
-48.08256336 1.838443916 77.99990261
52.00001964 -4.955124874 236.2763816
48.00001964 -55.3574679 69.14748161
-51.06995236 -73.25283408 133.5228106
-23.28335636 -2.498428239e-05 125.4519296
-51.99998036 -12.61386935 244.6233096
29.09518164 -2.498428239e-05 225.6697206
52.00001964 -56.92041452 87.74421661
52.00001964 -6.091838264 130.4187986
-47.99998036 -77.14695934 174.7027476
52.00001964 -71.2959356 180.1337356
-72.56602536 -2.498428239e-05 106.4333086
70.82116864 -50.33337165 -9.738558629e-05
-33.50604836 -2.498428239e-05 136.8915386
59.40676464 -2.498428239e-05 167.9525226
48.00001964 -52.31732179 97.51500461
-47.99998036 -9.068530364 191.1803136
48.00001964 -64.00231705 131.1085916
48.00001964 -32.19193282 157.4763306
-47.99998036 -35.43601991 114.2672956
-51.99998036 -57.44424709 164.7477356
46.38900664 -13.98009563 -9.738558629e-05
48.00001964 -4.298411354 156.0774006
-47.99998036 -65.77418094 187.9249836
-38.46966236 -2.498428239e-05 123.4464196
-47.99998036 -16.68188235 98.61629361
52.00001964 -19.74239386 111.5759046
62.67584864 -2.498428239e-05 81.20009561
48.00001964 -33.44564961 69.82597161
-51.99998036 -57.4004934 199.4029006
52.00001964 -17.15267379 20.44887861
56.63174264 -2.498428239e-05 117.1056516
-44.73279336 -2.498428239e-05 8.848405614
64.84476164 -2.498428239e-05 71.51973061
-37.05953736 -30.662708 -9.738558629e-05
-47.99998036 -64.81976589 230.5793916
48.00001964 -105.8071955 244.9316556
21.29776864 -2.498428239e-05 61.79351461
27.17860264 -2.498428239e-05 189.5956756
7.777295641 -2.498428239e-05 151.1903566
0.5261456415 -2.498428239e-05 127.7493706
27.86360964 -2.498428239e-05 2.774137614
-65.27001836 -9.984110304 -9.738558629e-05
-51.99998036 -57.34870949 95.07363161
-47.99998036 -37.83633789 20.87105761
33.38775764 -2.498428239e-05 56.18169961
48.00001964 -47.60739732 105.9727126
-47.99998036 -19.10449892 161.2580616
-35.65926036 -2.498428239e-05 164.0552216
-14.09634736 -2.498428239e-05 55.41325761
52.00001964 -38.79318459 19.72128061
-15.08303836 -2.498428239e-05 245.1361326
37.00922364 -2.498428239e-05 75.55356561
-51.99998036 -60.64991796 87.52185861
-51.99998036 -56.09921677 214.9987086
-47.99998036 -6.855786474 167.1400276
18.20601164 -2.498428239e-05 19.71248961
-48.03847336 -9.665100874 1.499902614
-54.88344636 -2.498428239e-05 128.0426436
48.00001964 -48.23734557 62.20544461
-47.99998036 -17.32079 248.3170696
-51.99998036 -60.93805152 157.2554796
52.00001964 -52.53792459 110.8554886
-51.99998036 -30.11557248 172.9409026
52.00001964 -44.55184923 179.6255376
48.00001964 -5.911712174 18.70052961
48.00001964 -44.51701249 198.5446886
-51.99998036 -84.75750369 251.2547716
-47.99998036 -14.23010784 87.15364561
-51.99998036 -5.222146244 180.0211526
2.211820641 -2.498428239e-05 199.5593426
-51.99998036 -72.73659129 148.6739976
48.00001964 -25.31261037 33.48596461
52.00001964 -13.87919866 177.0602766
-47.99998036 -44.05203916 189.8971306
-31.65986436 -60.18316846 -9.738558629e-05
-16.70169636 -2.498428239e-05 74.16668661
42.83652864 -2.498428239e-05 46.94862361
-51.99998036 -93.85166179 208.1178096
-47.99998036 -77.86216603 246.4122186
-51.99998036 -25.07307291 14.53734861
-51.99998036 -52.37795578 87.95112061
52.00001964 -10.71612785 193.2114126
-51.99998036 -13.41977314 63.17936161
-47.48235936 -2.498428239e-05 28.86576861
33.55752164 -2.498428239e-05 66.56734761
-12.29524036 -28.47497817 -9.738558629e-05
-47.99998036 -6.007171884 76.41764761
32.31019564 -9.035123194 -9.738558629e-05
10.66474264 -2.498428239e-05 27.93098461
-47.99998036 -40.09972433 210.9568596
27.17070364 -40.09841909 -9.738558629e-05
52.00001964 -39.2812085 70.09383061
-51.99998036 -56.11558219 51.11629061
8.799358641 -2.498428239e-05 245.0279866
48.00001964 -31.60148543 180.7661006
-6.607739359 -2.498428239e-05 202.5898406
52.00001964 -17.6280079 70.93712661
-16.65089936 -2.498428239e-05 192.6182736
48.00001964 -63.84702633 243.9212416
-1.103755359 -2.498428239e-05 65.33625961
-10.07022636 -2.498428239e-05 84.87326261
48.00001964 -76.96589913 219.9903916
-22.80856136 -2.498428239e-05 1.638567614
11.98453764 -2.498428239e-05 116.4464596
48.00001964 -69.58536405 210.0455926
-47.43539936 -2.498428239e-05 240.8367896
26.80228964 -2.498428239e-05 115.0855076
-52.49900336 0.8682955857 214.6882156
-51.99998036 -24.29893957 50.16358961
52.00001964 -48.46764306 26.31504361
48.00001964 -25.78050551 249.6686746
52.00001964 -60.02386604 218.5944416
-28.16728436 -2.498428239e-05 144.0365756
-51.99998036 -32.72498653 225.0961746
3.474323641 -2.498428239e-05 100.3058366
42.19570564 -6.689529614 -9.738558629e-05
-34.02701636 -2.498428239e-05 78.32796261
-47.99998036 -32.14518191 159.7512596
-51.99998036 -55.74013998 178.1933006
-51.99998036 -42.36595358 226.6908706
11.19572464 2.421393356 -9.738558629e-05
-47.99998036 -20.272072 76.61085061
0.8407926415 -2.498428239e-05 55.93580261
52.00001964 -72.09006385 203.8668086
52.00001964 -23.4380967 214.0769246
-48.25927836 -61.09576838 77.29209561
48.00001964 -4.890214304 222.2827716
31.72033464 -2.498428239e-05 30.54008361
52.00001964 -13.04098088 238.5684426
49.22982664 -101.6831676 228.6911166
48.00001964 -28.2354954 120.1054456
-47.99998036 -92.43512673 221.3054886
52.00001964 -10.35318262 46.91264361
52.00001964 -18.23384368 10.56579561
52.00001964 -82.65682439 190.5614436
-51.99998036 -24.61120155 42.30463661
42.27606464 -2.498428239e-05 14.06248961
48.00001964 -0.1354947043 233.4643106
-47.99998036 -29.04598982 192.1275586
63.12233264 -2.498428239e-05 51.71131761
49.73245164 -2.498428239e-05 38.02623761
-51.99998036 -81.40624839 165.0768336
-51.99998036 -86.35501968 197.8448596
59.22932464 -2.498428239e-05 32.64790661
48.00001964 -1.211505954 53.65571861
48.00001964 -76.30049839 165.5070946
-47.99998036 -14.4339447 214.2461346
-47.99998036 -49.46295373 82.39099361
-47.99998036 -100.0860961 248.8544826
-51.99998036 -59.80074888 188.1660206
4.872602641 -2.498428239e-05 115.2926916
-51.99998036 -45.67932364 199.4980486
-27.87277936 -2.498428239e-05 213.3682106
-59.12564336 -2.498428239e-05 84.70402161
26.12817164 -16.56144425 -9.738558629e-05
11.10384364 -2.498428239e-05 145.1297186
48.00001964 -65.15056829 192.3116266
-36.87191936 -39.94664814 -9.738558629e-05
52.00001964 -12.95031538 149.1121356
52.00001964 -62.28858625 109.0064576
-47.99998036 -3.204772484 63.37946761
-8.759339359 -2.498428239e-05 178.6359116
50.27256564 -2.498428239e-05 252.4581196
-10.99238436 -2.498428239e-05 196.3187456
-51.99998036 -71.74157689 204.7506956
17.95380664 -2.498428239e-05 140.2357786
-25.24371236 -49.25412913 -9.738558629e-05
-47.99998036 -56.16109951 194.1131966
48.00001964 -58.70018778 151.3655086
-47.99998036 -19.13824801 67.44757161
-50.17319236 -54.15137267 -9.738558629e-05
-51.99998036 -29.50469674 28.21296361
-51.99998036 -44.45992531 171.8208836
-51.99998036 -44.40903799 154.9022466
52.00001964 -15.71649502 82.78128761
39.58865664 -61.938373 -9.738558629e-05
48.00001964 -57.39072584 129.1728526
48.00001964 -45.99405384 209.5947616
-57.98742836 -2.498428239e-05 150.3333846
-51.99998036 -24.95147756 57.67504461
-46.87664636 -2.498428239e-05 158.0155396
-22.75021136 -2.498428239e-05 96.35457161
-51.99998036 -6.079060534 222.8396526
48.00001964 -15.21962939 128.8028916
-25.24355436 -2.498428239e-05 222.4850516
48.00001964 -40.10642457 61.66301961
-47.99998036 -40.35118779 182.6326906
66.05618564 -2.498428239e-05 220.2534356
52.00001964 -1.443734044 160.4937006
-28.47248936 -2.498428239e-05 32.18484561
57.76713764 -2.498428239e-05 22.74720961
-47.99998036 -44.37319107 121.4324956
34.05634064 -29.52848617 -9.738558629e-05
48.00001964 -50.54926356 52.05479061
-34.38581236 -2.498428239e-05 195.2086976
21.61914164 -2.498428239e-05 107.5169116
-51.99998036 -43.61986418 78.43885661
-47.99998036 -45.51042473 4.445051614
-51.99998036 -15.09366814 141.6324956
22.29694164 -2.498428239e-05 223.5189086
-51.03280836 -2.498428239e-05 145.3889646
-47.99998036 -53.86931061 247.7541556
-61.13992036 -24.37869089 -9.738558629e-05
48.00001964 -1.658170804 62.15342961
-47.99998036 -53.50933324 134.4799266
-45.10257536 -2.498428239e-05 134.0773086
48.00001964 -34.61325756 129.2175466
-51.99998036 -48.97774175 41.25568061
52.00001964 -5.150829984 84.74439961
48.00001964 -18.66541929 170.0129786
-47.99998036 -19.46625781 170.2278236
-47.99998036 -55.54329489 59.88983461
45.11740264 -2.498428239e-05 88.91972461
39.48449064 -2.498428239e-05 168.4964086
-50.38347236 -2.498428239e-05 111.5746556
33.16297464 -2.498428239e-05 164.7254396
-12.69315836 -2.498428239e-05 146.9545626
12.00753864 -2.498428239e-05 133.0049686
52.00001964 -63.46772642 252.4500886
-51.99998036 -81.24055146 201.8201496
-47.99998036 -41.77358559 234.2225216
-51.99998036 -23.53292576 123.6589696
-47.99998036 -81.99551953 213.0362866
48.00001964 -56.82453345 207.1587416
48.00001964 -52.55423409 124.5107466
-47.99998036 -17.89345439 154.2835606
52.00001964 -5.908527144 115.8746316
57.21157064 -2.498428239e-05 213.6842296
52.00001964 -30.15885869 8.075879614
48.00001964 -59.34633742 174.4894806
-47.99998036 -15.32187287 38.09271361
52.00001964 -5.190091374 205.0395716
52.00001964 -27.07908555 27.97376961
-47.99998036 -26.17004173 31.97351361
-51.99998036 -44.1277581 24.28837461
48.00001964 -18.31073343 197.1099156
-51.99998036 -41.13558095 54.66247561
48.00001964 -43.9220305 192.1504826
-51.99998036 -73.75576588 241.6916546
52.00001964 -61.16266938 123.5184286
43.19254764 -24.53367171 -9.738558629e-05
-47.99998036 -68.8392934 145.5668936
52.00001964 -51.34793443 216.0529996
48.00001964 -7.907516174 53.45640061
54.46535364 -2.498428239e-05 185.0984966
-51.99998036 -27.7932608 99.91976761
-8.797643359 -7.015988354 -9.738558629e-05
52.00001964 -42.20329663 238.2129736
-51.99998036 -10.63390381 57.45859561
-51.99998036 -18.53741773 190.3907456
48.00001964 -5.969959134 194.5636716
52.00001964 -27.52571427 155.8708376
48.00001964 -66.84718623 146.9629986
49.60317564 -39.69211625 1.499902614
-51.99998036 -59.61288638 241.1132856
52.00001964 -47.26071441 225.0617256
52.00001964 -28.94444352 169.3524606
-41.13132036 -2.498428239e-05 214.0161256
48.00001964 -84.9310765 224.5082816
-38.58714436 -2.498428239e-05 110.1271696
-13.63949136 -2.498428239e-05 18.46401461
11.97167164 -46.70313092 -9.738558629e-05
-47.99998036 -52.20597046 140.6568976
-47.99998036 -60.75136371 98.59254661
47.14406264 -2.498428239e-05 211.2858596
-56.98037936 -2.498428239e-05 244.0979466
52.00001964 -44.29429201 164.1835576
-29.22766536 -22.31683013 -9.738558629e-05
52.00001964 -50.61147307 39.54411961
64.50838764 -2.498428239e-05 207.5260786
-47.99998036 -35.15132255 52.54968261
48.00001964 -18.90613672 44.13424461
48.00001964 -9.301682704 144.6182746
-47.99998036 -28.2755281 45.89338161
-62.86510836 -2.498428239e-05 117.1906366
48.00001964 -61.9403187 113.8782466
52.00001964 -6.856897694 31.89301361
-69.65289936 -2.498428239e-05 58.35642361
-47.99998036 -3.030506814 192.8573426
48.00001964 -71.33915675 172.7960886
-47.99998036 -51.4957406 25.24929961
-47.99998036 -73.35628754 223.4128536
56.08162464 -2.498428239e-05 241.0470346
-65.88475636 -2.498428239e-05 246.6260726
-1.250152359 -44.70309065 -9.738558629e-05
48.00001964 -38.63945508 220.3145616
-28.16894736 -2.498428239e-05 228.7864086
-51.99998036 -28.27876687 136.3759006
-9.200497359 -2.498428239e-05 1.862177614
52.00001964 -25.08222075 196.6528256
-51.99998036 -34.6951772 65.03373261
24.09432264 -2.498428239e-05 73.43390661
-47.99998036 -34.43941552 207.2852116
52.00001964 -5.346155094 183.0458766
-70.12179736 -2.498428239e-05 135.2886736
-47.99998036 -66.19531427 210.7595036
48.00001964 -20.11743227 120.4233476
50.32315464 -92.97613871 203.0032716
-72.74258736 -2.498428239e-05 153.0075816
26.47929664 -59.02156953 -9.738558629e-05
52.00001964 -22.82203286 76.15514361
52.00001964 -59.87176265 71.39928761
42.15132064 -2.498428239e-05 127.4857696
21.61071264 -2.498428239e-05 173.1781436
66.83350264 -2.498428239e-05 237.0063096
52.00001964 -22.43596433 186.6609116
72.07714464 -2.498428239e-05 8.018732614
48.00001964 -41.1717246 174.7007216
52.00001964 -33.87812593 197.0507126
40.46541664 -36.75219022 -9.738558629e-05
52.00001964 -11.05652159 88.96548661
66.02719764 -2.498428239e-05 87.00837261
48.00001964 -38.79577136 14.40338961
48.00001964 -75.47842767 178.0923896
-51.99998036 -7.544550534 111.6279786
-47.99998036 -30.01964072 239.4202976
-49.02981736 -2.498428239e-05 205.2740996
-51.99998036 -53.58102096 118.7000416
62.10678764 -2.498428239e-05 113.7388166
32.25512364 -2.498428239e-05 117.8508426
-51.99998036 -29.75058062 84.23619561
-51.99998036 -87.1108995 239.9419956
52.00001964 -31.14566374 41.39425161
48.00001964 -50.66903467 11.65849361
52.00001964 -36.2267501 8.682169614
52.00001964 -95.77866974 240.9127836
-51.99998036 -25.69186229 244.1357666
52.00001964 -0.09770859428 123.4563796
-47.99998036 -33.6183326 30.23633661
-47.99998036 -13.90401084 200.1246586
55.58472264 -2.498428239e-05 95.44185061
48.00001964 -5.943054684 79.08481761
-51.99998036 -46.50967249 243.5639686
-51.99998036 -61.05077099 124.3090466
50.89324364 -18.09696542 -9.738558629e-05
48.00001964 -67.07537336 181.8256516
52.00001964 -34.42725013 162.3860696
52.00001964 -48.68285561 74.61018361
52.00001964 -3.851963204 144.1217966
52.00001964 -44.89343769 86.46832461
-7.288477359 -19.26298131 -9.738558629e-05
52.00001964 -39.37787525 156.9896896
-47.99998036 -71.14779303 175.3149276
-51.99998036 -71.42899885 195.3135286
48.00001964 -48.23900382 113.1313456
-47.99998036 -8.234688424 243.5542556
52.00001964 -31.6239104 95.32945761
52.00001964 -68.32518952 243.4257896
52.00001964 -47.10224051 147.8958996
52.00001964 -67.89050312 164.6934566
48.00001964 -27.39711303 14.19617961
-51.99998036 -33.95494883 214.7572196
-51.99998036 -49.52552786 168.5855036
-47.99998036 -12.9674711 76.78519861
48.00001964 -6.262594794 240.5645496
-61.31324336 -2.498428239e-05 61.47179261
52.00001964 -37.86842659 214.5407876
52.00001964 -17.87707313 124.5768946
-5.557169359 -2.498428239e-05 115.4815806
48.00001964 -9.919536684 207.1047416
-23.56923536 -2.498428239e-05 242.7869636
32.93137564 -2.498428239e-05 205.8006656
-47.99998036 -65.70940745 216.7301766
-47.99998036 -19.03328967 238.1506876
-47.99998036 -44.97399259 13.05158561
-12.89243336 -2.498428239e-05 119.2145026
-70.05602436 -2.498428239e-05 123.9301506
61.33316064 -41.03990822 -9.738558629e-05
-16.90746036 -2.498428239e-05 11.19754461
52.00001964 -55.9021209 94.92108861
48.00001964 -40.07925765 208.8672876
-51.99998036 -22.97448553 21.42273561
52.00001964 -89.5732093 238.7532446
-47.99998036 -47.37901883 147.7466316
-47.99998036 -4.052855244 115.2260106
69.64596864 -2.498428239e-05 163.3628356
48.00001964 -19.67375296 139.8774066
52.00001964 -61.99869489 84.64935261
-47.99998036 -47.23037005 56.96395661
-51.99998036 -75.88008842 235.5937746
48.00001964 -15.63888206 57.86144361
-33.92127536 -2.498428239e-05 97.45566561
-51.99998036 -3.233382324 67.76970861
48.00001964 -14.42345427 219.2438526
-47.99998036 -13.97930358 206.0618236
-53.33758236 -2.498428239e-05 32.58589661
48.00001964 -0.3659070043 205.3522036
-47.99998036 -42.14423113 65.35818561
-47.99998036 -72.80118729 185.2213726
41.03756964 -2.498428239e-05 7.674169614
26.71716364 -2.498428239e-05 59.38537361
-47.99998036 -99.80204309 242.0070296
52.00001964 -46.04027796 133.0834756
-51.99998036 -91.14327965 233.6468766
52.00001964 -52.97286609 30.15892661
48.00001964 -75.1610056 248.3633906
-47.99998036 -42.75071102 104.2431216
52.00001964 -37.85438855 57.93501061
-51.99998036 -29.54278832 251.1678526
-51.99998036 -23.35609814 173.3222486
48.00001964 -53.76343271 212.2093366
-47.99998036 -41.20232032 31.89063061
52.00001964 -34.14590357 206.5124806
-51.99998036 -8.258688214 103.5803426
48.00001964 -33.41380643 186.3973576
48.00001964 -40.90298454 138.2769146
-51.99998036 -65.49952782 153.5232236
48.00001964 -52.26418854 227.0075066
37.68189764 -2.498428239e-05 243.5039546
-47.99998036 -31.77180207 186.9080936
52.00001964 -26.75512454 49.89023261
-47.99998036 -90.40305403 194.9600896
-47.99998036 -2.312977294 176.2803266
48.00001964 -6.618975814 178.9240406
-48.62140536 -80.21545561 160.2016946
52.00001964 -64.71029145 236.9359876
52.00001964 -29.8634413 218.1324236
-47.99998036 -52.55477536 38.46548061
-8.946554359 -2.498428239e-05 102.7149876
-56.78626536 -4.963432804 -9.738558629e-05
-51.99998036 -32.71048598 147.7340776
-47.99998036 -67.72065335 225.0359016
52.00001964 -16.88827003 162.6135716
10.22867564 -2.498428239e-05 41.15306061
-51.99998036 -50.08595701 237.4079836
48.00001964 -80.11213453 211.6829146
52.00001964 -33.28213308 121.0554616
-53.47467836 -2.498428239e-05 220.3954366
-51.99998036 -93.67595174 225.3929106
52.00001964 -45.88200653 121.3238496
-47.99998036 -48.59545934 164.0039466
52.00001964 -32.95558224 19.35854261
57.04043064 -2.498428239e-05 16.75205961
-51.99998036 -61.82694441 203.2194366
1.246723641 -2.498428239e-05 20.39041361
-51.99998036 -50.95682717 77.85032961
-51.99998036 -76.0890708 170.5868136
-65.63364136 -15.8045794 -9.738558629e-05
52.00001964 -59.03711682 163.9441676
46.96482464 -2.498428239e-05 152.2239106
-47.99998036 -54.26896329 161.9498056
-47.99998036 -83.77864929 219.3890406
48.00001964 -83.75945268 202.1549096
-17.02848336 -2.498428239e-05 231.9701496
63.35313064 -2.498428239e-05 44.43638861
48.00001964 -54.02475005 81.86749761
48.48687764 -50.37625356 4.624593614
-47.99998036 -50.33454784 174.9836526
-47.99998036 -82.69517111 176.4109796
48.00001964 -50.1858362 200.9772236
-8.223124359 -39.60273457 -9.738558629e-05
-51.99998036 -43.15625838 207.2285336
-43.31676336 -2.498428239e-05 181.6231846
52.00001964 -23.38126511 246.2294996
46.98138964 -2.498428239e-05 110.5918776
48.00001964 -29.28004475 210.9467146
52.00001964 -14.63024652 34.14457761
-51.11946136 -2.498428239e-05 133.0669656
15.58394464 -2.498428239e-05 12.95000761
-69.93683836 -2.498428239e-05 198.0166816
48.00001964 -55.04563733 144.0982276
-9.238374359 -2.498428239e-05 235.1166246
-23.26079436 -2.498428239e-05 189.6401396
-66.66450636 -43.35903744 -9.738558629e-05
54.87730264 -2.498428239e-05 4.802051614
-43.94374536 -59.68877947 -9.738558629e-05
-51.99998036 -62.24666208 223.9119856
47.91622764 -2.498428239e-05 186.5240756
48.00001964 -44.06669162 5.860934614
52.00001964 -85.36080765 210.0289196
-47.99998036 -4.314723014 97.93560261
48.00001964 -22.80154601 108.8061636
52.00001964 -50.30779284 170.3004096
20.75127164 -2.498428239e-05 35.32058061
-47.99998036 -46.01304466 112.2468936
-17.86199036 -2.498428239e-05 164.8485906
48.00001964 -55.10931656 74.87732961
-47.99998036 -71.66048559 162.7382036
1.480986641 -2.498428239e-05 225.6800546
44.85994864 -2.498428239e-05 142.1061286
-47.99998036 -52.16912453 66.65419161
-10.34973236 -2.498428239e-05 248.7444346
48.00001964 -40.3045162 247.9652506
48.00001964 -52.12677574 178.0640226
-47.99998036 -3.947163894 199.4982576
52.00001964 -80.51686789 196.0429276
-47.99998036 -42.88958973 245.4700626
-51.99998036 -14.23646868 33.53845861
-23.65621436 -61.35880993 -9.738558629e-05
64.58478664 -31.03265508 -9.738558629e-05
-47.99998036 -66.25305423 119.8987256
48.00001964 -13.54021143 227.0224436
9.685560641 -2.498428239e-05 213.4470976
-47.99998036 -71.1257804 234.9828386
-51.99998036 -13.06813229 42.68073161
-51.99998036 -17.21318118 234.4407806
48.00001964 -81.28209701 234.4659666
-51.99998036 -50.5525091 71.69085661
52.00001964 -18.92114652 94.05188361
-11.39161536 -2.498428239e-05 42.86030361
-47.99998036 -35.9932917 178.9825526
56.37351664 -2.498428239e-05 147.8644156
52.00001964 -7.476640334 109.4955156
48.00001964 -26.25012533 159.6808936
52.00001964 -23.46157982 147.9716756
34.31690764 -2.498428239e-05 97.41277861
-51.99998036 -18.29356207 27.28416561
-51.99998036 -9.863866354 88.39522761
52.00001964 -15.34093008 41.93908661
65.84333264 -2.498428239e-05 102.5702376
-47.99998036 -14.98508612 129.2057516
48.00001964 -66.39120825 222.1851076
57.02924864 -2.498428239e-05 81.50926861
52.00001964 -83.37697921 250.3207766
48.00001964 -25.07249962 131.6958906
-47.99998036 -16.48356237 50.20199361
-47.99998036 -30.56700487 154.3338066
48.00001964 -34.3665673 108.7925636
52.00001964 -29.97208387 65.55705261
-51.99998036 -78.92621479 196.3644006
52.88795564 -35.23301052 -9.738558629e-05
52.00001964 -28.07872839 239.2181766
48.00001964 -72.06378082 143.8412806
-49.94108336 -67.51555104 108.8194166
52.00001964 -52.89775161 153.0190356
-47.99998036 -21.91594694 45.32604261
-47.99998036 -23.40173118 155.7451266
-51.99998036 -74.83406726 209.4720236
52.00001964 -73.70489349 158.0602956
-47.99998036 -64.52272445 252.3479516
-49.88960836 -100.3793541 224.8914556
-51.99998036 -22.17523583 203.1477586
40.08512264 -2.498428239e-05 222.4596156
-51.99998036 -5.604360614 11.83057561
48.00001964 -48.6277382 221.3994026
38.22435464 -2.498428239e-05 178.4710636
-51.99998036 -49.75357809 208.7962876
-47.99998036 -6.778808264 249.0266276
-51.99998036 -35.25203498 199.5262816
-56.73764736 -2.498428239e-05 251.9565806
-51.99998036 -27.50400903 214.0263046
48.00001964 -32.16028484 61.87788961
-47.99998036 -41.91423366 166.9855716
-47.99998036 -83.7392964 229.8273776
-51.99998036 -53.97457721 220.1492766
48.00001964 -31.94288395 75.19036561
-47.99998036 -27.02020436 67.87104261
48.00001964 -8.901181994 186.4521366
-47.99998036 -34.98152436 39.41122561
48.00001964 -27.33282756 98.69856761
-47.99998036 -60.29818543 136.6886096
48.00001964 -41.60161638 55.22933661
-51.99998036 -6.472750064 163.2984686
-51.99998036 -12.49876033 237.3853516
48.00001964 -49.01740851 189.9348446
-51.99998036 -12.99693876 17.22209961
48.00001964 -66.8958132 156.0798866
52.00001964 -52.32576297 243.5468886
-47.99998036 -39.12954257 132.2832916
48.00001964 -46.51855578 16.46206261
48.00001964 -53.18459058 88.63923561
52.00001964 -42.75717359 50.80956761
-47.99998036 -69.53374967 246.4163616
-21.61252836 -2.498428239e-05 177.4957256
52.00001964 -85.5450289 242.5540726
-51.99998036 -19.90439566 55.39859061
-47.49900336 2.160089256 216.6772376
52.00001964 -35.56879526 176.8020176
52.00001964 -36.1271743 191.0600746
50.29201664 -91.32685507 197.6907726
-51.99998036 -39.63191153 68.33853761
48.00001964 -29.14984167 190.4615266
61.43375364 -20.45799605 -9.738558629e-05
-47.99998036 -50.89209058 108.3364546
1.669748641 -2.498428239e-05 49.53230561
48.00001964 -3.021657304 32.96944761
31.34575164 -2.498428239e-05 135.7744646
51.72034264 -2.498428239e-05 49.77049361
-51.99998036 -51.53265721 112.7869826
-51.99998036 -11.23507221 211.6784526
48.00001964 -28.91416576 37.65493661
4.555707641 -2.498428239e-05 82.68854261
23.65043764 -2.498428239e-05 40.43747061
-47.99998036 -30.30042066 121.6616706
52.00001964 -1.105534114 132.7538936
-51.99998036 -20.15210979 103.4161936
-51.99998036 -38.5566604 141.3030336
28.22574564 -2.498428239e-05 249.6784436
48.00001964 -40.09583 37.56211961
52.00001964 -67.88684612 140.6446916
48.00001964 -45.76671055 129.3328366
-51.99998036 -34.41187474 233.5742706
-47.99998036 -5.236990214 159.1990266
-51.99998036 -4.727992364 147.9903516
-47.99998036 -57.84006385 236.3932636
52.00001964 -7.911084004 121.4431816
39.73792764 -17.88048091 -9.738558629e-05
-51.99998036 -43.97554564 181.7351316
52.00001964 -56.46949372 133.9801296
52.00001964 -55.35799761 223.5503046
-47.99998036 -39.34875921 118.0836006
-56.72057636 -2.498428239e-05 38.13710361
-58.77380636 -2.498428239e-05 68.04580061
-51.99998036 -10.37124157 127.4332326
48.00001964 -13.1952163 49.53920761
-51.99998036 -81.43334504 222.2654976
-47.99998036 -8.037555784 230.4399776
52.00001964 -41.48223005 99.02403061
-51.99998036 -29.25397575 93.64054761
-47.99998036 -45.00464838 223.6967936
52.00001964 -38.77426301 87.32848061
-64.99091436 -2.498428239e-05 209.0938876
-51.99998036 -4.538304874 204.7628776
-47.99998036 -51.16021658 91.44303061
-47.99998036 -9.012960454 31.38814261
-47.99998036 -39.16653899 90.66656961
-51.99998036 -20.04381247 179.8185546
28.73162264 -34.88074232 -9.738558629e-05
-47.99998036 -62.37935855 91.07974361
52.00001964 -78.85723896 231.6185206
-51.99998036 -72.71981104 156.2882106
-51.99998036 -29.08367615 118.1517016
-55.29288836 -2.498428239e-05 113.9025076
48.00001964 -23.74763154 210.4136996
52.00001964 -49.29889999 91.89276261
-51.99998036 -68.72229153 172.5601146
48.00001964 -27.65616656 172.7891796
48.00001964 -13.13976318 63.31199561
48.00001964 -96.80048182 244.4275666
-51.99998036 -53.56691146 103.2991106
-68.68427236 -2.498428239e-05 46.70651761
-47.99998036 -59.30554312 207.2455366
-47.99998036 -54.15535972 128.5261716
-47.99998036 -19.89350854 123.9098706
-51.99998036 -39.23045681 11.24844761
48.62621164 -104.3282265 235.8749646
52.00001964 -61.40642492 97.37818861
52.00001964 -20.41256919 200.0866396
-18.60061136 -2.498428239e-05 26.05063061
52.00001964 -34.92706398 237.2081436
48.00001964 -11.23281071 71.16616061
52.00001964 -10.35756325 96.76529861
48.00001964 0.3823214057 223.4524436
-47.99998036 -75.47921448 218.4471126
-28.66936036 -2.498428239e-05 125.0657056
48.00001964 -32.32917664 248.4093146
52.00001964 -48.01606945 203.8808536
52.00001964 -1.331924204 150.8110546
-71.01808236 -2.498428239e-05 87.08658361
-51.99998036 -15.50780843 175.1295616
-51.99998036 -65.78463174 198.8376516
52.00001964 -2.033828374 173.4787066
-51.99998036 -6.383645164 72.50140361
50.84675264 -2.498428239e-05 239.7668646
-51.99998036 -80.3118909 232.5278666
-47.99998036 -61.58960134 83.80141461
-51.99998036 -40.81338354 150.8519296
52.00001964 -3.820301494 99.47474361
-51.50506536 -104.4195768 236.1230676
-47.99998036 -13.40462308 12.60800261
-47.61015836 0.7766268457 58.58509661
-51.99998036 -89.49445786 248.3257986
48.00001964 -46.20841036 158.6858286
-47.99998036 -32.35177343 144.1615396
-51.99998036 -65.21633528 100.2568706
48.00001964 -19.8805018 245.4343226
-47.99998036 -20.18531233 82.66601861
-51.99998036 -22.11740957 69.44198861
-47.99998036 -10.9553819 180.0031816
-48.88825436 -77.10962931 148.6745396
-47.99998036 -9.494311894 223.9044836
-51.99998036 -3.905538384 185.3726146
52.00001964 -7.242404144 154.0510216
43.95311464 -2.498428239e-05 246.8851876
-51.99998036 -30.8465681 178.2438436
-51.99998036 -39.06697197 85.30729461
32.79183764 -2.498428239e-05 197.6838246
19.79527964 -25.10832793 -9.738558629e-05
48.00001964 -28.76095254 92.77037461
52.00001964 -5.177041674 65.82101361
-53.07434136 -2.498428239e-05 56.60519161
37.98404364 -2.498428239e-05 227.3765836
48.00001964 -43.51716957 186.1489246
48.00001964 -17.27637103 236.0517756
52.00001964 -80.54674066 239.4957736
-47.99998036 -51.86411394 190.5744406
48.00001964 -53.69535253 250.0962006
52.00001964 -12.6491167 247.5992886
48.00001964 -71.09528442 166.6986386
52.00001964 -32.57419191 111.9096506
48.00001964 -73.50811541 189.3810226
-52.14744436 -16.02775726 -9.738558629e-05
-56.38630236 -53.16979728 -9.738558629e-05
-51.99998036 -38.08816751 76.28231161
48.00001964 -11.46078938 6.473327614
15.60550764 -16.97349234 -9.738558629e-05
62.30417764 -2.498428239e-05 181.8224016
52.00001964 -9.065050754 13.60408961
66.35988864 -2.498428239e-05 10.17285661
39.86261164 -2.498428239e-05 150.7208846
-51.99998036 -67.891558 163.5204356
-51.99998036 -55.05959228 40.90753561
-47.99998036 -25.31008646 197.1210586
-47.99998036 -8.099829554 94.21145161
48.00001964 -35.86560911 21.62335961
48.00001964 -47.14788813 39.11424961
-47.99998036 -22.37396673 132.1774766
52.00001964 -105.1679079 241.5062566
-51.99998036 -17.69585917 86.80424761
48.00001964 -70.04908423 137.3875726
48.00001964 -29.48981623 233.4787786
-30.26091936 -2.498428239e-05 166.2983736
-47.99998036 -39.49607363 194.6295716
-51.99998036 -30.08072256 12.80836061
51.06990764 -2.498428239e-05 24.85425961
52.00001964 -39.41614158 233.7141146
52.00001964 -56.72950298 184.3015006
48.00001964 -52.27394462 43.65880861
-51.99998036 -22.22496187 159.7853446
-47.99998036 -59.63516125 228.2480406
-47.99998036 -93.84846646 242.4941116
52.00001964 -62.65705428 153.4960846
48.00001964 -19.84495437 31.27644161
48.10034564 -2.498428239e-05 14.89678661
48.00001964 -61.05857977 105.7973206
52.00001964 -68.74138564 131.7048726
-51.99998036 -49.77624156 34.34274761
48.00001964 -19.01426553 101.6551406
52.00001964 -68.76496762 121.1519416
52.00001964 -42.43573596 26.80718261
48.00001964 -21.39511671 24.59472861
52.00001964 -51.21255551 182.0941316
52.00001964 -7.385220824 2.283435614
-47.99998036 -3.683720224 81.13142561
52.00001964 -9.511001754 140.6140626
48.00001964 -55.32484042 239.9181826
-51.99998036 -30.89092335 244.8827196
48.00001964 -59.78129792 137.2879316
52.00001964 -49.6353586 15.06842561
-27.24029536 -2.498428239e-05 82.22820561
48.00001964 -40.14017082 115.7681576
52.00001964 -26.00442815 68.99145661
52.00001964 -44.88776177 62.75050961
48.00001964 -14.88132328 122.9835056
-41.94757436 -2.498428239e-05 39.56771261
-51.99998036 -36.68595882 161.6561626
48.00001964 -28.10089984 109.4351226
48.00001964 -23.29823108 177.8952626
-51.54627636 -97.00531979 214.9406256
-51.32716736 -51.4622731 13.64431161
-47.99998036 -31.096045 9.601343614
-51.99998036 -3.408765364 47.23143061
52.00001964 -22.38025454 89.80445961
-55.63212836 -33.93153424 -9.738558629e-05
48.00001964 -55.58574694 116.6240546
52.00001964 -51.89959073 55.12629861
-47.99998036 -51.5444332 155.2252536
-51.99998036 -14.60971752 250.2910336
15.40159364 -2.498428239e-05 99.74360061
-51.99998036 -43.96791905 131.3794346
-0.1380563585 -2.498428239e-05 13.45812961
56.31479664 -2.498428239e-05 27.75621961
-47.99998036 -14.21832397 232.9475986
48.00001964 -19.17109263 187.3851756
-47.99998036 -60.42486586 244.3566096
48.00001964 -44.51083152 75.21113261
-51.99998036 -36.12252659 98.86929861
-51.99998036 -9.345112744 172.3094566
52.00001964 -4.367784994 198.1290566
5.506253641 -2.498428239e-05 142.6388926
-47.99998036 -42.50069603 218.0451066
52.00001964 -52.24177653 236.4958846
-47.99998036 -5.943918454 45.06689161
48.00001964 -58.44215888 227.3149256
-51.99998036 -31.08005965 68.77568061
52.00001964 -57.34386747 231.8504686
-51.99998036 -64.6630546 132.9993376
-2.529259359 -2.498428239e-05 24.30425561
-47.99998036 -64.93584 237.4752196
-51.99998036 -10.5972521 52.13918361
48.00001964 -7.392221574 25.75422861
-51.99998036 -58.00478855 152.9705936
-47.99998036 -49.7141012 51.90468961
-51.99998036 -54.25873381 251.0378856
-51.99998036 -3.582902344 172.0412606
-47.99998036 -15.99963828 144.8005066
52.00001964 -30.2557002 201.8319996
52.00001964 -36.17978515 248.8738866
48.00001964 -38.92552776 237.9464396
52.00001964 -18.49520556 49.77853461
