# .PCD v0.7 - Point Cloud Data file format
VERSION 0.7
FIELDS x y z
SIZE 4 4 4
TYPE F F F
COUNT 1 1 1
WIDTH 1243
HEIGHT 1
VIEWPOINT 0 0 0 1 0 0 0
POINTS 1243
DATA ascii
-144.129236 -2.498653079e-05 157.5588886
205.999727 -13.34493751 126.4077106
112.80798 -2.498653079e-05 127.1532816
222.553619 -110.9520324 87.99990262
201.999727 -185.717044 230.5755236
-133.019133 -46.82968458 -9.738490598e-05
122.080923 -2.498653079e-05 5.601360615
-206.722829 -2.498653079e-05 151.7423626
-193.411229 -2.498653079e-05 125.3144996
205.999727 -195.4662786 173.6454116
201.668824 -2.498653079e-05 177.3372046
201.999727 -163.0008597 135.8857646
205.999727 -44.86288992 199.1795796
197.999727 -98.03651755 140.2542536
24.135757 -2.498653079e-05 177.0165196
151.971247 -32.01281078 -9.738490598e-05
-69.60382 -2.498653079e-05 106.4192956
16.09111 -2.498653079e-05 120.4815096
201.999727 -40.74863117 111.3118546
174.100427 -2.498653079e-05 115.1991576
201.999727 -29.04513768 175.9491196
201.999727 -32.49220981 55.16551762
-168.95456 -52.44437889 -9.738490598e-05
-206.802884 -2.498653079e-05 237.7052576
-36.660994 -54.71746695 -9.738490598e-05
47.467734 -2.498653079e-05 91.99474562
197.999727 -120.292334 214.4023876
205.999727 -115.927827 163.9334836
-168.139337 -2.498653079e-05 82.82987562
205.999727 -208.6064667 157.4383576
213.339425 -58.26921564 247.9999026
203.986543 -196.1168239 90.77535162
-171.018682 -2.498653079e-05 207.5881436
218.75279 -12.45603959 89.00466862
130.521917 -57.57092565 -9.738490598e-05
205.999727 -15.52467874 105.3843476
197.999727 -62.56666165 183.2712586
134.005844 -2.498653079e-05 102.2071686
184.155579 -45.02710362 -9.738490598e-05
197.999727 -95.03089488 169.1071386
205.182491 -214.2682714 246.3493916
-131.693927 -2.498653079e-05 131.7229086
197.999727 -30.26576574 249.6411916
-218.425446 -2.498653079e-05 107.2979276
22.445973 -2.498653079e-05 236.3543016
1.623930003 -2.498653079e-05 46.52989062
216.058209 -84.83603992 247.9999026
-77.448196 -2.498653079e-05 11.12885662
34.949948 -19.56634854 -9.738490598e-05
139.833484 -2.498653079e-05 84.19981762
-66.133068 -68.00002403 -2.403838385
-7.785364997 -2.498653079e-05 181.3918776
-137.180318 -2.498653079e-05 211.2273976
-155.587317 -2.498653079e-05 174.9990286
9.596609003 -2.498653079e-05 72.36781062
-138.59233 -2.498653079e-05 36.42316562
205.999727 -190.5840786 131.3084666
154.457811 -2.498653079e-05 165.9959076
-10.356548 -24.82846914 -9.738490598e-05
197.999727 -13.08458423 74.51216362
-175.926391 -2.498653079e-05 151.1304766
-91.241683 -2.498653079e-05 179.3901126
44.538932 -52.08736877 -9.738490598e-05
22.215511 -2.498653079e-05 12.27224662
201.999727 -31.17908365 97.41615962
-150.172813 -2.498653079e-05 109.4757436
174.157879 -2.498653079e-05 18.71860162
-73.14448 -2.498653079e-05 42.00807662
215.675724 -167.5656992 87.99990262
101.90838 -55.7467301 -9.738490598e-05
-216.756681 -2.498653079e-05 208.0736966
-92.407896 -2.498653079e-05 163.8645836
201.999727 -147.9314575 198.7152816
-5.010202997 -2.498653079e-05 65.41247362
201.999727 -162.2774785 181.2776016
-121.141894 -2.498653079e-05 97.26184262
205.999727 -235.2678974 107.6270316
213.260245 -197.533446 247.9999026
-206.010897 -2.498653079e-05 185.7242296
25.971757 -2.498653079e-05 68.63535262
-87.30289 -2.498653079e-05 214.2031346
219.708062 -162.3989428 243.9999026
-138.630166 -2.498653079e-05 194.2923526
-57.166894 -2.498653079e-05 231.0859096
205.999727 -94.442685 124.7354776
68.805392 -2.498653079e-05 231.8250766
42.520352 -2.498653079e-05 16.40176962
102.550146 -2.498653079e-05 54.60931862
113.653504 -2.498653079e-05 154.6522336
57.607524 -2.498653079e-05 199.3107036
166.282037 -2.498653079e-05 101.9435966
197.999727 -1.587157047 88.53662562
-167.521966 -2.498653079e-05 236.7756936
-84.841307 -2.498653079e-05 134.8041256
215.619441 -3.829895347 -9.738490598e-05
205.999727 -162.0913674 212.8969566
-15.411015 -2.498653079e-05 222.4300176
197.999727 -34.21674199 146.5123866
-5.582026997 -2.498653079e-05 101.2129786
168.66924 -2.498653079e-05 46.31233762
205.999727 -63.35532214 132.0261516
201.999727 -154.7707874 167.4213926
-202.000273 -11.44616162 -1.280793385
-117.494058 -2.498653079e-05 237.2601996
-77.276267 -2.498653079e-05 154.8262266
-142.751131 -2.498653079e-05 92.87864562
200.068404 -2.498653079e-05 65.54524762
197.999727 -54.78545123 212.7435846
-219.74573 -2.498653079e-05 176.1932866
-45.682552 -2.498653079e-05 214.7125936
197.999727 -62.36439968 62.76672462
-18.597314 -2.498653079e-05 141.1741976
202.866377 -60.06802062 92.45636562
206.499727 0.9549701735 218.9970156
201.999727 -230.7988296 215.6291476
-112.024936 -2.498653079e-05 208.4249056
205.999727 -117.7135673 148.9845496
-184.989469 -2.498653079e-05 172.5618686
26.739525 -2.498653079e-05 197.9469256
-28.551835 -2.498653079e-05 92.07517862
197.999727 -58.59874844 241.0135836
159.040594 1.910395823 -9.738490598e-05
-40.014242 -2.498653079e-05 102.3470646
-73.281672 -8.789841357 -9.738490598e-05
208.124768 -51.37965139 -9.738490598e-05
-111.564417 -2.498653079e-05 142.5379896
59.563983 -2.498653079e-05 83.53104362
-202.471718 -2.498653079e-05 95.83341662
-38.439301 -2.498653079e-05 231.7744376
197.999727 -28.98531391 190.1508276
-30.372492 -2.498653079e-05 47.13818462
201.999727 -183.3029833 110.4118816
205.999727 -131.4760322 219.6939626
-162.892583 -2.498653079e-05 31.62027462
197.999727 -96.90967572 185.4084086
197.999727 -97.44562717 93.77684662
81.398387 -2.498653079e-05 126.3994826
71.405593 -64.60363179 -9.738490598e-05
205.999727 -73.202606 211.3852266
109.392842 -2.498653079e-05 101.1609606
202.770664 -252.342077 92.62561262
117.833288 -2.498653079e-05 218.1099396
201.999727 -89.83613355 70.54995762
-118.661385 -2.498653079e-05 183.4794696
-184.762771 -2.498653079e-05 107.6471746
187.281267 -2.498653079e-05 231.4935706
-25.925264 -2.498653079e-05 204.7983276
-85.4079 -2.498653079e-05 34.49510062
3.049815003 -2.498653079e-05 158.1012256
201.999727 -220.5262794 131.0045646
104.761863 -2.498653079e-05 80.30866862
-42.144071 -2.498653079e-05 153.6096116
205.999727 -180.5139135 200.9903496
4.042732003 -13.72234116 -9.738490598e-05
130.936544 -2.498653079e-05 57.10008862
176.407274 -2.498653079e-05 215.8925636
22.773726 -59.11799715 -9.738490598e-05
44.883148 -2.498653079e-05 123.2542686
-185.274075 -2.498653079e-05 234.0865836
-117.841941 -2.498653079e-05 25.51129562
206.060254 -136.9021425 246.9237396
152.7222 -2.498653079e-05 36.02002762
129.662867 1.482628333 208.2947016
123.719475 -2.498653079e-05 39.10751562
-108.841867 -2.498653079e-05 250.8955596
206.034498 -183.6886811 246.9111346
-152.70889 -58.06117808 -9.738490598e-05
-161.44175 -0.8513728365 -9.738490598e-05
205.986976 2.469436233 126.4999026
-199.732073 -29.43042006 -9.738490598e-05
182.458813 -2.498653079e-05 155.0774986
170.005236 -2.498653079e-05 189.5503006
-115.110336 -2.498653079e-05 120.4302336
197.999727 -90.70029994 152.7689736
136.542216 -2.498653079e-05 145.9096046
-182.866911 -52.41021665 -9.738490598e-05
201.999727 -39.28817769 27.55924662
-29.610085 1.943928563 -9.738490598e-05
210.899527 -29.76055711 -9.738490598e-05
201.999727 -205.3893 204.0987996
204.113897 -2.498653079e-05 47.66853662
-5.182063997 -63.18591711 -9.738490598e-05
166.768073 -2.498653079e-05 144.0075166
205.999727 -179.4412934 161.0919976
63.725105 -2.498653079e-05 32.00898862
-137.407187 -2.498653079e-05 236.4729366
-103.1201 -68.00002403 -1.535025385
198.177261 -74.17947122 40.35077762
205.999727 -52.83672401 103.7840116
-115.61562 -2.498653079e-05 77.47986262
143.55013 -2.498653079e-05 112.0643296
197.999727 -62.5757088 13.66105662
222.585028 -80.37932956 87.99990262
138.432863 -2.498653079e-05 176.8294856
14.516208 -2.498653079e-05 41.24543562
21.076945 -34.36781449 -9.738490598e-05
205.999727 -10.79790866 170.2002336
201.999727 -23.04866626 45.34349862
205.999727 -168.2348862 107.4425446
205.999727 -252.4402459 212.5285446
-202.667211 -2.498653079e-05 25.76893562
-6.899960997 -2.498653079e-05 13.42188662
205.999727 -204.6531867 189.9185406
-68.855318 -2.498653079e-05 237.8983276
53.909344 -2.498653079e-05 49.91281262
-43.752517 -43.22061411 -9.738490598e-05
-91.607405 -15.66071904 -9.738490598e-05
197.999727 -119.5512316 118.3213386
207.678662 -232.2049757 247.6194326
197.999727 -52.37791587 133.2366236
-37.169488 -2.498653079e-05 31.00908062
116.144253 -2.498653079e-05 65.21368662
163.40637 -2.498653079e-05 221.1867796
201.999727 -207.9783405 100.9626946
-59.047967 -2.498653079e-05 122.2860446
112.26162 -2.498653079e-05 187.5816406
-189.308651 -2.498653079e-05 159.1162736
222.531368 -2.498653079e-05 134.7735406
201.999727 -201.2733566 120.6029646
54.999173 -68.00002403 -1.863104385
9.644216003 2.407500343 -9.738490598e-05
222.566118 -138.7974739 247.9999026
154.315951 -56.08263324 -9.738490598e-05
-74.302457 -2.498653079e-05 62.39260462
205.999727 -69.12547882 115.8822186
201.999727 -220.2116932 144.3512406
201.999727 -44.82458424 79.59064062
-98.828328 -26.85896681 -9.738490598e-05
-206.978631 -2.498653079e-05 138.4676066
67.514417 -2.498653079e-05 56.05465762
-145.625229 -27.58482169 -9.738490598e-05
205.999727 -26.53383419 127.2645976
205.999727 -81.529258 238.3451296
10.45462 -2.498653079e-05 241.8845856
-95.610133 -2.498653079e-05 46.58992262
54.204881 -2.498653079e-05 231.7299606
-20.827141 -2.498653079e-05 183.3290996
-19.596156 -48.61635246 -9.738490598e-05
-158.88152 -2.498653079e-05 65.02232162
-53.033683 -2.498653079e-05 9.683034615
-163.256779 -2.498653079e-05 126.2082916
-19.196278 -2.498653079e-05 124.1029476
205.999727 -68.05979426 236.6666696
205.999727 -223.9831781 170.5863866
205.999727 -95.42130898 229.0943126
206.585927 -48.29003449 241.9962946
123.712007 1.584541193 232.3117856
87.143925 -53.03796317 -9.738490598e-05
201.999727 -118.217512 191.0219446
210.099524 -2.498653079e-05 162.0985776
201.999727 -69.33702372 148.9588586
186.555073 -2.498653079e-05 4.995859615
-221.693223 -2.498653079e-05 74.97331462
184.011682 -63.92870516 -9.738490598e-05
135.837235 -2.498653079e-05 243.1872046
82.558848 -2.498653079e-05 73.20774762
46.060132 -2.498653079e-05 251.0178736
197.999727 -141.4145432 118.1236336
201.999727 -152.3212443 225.4068686
205.999727 -52.68293984 157.0678456
201.999727 -237.3603295 154.2542096
220.406892 -2.498653079e-05 91.87585562
106.039424 -2.498653079e-05 29.91621162
-60.789869 -2.498653079e-05 38.03798662
88.120434 -2.498653079e-05 108.6038246
-31.975816 -2.498653079e-05 175.5072536
176.776257 -2.498653079e-05 201.5815916
49.713219 -2.498653079e-05 184.7251016
210.613026 -2.498653079e-05 33.08702662
-45.55854 -28.03791411 -9.738490598e-05
-214.718352 -2.498653079e-05 33.01709162
205.999727 -97.49713376 106.1423016
82.68573 -28.86192207 -9.738490598e-05
201.999727 -50.76264968 51.18521762
197.999727 -177.8378301 189.8345776
205.999727 -26.56056081 238.8712226
-200.243274 -2.498653079e-05 55.53214962
-157.094231 -2.498653079e-05 162.3514536
205.999727 -45.14154922 171.3614656
201.999727 -4.468650217 141.4771786
202.028353 -223.6435051 95.71082762
-138.197498 -2.498653079e-05 145.3518256
81.999718 -2.498653079e-05 25.78825362
-175.587343 -0.1393602565 -1.014265385
-108.367515 -2.498653079e-05 34.30306062
-187.838064 -2.498653079e-05 68.42282862
68.949719 -31.92266953 -9.738490598e-05
201.999727 -138.0882678 190.7771516
10.872965 -2.498653079e-05 218.0414846
205.999727 -245.7671783 126.8957326
-206.580614 -2.498653079e-05 250.3244666
86.201735 -2.498653079e-05 159.5539306
197.999727 -87.24785714 132.2528336
205.603551 -151.1578725 89.33959162
213.199045 -101.9342632 91.99990262
140.133498 -2.498653079e-05 69.11007462
207.405949 -89.64615159 88.47583862
-211.138219 -47.4577371 -9.738490598e-05
210.722574 -100.8500287 247.9999026
-64.793072 -2.498653079e-05 14.02825062
35.904003 -2.498653079e-05 228.0265506
185.468946 -26.22341549 -9.738490598e-05
-204.286319 -2.498653079e-05 209.0834806
-144.54002 -13.40313517 -9.738490598e-05
201.999727 -12.1914836 251.0034486
-185.196107 -2.498653079e-05 185.8181326
201.999727 -32.16603309 13.53166962
201.999727 -52.79984291 29.72996562
205.999727 -25.57977922 213.7851206
-50.77722 -2.498653079e-05 78.02490362
-124.316278 -55.69915159 -9.738490598e-05
201.999727 -54.84568831 192.1047706
201.999727 -24.91345672 64.99302462
201.999727 -0.5097110965 206.0770366
201.999727 -152.3204198 239.2180376
221.418727 -212.8507629 91.99990262
205.999727 -40.33179808 213.7227236
172.679756 -2.498653079e-05 32.74239362
198.103842 -143.844364 144.0597296
35.838275 -2.498653079e-05 114.8811856
-162.983749 -26.06486285 -9.738490598e-05
33.162008 -2.498653079e-05 246.5109666
91.485755 -2.498653079e-05 81.68397562
205.999727 -217.759928 233.1394876
173.547592 -2.498653079e-05 173.6076076
101.314725 -2.498653079e-05 214.0331286
142.002129 -2.498653079e-05 11.81845362
32.947854 -47.42374786 -9.738490598e-05
205.999727 -81.75274803 117.1226716
-167.173623 -2.498653079e-05 102.8250176
-22.363518 -2.498653079e-05 166.1036506
-165.29708 -2.498653079e-05 15.91152862
-44.353347 -2.498653079e-05 242.4090886
-101.196344 -2.498653079e-05 96.70538262
112.088434 -35.50022286 -9.738490598e-05
197.999727 -46.42344502 150.3360156
201.999727 -8.250965257 115.2917936
-155.661034 -2.498653079e-05 242.2484306
205.999727 -167.0479069 152.5077076
-116.914693 -2.498653079e-05 12.59242162
205.999727 -221.380866 184.5379936
27.906607 -2.498653079e-05 89.59832462
-139.141803 -2.498653079e-05 8.622688615
145.296961 -2.498653079e-05 202.5163436
201.999727 -226.8290447 204.2511576
205.999727 -241.499606 233.7080486
-179.377246 -2.498653079e-05 78.49269762
-169.058378 -2.498653079e-05 56.52309962
-149.50281 -2.498653079e-05 31.37458562
197.999727 -128.6512538 131.1108326
-148.536709 -2.498653079e-05 80.91400262
186.5925 -2.498653079e-05 63.76738462
201.999727 -66.22170081 220.4460026
75.126458 -2.498653079e-05 181.3443166
29.297997 -2.498653079e-05 145.4685006
-117.427627 -2.498653079e-05 55.76554262
205.999727 -250.687648 195.2678476
201.999727 -140.8187594 172.5156956
197.999727 -3.239834597 103.5508366
174.30288 -51.98212223 -9.738490598e-05
-212.761886 -2.498653079e-05 14.22489462
197.999727 -118.0965627 97.43305962
-65.06174 -2.498653079e-05 51.67305562
205.999727 -103.8744489 168.3604146
-0.1234579965 -2.498653079e-05 196.1390786
-204.451793 -2.498653079e-05 0.8867476151
201.999727 -72.36572769 188.6888816
-103.017667 -2.498653079e-05 67.79993762
172.674828 -9.734169057 -9.738490598e-05
-169.10054 -15.506529 -9.738490598e-05
4.592611003 -54.26238112 -9.738490598e-05
103.749048 -2.498653079e-05 137.6461306
-38.73334 -66.35974249 -9.738490598e-05
200.874408 -0.5000249865 11.40564262
198.484632 -2.498653079e-05 26.07419062
205.999727 -69.0341436 173.3433246
157.49527 -2.498653079e-05 192.8002136
205.999727 -189.4449029 119.5984566
205.999727 -243.6912826 172.3330566
-39.927142 -2.498653079e-05 10.62598862
-161.0638 -2.498653079e-05 213.7889616
138.077542 -2.498653079e-05 40.80807562
77.770843 -2.498653079e-05 138.0860486
182.941372 -2.498653079e-05 125.5004556
-108.573847 -39.34510742 -9.738490598e-05
-120.330796 -2.498653079e-05 134.7971816
205.999727 -104.8417013 237.8384336
201.999727 -245.8245306 104.7411216
218.396153 -2.498653079e-05 109.4543366
197.999727 -67.99687054 161.1655846
96.125607 -2.498653079e-05 173.3611006
32.571997 -2.498653079e-05 157.6482926
205.999727 -212.0303824 118.7973186
-46.385324 -2.498653079e-05 179.0369096
-173.226268 -63.47594093 -9.738490598e-05
-16.123059 -2.498653079e-05 152.6302746
201.999727 -233.4411559 165.2300696
-129.252493 -2.498653079e-05 55.42537662
58.22119 -2.498653079e-05 14.54221762
213.684868 -243.5030029 247.9999026
110.012895 -2.498653079e-05 113.5792316
201.999727 -69.88329059 70.59316262
4.586176003 -2.498653079e-05 121.6171716
161.312073 -2.498653079e-05 62.19631462
201.999727 -94.96437445 201.2271146
-119.706818 -11.74456941 -9.738490598e-05
-211.138062 -2.498653079e-05 168.2239626
100.49603 -2.498653079e-05 196.4641916
-92.41795 -61.06521212 -9.738490598e-05
205.999727 -187.713087 100.5666686
151.624759 -2.498653079e-05 152.9828636
201.999727 -71.30167047 89.52101962
197.999727 -107.5498938 211.5311776
197.999727 -81.42311011 205.2109986
20.081763 -2.498653079e-05 102.9678306
63.098624 -2.498653079e-05 143.6921856
189.938723 -2.498653079e-05 170.9804376
201.999727 -37.20329929 240.3439736
-15.001998 -2.498653079e-05 208.2529586
-17.44073 -2.498653079e-05 87.24865262
-59.839249 -2.498653079e-05 176.0610566
197.999727 -19.68429 227.9800946
222.02986 -2.498653079e-05 32.66551862
184.924209 -2.498653079e-05 110.6466616
197.999727 -7.212300597 221.8841836
-7.973285997 -13.68088043 -9.738490598e-05
205.999727 -191.1512492 144.0704936
197.999727 -133.2549359 211.7928316
197.999727 -68.5715844 138.3499676
-178.795766 -2.498653079e-05 24.24036962
-100.86606 -2.498653079e-05 204.3332716
205.999727 -91.51532785 176.8080436
-75.563322 -2.498653079e-05 216.8346206
-78.35589 2.021696083 -9.738490598e-05
-181.81963 -2.498653079e-05 248.6405396
197.999727 -60.20876793 252.2245946
201.999727 -204.1828167 227.0378466
-65.921568 -2.498653079e-05 197.7686696
211.500684 -78.28210133 87.99990262
15.471864 -2.498653079e-05 30.01091762
155.632787 -2.498653079e-05 84.53077862
210.30127 -31.56193059 247.9999026
-147.81816 -2.498653079e-05 183.5807366
-128.629422 -2.498653079e-05 105.6725026
206.562655 -40.21479766 88.77899862
-87.235449 -2.498653079e-05 238.6458476
-62.703691 -57.51536836 -9.738490598e-05
205.999727 -201.4271974 148.7907136
-67.527972 -2.498653079e-05 226.7315266
92.631501 -2.498653079e-05 126.2715966
201.999727 -228.1795604 193.1028856
-174.081074 -2.498653079e-05 92.35488362
-159.944945 -2.498653079e-05 185.3443806
125.388026 -68.00002403 -2.112499385
212.542198 -72.9912965 247.9999026
56.625442 -2.498653079e-05 121.0520066
205.999727 -31.93884243 137.0867156
129.073565 -16.29845086 -9.738490598e-05
203.307052 -2.498653079e-05 76.65234462
206.031206 -166.7666298 95.79688062
-68.76536 -19.39218086 -9.738490598e-05
197.999727 -154.4220024 208.0162816
-87.72425 -2.498653079e-05 15.46799762
197.999727 -54.06387566 6.102241615
79.679726 -9.248925687 -9.738490598e-05
-189.370035 -33.49634865 -9.738490598e-05
197.999727 -116.7121988 201.2938686
115.865327 -2.498653079e-05 79.63549862
-98.143495 -2.498653079e-05 235.2302766
-47.812332 -2.498653079e-05 58.06876962
210.188407 -2.498653079e-05 191.1626246
-198.663786 -2.498653079e-05 229.2169146
-145.539196 -2.498653079e-05 218.5256906
205.999727 -118.3739049 125.9204336
10.754484 -2.498653079e-05 206.9473916
205.999727 -170.3151735 170.9348106
197.999727 -176.6736611 153.3939236
-137.14752 -2.498653079e-05 76.19254962
185.766592 -2.498653079e-05 193.1265436
222.850169 -29.06003018 -9.738490598e-05
118.858077 -2.498653079e-05 164.4121606
217.661879 -2.498653079e-05 217.4083016
-26.605234 -2.498653079e-05 24.46867462
78.608252 -2.498653079e-05 226.7432646
197.999727 -88.72963776 224.1060196
110.063117 -23.04346329 -9.738490598e-05
-66.207716 -2.498653079e-05 72.57568962
-36.128874 -2.498653079e-05 200.6455416
-110.070136 -2.498653079e-05 46.18408062
-182.370541 -2.498653079e-05 202.8133076
-56.392614 -2.498653079e-05 23.94681862
-203.446972 -2.498653079e-05 197.5658726
73.592054 -2.498653079e-05 246.8899116
-92.326292 -2.498653079e-05 61.94210062
211.591557 -2.498653079e-05 68.11946862
221.436973 -190.2334438 247.9999026
84.255401 -2.498653079e-05 146.9179846
88.918729 -2.498653079e-05 213.7154546
205.999727 -126.1565783 98.62020762
-85.215171 -2.498653079e-05 89.81439662
207.075645 -14.95078417 -9.738490598e-05
191.957354 -2.498653079e-05 39.60911962
197.999727 -47.6213947 163.6606386
197.999727 -20.23555225 18.39656562
-94.715615 -2.498653079e-05 109.4327056
-126.292946 -2.498653079e-05 32.38559662
-219.708759 -2.498653079e-05 239.2526116
-11.557952 -38.74511494 -9.738490598e-05
197.999727 -103.0228567 128.5818016
2.069929003 -2.498653079e-05 29.77849762
74.317356 -2.498653079e-05 7.848750615
-62.431289 -9.384475287 -9.738490598e-05
101.739307 -11.41293782 -9.738490598e-05
197.999727 -35.44258792 119.8637346
-94.417603 -2.498653079e-05 190.7842646
197.999727 -14.12951818 28.59509062
78.120367 -2.498653079e-05 206.1751426
46.181493 -40.34570161 -9.738490598e-05
-84.89993 -32.66525818 -9.738490598e-05
201.999727 -146.1279617 98.31928462
201.999727 -142.3464219 156.6112246
-11.388589 -2.498653079e-05 45.45862062
120.05586 -2.498653079e-05 242.3352856
205.999727 -55.87814047 180.5364846
-85.450242 -52.02828795 -9.738490598e-05
-143.448098 -49.54332614 -9.738490598e-05
-199.598495 -2.498653079e-05 77.78059762
42.770287 -2.498653079e-05 49.25719662
-46.320504 -2.498653079e-05 143.6827036
197.999727 -159.9017937 149.3857826
197.999727 -21.05012079 100.4206976
-188.737476 -2.498653079e-05 135.0064456
201.999727 -173.7080124 234.7791516
-200.698093 -2.498653079e-05 160.6454896
205.999727 -185.7797345 220.5991026
201.999727 -77.64372389 107.3619316
205.999727 -229.4927456 147.9701066
-95.77695 -2.498653079e-05 222.1688946
201.999727 -45.42900218 140.3663446
-28.270282 -68.00002403 -1.703332385
-23.965135 -26.65616952 -9.738490598e-05
-127.534476 -68.00002403 -0.7596253849
198.272849 -23.96436945 134.3896606
90.279713 -4.615798837 -9.738490598e-05
197.999727 -37.00457423 65.52713662
104.356063 -2.498653079e-05 91.72538662
75.543592 -54.74243905 -9.738490598e-05
129.236988 -2.498653079e-05 85.60097162
105.350715 -68.00002403 -1.327930385
91.175162 -2.498653079e-05 31.40374462
205.999727 -33.30226737 195.7044236
205.999727 -39.54509471 151.6947696
-109.351296 -2.498653079e-05 89.88822862
-68.857826 -2.498653079e-05 208.2722276
205.999727 -106.4235516 135.4569556
199.211058 -2.498653079e-05 151.0742606
203.863195 -2.498653079e-05 244.0516356
-190.915378 -2.498653079e-05 16.34316662
209.842967 -176.4236098 88.01538262
73.753668 -2.498653079e-05 84.71260862
127.616615 -2.498653079e-05 14.87154062
146.319503 -2.498653079e-05 133.2120796
197.999727 -102.225581 224.7603996
49.370531 -2.498653079e-05 80.66593362
25.452704 -2.498653079e-05 165.4789766
198.02047 -148.7347607 188.5362536
-119.094709 -2.498653079e-05 216.2959766
197.999727 -60.19228341 37.76519762
201.999727 -245.7808602 147.9141236
112.417091 -48.41577639 -9.738490598e-05
-169.023326 -2.498653079e-05 180.0045666
213.693416 -220.2337978 247.9999026
197.999727 -84.94712954 88.64202662
-10.67332 -2.498653079e-05 237.6882986
-220.969322 -2.498653079e-05 153.0477776
205.999727 -81.62541137 218.6830346
-41.030176 -2.498653079e-05 49.95683362
44.311101 -2.498653079e-05 156.4209816
61.524243 -2.498653079e-05 101.7733006
-109.756465 -27.85104611 -9.738490598e-05
-76.252723 -2.498653079e-05 142.4818816
201.999727 -45.96934549 232.6175716
45.628555 -2.498653079e-05 224.1370756
163.191082 -2.498653079e-05 12.59300062
-16.679109 1.259825823 -9.738490598e-05
99.612305 -2.498653079e-05 232.1813126
35.748717 -2.498653079e-05 38.41819862
201.999727 -191.340741 206.9580666
205.999727 -153.5981138 138.0822336
205.999727 -139.9127538 138.4635616
160.947121 -24.25001464 -9.738490598e-05
65.140627 -8.668560997 -9.738490598e-05
-210.02714 -2.498653079e-05 88.14464762
211.952215 -2.498653079e-05 178.9687456
205.999727 -206.1032929 167.5440246
201.999727 -113.3622234 108.3028166
197.999727 -182.4701365 167.0048316
205.999727 -27.54592195 110.5968846
205.999727 -169.3769382 118.6692786
-25.925646 -2.498653079e-05 238.2750556
-170.69478 -2.498653079e-05 46.29762562
-99.482798 -8.946771927 -9.738490598e-05
19.926225 -2.498653079e-05 77.01842062
201.999727 -206.947812 216.9891846
205.999727 -101.9541254 208.1718626
201.999727 -111.2015976 230.7640386
205.999727 -50.37025156 217.5209436
212.320942 -20.44087106 87.99990262
34.470452 -2.498653079e-05 62.81695162
201.999727 -13.40174832 136.0384576
5.438046003 -2.498653079e-05 133.5123336
-166.889439 -2.498653079e-05 146.2267956
201.999727 -223.8514517 223.4080576
201.999727 -26.75487818 153.4303046
210.60829 -244.7244207 91.99990262
-41.084723 -2.498653079e-05 91.26106262
205.999727 -234.626053 224.2792266
208.29267 -2.498653079e-05 116.8192146
-69.972178 -2.498653079e-05 116.6652986
50.280686 -2.498653079e-05 206.4812346
122.901535 -2.498653079e-05 128.8524906
197.999727 -7.267277207 51.46966962
197.999727 -34.6797155 219.6904546
-130.414106 -2.498653079e-05 179.7182906
210.954577 -230.9555329 91.99990262
158.701988 -2.498653079e-05 48.50501062
-73.936725 -32.25166951 -9.738490598e-05
-104.497122 -2.498653079e-05 119.6780876
199.065866 -110.2677222 149.5132756
201.999727 -30.92701757 38.91013562
197.999727 -79.26473675 153.3039226
183.244325 -2.498653079e-05 240.8191566
-96.294353 -2.498653079e-05 137.9105796
111.83267 -1.905502337 -9.738490598e-05
205.999727 -142.2563581 224.5623006
134.560783 -2.498653079e-05 233.1259806
29.435129 -3.524546347 -9.738490598e-05
-114.95836 -2.498653079e-05 193.2839486
-221.944262 -27.22613447 -9.738490598e-05
179.434287 -2.498653079e-05 53.27464562
103.376263 -2.498653079e-05 242.1052866
201.999727 -66.13015638 80.36484762
205.999727 -155.7817225 187.9131106
205.999727 -89.79262953 165.8238026
198.444932 -121.1086819 142.2480056
197.999727 -52.9605888 87.17480262
197.999727 -85.58376993 121.9494826
197.999727 -74.33997909 235.9018136
147.136238 -2.498653079e-05 122.6349816
197.999727 -49.57830241 203.1281606
106.951514 -2.498653079e-05 40.44139862
-155.78844 -2.498653079e-05 55.43898962
214.612019 -40.54064584 -9.738490598e-05
84.272792 -2.498653079e-05 45.06876762
138.410241 -37.64263795 -9.738490598e-05
197.999727 -166.339137 205.9799466
222.853484 -221.1957604 243.9999026
201.999727 -105.8534894 90.01732862
85.334132 -2.498653079e-05 182.5447906
205.999727 -63.63832461 156.9774206
197.999727 -137.270563 201.7790556
93.301808 -44.72565833 -9.738490598e-05
197.999727 -50.48083647 174.1277756
201.999727 -135.2171746 100.0199506
-28.915758 -2.498653079e-05 69.43323762
216.376406 -2.498653079e-05 9.216420615
201.999727 -118.2828182 174.2926466
108.500803 -2.498653079e-05 251.6730076
201.999727 -129.0448788 238.3564006
201.999727 -12.45710068 147.4248666
-102.008179 -2.498653079e-05 214.2814066
35.801786 -2.498653079e-05 174.9825536
61.950317 -2.498653079e-05 239.1096276
201.999727 -9.022195637 192.6483016
1.778151003 -2.498653079e-05 94.56528762
209.570626 -52.78400272 92.04994962
17.291786 -2.498653079e-05 227.9012996
-166.58073 -2.498653079e-05 223.3165346
209.282625 -21.71959696 247.9292046
-33.486722 -7.396926307 -9.738490598e-05
205.999727 -234.1714932 117.4533646
28.310965 -2.498653079e-05 209.7589586
201.999727 -90.00493529 101.0920056
44.252579 -10.34528446 -9.738490598e-05
59.245386 -2.498653079e-05 64.55107562
205.999727 -67.67353 99.50387062
67.948501 -48.45455302 -9.738490598e-05
49.204307 -2.498653079e-05 23.65047062
52.254284 -2.498653079e-05 241.4093536
7.713523003 -2.498653079e-05 9.354567615
-211.162845 -66.07848428 -9.738490598e-05
201.999727 -172.70525 134.2648696
197.999727 -65.76622063 209.6870796
205.999727 -23.57678864 192.0014386
-222.662401 -2.498653079e-05 98.42522062
66.10958 -2.498653079e-05 118.2141046
213.758881 -110.8148675 243.9999026
122.026291 -24.21440419 -9.738490598e-05
149.302085 -2.498653079e-05 223.7320286
48.558411 -2.498653079e-05 2.507325615
201.999727 -156.7097889 128.3700196
196.02777 -2.498653079e-05 131.7306116
-124.794852 -2.498653079e-05 118.9682196
208.735761 -66.53144844 -9.738490598e-05
205.999727 -93.58211993 219.4775756
162.337098 -2.498653079e-05 247.5213276
201.999727 -107.2628746 189.5648776
-50.875299 1.263236633 -9.738490598e-05
201.999906 -223.4452091 240.0017186
197.999727 -41.3209721 194.8382876
197.999727 -28.83876475 163.4708396
-66.783669 -2.498653079e-05 155.3443496
205.152518 -63.31828998 246.3215066
211.216301 -187.0242358 91.99990262
205.999727 -242.1282502 182.6650356
-13.618191 -2.498653079e-05 70.14450062
29.252971 -29.08721623 -9.738490598e-05
20.250225 0.7667071835 -9.738490598e-05
123.796411 -2.498653079e-05 156.0271956
90.513604 -2.498653079e-05 245.4697686
201.999727 -129.6519708 152.2645716
205.999727 -38.32535652 102.6693886
197.999727 -65.36454443 231.8331806
-98.716585 -2.498653079e-05 35.50251262
197.999727 -96.93504621 119.7993556
201.999727 -40.75253251 7.659579615
201.999727 -63.80512064 123.0049616
205.999727 -120.6377609 208.8951946
214.029293 -171.1236973 243.9999026
201.999727 -200.0099574 181.2293346
201.999727 -24.36626405 84.74231962
47.919233 -2.498653079e-05 197.0749326
-165.764418 -2.498653079e-05 158.0207236
201.999727 -19.35578063 175.9276956
62.119903 -2.498653079e-05 211.7413046
70.994282 -2.498653079e-05 158.3093206
70.788238 -2.498653079e-05 170.7451196
-125.49927 -2.498653079e-05 158.0621876
220.547418 -40.22033038 91.99990262
142.551295 -20.87052346 -9.738490598e-05
131.947018 -2.498653079e-05 187.0356766
222.916951 -26.93113234 247.9999026
201.999727 -57.9803742 111.5832916
222.086233 -96.36709884 247.9999026
11.502079 -35.48592457 -9.738490598e-05
-132.150725 -11.23952212 -9.738490598e-05
136.936815 -2.498653079e-05 120.0786546
121.483396 -2.498653079e-05 190.2906466
-214.107056 -2.498653079e-05 198.8365756
141.039342 -2.498653079e-05 218.3721286
197.100341 -17.33603516 -9.738490598e-05
201.999727 -252.071602 169.9226266
201.999727 -11.37225273 63.64445962
-157.39567 -2.498653079e-05 136.5202386
205.999727 -86.59815614 186.4619596
183.336196 -2.498653079e-05 90.43066862
206.178359 -2.498653079e-05 20.40358262
200.683937 -15.10615648 213.1758206
209.544703 -159.7455151 88.04979662
-149.436202 -2.498653079e-05 47.58741862
-43.686909 -2.498653079e-05 71.66960562
146.085222 -4.986573887 -9.738490598e-05
17.556031 -2.498653079e-05 183.8903206
25.439376 -19.31298116 -9.738490598e-05
188.058378 -2.498653079e-05 220.3089346
-52.321899 -2.498653079e-05 170.2372006
-19.499253 -2.498653079e-05 40.50355262
215.410673 -2.498653079e-05 154.1350106
44.844774 -61.56818051 -9.738490598e-05
93.460966 -2.498653079e-05 149.3331336
-67.803004 -2.498653079e-05 249.1781766
-198.062027 -2.498653079e-05 87.43822362
-193.725946 -2.498653079e-05 99.49885062
-162.409577 -45.58424634 -9.738490598e-05
-193.525034 -2.498653079e-05 42.82206062
-6.758135997 -2.498653079e-05 127.4585216
188.482615 -53.44536026 -9.738490598e-05
205.999727 -42.96382202 130.5206646
205.999727 -107.8735272 124.5329066
212.891098 -2.498653079e-05 132.4782376
91.510193 -33.3511356 -9.738490598e-05
197.999727 -57.22629606 154.9311126
24.96487 -2.498653079e-05 42.96570062
201.999727 -7.790085817 162.1940796
197.999727 -73.19018311 200.6138596
-42.66592 -2.498653079e-05 111.8125436
207.316395 -2.498653079e-05 86.10345262
214.923426 -114.7675126 91.99990262
-135.796374 1.795812253 -9.738490598e-05
162.627294 -2.498653079e-05 156.2718346
103.402614 -2.498653079e-05 127.0372996
158.563283 -2.498653079e-05 127.6257766
109.69844 -2.498653079e-05 144.9122876
-138.950421 -2.498653079e-05 165.3892066
133.417978 -2.498653079e-05 32.66950362
201.999727 -241.7556366 136.1040466
167.731682 -2.498653079e-05 212.3397176
204.92394 -205.3906034 89.84945062
211.387722 -133.071367 91.99990262
215.494823 -46.23092533 243.9999026
-58.338805 -2.498653079e-05 206.3178456
-94.522851 -2.498653079e-05 124.1705646
201.999727 -10.55211831 85.44564262
-79.390485 -2.498653079e-05 188.5541176
197.999727 -104.4201071 101.8107126
205.999727 -130.55164 174.0780376
205.999727 -95.28946563 115.3032756
-167.428748 -2.498653079e-05 198.9856266
-42.342187 -2.498653079e-05 132.7123886
-166.902248 -2.498653079e-05 70.89545862
47.595141 -2.498653079e-05 172.1634896
197.999727 -70.34824229 51.23789962
-6.302030997 -2.498653079e-05 224.3092866
205.999727 -105.0454533 146.1992476
195.026747 -27.5986211 -9.738490598e-05
-82.840323 -2.498653079e-05 25.57879562
201.999727 -132.379865 111.8073656
-40.120047 -2.498653079e-05 222.6523346
-208.481697 -26.3614184 -9.738490598e-05
-39.499869 -2.498653079e-05 40.81545162
-157.898803 -2.498653079e-05 118.6460406
-98.240629 -2.498653079e-05 172.1410836
201.999727 -81.24679026 67.08915362
-60.778173 -2.498653079e-05 132.3851576
205.999727 -142.0434199 204.6374426
205.999727 -126.3153436 135.1323916
-134.789837 -2.498653079e-05 97.58810762
-128.208662 -2.498653079e-05 214.7445626
198.332014 -137.6465951 219.9203206
-62.899224 -32.34052723 -9.738490598e-05
205.999727 -122.9154041 157.1337236
-219.904453 -50.31005071 -9.738490598e-05
197.999727 -24.1570636 218.1291186
-183.053547 -5.420946877 -9.738490598e-05
-5.074171997 -53.98742014 -9.738490598e-05
-99.99594 -2.498653079e-05 182.1916976
7.448474003 -2.498653079e-05 230.5901246
201.999727 -116.8732504 223.5377326
145.003845 -2.498653079e-05 242.6378546
205.999727 -21.66435775 167.2246226
205.999727 -97.78617249 189.8243686
-152.075738 -7.589940007 -9.738490598e-05
-66.494336 -2.498653079e-05 169.7416236
82.573447 -2.498653079e-05 11.83882962
110.110887 -2.498653079e-05 72.11179662
156.737315 -2.498653079e-05 234.4109776
-1.980240997 -2.498653079e-05 174.3116596
201.999727 -183.3264402 135.6992006
-189.503609 -2.498653079e-05 115.4710746
-116.929268 1.628816603 -9.738490598e-05
11.486058 -2.498653079e-05 152.1598866
-56.126651 -2.498653079e-05 53.62063162
201.999727 -155.9076339 110.3801866
45.563796 -25.30022728 -9.738490598e-05
197.999727 -40.95870289 172.7070876
197.999727 -34.38046944 84.80717262
-192.16943 -2.498653079e-05 179.9493986
-61.250717 -2.498653079e-05 102.7912496
35.302146 -2.498653079e-05 215.5910336
201.999727 -204.9636735 111.7735006
-162.085562 -2.498653079e-05 110.3620506
-132.804734 -2.498653079e-05 46.56950462
-51.325427 -38.21320548 -9.738490598e-05
95.324906 -2.498653079e-05 102.6573976
197.999727 -42.45285586 49.22906662
-13.977674 -2.498653079e-05 108.8412896
-1.261447997 -2.498653079e-05 150.1354626
151.697799 -2.498653079e-05 64.66122162
205.999727 -161.6164931 145.2672306
208.276321 -121.1893296 243.5693056
201.999727 -8.395853737 229.9054046
197.999727 -58.22314734 99.84373662
212.618337 -29.70409811 87.99990262
197.999727 -73.16685144 114.7592206
63.09489 -2.498653079e-05 48.18974762
38.602433 -2.498653079e-05 93.62684762
90.99644 -2.498653079e-05 236.4727346
205.999727 -59.05720914 236.3942386
197.999727 -99.17022124 109.9251666
-31.328216 -2.498653079e-05 109.4888226
-14.639744 -2.498653079e-05 95.80605562
205.999727 -95.60397553 149.0255456
176.562511 -2.498653079e-05 40.85604562
-81.85605 -2.498653079e-05 126.3226486
205.999727 -63.2090894 228.3575526
-176.675166 -22.05072365 -9.738490598e-05
72.518087 -2.498653079e-05 127.6950126
205.999727 -78.59452803 200.6884576
-128.579657 -2.498653079e-05 234.0151356
197.999727 -46.6954147 103.7805046
-34.757223 -2.498653079e-05 20.75186462
197.999727 -46.06965398 224.6015906
10.895748 -2.498653079e-05 162.4168886
-183.777545 -43.50651475 -9.738490598e-05
197.999727 -156.7651014 196.6705336
205.999727 -40.30176912 224.6286086
196.239621 -2.498653079e-05 226.8573876
-28.021755 -2.498653079e-05 125.4848056
19.068003 -2.498653079e-05 193.3745456
201.999727 -25.14201563 200.7041786
214.320217 -208.9610627 87.99990262
201.999727 -88.46453512 81.48606062
200.835354 -78.13085134 47.88517162
201.999727 -12.27873313 98.11532262
-13.521278 -2.498653079e-05 19.36849462
205.999727 -55.96908659 201.9038896
201.999727 -244.548591 213.4222286
197.999727 -20.00736446 249.6220406
-169.602003 -2.498653079e-05 37.44180062
201.999727 -30.31490045 22.21949762
197.999727 -34.9427995 105.9339716
201.999727 -251.6949744 203.1149216
205.999727 -157.9221533 233.6329086
205.999727 -36.36285961 172.5550876
197.999727 -154.3447367 142.4906286
204.035705 -2.498653079e-05 56.52295262
201.999727 -21.76733462 35.79031962
201.999727 -117.2845205 238.1473646
-137.69357 -2.498653079e-05 185.5042576
197.999727 -100.1565232 152.0941366
56.216112 -2.498653079e-05 138.1518476
154.245493 -2.498653079e-05 104.1200496
201.999727 -158.2245976 157.0779726
205.999727 -43.62529233 180.0583816
-86.078033 -2.498653079e-05 146.0715146
197.999727 -73.99160896 219.2546146
-34.518169 -2.498653079e-05 149.1863676
219.89261 -11.0172357 245.2322166
201.999727 -53.69659122 67.71390862
204.945752 -201.0795118 246.1543676
205.999727 -89.27183657 140.6744326
197.999727 -51.76978662 182.8337336
207.457467 1.408274683 -9.738490598e-05
201.999727 -216.4038286 168.6458186
197.999727 -84.69234132 183.3807716
205.999727 -237.5633947 144.5101976
-50.163057 -9.401403607 -9.738490598e-05
201.999727 -2.572332827 186.7085526
-216.022445 -2.498653079e-05 67.65725762
-20.837368 -2.498653079e-05 214.7904956
201.999727 -197.4980124 196.0896336
-191.402014 -8.717810737 -9.738490598e-05
197.999727 -77.50149821 162.8071406
198.150872 -172.325475 199.6051426
214.393884 -93.99668993 243.9999026
-139.202866 -2.498653079e-05 24.93027162
163.987488 -2.498653079e-05 31.83450762
96.456008 -2.498653079e-05 10.01163262
201.999727 -201.4536373 160.4504776
201.999727 -96.49503489 160.8620986
201.999727 -185.4110224 239.2951866
205.999727 -186.7519902 173.3821286
205.999727 -28.83357954 183.6893606
23.902369 -2.498653079e-05 54.32068362
130.079712 -2.498653079e-05 48.43160962
-181.091738 -2.498653079e-05 97.51679362
201.999727 -71.18743428 61.56668962
205.999727 -55.02355681 135.3903776
197.999727 -128.1334656 220.3032086
-58.384131 -2.498653079e-05 193.4476366
-19.280839 -2.498653079e-05 8.185395615
197.999727 -171.7025437 181.9717276
-211.712545 -2.498653079e-05 45.46732262
53.982946 -44.29288116 -9.738490598e-05
197.999727 -14.21471618 42.33067962
205.999727 -89.82821015 206.9467336
63.989252 -2.498653079e-05 224.6233906
116.707306 -2.498653079e-05 21.90469962
-192.272041 -2.498653079e-05 207.1924586
205.999727 -146.2155189 167.0536306
205.999727 -21.79253992 118.4467436
164.93677 -33.36163684 -9.738490598e-05
197.999727 -50.47985539 243.9970486
201.999727 -171.1819237 221.7185896
-219.761753 -2.498653079e-05 53.91375162
-185.894871 -2.498653079e-05 6.090595615
-86.293509 -2.498653079e-05 172.3142996
119.709078 -2.498653079e-05 201.7669026
203.965283 -2.498653079e-05 108.8819886
198.100122 -157.0557583 174.7739626
178.421564 -2.498653079e-05 164.5624496
208.535638 -191.7212918 243.7163666
-187.938089 -2.498653079e-05 79.55750662
-13.143131 -2.498653079e-05 78.92045562
-170.878127 -2.498653079e-05 8.050066615
142.040431 -2.498653079e-05 60.70059762
-145.49408 -2.498653079e-05 102.2369156
-86.060526 -2.498653079e-05 108.6910986
64.66199 -2.498653079e-05 164.1458096
197.999727 -48.46456472 125.5654356
-85.926527 -2.498653079e-05 6.491184615
25.921888 -2.498653079e-05 185.9056156
175.066349 -2.498653079e-05 69.19203862
205.999727 -101.6216594 178.6650456
206.593415 -41.44803567 247.2069166
205.999727 -96.87803715 96.87139162
-51.954177 -2.498653079e-05 69.32362262
145.735551 -55.66626457 -9.738490598e-05
45.876477 -2.498653079e-05 138.7352256
74.631109 -2.498653079e-05 51.25061062
202.272671 -161.6813676 242.0166566
116.863399 -2.498653079e-05 134.9389176
201.999727 -85.39015023 158.1703416
201.999727 -41.8022189 206.0997036
197.999727 -38.63687193 17.44316862
96.681295 -64.63444224 -9.738490598e-05
201.999727 -209.4371776 237.3916116
201.999727 -136.203486 130.9872196
217.566522 -174.8669202 91.99990262
30.947868 -12.03249863 -9.738490598e-05
132.011259 -2.215396497 -9.738490598e-05
-62.042862 -2.498653079e-05 113.5278216
-221.159836 -11.14428508 -9.738490598e-05
-111.940729 -2.498653079e-05 229.6986756
81.848757 -17.49231829 -9.738490598e-05
215.371025 -133.325988 247.9999026
-147.653068 -2.498653079e-05 9.064692615
205.999727 -80.80946735 168.2461316
-5.362410997 -2.498653079e-05 109.7996776
-47.084383 -68.00002403 -0.008415384906
-135.408531 -2.498653079e-05 202.1685256
216.920596 -235.5165672 87.99990262
-148.372439 -66.00719114 -9.738490598e-05
-27.493539 -45.44276261 -9.738490598e-05
55.113595 -2.498653079e-05 146.6126926
-77.169071 -2.498653079e-05 77.19336762
198.570928 -164.8995015 128.3454826
221.65523 -63.5488335 247.9999026
205.999727 -110.4481951 156.0313446
218.349742 -86.56110982 91.99990262
-149.310135 -2.498653079e-05 119.0867226
20.969965 -2.498653079e-05 205.4903336
-102.518553 -2.498653079e-05 9.825654615
15.91627 -2.498653079e-05 174.5699246
76.873697 -35.56037702 -9.738490598e-05
-21.817994 -2.498653079e-05 31.46024362
213.476205 -2.498653079e-05 232.4831276
205.999727 -112.4695989 211.1364466
198.988125 -85.22236931 235.3640046
197.999727 -23.8834684 237.0781246
-161.039535 -2.498653079e-05 230.3316866
-70.362873 -0.7264393665 -9.738490598e-05
-128.792489 -2.498653079e-05 140.0074156
205.999727 -79.37019711 149.9222686
197.999727 -48.69827664 111.9838876
148.568448 -2.498653079e-05 17.12329062
-78.932351 -2.498653079e-05 240.1641926
198.67213 -14.4621024 122.3731176
205.613159 -225.2345378 117.4999026
205.999727 -46.69894119 97.42990162
201.999727 -168.9465663 189.5849666
201.999727 -54.9585052 18.36909162
-191.737264 -2.498653079e-05 60.95944662
197.999727 -79.03387715 98.77497862
205.999727 -147.5530059 191.3169826
2.739024003 -5.406491077 -9.738490598e-05
146.634237 -2.498653079e-05 178.7039276
105.576662 -2.498653079e-05 161.9892926
205.999727 -231.3552878 98.76868762
-96.512838 -2.498653079e-05 75.20034562
205.999727 -27.82954584 160.7266756
205.999727 -197.2533249 223.3005556
-143.293542 -2.498653079e-05 205.4838786
205.999727 -198.8557491 98.43317162
201.999727 -190.9912665 179.4873196
197.999727 -90.72219665 191.0504596
214.315477 -65.55627195 243.9999026
222.094168 -2.498653079e-05 101.9467796
-14.179188 -2.498653079e-05 134.0665996
101.920593 -21.11494274 -9.738490598e-05
197.999727 -168.0540746 171.8646256
27.502456 -41.07517984 -9.738490598e-05
197.999727 -109.9230191 141.2247066
124.704904 -51.56418153 -9.738490598e-05
205.087674 -84.03977508 246.2686086
-49.25746 -2.498653079e-05 158.0022086
-153.305545 -32.58099163 -9.738490598e-05
121.179493 -2.498653079e-05 104.6106656
164.605379 -2.498653079e-05 92.86063562
201.999727 -216.555357 154.2961656
-173.622531 -2.498653079e-05 247.0447856
69.089704 -2.498653079e-05 77.79132662
-145.642204 -2.498653079e-05 141.5823526
-59.191825 -2.498653079e-05 149.5855416
211.717991 -2.498653079e-05 248.4874936
-3.609645997 -2.498653079e-05 40.04185462
197.999727 -99.63784567 208.4776916
-179.299267 -2.498653079e-05 44.15739162
213.850469 -146.0783492 91.99990262
205.999727 -180.1169906 116.9860786
55.576646 -2.498653079e-05 93.87731662
-191.082144 -51.10618838 -9.738490598e-05
9.479600003 -21.23648286 -9.738490598e-05
-110.328899 -2.498653079e-05 165.5276436
197.999727 -40.25834776 57.24884662
-68.218392 -2.498653079e-05 90.52022462
205.999727 -54.69502552 210.4258786
197.999727 -166.0434926 143.7959776
197.999727 -93.58578803 177.6189096
201.999727 -148.0255319 112.9868436
197.999727 -37.48878045 92.50146762
205.999727 -228.7600691 129.2669456
-144.539063 -2.498653079e-05 240.6945716
-0.06431999653 -2.498653079e-05 18.55557662
157.829829 -40.63910488 -9.738490598e-05
205.999727 -199.5729994 137.7159786
41.462358 -2.498653079e-05 130.7883436
-167.028326 -2.498653079e-05 24.45464062
197.999727 -65.75877037 171.2953626
197.999727 -16.32037327 107.2998666
28.642103 -2.498653079e-05 137.1371186
205.999727 -70.51496415 138.9437796
205.999727 -221.9231781 209.8297746
-106.47962 -2.498653079e-05 149.7691756
201.999727 -4.683519437 127.2759326
71.862725 0.1614888835 -9.738490598e-05
205.999727 -76.41360723 126.7571296
205.999727 -75.42963069 180.3667056
221.210908 -2.498653079e-05 147.4013906
-211.04714 -2.498653079e-05 230.6830416
-13.921232 -54.54219438 -9.738490598e-05
197.999727 -61.54722734 131.8011506
201.999727 -11.37220705 5.352140615
214.449876 -204.5823742 243.9999026
135.179526 -2.498653079e-05 94.10316862
205.999727 -210.1178226 197.4054276
175.150559 -2.498653079e-05 151.3996886
176.759872 -2.498653079e-05 83.26823862
-179.216328 -2.498653079e-05 166.7673406
205.999727 -24.06819299 96.88985162
205.999727 -33.1815781 206.1237936
219.866512 -150.713547 243.9999026
220.748671 -73.50617899 91.99990262
202.066415 -213.8809571 95.32647162
63.46803 -2.498653079e-05 23.85507562
-174.200393 -2.498653079e-05 106.9661876
197.999727 -102.8337078 166.7348346
206.89833 -37.89952913 -9.738490598e-05
206.371966 -239.8820391 241.6804316
197.999727 -23.71582953 52.69185262
31.634374 -2.498653079e-05 6.997356615
201.999727 -29.3969353 5.418758615
3.020067003 -2.498653079e-05 204.4444016
197.999727 -30.11699312 45.92940562
205.999727 -156.5844885 219.7738356
197.999727 -71.02250528 97.48421862
-128.2968 -40.23100275 -9.738490598e-05
-182.298344 -2.498653079e-05 217.3073906
129.143284 -40.2537567 -9.738490598e-05
-18.089251 -2.498653079e-05 63.37710662
205.999727 -6.517053317 179.4654666
196.280446 -2.498653079e-05 80.69908462
201.999727 -8.618466247 208.4975146
218.03327 -220.6557027 87.99990262
56.658607 -2.498653079e-05 165.4047866
-171.289841 -2.498653079e-05 125.1680266
155.961566 -2.498653079e-05 202.5767056
218.870851 -238.7422738 243.9999026
-58.247061 -50.76337453 -9.738490598e-05
205.999727 -18.9428057 236.1542206
201.999727 -162.8532079 121.3176246
-49.089791 -2.498653079e-05 92.37156362
79.930319 -2.498653079e-05 35.49738962
205.999727 -115.1307194 184.7429956
142.906642 -2.498653079e-05 104.0401326
197.999727 -38.1567513 248.0497876
205.999727 -118.7080745 101.6702456
201.633448 -70.37225156 32.21346562
-76.934889 -2.498653079e-05 103.1049796
8.581742003 -2.498653079e-05 89.37455762
-167.166639 -7.700008327 -9.738490598e-05
184.90187 -2.498653079e-05 201.1209966
197.999727 -101.8215164 177.9113236
205.999727 -209.2776699 147.0931636
-79.452748 -39.71401624 -9.738490598e-05
91.567718 -2.498653079e-05 194.6030306
-205.073259 -2.498653079e-05 119.3105786
65.574454 -2.498653079e-05 200.2418876
194.158968 -2.498653079e-05 235.6194806
205.999727 -215.0655866 189.4791476
149.522173 -15.01098842 -9.738490598e-05
-86.97029 -2.498653079e-05 206.1985996
-159.57918 -37.56207348 -9.738490598e-05
-99.670207 -2.498653079e-05 160.4843206
51.283581 -56.39090964 -9.738490598e-05
-51.42316 -2.498653079e-05 252.0545866
201.999727 -0.7356353465 35.92985162
205.999727 -69.03755359 162.8591656
-89.875732 -2.498653079e-05 227.5402316
205.999727 -242.7169547 98.19505862
151.832331 -2.498653079e-05 111.9150946
136.031147 -65.4444284 -9.738490598e-05
198.828786 -85.72688776 60.34910162
109.733716 -2.498653079e-05 51.16225662
-175.017479 -2.498653079e-05 159.0452776
-124.872138 -2.498653079e-05 12.94316162
216.446791 -160.1492393 91.99990262
66.308191 -39.43406848 -9.738490598e-05
-123.513514 -2.498653079e-05 175.7522356
24.424119 -2.498653079e-05 128.1909276
-126.399146 -20.79855268 -9.738490598e-05
149.68806 2.088172143 -9.738490598e-05
155.257083 -2.498653079e-05 12.36103862
25.205629 -2.498653079e-05 227.2941116
197.999727 -27.25601494 71.69239562
-132.987856 -2.498653079e-05 244.4937636
164.049042 -60.34459108 -9.738490598e-05
-196.60487 -2.498653079e-05 134.0443956
-213.336842 -2.498653079e-05 118.2182016
205.999727 -237.9110831 217.0672466
205.999727 -234.5185198 186.5380226
205.999727 -139.6583701 115.4314666
7.615404003 -46.75605948 -9.738490598e-05
96.603824 -2.498653079e-05 59.83928662
-199.302039 -2.498653079e-05 32.93391362
205.999727 -34.54402676 219.1172736
205.999727 -15.0059516 114.3438026
-176.851368 -2.498653079e-05 181.1074506
-40.671107 -17.20967344 -9.738490598e-05
205.999727 -134.99379 227.6708626
203.250533 -241.4601175 118.7433496
177.564292 -17.23034703 -9.738490598e-05
204.180208 -2.498653079e-05 135.3464346
201.999727 -74.59584107 242.9962306
108.961448 -2.498653079e-05 7.094734615
205.999727 -113.7934392 119.3293706
197.999727 -66.98354535 242.6732496
30.06998 -62.08838792 -9.738490598e-05
-187.935622 -25.75467488 -9.738490598e-05
-183.474426 -2.498653079e-05 153.8316956
143.097729 -2.498653079e-05 150.2631966
-219.413714 -2.498653079e-05 134.7862886
161.269786 -2.498653079e-05 173.6074956
205.999727 -41.43838918 118.0481046
-163.11101 -57.70617614 -9.738490598e-05
-215.194947 -2.498653079e-05 182.6033316
205.999727 -47.5223177 151.1394786
216.874838 -2.498653079e-05 242.5218306
201.999727 -138.4130107 179.9911606
197.999727 -99.07699456 195.8712666
222.870221 -55.20117396 91.99990262
201.999727 -143.5993886 126.1149926
-181.783595 -31.55639881 -9.738490598e-05
