# .PCD v0.7 - Point Cloud Data file format
VERSION 0.7
FIELDS x y z
SIZE 4 4 4
TYPE F F F
COUNT 1 1 1
WIDTH 1183
HEIGHT 1
VIEWPOINT 0 0 0 1 0 0 0
POINTS 1183
DATA ascii
-454.5417859 -2.49858702e-05 139.8801336
-464.0675769 -2.49858702e-05 39.12226561
-251.1238649 -2.49858702e-05 79.49432061
408.5072661 -0.3513661359 -9.738562858e-05
-148.2100519 -2.49858702e-05 48.41513161
-47.37760287 67.99997498 -1.117629386
-141.7020789 17.73798088 -9.738562858e-05
-289.1489879 -2.49858702e-05 89.98444061
140.5918331 -2.49858702e-05 54.89343361
185.8580521 -2.49858702e-05 252.2828906
-434.2851869 -2.49858702e-05 53.03438561
350.5507081 -2.49858702e-05 16.85100861
-112.5121339 -1.247487356 -9.738562858e-05
143.8762141 67.99997498 -1.863160386
335.0421381 -2.49858702e-05 6.513693614
-254.7556289 -2.49858702e-05 179.3929896
308.6125341 -2.49858702e-05 103.9870976
134.0894371 -2.49858702e-05 124.3425376
-99.24855687 -2.49858702e-05 186.0930986
67.27638013 -2.49858702e-05 237.8669766
544.0004571 37.28981288 69.79401361
-163.9685049 -2.49858702e-05 250.1675196
312.1330121 -2.49858702e-05 20.15131461
66.43444013 -2.49858702e-05 199.1417716
-403.4316989 -2.49858702e-05 149.2650346
-224.7517899 37.93427578 -9.738562858e-05
381.9138021 -2.49858702e-05 174.6213156
-295.9222539 -2.49858702e-05 201.3720726
204.6998821 53.83458868 -9.738562858e-05
515.4879331 11.88049816 -9.738562858e-05
315.8372861 -2.49858702e-05 41.17394961
470.7140181 -2.49858702e-05 142.7755336
455.3214501 -2.49858702e-05 160.7039806
532.3238031 -2.49858702e-05 151.1423426
521.0552181 -2.49858702e-05 94.39836261
226.2864091 -2.49858702e-05 156.6830316
244.0890051 -2.49858702e-05 201.2753196
-65.50801787 -2.49858702e-05 56.60835961
281.6383791 -2.49858702e-05 116.5872026
-22.63439487 38.28951398 -9.738562858e-05
490.6450651 -2.49858702e-05 14.63351561
562.6370731 -2.49858702e-05 78.03130761
-383.3014949 -1.028006496 -9.738562858e-05
-337.3661279 -2.49858702e-05 204.2867216
223.3558691 -2.49858702e-05 1.149743614
283.1602831 -2.49858702e-05 43.29836961
-272.5596969 -2.49858702e-05 147.4624336
105.8529171 -2.49858702e-05 110.2757586
-197.8399129 -2.49858702e-05 241.5610056
-119.2619699 62.70124518 -9.738562858e-05
-422.6523689 -2.49858702e-05 138.7444076
237.1829111 34.01266508 -9.738562858e-05
-368.3442139 -2.49858702e-05 172.5259816
104.6431191 -2.49858702e-05 48.18007661
370.1275101 66.27216688 -9.738562858e-05
94.93032513 -2.49858702e-05 176.2234046
-82.23647187 -2.49858702e-05 190.3450236
-29.39571987 -2.49858702e-05 31.62219561
32.90118513 67.99997498 -0.4646713856
6.393220131 -2.49858702e-05 67.48346361
-154.6277949 -2.49858702e-05 70.70525261
-240.9057119 57.73955648 -9.738562858e-05
362.4032801 28.52760098 -9.738562858e-05
-82.71465787 46.29238858 -9.738562858e-05
-199.9527039 -2.49858702e-05 137.0506746
-378.3029869 31.46766928 -9.738562858e-05
-276.6541119 16.57045108 -9.738562858e-05
548.7111201 -2.49858702e-05 23.73827361
-489.0089549 -2.49858702e-05 130.0187396
-181.3455399 -2.49858702e-05 10.69058361
471.2787681 -2.49858702e-05 174.6950196
-445.8503899 -2.49858702e-05 201.7015346
-347.1183379 53.12715328 -9.738562858e-05
550.0004571 19.96867988 200.7402356
8.055333131 -2.49858702e-05 212.1961416
530.4515401 -2.49858702e-05 65.95491761
-174.7490559 -2.49858702e-05 128.8724056
247.0894201 -2.49858702e-05 34.08456061
-333.4381329 -2.49858702e-05 151.7074366
159.8797261 -2.49858702e-05 119.3446146
-64.77607687 50.13679818 -9.738562858e-05
550.0004571 16.10271728 96.05054061
135.8401611 -1.141944916 -9.738562858e-05
-444.8287169 -2.49858702e-05 36.17831361
454.9909801 -2.49858702e-05 194.5909126
550.0004571 33.68552538 238.2717396
57.88825313 -1.503712736 15.47723161
-542.7623429 67.99997498 -1.748363386
470.4757911 21.88304048 -9.738562858e-05
524.3705111 -2.49858702e-05 168.5792316
-565.6616399 -2.49858702e-05 29.31813661
550.0004571 35.17736358 179.4246486
-551.6040449 -2.49858702e-05 42.10328061
487.5000971 -2.49858702e-05 144.2153776
-230.2173089 -2.49858702e-05 154.7106226
-106.1638189 -2.49858702e-05 106.5181056
553.4099461 -2.49858702e-05 41.10084961
371.9360571 -2.49858702e-05 85.40196361
-83.81373987 -2.49858702e-05 216.0877686
285.4804941 -2.49858702e-05 236.1124626
404.8706241 56.06673998 -9.738562858e-05
-317.7026249 -2.49858702e-05 225.4367426
-60.75350787 -2.49858702e-05 18.19123161
-126.7710799 -2.49858702e-05 130.2095706
-403.2786939 -2.49858702e-05 26.06796561
276.8738791 67.99997498 -0.2911573856
-508.7390659 -2.49858702e-05 248.8664356
-315.9062849 -2.49858702e-05 188.1374586
549.3039381 -2.49858702e-05 110.8728326
-185.8117159 -2.49858702e-05 43.29340561
313.1385781 -2.49858702e-05 145.6932806
-534.4654719 -2.49858702e-05 10.18559961
370.6747491 -2.49858702e-05 204.9647036
557.4944491 -2.49858702e-05 219.4754986
-470.6521789 -2.49858702e-05 250.3742736
550.8589791 -1.764686006 -9.738562858e-05
550.0004571 15.35697078 70.70107061
-37.41445087 -2.49858702e-05 126.5219716
-350.7017909 18.64151428 -9.738562858e-05
528.0255981 -2.49858702e-05 203.1199106
-23.55256587 -2.49858702e-05 201.5546936
-501.9469989 -2.49858702e-05 209.8262056
544.0004571 49.81370048 210.9190826
-398.8872779 -2.49858702e-05 80.92908961
-122.4184219 -2.49858702e-05 53.14748361
-436.4598379 -2.49858702e-05 236.7609666
-181.9121009 -2.49858702e-05 230.3616256
325.3674111 -2.49858702e-05 173.1254106
100.4001021 -2.49858702e-05 129.1445726
496.3532221 -2.49858702e-05 66.03134861
343.3255401 -2.49858702e-05 181.3061756
-350.5371129 -2.49858702e-05 61.00325161
-567.9473549 65.30197878 -9.738562858e-05
288.1696211 20.06047018 -9.738562858e-05
407.5057791 -2.49858702e-05 36.70313561
274.7898601 -2.49858702e-05 207.1751576
-2.207950869 -2.49858702e-05 118.0266376
-228.6571859 -2.49858702e-05 232.0494846
-350.2432629 -2.49858702e-05 174.5487976
347.9404261 -2.49858702e-05 32.98428261
34.50045713 -1.858341796 75.12579761
-279.6453099 -2.49858702e-05 202.9319106
205.3942171 -2.49858702e-05 151.7670696
186.3549041 -2.49858702e-05 216.2189876
-41.66463287 -2.49858702e-05 105.2997366
49.67870713 -2.49858702e-05 51.58153161
-232.5301999 -2.49858702e-05 248.7706166
464.1126011 -2.49858702e-05 43.96119661
-562.4824369 -2.49858702e-05 202.0795086
-92.41868187 -2.49858702e-05 152.6091126
223.6059811 -2.49858702e-05 222.6976246
426.4545701 -2.49858702e-05 66.55871761
-72.88230487 16.10753928 -9.738562858e-05
-297.8654329 -2.49858702e-05 228.4455586
-324.6958629 -2.49858702e-05 169.0885526
41.77494913 -2.49858702e-05 179.0712376
48.94859413 35.23714198 -9.738562858e-05
544.0004571 32.66838418 146.1915426
460.9039881 -2.49858702e-05 96.97510161
93.23995713 -2.49858702e-05 19.32222261
35.46811513 -2.49858702e-05 162.3394716
-506.2006779 5.189069794 -9.738562858e-05
-247.1541179 -2.49858702e-05 206.5650706
-223.5804289 -2.49858702e-05 49.13907261
-176.0145359 -2.49858702e-05 158.2718276
-456.7810049 -2.49858702e-05 227.3802646
147.3287761 -2.49858702e-05 29.51985261
-266.3995899 -2.49858702e-05 16.71473161
-440.8246199 27.28190758 -9.738562858e-05
531.1786551 -2.49858702e-05 112.6940306
41.42520213 6.387230384 -9.738562858e-05
407.7081681 -2.49858702e-05 128.4803946
-320.7430829 -2.49858702e-05 137.9560506
-265.9880859 -2.49858702e-05 247.2152676
-270.9579759 -2.49858702e-05 180.0143456
-541.2418749 -2.49858702e-05 246.9592146
12.30869313 25.12897148 -9.738562858e-05
-214.3928449 10.71790332 -9.738562858e-05
-525.1015959 -2.49858702e-05 228.4664356
-475.9437739 -2.49858702e-05 0.5492376144
-432.3864509 -2.49858702e-05 10.24346961
436.4478841 67.99997498 -0.06872638563
101.3315911 -2.49858702e-05 86.09673561
-484.0503909 -2.49858702e-05 87.96746961
-430.9621739 -2.49858702e-05 207.0962216
-319.2450529 -2.49858702e-05 101.1415256
259.3827471 -2.49858702e-05 224.8342366
178.8047151 -2.49858702e-05 78.42759661
-243.4104979 -2.49858702e-05 223.2462406
551.6830131 22.56843908 -9.738562858e-05
-356.4221769 -2.49858702e-05 144.1915456
-221.0668129 -2.49858702e-05 179.4895506
-286.2334559 -2.49858702e-05 8.856418614
-348.3759369 -2.49858702e-05 237.4572126
467.6822231 -2.49858702e-05 73.90883361
-380.9501949 -2.49858702e-05 188.0208336
-200.6972619 -2.49858702e-05 107.8058736
544.0004571 33.86101268 196.4717606
-167.1323359 39.12252018 -9.738562858e-05
-133.0951829 -2.49858702e-05 96.10275461
169.5053081 3.852031484 -9.738562858e-05
213.0491461 -2.49858702e-05 125.1954546
-126.8783689 -2.49858702e-05 75.70547561
438.7992991 -2.49858702e-05 21.05574361
-403.5741819 53.90900348 -9.738562858e-05
-143.0988509 -2.49858702e-05 129.2757796
-547.0445339 -2.49858702e-05 148.6403406
54.36995113 -2.49858702e-05 82.79454061
-549.1033459 -2.49858702e-05 103.0343206
-159.6347709 -2.49858702e-05 168.7207876
398.4312561 -2.49858702e-05 91.31276461
-568.1548279 48.42710178 -9.738562858e-05
-212.4667609 -2.49858702e-05 166.5328426
171.7562651 -2.49858702e-05 44.89230961
-483.9545859 62.31013878 -9.738562858e-05
-215.1208949 -2.49858702e-05 35.96327461
257.0053751 -2.49858702e-05 142.8742316
-333.7109169 -2.49858702e-05 33.66038961
-426.9907339 -2.49858702e-05 121.2825906
58.53235913 -2.49858702e-05 152.3670186
-239.3623779 -2.49858702e-05 92.99982561
550.0004571 15.87758188 128.1899036
475.0340971 -2.49858702e-05 210.4789386
266.5809051 -2.49858702e-05 62.61448261
75.52878413 -2.49858702e-05 250.8031936
438.1666551 -2.49858702e-05 217.6284546
-332.7302629 -2.49858702e-05 115.6470696
18.19990513 41.04893978 -9.738562858e-05
-345.4928929 -2.49858702e-05 85.48202961
31.81865013 -2.49858702e-05 136.3249796
314.1321471 -2.49858702e-05 202.7573956
-540.0994279 -2.49858702e-05 215.3960586
511.5229051 -2.49858702e-05 231.5673986
371.8995631 -1.875004466 -9.738562858e-05
-467.7529519 -2.49858702e-05 147.9410486
-120.3004979 -2.49858702e-05 229.4345426
566.6052321 19.24169128 -9.738562858e-05
369.3034241 -2.49858702e-05 141.1763776
-445.5696819 -2.49858702e-05 118.0004086
152.4127621 -2.49858702e-05 65.08939661
-309.6157099 16.65669668 -9.738562858e-05
-14.84687587 -2.49858702e-05 65.96418461
10.89518613 -2.49858702e-05 44.26987861
168.7541661 41.92030338 -9.738562858e-05
-68.97998487 -2.49858702e-05 129.6861026
456.7453681 -2.49858702e-05 122.2429156
551.0978911 -2.49858702e-05 89.07437361
493.7248791 60.98120278 -9.738562858e-05
-491.8903349 -2.49858702e-05 231.2908556
131.4557891 34.68673578 -9.738562858e-05
-155.3561729 9.001210094 -9.738562858e-05
242.6900831 -2.428292376 -9.738562858e-05
437.1042101 24.61406008 -9.738562858e-05
-433.0472069 -2.49858702e-05 89.73908861
313.8436261 -2.49858702e-05 245.4052536
563.0205671 -2.49858702e-05 163.4205086
314.0292771 66.65686208 -9.738562858e-05
-369.3243319 -2.49858702e-05 7.991081614
121.0078061 -2.49858702e-05 67.12460861
-379.8245139 -2.49858702e-05 236.9256646
296.9833841 -2.49858702e-05 51.57603061
148.7993681 -2.49858702e-05 217.6255036
290.9896171 -2.49858702e-05 79.09413161
289.9377971 -2.49858702e-05 13.40893261
-41.45801187 -2.49858702e-05 155.7824786
145.6363811 11.05526711 -9.738562858e-05
489.6240821 -2.49858702e-05 217.0720266
-140.2442589 -2.49858702e-05 214.4808146
492.4004111 -2.49858702e-05 80.53182061
-36.38426487 -2.49858702e-05 239.5199826
-28.56384287 67.99997498 -1.335459386
544.0004571 14.35609578 213.2272836
461.6404401 35.11244188 -9.738562858e-05
14.56647213 -2.49858702e-05 164.3786616
-336.5191369 5.175017334 -9.738562858e-05
-172.9611129 -2.49858702e-05 70.45808461
-560.2950459 10.75826148 -9.738562858e-05
-88.98384787 -2.49858702e-05 43.82333661
-536.2271339 -2.49858702e-05 130.3623606
-291.6643909 67.99997498 -2.398125386
-499.0983409 -2.49858702e-05 17.99011961
-313.8219479 35.35610958 -9.738562858e-05
469.2973011 -2.49858702e-05 190.4264386
235.6948801 -2.49858702e-05 236.8205866
376.7948341 -2.49858702e-05 67.95585461
-5.546074869 19.61771208 -9.738562858e-05
-41.87161987 5.421598844 -9.738562858e-05
-319.4705989 -2.49858702e-05 83.09271361
534.3394071 -2.49858702e-05 29.35616861
505.2988931 -2.49858702e-05 161.5615766
533.3644531 -2.49858702e-05 189.4328876
-550.7726599 -2.49858702e-05 14.89053461
250.6984591 -2.49858702e-05 237.2102016
-315.5795759 67.99997498 -2.342408386
426.9648671 47.81881968 -9.738562858e-05
344.5303681 -2.49858702e-05 217.6264186
127.5525771 -2.49858702e-05 143.8477986
-17.58658787 -2.49858702e-05 8.997865614
-228.6408309 -2.49858702e-05 22.06860461
178.7299171 -2.49858702e-05 234.9697256
-108.7501129 -2.49858702e-05 82.19738261
56.05044113 -2.49858702e-05 181.9552206
45.20507313 -2.49858702e-05 211.3092206
253.5273241 -2.49858702e-05 16.81389061
-170.4993269 21.52503648 -9.738562858e-05
127.7520241 -2.49858702e-05 187.1006506
-11.70129587 -2.49858702e-05 190.7437056
550.0004571 15.49755548 169.1440606
-150.6638489 67.99997498 -0.9677443856
394.5004571 -2.250407656 116.9095256
260.3316101 -2.49858702e-05 249.9652976
-91.81891587 -2.49858702e-05 28.40440961
-215.1219429 -2.49858702e-05 214.1370686
381.6992551 57.23208148 -9.738562858e-05
-254.5402149 -2.49858702e-05 94.84004261
-454.0294619 61.17601438 -9.738562858e-05
-133.7914679 -2.49858702e-05 197.3658396
-229.9848869 -0.2867678059 -9.738562858e-05
-383.2064479 -2.49858702e-05 48.70241061
-25.78090787 -2.49858702e-05 96.37083661
414.4600021 -2.49858702e-05 161.1904456
28.51841313 -2.49858702e-05 191.5129716
-319.3499289 -2.49858702e-05 250.2183386
171.0486271 -2.49858702e-05 109.4093696
544.0004571 48.48196978 41.47521961
480.3522591 -2.49858702e-05 237.0083206
-505.5959499 -2.49858702e-05 104.7273736
397.9770151 -2.49858702e-05 209.2529746
-533.1873499 -2.49858702e-05 160.4270056
445.9695171 6.732333994 -9.738562858e-05
164.9107901 -2.49858702e-05 57.99984661
-512.4266459 -2.49858702e-05 177.4390546
-367.3479239 -2.49858702e-05 65.47521861
-35.72278487 -2.49858702e-05 70.78280261
-447.9633729 -2.49858702e-05 92.49778161
79.77664313 12.17691418 -9.738562858e-05
544.0004571 35.78653278 225.4135486
-224.8248109 -2.49858702e-05 105.5484206
333.8765341 -2.49858702e-05 109.2114546
-60.06142887 -2.49858702e-05 88.53348761
-550.1544699 -2.49858702e-05 184.0525276
264.1993381 44.62074348 -9.738562858e-05
292.1875561 51.53158648 -9.738562858e-05
119.3340121 -2.49858702e-05 206.6492216
-239.7518209 -2.49858702e-05 143.1829226
-232.6530589 -2.49858702e-05 64.62987361
-52.37365287 -2.49858702e-05 212.6981656
125.7467791 50.33336968 -9.738562858e-05
208.0119051 39.44445678 -9.738562858e-05
228.7298361 -2.49858702e-05 251.0768396
532.9198701 -2.49858702e-05 85.10969161
38.26130713 20.31354708 -9.738562858e-05
95.60244413 -2.49858702e-05 158.8250146
63.44943513 -2.49858702e-05 71.78381861
326.3384641 11.77651824 -9.738562858e-05
387.4758601 -2.49858702e-05 142.1097026
229.3575201 -2.49858702e-05 33.57389061
-5.894206869 -2.49858702e-05 37.32896661
-555.2894469 34.69081878 -9.738562858e-05
374.9298181 -2.49858702e-05 105.6850646
515.4627741 44.52036058 -9.738562858e-05
-557.1896579 -2.49858702e-05 231.9614326
-431.9775229 -2.49858702e-05 25.21097561
404.5479411 -2.49858702e-05 78.55081361
-52.73775087 -2.49858702e-05 50.51413061
356.4734231 -2.49858702e-05 85.66057061
-389.2171319 -2.49858702e-05 207.4700596
-179.3347119 67.99997498 -2.361749386
356.6545601 -2.49858702e-05 173.8999376
138.8760631 -2.49858702e-05 40.81706361
5.098513131 -2.49858702e-05 142.0365156
335.9811281 67.99997498 -0.07516738563
-165.1392089 -2.49858702e-05 187.5366626
-369.0373009 -2.49858702e-05 85.06189961
235.9342461 16.67952328 -9.738562858e-05
381.0804451 -2.49858702e-05 40.31681361
-354.7235779 -2.49858702e-05 115.8220766
-519.2076689 -2.49858702e-05 58.02387261
541.3058581 34.01699388 -9.738562858e-05
-40.68672087 27.50903968 -9.738562858e-05
-363.1394589 -2.49858702e-05 37.26522561
-299.8192429 -2.49858702e-05 75.13737561
422.8143441 -2.49858702e-05 233.2045956
-166.5684429 -2.49858702e-05 231.2433936
550.0004571 6.198518284 155.2842826
-509.6725029 67.99997498 -1.522452386
399.3880701 -2.49858702e-05 187.4477646
307.9511501 -2.49858702e-05 118.3214396
-469.5074239 30.93582748 -9.738562858e-05
408.2275351 -2.49858702e-05 248.8102096
549.6123341 49.99997498 70.54616161
518.8250671 -2.49858702e-05 130.7682496
-77.13690787 59.01370838 -9.738562858e-05
-101.8895939 67.99997498 -2.294574386
-271.4653299 52.06475748 -9.738562858e-05
-75.04849587 -2.49858702e-05 92.61784761
166.5671151 -2.49858702e-05 160.8950536
438.1970531 -2.49858702e-05 174.2309716
-133.1220009 -2.49858702e-05 177.3543306
-280.8404649 -2.49858702e-05 103.2909266
103.0431811 -2.49858702e-05 228.1332566
550.0004571 27.78337288 25.43495361
-83.49549787 -2.49858702e-05 74.04626561
227.0172611 -2.49858702e-05 194.0754006
548.5872671 -2.49858702e-05 125.3918876
348.7533731 -2.49858702e-05 151.7607896
-22.12533287 -2.49858702e-05 238.3633566
24.54441313 -2.49858702e-05 101.0828716
76.29533713 -2.49858702e-05 187.5724746
204.7434151 -2.49858702e-05 245.5695356
512.8929221 -2.49858702e-05 35.86055461
452.1827911 -2.49858702e-05 227.7128616
-545.7976169 45.26911438 -9.738562858e-05
48.69141813 -2.49858702e-05 239.3149656
-465.3089829 -2.49858702e-05 195.4300636
492.0683761 -2.49858702e-05 157.9319576
-478.5562819 -2.49858702e-05 119.9577196
25.57015313 -2.49858702e-05 19.37861261
118.8830571 -2.49858702e-05 229.4582736
241.0433151 -2.49858702e-05 78.07909061
374.0936861 -2.49858702e-05 250.3064846
38.29714013 -2.49858702e-05 28.00186461
417.5248401 -0.4633928359 18.83104561
-86.53431387 16.93939058 -9.738562858e-05
84.54385213 -2.49858702e-05 213.9878106
544.0004571 42.82117238 155.2873866
257.1907131 -2.49858702e-05 119.5947466
97.69050313 40.87252618 -9.738562858e-05
319.3122571 -2.49858702e-05 75.11796561
345.2111771 53.59658478 -9.738562858e-05
32.38101513 50.36055648 -9.738562858e-05
-415.5834139 -2.49858702e-05 212.2212616
-306.6740179 -2.49858702e-05 111.8031996
-177.9959369 8.205642934 -9.738562858e-05
71.86655413 -2.49858702e-05 157.1741546
-259.1093109 28.12599678 -9.738562858e-05
-415.4181549 -2.49858702e-05 195.8704316
416.1754011 -2.49858702e-05 99.27036061
354.1972011 -2.49858702e-05 202.3193386
520.8335971 -2.49858702e-05 56.41028261
-519.6970339 -2.49858702e-05 138.8644126
508.5927211 -2.49858702e-05 12.32779161
347.7876851 -2.49858702e-05 65.04113161
515.2540221 -2.49858702e-05 198.6733976
550.0004571 46.66852938 126.5592896
178.5182191 -2.49858702e-05 138.6434486
-210.2308439 64.48408348 -9.738562858e-05
384.1260201 -2.49858702e-05 55.20775061
483.4528721 -2.49858702e-05 27.21541761
525.5987061 33.49467658 -9.738562858e-05
-485.6209739 -2.49858702e-05 198.8012936
-459.8395299 -2.49858702e-05 74.97758761
-284.9567179 35.20166068 -9.738562858e-05
-198.5324319 -2.49858702e-05 74.36244161
-58.43612487 -2.49858702e-05 187.3406216
83.91411413 -2.49858702e-05 58.02384561
550.0004571 7.379015704 239.0538706
64.00605713 28.26992568 -9.738562858e-05
105.3397801 67.99997498 -0.9313653856
438.0121301 -2.49858702e-05 143.4569246
402.2015931 32.00409258 -9.738562858e-05
-122.2413359 -2.49858702e-05 110.6165826
-156.4942929 -2.49858702e-05 211.5251626
544.0004571 43.63852088 100.4289676
169.5441501 17.26625168 -9.738562858e-05
343.5532171 -2.49858702e-05 250.5783256
-12.21237087 -2.49858702e-05 150.6005206
-438.9355109 -2.49858702e-05 145.0320206
487.6811341 -1.104460156 -9.738562858e-05
-102.3356909 -2.49858702e-05 9.716290614
-69.90354587 -2.49858702e-05 231.7391866
154.4519981 -2.49858702e-05 247.6012156
324.6780201 41.01930678 -9.738562858e-05
-98.05290287 -2.49858702e-05 140.4777806
-302.9398139 -2.49858702e-05 251.6742616
249.5738081 49.93001438 -9.738562858e-05
-493.1268389 44.25819618 -9.738562858e-05
-222.0807839 21.63681678 -9.738562858e-05
-59.97912087 28.15997338 -9.738562858e-05
206.4289271 -2.49858702e-05 232.2588836
494.4746891 -2.49858702e-05 189.8184256
333.3383141 -2.49858702e-05 62.41266161
-202.2494829 -2.49858702e-05 94.15145261
87.77035213 -2.49858702e-05 135.4634046
461.3457481 11.07920359 -9.738562858e-05
-227.7730649 -2.49858702e-05 202.5374266
125.9058381 -2.49858702e-05 173.9522256
373.5534381 -2.49858702e-05 186.2027146
-416.6155249 -2.49858702e-05 150.7035726
-55.94048187 -2.49858702e-05 172.5601326
-221.2107369 -2.49858702e-05 134.1812826
500.7999211 -2.49858702e-05 105.1969006
-73.32853187 -2.49858702e-05 148.8953776
526.2078891 -2.49858702e-05 236.4481326
-337.3652099 33.53120028 -9.738562858e-05
195.9868701 -2.49858702e-05 183.5932716
-352.2981099 -2.49858702e-05 192.0853186
168.8801541 67.99997498 -0.6763153856
304.3893821 -2.49858702e-05 187.5860306
-189.8592069 57.06437658 -9.738562858e-05
97.38562113 -2.49858702e-05 0.8146106144
568.3517591 -2.49858702e-05 41.79818561
256.4254611 -2.49858702e-05 163.1767886
243.0247971 -2.49858702e-05 187.3617846
-414.6133949 -2.49858702e-05 235.8016406
-568.0796659 0.2499750141 -1.360801386
154.8375091 -2.49858702e-05 172.7073906
236.2770421 -2.49858702e-05 144.2937056
345.6524021 7.160897164 -9.738562858e-05
231.6623981 -2.49858702e-05 107.7138316
-129.1272689 54.07486828 -9.738562858e-05
303.5167141 -2.49858702e-05 211.3171886
308.3613771 12.84264548 -9.738562858e-05
-271.2362299 -2.49858702e-05 33.56955161
544.0081211 11.98090543 -9.738562858e-05
73.25254213 59.62156578 -9.738562858e-05
-16.57964787 -2.49858702e-05 172.2131806
219.9732511 -2.49858702e-05 175.8229896
92.32108013 -2.49858702e-05 76.65837761
264.1057981 -2.49858702e-05 89.34141261
199.3061641 67.99997498 -2.374671386
-18.43149787 12.53696458 -9.738562858e-05
212.0884851 -2.49858702e-05 14.04581961
-58.95920387 -2.49858702e-05 2.364305614
-480.3386219 -2.49858702e-05 74.78283961
-412.9332459 -2.49858702e-05 52.09706961
-260.7289589 -2.49858702e-05 5.044625614
-441.3934899 -2.49858702e-05 65.99587861
-133.3132129 -2.49858702e-05 23.36008161
-292.9534509 -2.49858702e-05 240.4298286
-478.0265549 46.26739908 -9.738562858e-05
42.80350913 -2.49858702e-05 125.5947916
-264.5384059 -2.49858702e-05 124.0775526
-424.8784059 -2.49858702e-05 171.2907446
272.5016971 -2.49858702e-05 50.62315661
-447.3930309 -2.49858702e-05 4.833043614
-495.7919009 -2.49858702e-05 53.49362261
-470.5722949 -2.49858702e-05 220.8698606
467.8331501 -2.49858702e-05 11.63311861
-519.1036299 13.12530398 -9.738562858e-05
-460.8141969 -2.49858702e-05 18.44713561
248.6609161 -2.49858702e-05 52.53969261
152.8437251 -2.49858702e-05 204.5455716
30.44458713 -2.49858702e-05 4.105027614
327.5084301 -2.49858702e-05 200.0267146
-3.138474869 -2.49858702e-05 102.6779866
276.3725951 -2.49858702e-05 94.39389661
-86.71482487 -2.49858702e-05 3.009816614
544.0004571 24.92381698 135.0624506
544.0004571 12.63374648 82.69987661
8.425955131 51.09815198 -9.738562858e-05
-481.4112729 -2.49858702e-05 171.4077926
-35.22860987 40.76653698 -9.738562858e-05
-231.6199499 48.76456908 -9.738562858e-05
257.8440551 -2.49858702e-05 76.23269661
-279.5660719 -2.49858702e-05 116.9611546
-281.4663719 -2.49858702e-05 79.31548661
-301.7463399 -2.49858702e-05 160.1615236
212.0338651 -2.49858702e-05 43.67309061
-246.9075429 19.54415758 -9.738562858e-05
149.3937511 -2.49858702e-05 189.1379566
-530.3514649 -2.49858702e-05 27.54111161
326.7772631 -2.49858702e-05 159.3496626
-375.3963819 -2.49858702e-05 199.5267406
550.0004571 36.23910068 57.50728961
-413.5863949 45.98334948 -9.738562858e-05
193.5470241 -2.49858702e-05 6.056334614
283.8527451 0.3148340841 -9.738562858e-05
-399.8008919 -2.49858702e-05 12.65470461
-304.2498789 -2.49858702e-05 216.1417396
218.7656351 55.68049938 -9.738562858e-05
-555.3485789 -2.49858702e-05 118.5990086
386.2488121 -2.49858702e-05 236.5933356
383.4262161 -2.49858702e-05 90.84509561
128.2765801 -2.49858702e-05 84.16806761
70.56778813 -2.49858702e-05 120.8550356
544.0004571 11.03062284 191.6967606
265.0596961 -2.49858702e-05 185.7612516
524.2515971 67.99997498 -0.3253393856
34.85390113 -2.49858702e-05 56.50962861
-97.63646287 -2.49858702e-05 215.7722196
-357.8104149 -2.49858702e-05 130.9251676
544.0004571 38.30318148 87.04235761
-395.6415589 -2.49858702e-05 135.2866106
-96.04160487 -2.49858702e-05 65.12677661
-365.8083269 33.29761268 -9.738562858e-05
-282.3032399 -2.49858702e-05 39.63740361
173.3261001 -2.49858702e-05 190.3956986
-442.2718489 -2.49858702e-05 189.6074016
147.0427151 40.15092988 -9.738562858e-05
513.5607551 -1.037304176 -9.738562858e-05
-4.752992869 -2.49858702e-05 12.19993761
-29.02460587 -2.49858702e-05 44.20969261
197.5638841 -2.49858702e-05 33.71680461
-45.91753787 49.80552778 -9.738562858e-05
180.7776361 53.00306148 -9.738562858e-05
544.0004571 46.01740468 16.02158761
263.5986451 -2.49858702e-05 212.8565736
115.1193221 -2.49858702e-05 79.01353861
11.51885813 -2.49858702e-05 81.41994061
361.3157741 -2.49858702e-05 233.1582636
-306.6443029 -2.49858702e-05 142.2797376
-302.2967209 -2.49858702e-05 34.03877061
-465.6175609 47.92036518 -9.738562858e-05
115.5047561 13.57347758 -9.738562858e-05
-105.0859009 -2.49858702e-05 172.6212806
447.7596171 -2.49858702e-05 65.85108861
24.50437213 -2.49858702e-05 239.3519566
374.2072531 -2.49858702e-05 219.5366176
53.76320913 -2.49858702e-05 135.7002286
545.4698241 49.99997498 181.1703856
-426.4276379 11.88777932 -9.738562858e-05
-511.2925899 50.22656238 -9.738562858e-05
-298.6605569 -2.49858702e-05 9.541988614
-563.9659799 -2.49858702e-05 163.1855076
130.0435231 -2.49858702e-05 242.0866936
544.0004571 35.85357798 168.5819766
401.7813291 -2.49858702e-05 103.3768086
25.90418713 21.24866188 -9.738562858e-05
-127.4152089 31.13189338 -9.738562858e-05
-207.5848809 -2.49858702e-05 11.34803061
-539.3566009 -2.49858702e-05 40.31071561
-74.98488487 -2.49858702e-05 207.4242856
280.9114101 -2.49858702e-05 183.1392016
-323.9989029 -2.49858702e-05 214.8013076
-256.8033499 -2.49858702e-05 51.83223961
292.7087391 -2.49858702e-05 139.0733476
-179.5635089 -2.49858702e-05 53.93081361
-198.1765329 -2.49858702e-05 150.8026886
-399.9112429 -2.49858702e-05 110.5933986
-129.7956869 1.567986814 -9.738562858e-05
22.78663113 -2.49858702e-05 126.8291446
-73.67892287 -2.49858702e-05 66.59820861
-43.60208087 -1.950971466 193.0562866
88.11261513 22.32289318 -9.738562858e-05
486.3577491 -2.49858702e-05 109.6404526
-495.0981179 -2.49858702e-05 156.3359146
-321.9870019 54.22709628 -9.738562858e-05
245.3007601 -2.49858702e-05 98.01741061
563.4731231 49.18951138 -9.738562858e-05
269.7960901 30.99899408 -9.738562858e-05
544.0004571 29.61535558 249.9709546
50.87228613 -2.49858702e-05 108.7976316
-15.42025787 -2.49858702e-05 45.04931961
200.3681921 -2.49858702e-05 47.44856161
-435.5163599 -2.49858702e-05 249.0010366
437.8733331 -2.49858702e-05 110.8460596
-382.4089649 -2.49858702e-05 175.8721356
-246.3223279 -2.49858702e-05 24.40713361
211.3460311 -2.49858702e-05 77.36719261
196.1067181 -2.49858702e-05 61.29279361
-102.1715659 -2.49858702e-05 160.5299606
461.1777791 -2.49858702e-05 133.6283266
79.33346113 -2.49858702e-05 202.9484966
-323.5698499 -2.49858702e-05 24.07458861
444.6150531 -2.49858702e-05 188.1778746
-246.1093239 -2.49858702e-05 130.3073146
-350.3304619 -2.49858702e-05 30.70307161
471.1456171 -2.49858702e-05 53.89945761
215.9119521 30.18968498 -9.738562858e-05
-537.6372869 54.28649608 -9.738562858e-05
-467.4626919 -2.49858702e-05 54.69243261
-144.9570419 -2.49858702e-05 153.8165616
424.4146301 -2.49858702e-05 170.6529266
466.4991931 67.99997498 -0.5559663856
235.3849491 48.17886698 -9.738562858e-05
-145.3112339 -2.49858702e-05 17.67403661
188.2183981 -2.49858702e-05 86.38221361
277.4394341 -2.49858702e-05 227.0250506
-452.8228749 -2.49858702e-05 171.2021256
-96.72064387 -2.49858702e-05 236.6627276
264.0055811 -2.49858702e-05 28.41117061
-117.0483809 -2.49858702e-05 167.6766546
1.648493131 -2.49858702e-05 223.6920346
-314.2145959 -2.49858702e-05 55.29848261
-439.0536819 44.29962108 -9.738562858e-05
550.0004571 29.94641838 114.2970016
-148.2106669 -2.49858702e-05 236.6306936
168.4120761 -2.49858702e-05 206.3584496
559.1184241 -2.49858702e-05 189.2185506
-201.8997629 -2.49858702e-05 123.3476456
536.4031391 -2.49858702e-05 55.45048561
18.22949213 -2.49858702e-05 115.6498666
-428.1298939 -2.49858702e-05 37.25475361
369.7750301 -2.49858702e-05 164.1200096
149.7369991 -2.49858702e-05 84.86545461
-52.19380987 -2.49858702e-05 79.39208661
-169.2581219 -2.49858702e-05 33.74990061
-309.6358189 47.74304998 -9.738562858e-05
-343.1645939 -2.49858702e-05 10.06722761
413.9538961 -2.49858702e-05 71.02794861
331.7657131 -2.49858702e-05 86.18700661
-94.52924787 -2.49858702e-05 101.0704146
-4.309355869 -2.49858702e-05 72.94022861
-141.4565009 -2.49858702e-05 104.7287276
-522.9935419 -2.49858702e-05 152.5422346
-239.4012179 -2.49858702e-05 238.7923276
437.5918031 -2.49858702e-05 87.89052361
-552.9583389 20.26098688 -9.738562858e-05
545.6358421 -2.49858702e-05 217.5260126
113.7793541 -2.49858702e-05 136.0107116
298.7752881 -2.49858702e-05 199.4410106
-158.3670679 -2.49858702e-05 17.65837861
403.8462221 67.99997498 -0.05762938563
-321.9017689 -2.49858702e-05 198.8692746
-152.2897429 -2.49858702e-05 7.256058614
184.2713551 -2.49858702e-05 113.5656826
-512.9795459 -2.49858702e-05 8.958781614
480.8696861 -2.49858702e-05 77.38523661
-295.5741329 -2.49858702e-05 62.00580861
-208.5001439 -2.49858702e-05 203.8499936
-489.7800359 -2.49858702e-05 25.44585461
-493.8694119 -2.49858702e-05 182.5088646
155.3832361 65.46236488 -9.738562858e-05
-78.54671287 -2.49858702e-05 171.7598576
-64.29372687 -2.49858702e-05 141.1098496
537.5986761 -2.49858702e-05 241.1303636
44.81702813 67.99997498 -0.07187438563
-255.5986329 -2.49858702e-05 231.3049546
504.8444331 -2.49858702e-05 76.82015461
-15.48715487 26.16192468 -9.738562858e-05
556.9553461 -2.49858702e-05 15.15755661
324.5344151 -2.49858702e-05 12.09410461
-272.2468319 -2.49858702e-05 218.9161876
-312.0519259 -2.49858702e-05 166.0946646
245.5289051 -2.49858702e-05 169.9107706
369.0477661 9.651455844 -9.738562858e-05
-557.4334619 -2.49858702e-05 88.41319361
-197.9332689 -2.49858702e-05 189.5500286
-566.3779359 -2.49858702e-05 138.2643966
79.55893313 -2.49858702e-05 88.56485161
306.0699551 -2.49858702e-05 59.13316461
-400.8725409 -2.49858702e-05 53.23334861
561.2195251 -2.49858702e-05 247.9996716
203.9724421 -2.49858702e-05 194.9370496
197.4691251 -2.49858702e-05 162.4895906
137.6716531 19.76318398 -9.738562858e-05
161.7155721 -2.49858702e-05 10.18812661
235.0145671 -2.49858702e-05 67.93938661
-416.9917449 -2.49858702e-05 183.0564026
78.75500313 -2.49858702e-05 235.1628106
-246.4691639 -2.49858702e-05 152.8704386
565.5338751 -2.49858702e-05 114.4236526
204.6143251 16.11351068 -9.738562858e-05
421.2015291 -2.49858702e-05 127.3663066
385.5613131 -2.49858702e-05 11.32226461
-492.8243399 -2.49858702e-05 118.9039036
-460.6249009 -2.49858702e-05 102.6587276
-178.6530409 -2.49858702e-05 86.05012861
-389.2192599 -2.49858702e-05 147.9020026
-474.4182869 -2.49858702e-05 207.7240466
-558.0568769 -2.49858702e-05 5.683165614
94.57718813 -2.49858702e-05 204.5891356
507.8829501 -2.49858702e-05 173.0127996
-208.6871029 -2.49858702e-05 82.63039261
-110.5499969 -2.49858702e-05 210.1243296
466.1655431 -2.49858702e-05 156.2381406
452.6211651 42.78381528 -9.738562858e-05
550.0004571 37.46684078 135.4975216
-461.0843859 -2.49858702e-05 129.3504216
-176.6923919 32.34503958 -9.738562858e-05
393.8546261 9.893774554 -9.738562858e-05
-260.3199319 42.37013378 -9.738562858e-05
-323.6973619 -2.49858702e-05 12.37053661
357.0274161 55.88679938 -9.738562858e-05
-287.9286349 19.68106348 -9.738562858e-05
157.0045541 -2.49858702e-05 131.2173976
445.9829351 -2.49858702e-05 153.6700426
430.0406281 -2.49858702e-05 193.1394436
341.8304001 -2.49858702e-05 131.8812616
550.0004571 13.28796088 42.17723761
487.1805101 48.48637218 -9.738562858e-05
527.3970071 11.03294055 -9.738562858e-05
-424.1368099 -2.49858702e-05 107.1661726
410.0897121 -2.49858702e-05 182.8659986
-373.4938379 -2.49858702e-05 21.51863061
4.150726131 -2.49858702e-05 30.41858161
327.2136381 -2.49858702e-05 43.61900061
293.9013241 39.38143588 -9.738562858e-05
550.0004571 3.996919204 99.97450961
405.9848681 43.07731668 -9.738562858e-05
427.7769491 36.22838908 -9.738562858e-05
113.9754101 -2.49858702e-05 37.12813861
469.3938191 -2.49858702e-05 89.05200661
217.0026381 -2.49858702e-05 87.83744861
-57.10545287 -2.49858702e-05 35.34503061
59.38469913 -2.49858702e-05 93.62048161
-186.6915669 -1.363764326 -9.738562858e-05
-408.6912129 -2.49858702e-05 101.0625526
-467.5657389 -2.49858702e-05 9.013342614
390.5573771 24.49404828 -9.738562858e-05
183.4544801 -0.2134768759 -9.738562858e-05
21.66629513 -2.49858702e-05 48.57129961
-456.1603179 13.65047188 -9.738562858e-05
550.0004571 26.88291898 71.96096161
532.7942021 -2.49858702e-05 176.5357496
-361.0045289 1.054526514 -9.738562858e-05
-103.5256639 19.18052298 -9.738562858e-05
102.4727361 -2.49858702e-05 99.21384861
-43.47334887 -2.49858702e-05 58.19905961
70.38216913 -2.49858702e-05 61.25312761
125.2658901 -2.49858702e-05 14.75275961
-238.2110559 -2.49858702e-05 46.23389961
58.88477213 -2.49858702e-05 215.4596856
436.7533261 54.16065438 -9.738562858e-05
-449.7496639 35.41484018 -9.738562858e-05
-397.6414209 -2.49858702e-05 171.0189156
218.3522241 -2.49858702e-05 68.20596561
-509.3136739 -2.49858702e-05 81.34710561
-414.7569669 -2.49858702e-05 78.80576961
565.9464351 -2.49858702e-05 89.25857261
-423.4827169 -2.49858702e-05 60.97290861
119.7183371 32.65516048 -9.738562858e-05
358.5781971 -2.49858702e-05 53.35229561
-528.8689879 -2.49858702e-05 82.30420461
158.5573381 13.90925408 -9.738562858e-05
-530.1170279 -2.49858702e-05 190.3102426
555.7458631 -2.49858702e-05 175.2418586
-513.5461159 -2.49858702e-05 93.92140561
501.5384441 -2.49858702e-05 220.2458446
155.9925511 -2.249955946 -9.738562858e-05
534.2490051 -2.49858702e-05 218.8643696
-400.3227379 64.90201978 -9.738562858e-05
-542.0827479 -2.49858702e-05 72.79100161
104.2564551 -2.49858702e-05 198.2001806
-389.7485649 31.87808968 -9.738562858e-05
-342.5738619 -2.49858702e-05 108.2012816
95.46727213 -2.49858702e-05 217.3622106
7.673716131 -2.49858702e-05 95.43625161
157.5537161 44.63924138 -9.738562858e-05
501.9396031 -2.49858702e-05 150.6551446
313.3404051 -2.49858702e-05 89.43484961
-532.6589789 -2.49858702e-05 238.9056806
411.9492961 -2.49858702e-05 218.0568026
-150.8132609 -2.49858702e-05 190.4846436
-380.7028299 13.73287388 -9.738562858e-05
-187.1441239 -2.49858702e-05 72.54676061
-165.8434619 -2.49858702e-05 199.9598076
-385.9386769 -2.49858702e-05 103.5341046
454.6280051 -0.6084992259 -9.738562858e-05
83.62583013 -2.49858702e-05 175.3716276
-121.9191689 -2.49858702e-05 38.33711261
312.4150601 -2.49858702e-05 218.3285626
291.9581541 -2.49858702e-05 164.0800976
558.8625091 -2.49858702e-05 51.03300461
198.0082371 -2.49858702e-05 142.0059456
332.0065821 -2.49858702e-05 186.9911256
544.0004571 40.09036148 32.30149461
182.2662491 -2.49858702e-05 22.99593961
193.5179491 -2.49858702e-05 97.79270461
62.65616713 -2.49858702e-05 227.5412976
-128.9020739 -2.49858702e-05 151.4273596
-147.6190919 -2.49858702e-05 60.68910261
125.0122381 7.461847344 -9.738562858e-05
-389.5371149 -2.49858702e-05 31.49610261
232.5799611 -2.49858702e-05 205.5776726
287.3110831 -2.49858702e-05 126.3529796
373.7422301 -2.49858702e-05 130.7923456
401.8274921 -2.49858702e-05 138.0976976
504.5269651 -2.49858702e-05 183.7698216
-79.38113087 -2.49858702e-05 117.7424926
-399.8109379 -2.49858702e-05 219.5921636
-16.34619187 -2.49858702e-05 33.14660761
-241.7077459 4.747239574 -9.738562858e-05
383.5513351 -2.49858702e-05 115.7712456
370.3511131 -2.49858702e-05 36.99059661
-92.10372687 -2.49858702e-05 226.4256916
-331.8204679 -2.49858702e-05 139.7851826
-491.1371549 -2.49858702e-05 99.14051761
550.0004571 43.43783848 217.9217486
298.8897371 -2.49858702e-05 111.7276966
-551.1872209 -2.49858702e-05 53.29870961
524.6674091 -2.49858702e-05 0.9634456144
-252.0358239 -2.49858702e-05 68.17011461
-123.8391349 -2.49858702e-05 190.0145986
274.0971781 -2.49858702e-05 140.9154006
373.1178791 -2.49858702e-05 152.2661566
-52.93777087 -2.49858702e-05 199.6708196
448.7646411 -2.49858702e-05 47.18421261
95.69783113 -2.49858702e-05 118.0365116
-13.32938687 -2.49858702e-05 118.9908396
-509.8555099 -2.49858702e-05 159.4047156
138.1865691 -2.49858702e-05 18.12876461
-410.7965729 -2.49858702e-05 140.8793806
-264.0312649 -2.49858702e-05 209.8521566
-48.94277487 -2.49858702e-05 96.86925261
-185.7519029 -2.49858702e-05 176.0206076
373.2600881 -2.49858702e-05 18.34955261
-546.0738579 -2.49858702e-05 125.1754056
-32.15926387 -2.49858702e-05 176.0810846
249.8753161 64.68062548 -9.738562858e-05
-195.3406849 -2.49858702e-05 37.55857961
257.1810891 -2.49858702e-05 98.04029461
397.2334471 -2.49858702e-05 6.256672614
-447.1777759 -2.49858702e-05 233.8729226
138.2189581 -2.49858702e-05 190.7837536
-520.5651499 -2.49858702e-05 33.22703861
544.0004571 18.55608618 20.65492661
-199.9779739 23.25353018 -9.738562858e-05
399.0055371 -2.49858702e-05 242.6560646
153.9280131 -2.49858702e-05 144.4921116
43.46410813 -2.49858702e-05 84.76662661
-345.3539209 -2.49858702e-05 74.40336161
136.8737081 -2.49858702e-05 152.3661066
482.3102701 8.580762194 -9.738562858e-05
-169.8700429 -2.49858702e-05 94.77580761
558.9769591 -2.49858702e-05 137.6547466
443.6836791 -2.49858702e-05 250.8054906
-511.8051029 -2.49858702e-05 204.8355586
34.50045713 -1.705421006 209.2090586
-480.8974269 -2.49858702e-05 63.29201661
-457.9037819 -2.49858702e-05 85.84351561
299.7414501 -2.49858702e-05 20.67573461
-387.7166889 -2.49858702e-05 91.84478961
296.3009751 -2.49858702e-05 238.2569506
234.8600901 -2.49858702e-05 163.6117886
7.301869131 -2.49858702e-05 56.49895061
-565.4490359 -2.49858702e-05 108.4846516
-297.0484579 43.16708708 -9.738562858e-05
-338.8805589 -2.49858702e-05 162.0879796
-464.4094459 -2.49858702e-05 235.3197216
535.3648781 -2.49858702e-05 140.1331996
-241.6416159 42.62766128 -9.738562858e-05
260.6002151 -0.5583760859 -9.738562858e-05
-402.1631519 18.71290898 -9.738562858e-05
62.89023013 13.19861008 -9.738562858e-05
-9.840690869 -2.49858702e-05 230.6988196
34.93305313 -2.49858702e-05 106.3465866
189.0009611 32.63990488 -9.738562858e-05
-376.0019999 -2.49858702e-05 56.99078361
-404.2166109 -2.49858702e-05 91.03579161
17.71753513 -2.49858702e-05 72.35902061
550.0004571 39.22674898 247.7451016
461.1602741 -2.49858702e-05 234.0090156
56.98400413 -1.288042296 204.5427156
467.5264331 -2.49858702e-05 124.2133546
559.7621271 -2.49858702e-05 66.98196661
144.7821761 -2.49858702e-05 121.9482436
544.0004571 24.78424388 236.0956956
298.3610171 -2.49858702e-05 91.42649061
-144.8618329 49.76485038 -9.738562858e-05
-520.0102569 -2.49858702e-05 242.0896536
-208.0221509 -2.49858702e-05 237.5541466
-391.2017129 6.542749344 -9.738562858e-05
-210.7379309 -2.49858702e-05 138.8849846
544.0004571 7.089862914 132.3281206
-112.0290599 -2.49858702e-05 187.9420856
495.0261101 -2.49858702e-05 52.27375861
-530.6748569 24.70268878 -9.738562858e-05
-377.8295319 -2.49858702e-05 128.0761216
544.0004571 4.496741924 44.58635961
-191.6159629 -2.49858702e-05 221.4141166
-116.4185589 52.16753178 -9.738562858e-05
550.0004571 10.27757664 178.7240896
-105.4962879 -2.49858702e-05 132.5336896
374.3955971 42.72376268 -9.738562858e-05
9.901220131 7.104850954 -9.738562858e-05
-188.4212699 -2.49858702e-05 108.4580686
-63.27696487 -2.49858702e-05 45.98416061
232.7413861 5.332142264 -9.738562858e-05
313.8929471 -2.49858702e-05 134.8684486
-165.6025799 57.15536758 -9.738562858e-05
17.03306213 -2.49858702e-05 196.5760986
-507.9780379 -2.49858702e-05 39.84673661
-11.18581887 -2.49858702e-05 201.5778316
-375.2085699 53.38334288 -9.738562858e-05
165.1834701 -2.49858702e-05 232.9644156
225.2157611 -2.49858702e-05 23.55967961
334.7462621 -2.49858702e-05 51.40703061
-335.3806739 50.42871558 -9.738562858e-05
47.63540613 -0.1721021259 22.52515761
-499.7171579 -2.49858702e-05 242.8814966
337.5522421 15.51905098 -9.738562858e-05
-20.89761287 60.48346288 -9.738562858e-05
-506.6931679 -2.49858702e-05 66.95567861
-181.4097869 -2.49858702e-05 185.9245806
-346.9872279 -2.49858702e-05 223.7626796
-391.2291829 -2.49858702e-05 235.8575936
-434.8886799 59.21707238 -9.738562858e-05
308.2680761 -2.49858702e-05 173.3205406
-6.593532869 -2.49858702e-05 164.7762456
72.68984813 47.94006938 -9.738562858e-05
544.0004571 26.60512088 47.04486161
105.1112671 -2.49858702e-05 16.56149861
174.4523291 -2.49858702e-05 148.6254746
-360.4732099 23.18725388 -9.738562858e-05
-320.5551229 -2.49858702e-05 239.5124186
95.78000113 -2.49858702e-05 238.3506756
568.2297301 -2.49858702e-05 220.2796086
150.4218831 55.90868498 -9.738562858e-05
-286.3641669 -2.49858702e-05 176.6478766
302.3806671 -2.49858702e-05 42.26762061
-150.3816749 -2.49858702e-05 163.1058206
-237.0998229 -2.49858702e-05 103.5124166
-516.7138639 -2.49858702e-05 128.5359586
-541.8608069 18.39003748 -9.738562858e-05
-223.7283709 -2.49858702e-05 123.7377936
-46.73147087 -0.5568422959 26.76577161
390.5398551 51.14596168 -9.738562858e-05
-179.0444149 57.54730348 -9.738562858e-05
-292.7312499 -2.49858702e-05 18.47244261
288.2693551 -2.49858702e-05 108.0542246
494.5974171 8.551991814 -9.738562858e-05
-556.1091929 -2.49858702e-05 155.7315496
-194.8765119 9.652939734 -9.738562858e-05
288.2795811 65.99079658 -9.738562858e-05
545.3432571 49.99997498 239.8178586
84.25968813 -2.49858702e-05 26.98858861
269.3551351 7.143449294 -9.738562858e-05
-472.1545819 -2.49858702e-05 31.36005561
-37.89988387 -2.49858702e-05 250.1113936
76.92784513 -2.49858702e-05 15.41040761
322.0185461 -2.49858702e-05 116.1940246
193.8393341 -2.49858702e-05 208.6184056
316.0714021 -2.49858702e-05 234.9740406
44.72166613 -2.49858702e-05 155.0959316
552.3751131 33.26100458 -9.738562858e-05
-244.3251389 -2.49858702e-05 183.7439646
554.7795751 -2.49858702e-05 148.0742516
-336.1156389 -2.49858702e-05 193.3136956
-531.2692929 -0.5285973259 -9.738562858e-05
-276.6258209 -2.49858702e-05 92.53512561
-3.922911869 -2.49858702e-05 210.8661726
227.7611541 -2.49858702e-05 132.2165886
550.0004571 7.238108974 223.9387676
-266.1586199 -2.49858702e-05 134.5537196
-567.6609569 -2.49858702e-05 59.93595961
365.9359041 -2.49858702e-05 243.2801166
-500.9084439 26.83798448 -9.738562858e-05
-25.98874287 -2.49858702e-05 153.3307806
-225.4048029 -2.49858702e-05 38.45977161
-533.9654739 -2.49858702e-05 105.7357926
239.3327891 -2.49858702e-05 26.90787361
-169.3622169 -2.49858702e-05 23.19213261
-344.6588269 -2.49858702e-05 21.80046261
-377.3191929 -2.49858702e-05 68.93890161
-108.2196529 -2.49858702e-05 240.4697376
40.79521713 43.99727278 -9.738562858e-05
416.7754451 -2.49858702e-05 193.2943426
426.9633871 -2.49858702e-05 14.16478961
543.5749161 -2.49858702e-05 14.54721061
-263.1504239 -2.49858702e-05 100.8944316
540.4009271 48.77318688 -9.738562858e-05
171.9983981 -2.49858702e-05 29.23529861
381.1847761 -2.49858702e-05 205.5983676
554.5854291 -2.49858702e-05 233.1320486
-523.4006229 -2.49858702e-05 174.7268726
-224.9913449 10.26803446 -9.738562858e-05
137.7580901 -2.49858702e-05 162.8278256
-410.8772689 5.475773654 -9.738562858e-05
-223.8596449 -2.49858702e-05 70.41500661
-309.6228129 -2.49858702e-05 131.0709826
-526.0738099 -2.49858702e-05 199.9969176
-288.2654649 -2.49858702e-05 122.8251866
364.0803331 -2.49858702e-05 110.1107586
-567.3711329 -2.49858702e-05 176.0409496
-423.9178419 -2.49858702e-05 83.89116561
-510.8661649 -2.49858702e-05 51.68357761
269.6722911 -2.49858702e-05 19.10418261
-93.37961987 44.36936698 -9.738562858e-05
162.2182381 -2.49858702e-05 150.8907676
-279.5275789 -2.49858702e-05 49.72980461
550.0004571 22.37337148 106.0388456
-424.6993879 -2.49858702e-05 96.68880861
-175.0904469 -2.49858702e-05 139.3272266
-378.8209899 -2.49858702e-05 149.3678006
550.0004571 31.26898688 95.28376561
-454.8665519 -2.49858702e-05 195.0178226
-214.5334069 -2.49858702e-05 107.3481886
174.6162881 -2.49858702e-05 225.0534566
250.3116711 -2.49858702e-05 209.6641666
-70.09785787 -2.49858702e-05 189.4526416
-122.2880359 -2.49858702e-05 63.58372361
371.7251211 23.83401808 -9.738562858e-05
-138.1942399 -2.49858702e-05 186.4736886
461.3186621 -2.49858702e-05 221.7063786
123.8866681 -2.49858702e-05 133.4231276
-25.30350187 -2.49858702e-05 71.30732261
-79.79032187 8.290382334 -9.738562858e-05
101.0840051 -2.49858702e-05 167.6954746
413.5207261 -2.49858702e-05 171.5723906
73.45162213 -2.49858702e-05 36.01034761
-143.5597219 -2.49858702e-05 71.55319461
218.9902471 -2.49858702e-05 164.0995336
544.0004571 17.29250188 61.80043661
-388.7984909 -2.49858702e-05 125.8962456
-517.8398429 42.14596758 -9.738562858e-05
-157.4179299 -2.49858702e-05 87.90352961
-347.1059349 63.50935648 -9.738562858e-05
309.7151161 -2.49858702e-05 6.107537614
-12.54399587 -2.49858702e-05 79.26148061
309.1485861 -2.49858702e-05 33.24448061
-293.4517579 -2.49858702e-05 211.4450326
550.0004571 41.13164788 187.9141636
-219.5383069 0.3795533941 -9.738562858e-05
500.3707341 -2.49858702e-05 18.64014261
-144.7434509 -2.49858702e-05 93.26542661
550.0004571 9.596751554 206.2590236
516.9433011 55.90925388 -9.738562858e-05
-345.2698829 -2.49858702e-05 148.6632216
132.7114391 -2.49858702e-05 102.0238586
-361.9115109 -2.49858702e-05 161.4514306
-74.19301587 -2.49858702e-05 108.8120916
-233.2183889 -2.49858702e-05 12.81058461
0.7943041312 -2.49858702e-05 185.7858336
176.7018231 -2.49858702e-05 162.8512496
243.4958221 9.629944994 -9.738562858e-05
427.8126961 -2.49858702e-05 107.8914096
421.8808501 6.158266074 -9.738562858e-05
24.85204613 -2.49858702e-05 163.8828786
-400.4639249 -2.49858702e-05 241.1699366
-262.6822899 -2.49858702e-05 74.05918961
438.4350801 -2.49858702e-05 42.19314361
-360.6449839 -2.49858702e-05 198.7783776
120.7224941 -2.49858702e-05 56.84537361
281.7272051 -2.49858702e-05 72.89165861
-198.5511339 38.00294098 -9.738562858e-05
519.2265401 -2.49858702e-05 159.0401256
-469.0690119 -2.49858702e-05 108.8876016
-248.7338749 -2.49858702e-05 35.52288861
-27.21764687 -2.49858702e-05 216.2770296
-158.2235659 -2.49858702e-05 50.58129361
509.2414871 -2.49858702e-05 99.30128861
393.5221841 -2.49858702e-05 151.9600166
550.0004571 25.02750888 172.8823916
247.7199051 -2.49858702e-05 123.4786906
-202.0823109 -2.49858702e-05 250.8681646
333.7337401 -2.49858702e-05 211.6945566
550.0004571 37.40960598 22.03205561
222.2571071 -2.49858702e-05 13.12951461
558.8267021 63.24636688 -9.738562858e-05
348.5216611 -2.49858702e-05 238.7693186
188.4074641 -2.49858702e-05 70.26699361
398.5112131 -2.49858702e-05 223.0338236
544.0004571 25.09472798 213.3192586
372.0541681 -2.49858702e-05 95.90381961
58.18223813 -2.49858702e-05 44.07764161
233.6667581 -2.49858702e-05 224.3274366
195.1950051 -2.49858702e-05 224.0731516
-59.36467987 -2.49858702e-05 234.8034956
362.0128421 -2.49858702e-05 8.382118614
-30.32859187 -2.49858702e-05 193.9529446
-326.8767509 10.19827748 -9.738562858e-05
74.88628313 -2.49858702e-05 0.1706816144
-486.2979829 -2.49858702e-05 35.21840161
-32.10279187 -2.49858702e-05 116.8746246
354.2032371 12.64730748 -9.738562858e-05
362.9358471 18.38773618 -9.738562858e-05
550.0004571 7.367651154 33.92887461
342.7527401 -2.49858702e-05 104.2938516
522.3308721 -2.49858702e-05 44.46744961
226.6588481 67.99997498 -0.4984063856
544.3169631 -2.200021936 155.0616616
70.84500613 -2.49858702e-05 78.72184661
-336.0030779 -2.49858702e-05 89.04067261
-200.2075939 -2.49858702e-05 167.9196326
-158.8528749 -2.49858702e-05 179.5936716
512.8765501 -2.49858702e-05 122.5704086
163.1422881 -2.49858702e-05 86.78319161
427.3585611 -2.49858702e-05 53.40221861
209.8544161 -2.49858702e-05 142.6799056
501.1166841 -2.49858702e-05 41.77638361
-261.6264169 -2.49858702e-05 171.9645626
35.27531713 -2.49858702e-05 199.2733666
228.8602821 56.15010278 -9.738562858e-05
-365.6045279 -2.49858702e-05 215.6683176
-449.8165539 -2.49858702e-05 150.1011996
550.0004571 40.75158598 145.4024726
47.38434013 -2.49858702e-05 9.872923614
483.1852201 -2.49858702e-05 227.3183386
550.0004571 39.51704788 119.4105986
-187.8851399 -2.49858702e-05 95.37300361
544.0004571 23.79789018 193.5921346
282.0282721 10.23487275 -9.738562858e-05
-542.1907029 -2.49858702e-05 170.3811836
313.5005031 38.91206018 -9.738562858e-05
181.2592901 -2.49858702e-05 197.5808256
154.5464001 -2.49858702e-05 18.41972261
-325.2352999 -2.49858702e-05 159.0442126
488.3589001 -2.49858702e-05 89.84380461
550.0004571 9.739170994 119.6502406
-90.89379987 -2.49858702e-05 180.5086366
544.0004571 9.514372744 105.8483416
