# .PCD v0.7 - Point Cloud Data file format
VERSION 0.7
FIELDS x y z
SIZE 4 4 4
TYPE F F F
COUNT 1 1 1
WIDTH 1317
HEIGHT 1
VIEWPOINT 0 0 0 1 0 0 0
POINTS 1317
DATA ascii
198.94028 -68.00002403 48.92313761
48.44409 -152.8544361 47.99990261
160.79912 -2.49897879e-05 -5.131387387
-0.0002699992001 -114.8637847 33.18673861
9.319930001 -60.12235643 -46.00009739
159.6556 -2.49897879e-05 -26.97964939
106.69269 -48.00688497 -40.00009739
140.00631 -27.91319385 -46.00009739
-0.0002699992001 -132.9381684 -13.57460739
251.42514 -2.49897879e-05 11.13094261
150.25371 -2.49897879e-05 11.23855061
-0.0002699992001 -114.5410766 -23.85914839
-0.0002699992001 -238.565831 27.70491161
59.44936 -2.49897879e-05 8.365101613
144.84828 -207.7453727 43.99990261
48.75323 -167.1437638 47.99990261
32.23025 -90.12078575 44.99990261
225.96267 -45.43177583 -46.00009739
180.08231 -2.49897879e-05 34.61891661
98.67084 -219.7961785 47.99990261
-0.0002699992001 -64.98046585 -17.59888839
22.11487 -2.49897879e-05 14.93253361
-0.0002699992001 -42.68950572 17.62633261
182.29214 -235.3669526 43.99990261
-0.0002699992001 -153.5649057 29.71705061
153.40094 -0.7554855698 -40.00009739
169.92469 -28.1709245 -40.00009739
25.18105 -57.56281319 47.99990261
132.72471 -2.25747851 -46.00009739
24.9743 -2.49897879e-05 -29.60396139
31.66092 -34.03374938 -46.00009739
8.568650001 -146.1355169 47.99990261
33.65147 -178.0552861 47.99990261
229.24034 -2.49897879e-05 -10.85391039
-0.3926799992 -212.8802257 -50.47384039
-0.0002699992001 -54.48315208 -0.8528243869
-0.0002699992001 -27.90225151 -18.80891939
121.22073 -2.49897879e-05 -28.15844239
2.836940001 -9.27058047 -40.00009739
35.6899 -217.027556 39.99990261
90.74299 -2.49897879e-05 -32.54281639
216.14598 -53.19350157 47.99990261
188.92961 -20.66522409 -46.00009739
93.3712 -25.91570114 -40.00009739
60.54439 -2.49897879e-05 -11.52915639
62.26294 -16.1230906 47.99990261
91.72876 -42.92455839 -40.00009739
163.26182 -49.8216395 -46.00009739
107.7254 -216.2235257 43.99990261
203.387 -42.61153902 -40.00009739
120.63588 -2.49897879e-05 15.48591561
47.14618 -68.00002403 50.10183461
22.98659 -148.3017307 44.99990261
41.83749 -51.19455186 47.99990261
18.78918 -16.39812789 47.99990261
182.58028 -27.60983173 -40.00009739
20.1456 -95.65195142 44.99990261
137.75419 -2.49897879e-05 4.242751613
44.89866 -114.4762827 44.99990261
14.83601 -122.9392889 47.99990261
-0.0002699992001 -204.9591172 -33.98532239
237.35796 -2.49897879e-05 -35.90256839
55.04716 -7.32269152 -46.00009739
24.53451 -169.5752897 47.99990261
-0.0002699992001 -178.8008039 -20.64055039
-0.0002699992001 -32.23485564 -3.523188387
240.10216 -2.49897879e-05 27.68198661
109.05195 -2.49897879e-05 -18.31330439
34.66972 -134.1639792 47.99990261
85.68695 -2.49897879e-05 -15.15045339
-1.197899999 -2.49897879e-05 15.49618461
169.47954 -2.49897879e-05 19.48519661
114.80164 -14.09255858 -40.00009739
72.91092 -179.714554 43.99990261
91.87061 -192.9951612 43.99990261
223.22658 -64.43829873 -40.00009739
38.21323 -2.49897879e-05 25.70258661
137.65743 -2.49897879e-05 29.08026061
-0.0002699992001 -225.1985652 -28.89546139
36.50795 -59.77632506 -40.00009739
220.69615 -8.67682589 47.99990261
71.82484 -40.85975182 -40.00009739
-0.0002699992001 -31.68577367 14.92429961
39.33208 -97.37613978 44.99990261
183.47467 -16.51959345 47.99990261
149.96608 -252.1928176 43.99990261
228.14615 -2.49897879e-05 9.838720613
222.16803 -2.49897879e-05 38.45924761
44.99973 -200.2022691 41.45743061
19.67623 -77.17125029 44.99990261
203.56114 -64.42479097 -40.00009739
140.65806 -53.5324481 47.99990261
-0.0002699992001 -220.9097126 17.68934761
196.61171 -2.64858293 -46.00009739
147.03068 -65.7939233 -46.00009739
-0.4003899992 -135.017741 -32.27375839
247.89273 -54.51439394 47.99990261
14.60237 -169.8553456 47.99990261
-0.0002699992001 -88.36323219 -39.76127939
13.33061 -85.57622391 44.99990261
83.987 -2.49897879e-05 25.36580761
-0.0002699992001 -240.5726712 4.611165613
244.95022 -30.93666113 -40.00009739
23.22094 -21.48568535 -46.00009739
104.2902 -58.15292649 -46.00009739
214.9141 -40.77215543 -46.00009739
-0.0002699992001 -98.57024619 -49.39529339
-0.0002699992001 -205.1594191 17.51747561
-0.0002699992001 -114.7188379 11.90175761
176.96025 -47.93112069 -40.00009739
27.80132 -207.4167937 44.99990261
125.49385 -40.0193001 -46.00009739
-1.119649999 -2.49897879e-05 4.563649613
81.9517 -7.39894538 47.99990261
191.13826 -2.49897879e-05 28.45640361
-0.0002699992001 -5.66664589 -26.43709139
187.10096 -227.7803702 47.99990261
213.7661 -2.49897879e-05 -20.94964939
161.14316 -214.1613736 43.99990261
151.72838 -35.74018124 -40.00009739
-0.0002699992001 -141.8365148 -9.443218387
-0.0002699992001 -143.9181928 8.414851613
76.00605 -61.76487887 47.99990261
58.70572 -2.49897879e-05 25.87338761
75.80733 -192.6770762 43.99990261
149.30093 -11.02115827 -40.00009739
43.15412 -63.72874228 -46.00009739
35.22234 -114.8417093 39.99990261
62.74265 -46.8448811 -46.00009739
162.68998 -21.64578429 47.99990261
10.60762 -112.404837 47.99990261
109.91196 -1.65901463 47.99990261
-0.0002699992001 -206.4918399 33.53055061
8.352410001 -2.49897879e-05 -2.431335387
57.12304 -50.72132205 47.99990261
220.37995 -37.6084739 47.99990261
28.72945 -250.2844186 44.99990261
27.33747 -2.49897879e-05 -20.19878939
-0.0002699992001 -10.30134629 -12.22498139
80.60432 -14.1239449 -46.00009739
74.79801 -31.21542999 -40.00009739
193.93491 0.01755991021 47.99990261
84.97385 -207.7985121 43.99990261
142.11835 -38.34605331 47.99990261
76.38653 -55.76524176 -40.00009739
-0.0002699992001 -172.9235909 -5.109920387
31.21763 -155.9073832 47.99990261
-0.0002699992001 -195.2960139 -9.373873387
-0.0002699992001 -70.34008068 18.18657561
99.70664 -2.49897879e-05 17.15866661
-1.283629999 -63.90399119 27.08049361
26.73434 -70.00002403 41.31190161
-0.0002699992001 -83.25343457 -9.278843387
-0.0002699992001 -84.07846864 35.92818061
115.6777 -233.1285871 47.99990261
146.59221 -2.49897879e-05 -9.884914387
-0.0002699992001 -8.21926162 -0.7414043869
124.59761 -187.1419286 47.99990261
195.80556 -27.22051207 -46.00009739
136.73005 -46.21666961 -40.00009739
70.82925 -2.49897879e-05 -30.55578839
1.711230001 -147.2236191 39.67741661
139.12735 -195.0471774 47.99990261
230.53023 -56.67669193 47.99990261
-0.0002699992001 -68.10379412 8.407331613
0.4794500008 -48.92554695 -40.00009739
41.81 -2.49897879e-05 -32.43963339
115.20213 -198.1312782 43.99990261
233.95399 -7.76415007 -40.00009739
195.57274 -2.49897879e-05 16.17983561
105.86938 -29.05638428 -40.00009739
72.25299 -2.49897879e-05 41.97365961
187.66767 -43.37776293 -40.00009739
223.14619 -239.649614 47.99990261
66.90268 -151.5911018 47.99990261
178.9001 -68.00002403 -40.38271839
9.171760001 -175.9938968 39.99990261
-0.0002699992001 -123.4637613 -4.981436387
162.86464 -47.2780552 47.99990261
122.92267 -204.9865594 43.99990261
149.22598 -6.63848757 47.99990261
88.43336 -49.67617044 -46.00009739
173.91099 -237.5845247 47.99990261
140.45766 -18.63501268 -46.00009739
196.60638 -40.53868794 -46.00009739
104.60693 -5.80770392 -46.00009739
125.10342 -223.8760962 47.99990261
-0.0002699992001 -143.355762 17.98770261
-0.0002699992001 -168.345997 16.50762161
57.78824 -30.57804884 -46.00009739
55.09959 -14.32103638 -40.00009739
-0.0002699992001 -94.56781186 31.73908261
99.13692 -18.75245919 -40.00009739
212.52433 -25.90446363 -40.00009739
0.5698200008 -65.09883994 -46.00009739
122.12342 -59.12349862 -46.00009739
44.40862 -41.98531353 -46.00009739
-0.0002699992001 -202.7477462 -14.71167539
96.6242 -228.8619023 47.99990261
70.31441 -208.3107985 43.99990261
14.4233 -239.5311449 44.99990261
52.0582 -141.9355668 47.99990261
214.36347 -6.67606304 -40.00009739
53.22791 -2.49897879e-05 -5.610721387
44.31695 -151.3465206 39.99990261
18.83832 -57.78798913 -46.00009739
150.99017 -54.78413387 47.99990261
222.18222 -28.3480544 -46.00009739
0.5992200008 -171.0256889 38.70316461
-0.0002699992001 -174.2680603 -39.54115839
82.29511 -28.0719391 -46.00009739
36.51335 -251.3016886 39.99990261
-0.7922399992 -111.4456012 47.99990261
136.26298 -56.48505837 -40.00009739
185.86566 -244.7543165 43.99990261
5.451640001 -165.9326641 44.99990261
170.48759 -247.3250098 43.99990261
27.0752 -37.068088 47.99990261
194.12853 -2.49897879e-05 -13.50156339
56.98411 -185.3647232 43.99990261
154.26723 -19.29095147 -46.00009739
168.60379 -2.49897879e-05 -26.27668439
2.211440001 -199.564097 44.87508861
193.30071 -40.1540926 47.99990261
124.16397 1.05740872 -46.00009739
162.41795 -58.99744773 -40.00009739
23.81143 -188.5059428 39.99990261
52.20831 -204.3736919 47.22244061
6.361140001 -11.72917606 47.99990261
44.99973 -173.1327852 40.37216561
4.496300001 -110.8357284 39.99990261
42.00589 -2.49897879e-05 -11.08746039
168.05524 -207.2582947 47.99990261
166.42699 -8.21980784 47.99990261
133.52933 -34.2051416 47.99990261
170.01416 -31.94014965 47.99990261
144.34425 -222.7569581 47.99990261
189.36712 -57.31967448 47.99990261
28.8173 -5.58290876 47.99990261
11.00837 -143.3140769 39.99990261
165.53595 -4.37899444 -46.00009739
76.42853 1.50433864 -40.00009739
19.76359 -250.6811536 44.99990261
208.11649 -249.7589799 43.99990261
33.60589 -2.49897879e-05 -38.55686639
77.35191 -45.30459502 47.99990261
66.11361 -29.93757725 -40.00009739
4.389960001 -2.49897879e-05 33.63167961
134.47545 -245.2767133 47.99990261
207.01069 -232.6819881 43.99990261
100.69013 -2.49897879e-05 -37.84669839
226.58769 -36.70581495 -46.00009739
-0.0002699992001 -28.88461766 -46.13270239
43.55928 -129.4139963 39.99990261
172.06066 -2.49897879e-05 38.04503861
176.08688 -21.14821171 47.99990261
62.46313 -197.5236397 47.99990261
231.91369 -13.73940404 -46.00009739
146.33878 -17.86104148 47.99990261
129.03362 -2.49897879e-05 -12.98591939
43.06572 -159.6906698 47.99990261
-0.0002699992001 -205.4750316 7.499575613
55.50531 -26.78711119 47.99990261
153.53514 -225.0019341 43.99990261
36.52867 -24.62722288 -40.00009739
92.32058 -11.2379114 -46.00009739
-0.0002699992001 -112.4167721 23.78000261
227.70236 -2.49897879e-05 -39.49327539
-0.9838199992 -239.1231937 43.83821361
-0.0002699992001 -131.3529847 20.45815961
241.70536 -19.09227868 -40.00009739
44.99973 -78.35709219 40.50794161
195.18693 -57.03106033 -46.00009739
172.01096 -2.49897879e-05 11.15583361
-0.0002699992001 -164.4256955 -8.426709387
106.24389 -2.49897879e-05 26.94380461
-0.0002699992001 -164.1689129 -27.81485639
202.21658 -12.26804157 -40.00009739
115.80309 -32.22882146 -46.00009739
148.10948 -57.76175743 -40.00009739
13.52904 -195.7183679 39.99990261
194.22686 -18.21151833 47.99990261
27.67265 -27.4349799 -40.00009739
238.16442 -52.74015959 -46.00009739
21.48067 -112.501777 39.99990261
41.22837 -20.40235529 47.99990261
-0.0002699992001 -128.7716362 -41.95365839
240.17689 -59.00174259 -40.00009739
217.50456 -56.63734185 -40.00009739
118.79198 -2.49897879e-05 -5.432041387
3.906380001 -70.00002403 41.29864661
26.59834 -41.1040564 -46.00009739
27.96511 -109.3048212 44.99990261
109.13619 -10.41136946 47.99990261
34.58263 -180.7541811 39.99990261
-1.915259999 -177.7339152 43.25920361
100.96733 -42.72500281 -46.00009739
-0.0002699992001 -237.4114299 -46.73298839
156.84486 -235.0676416 47.99990261
246.0286 -41.12474923 -46.00009739
198.30013 -235.6998966 43.99990261
26.12951 -135.989892 47.99990261
-0.0002699992001 -189.22139 -40.37349339
86.909 -218.5458279 43.99990261
58.26817 -42.71707497 -40.00009739
65.37481 -6.65328449 -46.00009739
9.698810001 -13.31721383 -46.00009739
238.3466 -2.49897879e-05 4.833768613
141.1275 -66.18867829 -40.00009739
194.92573 -19.49287123 -40.00009739
44.36897 -54.05376681 -40.00009739
133.05424 -231.2211153 43.99990261
204.23797 -55.19563431 -46.00009739
91.33703 -35.81386732 -46.00009739
37.99393 -223.3634325 44.99990261
83.60225 -45.17028319 -40.00009739
152.40882 -2.49897879e-05 32.75862661
215.79697 -44.8207832 47.99990261
59.0066 -36.23911578 47.99990261
13.19355 -29.07860486 -40.00009739
-0.0002699992001 -113.3446159 -2.906467387
94.01801 -200.6109775 47.99990261
150.62393 -68.00002403 50.79872861
5.013160001 -46.84328128 47.99990261
66.76468 -2.49897879e-05 28.00149261
38.91667 -196.1588861 47.28105461
67.50456 -2.49897879e-05 -18.81886139
250.5436 -17.98568243 -40.00009739
134.35431 -68.00002403 49.80704061
130.44193 -59.37750815 -46.00009739
42.7476 -242.8927366 39.99990261
5.914120001 -2.49897879e-05 -27.79341139
86.71902 -2.49897879e-05 33.20092661
23.82175 -2.49897879e-05 -5.056139387
66.34501 -41.93597476 47.99990261
118.98745 -44.95634401 -40.00009739
23.80842 -51.1278957 -46.00009739
76.38779 -2.49897879e-05 17.90203861
63.74 -18.85864859 -46.00009739
-0.0002699992001 -42.42054497 -24.43423539
50.58338 -59.93525032 -40.00009739
133.7726 -40.26627825 -46.00009739
67.59865 -62.4264182 -46.00009739
176.26555 -54.43685804 -46.00009739
8.721950001 -225.2660713 39.99990261
23.64113 -2.49897879e-05 43.66956761
26.52717 -238.6423215 44.99990261
-0.0002699992001 -178.0174408 -11.82821439
-0.0403499992 -191.7078818 -48.25312539
88.93 -2.49897879e-05 -22.74823439
-0.0002699992001 -42.99216715 -6.472371387
-0.0002699992001 -101.8193121 -37.04418039
120.34331 -17.89700668 -46.00009739
9.255670001 -155.3531169 47.99990261
169.00507 -2.49897879e-05 -5.979128387
5.277190001 -126.8796173 39.99990261
251.03265 -8.7355784 -46.00009739
135.02159 -21.06110068 -40.00009739
129.27521 -2.49897879e-05 20.53493761
85.733 -176.8567385 43.99990261
-0.0002699992001 -51.2298986 8.923375613
19.79708 -131.793661 44.99990261
123.04105 -28.54605599 47.99990261
99.58692 -55.30576404 47.99990261
102.28568 -2.49897879e-05 0.01748761305
135.93935 -2.49897879e-05 -31.91227939
56.37716 -2.49897879e-05 -19.72058639
89.01999 -62.38863889 47.99990261
93.1917 -60.72395854 -40.00009739
-0.0002699992001 -75.91787652 -49.44143439
24.87954 -125.7257551 47.99990261
208.15663 -21.56911154 -46.00009739
198.78821 -2.49897879e-05 -33.42406139
122.05106 -35.7644865 -40.00009739
138.47574 -212.096423 47.99990261
11.53058 -210.57473 39.99990261
-0.0002699992001 -147.9530149 1.381783613
6.511710001 -34.13908084 -40.00009739
39.95684 -234.428661 39.99990261
19.06264 -142.4401319 39.99990261
238.17141 -30.05290381 47.99990261
155.23112 -2.49897879e-05 40.53212061
-0.0002699992001 -56.9050774 -18.01487139
-0.0002699992001 -178.6935761 4.216692613
45.45042 -8.11164187 47.99990261
60.01604 -179.0506811 47.99990261
242.11824 -2.49897879e-05 42.98854661
108.17681 -33.76547257 47.99990261
55.2453 -169.6982918 43.99990261
57.77737 -2.49897879e-05 45.88151261
6.360020001 -5.2515128 -46.00009739
112.96201 -9.08602464 -46.00009739
59.43785 -151.1640431 43.99990261
250.1282 -6.52501597 47.99990261
129.08524 -26.62434516 -40.00009739
57.1095 -136.8686403 44.41594061
31.85587 -122.3268982 39.99990261
11.16677 2.42609789 47.99990261
-0.7817599992 -37.18525801 26.85805761
209.0734 -49.77691438 -40.00009739
-0.0002699992001 -163.9895743 -0.4728383869
11.41385 -78.51637389 39.99990261
129.69264 -199.7662352 43.99990261
-0.0002699992001 -199.6920858 -28.04788339
47.31288 -49.36750523 -46.00009739
17.28821 -178.9983155 43.99990261
212.84188 -7.62306717 47.99990261
244.53934 -61.78122775 -46.00009739
28.82667 -2.63052895 -46.00009739
210.20697 -2.49897879e-05 25.17656661
231.86993 -2.49897879e-05 -18.88009639
-0.0002699992001 -243.5924299 13.07478961
-0.5667899992 -26.92322441 -26.85800739
49.22101 -20.72523579 -40.00009739
0.6197000008 -120.6386682 38.73382061
-0.0002699992001 -196.9288309 12.67478161
43.47692 -145.3070514 44.99990261
164.773 -35.05699841 -46.00009739
164.28285 -18.23030234 -40.00009739
-0.0002699992001 -219.7716073 34.49025461
99.97001 -205.366468 43.99990261
243.9456 -3.12609196 -46.00009739
234.52798 -64.75437039 47.99990261
194.68405 -223.8948233 47.99990261
99.32906 -66.17175971 -46.00009739
212.22289 -35.3050884 -40.00009739
179.80323 -20.28885914 -40.00009739
168.52513 -232.0909075 43.99990261
-0.3175599992 -142.3017741 -29.43670039
144.51624 -45.53479659 -40.00009739
-0.0002699992001 -234.9147148 34.61568061
182.35066 -2.49897879e-05 -22.95678439
28.81877 -149.6512365 39.99990261
92.40779 -165.7206144 47.99990261
161.20975 -7.19132208 -40.00009739
154.55951 -2.49897879e-05 -9.794554387
-0.0002699992001 -156.7387778 -19.23180239
248.97606 -33.82119455 -46.00009739
150.80017 -201.48648 43.99990261
171.03921 -221.6244842 47.99990261
113.7371 -48.47991969 -46.00009739
106.45597 -2.49897879e-05 -25.62496539
116.41272 2.05983732 -40.00009739
32.53542 -55.50342842 -46.00009739
171.03375 -2.49897879e-05 27.08112461
212.96726 -2.49897879e-05 -4.305519387
172.62107 -1.26923738 -46.00009739
76.62364 -39.94597921 -46.00009739
47.08433 -184.2327784 47.99990261
202.97731 -2.49897879e-05 -0.1463833869
117.68494 -6.9268142 -40.00009739
93.42273 -46.22056406 47.99990261
96.55115 -21.0537731 47.99990261
228.58955 -23.89696645 -40.00009739
58.36 -68.00002403 -45.48798339
178.93876 -2.49897879e-05 16.06560261
217.62316 -22.14002111 -46.00009739
-0.0002699992001 -122.1797455 30.79468961
36.55411 -16.36121218 -40.00009739
160.59266 -37.42684142 -40.00009739
192.15076 0.07049949021 -40.00009739
9.807690001 -136.6341664 44.99990261
91.24539 1.74537211 -40.00009739
140.79054 -28.42739787 47.99990261
-0.0002699992001 -189.7567129 -1.073581387
221.00994 -2.49897879e-05 30.88512661
241.50744 -17.76453505 47.99990261
-0.0002699992001 -77.26266764 -30.00119039
110.41501 -39.71590802 -40.00009739
239.69931 -26.4837399 -46.00009739
-0.0002699992001 -86.80440377 19.46237461
215.25096 -241.8970601 43.99990261
108.69244 -194.7044974 47.99990261
186.14938 -8.30098558 47.99990261
179.23654 -218.1140751 47.99990261
142.01451 -246.3365049 47.99990261
21.22353 -165.2310851 39.99990261
44.99973 -211.2618457 40.50405061
133.88739 -2.49897879e-05 35.65629061
197.76623 -2.49897879e-05 39.54753961
228.40329 -40.9302318 -40.00009739
49.18378 -2.49897879e-05 6.449989613
17.08547 -172.0798791 39.99990261
130.09674 -192.3071023 47.99990261
153.98056 -21.80907686 47.99990261
-0.0002699992001 -9.45421757 26.46407261
5.476090001 -119.6183699 47.99990261
-0.0002699992001 -166.6653176 -43.00691239
99.54309 -2.49897879e-05 35.40552961
186.21782 -2.49897879e-05 -31.03064839
88.87237 -24.4587174 -46.00009739
71.6563 -11.59207374 -46.00009739
-0.0002699992001 -75.3663187 29.32751761
35.87188 -160.2105758 43.99990261
44.78259 -180.6099736 39.99990261
217.10923 -44.64702937 -40.00009739
184.37507 -52.79621739 -46.00009739
48.17652 -12.91211453 -46.00009739
17.37286 -53.6064208 -40.00009739
80.85225 0.08981975021 -46.00009739
56.96235 0.05061170021 -40.00009739
9.217230001 -2.49897879e-05 19.10570961
108.25765 -237.0813043 47.99990261
147.54439 -61.83756474 47.99990261
225.91106 -19.07706877 47.99990261
32.94034 -191.5305219 44.99990261
29.97167 -117.1729164 44.99990261
237.3383 -44.99901604 -46.00009739
2.054580001 -194.1443312 39.81187861
248.40073 -48.12653488 -40.00009739
6.648050001 -2.49897879e-05 -18.15913539
114.86461 -21.83293973 -40.00009739
17.17796 -55.03485825 47.99990261
27.21814 -169.5804209 39.99990261
0.3256600008 -28.3987921 47.99990261
221.16016 -58.96642879 -46.00009739
224.99575 -247.2589174 43.99990261
209.89057 -57.12966576 47.99990261
251.29723 -25.79804606 47.99990261
231.5518 -25.68831659 47.99990261
198.99696 -247.0915772 43.99990261
26.13697 -66.91024969 -40.00009739
109.19623 -3.49918864 -40.00009739
136.88912 -2.53535026 -40.00009739
18.8213 -213.7126286 44.99990261
116.85415 -209.041645 43.99990261
142.90184 -190.2578977 43.99990261
-0.0002699992001 -76.85414433 -2.166740387
27.69184 -2.49897879e-05 19.62855861
108.03996 -55.87956771 -40.00009739
102.66004 -15.04841671 47.99990261
81.9009 -3.89700704 -40.00009739
242.40392 -2.49897879e-05 -19.11219639
4.966470001 -217.6241796 44.99990261
244.46514 -2.49897879e-05 9.013189613
92.95255 -184.338691 47.99990261
77.84922 -201.9731136 47.99990261
114.02402 -2.49897879e-05 40.66073561
109.91196 -182.4588954 47.99990261
155.18543 -60.59798979 -40.00009739
17.0056 -2.49897879e-05 39.48708861
146.01081 -13.41860925 -46.00009739
85.81963 -168.8616459 47.99990261
30.37387 -211.9839412 39.99990261
220.77932 -2.49897879e-05 12.66794061
182.53083 -56.43938292 -40.00009739
52.13181 -148.0912227 43.99990261
37.75834 -2.49897879e-05 -16.93014739
160.79909 -2.49897879e-05 6.567944613
31.31371 -2.49897879e-05 35.12156961
236.72607 -9.73593058 47.99990261
-0.0002699992001 -213.0372324 -1.309652387
32.0288 -46.88331969 -46.00009739
37.41376 -90.51037331 39.99990261
25.53827 -76.98411054 39.99990261
95.22474 -34.93321429 -40.00009739
103.04311 -39.8450977 47.99990261
-1.126629999 -156.6126702 -32.90418339
125.22205 -7.66028656 -40.00009739
238.27397 -38.08723253 -40.00009739
140.89428 -62.05686239 -46.00009739
181.53258 -2.49897879e-05 7.444088613
223.66196 -2.49897879e-05 4.227804613
30.74848 -2.49897879e-05 42.72606961
50.52113 -189.8675398 43.99990261
184.26257 -12.97756814 -40.00009739
121.02499 -230.4989678 43.99990261
170.72159 -2.49897879e-05 -36.21830139
102.55545 -213.3898499 47.99990261
16.06063 -114.8145535 43.99990261
138.94775 -61.90622808 47.99990261
36.93654 -142.7520819 47.99990261
16.88951 -185.7883626 39.99990261
157.67534 -220.8251114 47.99990261
179.48202 -2.49897879e-05 -7.290108387
171.84379 -14.40333258 -40.00009739
75.54286 -165.9723518 47.99990261
233.134 -59.92680992 -40.00009739
160.45797 -2.49897879e-05 -19.26547539
15.93754 -2.49897879e-05 -1.179874387
-0.0002699992001 -102.0560138 -29.26421939
92.02045 -52.64185707 -40.00009739
122.8802 -20.64205082 -40.00009739
123.41711 -244.1041726 47.99990261
-0.0002699992001 -238.667523 -16.46038239
108.98306 -2.49897879e-05 16.86462961
33.57475 -12.47391861 -46.00009739
62.1097 -167.5393515 43.99990261
12.09814 -228.9170961 44.99990261
120.71237 -61.13077223 47.99990261
239.79806 -2.49897879e-05 36.33925061
217.41702 0.8057427502 -40.00009739
-0.4629599992 -45.37903953 -46.00009739
83.41534 -153.7723947 47.99990261
198.10299 -2.49897879e-05 24.76088061
37.11076 -203.3278015 39.99990261
154.4561 -44.38284219 -40.00009739
66.06924 -45.42609237 -40.00009739
-1.925449999 -132.1110977 43.24901561
213.63711 -14.47092066 -46.00009739
2.310560001 -17.16977584 -46.00009739
187.70459 -2.49897879e-05 3.649289613
-0.0002699992001 -71.09325004 -14.21833439
15.2761 -122.7880961 39.99990261
211.75055 0.7909357802 47.99990261
157.38801 -3.30007982 47.99990261
-0.0002699992001 -120.8937256 -12.65697539
200.42735 -9.20607828 -46.00009739
223.08066 -11.77674555 -40.00009739
184.49555 -251.5751075 43.99990261
-0.0002699992001 -103.5251405 -16.14703539
4.484460001 1.47334717 -40.00009739
11.67528 -67.77748879 47.99990261
-0.0002699992001 -188.5558487 -11.00276839
47.41443 -39.38926518 -40.00009739
123.27175 -50.97345369 -46.00009739
-0.0002699992001 -163.9636907 27.34186861
-0.0002699992001 -150.0368206 -21.00743839
104.13776 -167.1286563 43.99990261
229.52623 -67.31541814 -40.00009739
32.34969 -71.67495597 44.99990261
1.007290001 -139.709104 43.99990261
30.62508 -15.20921891 47.99990261
155.46391 -246.9804539 47.99990261
116.87184 -48.02347195 47.99990261
59.04765 -191.9545712 43.99990261
126.65097 -179.8482565 45.15268461
202.04865 -45.71147014 -46.00009739
-0.0002699992001 -220.4961606 -23.22813939
-0.0002699992001 -79.83049894 20.04299561
176.69973 -2.49897879e-05 -16.70238939
164.06044 -2.49897879e-05 -11.26645639
-0.0002699992001 -129.4649131 27.06363161
16.69694 -19.3722217 -46.00009739
9.963410001 -127.0786699 44.99990261
25.31572 -102.0745613 39.99990261
21.88645 -182.9084869 47.99990261
5.519200001 -189.4932288 44.99990261
38.20843 -66.40481071 -40.00009739
244.3809 -47.76650386 -46.00009739
43.73677 -129.8593399 47.99990261
50.00114 -52.09474587 47.99990261
12.57885 -60.0087198 -40.00009739
110.0059 -27.20445074 47.99990261
71.54499 -64.95260796 -40.00009739
154.22318 -33.74378779 -46.00009739
73.47725 -68.00002403 48.96222261
210.71286 -56.39956575 -40.00009739
143.04953 -201.1950597 43.99990261
22.92427 -2.49897879e-05 24.46634361
5.602820001 -246.55014 44.99990261
14.20638 -2.49897879e-05 -28.78213939
144.2048 -236.0710795 47.99990261
185.55891 -2.49897879e-05 17.53834061
167.10183 -216.1057363 47.99990261
21.66721 -201.5252947 39.99990261
31.31507 -163.2342133 47.99990261
103.1087 -233.3295164 43.99990261
-1.294949999 -105.7484881 43.99990261
230.49911 -43.77244196 47.99990261
128.83336 -2.49897879e-05 4.874901613
173.43848 -51.46335478 47.99990261
-0.0002699992001 -43.52821845 -15.30521039
134.2112 -17.86184402 47.99990261
44.76605 -29.054968 -40.00009739
4.235210001 -51.87740601 -46.00009739
79.35969 -36.66766777 -40.00009739
103.33564 -191.49151 43.99990261
196.9833 -30.72601637 -40.00009739
-0.0002699992001 -211.6708902 -34.41693139
84.93363 -26.56717232 -40.00009739
183.47657 -30.91064107 -46.00009739
96.22955 -5.32068957 -46.00009739
70.4991 -185.9905742 43.99990261
164.37471 -47.00448502 -40.00009739
81.35935 -32.5348381 47.99990261
115.76102 -2.49897879e-05 10.87577561
242.31925 -68.00002403 -44.83585539
116.71271 -214.9619073 47.99990261
16.21832 -39.66566984 47.99990261
115.78718 -174.3741897 47.99990261
208.20426 1.38303875 -46.00009739
35.41131 -136.7239971 39.99990261
-0.0002699992001 -147.4968436 32.54943261
29.58498 -36.14737546 -40.00009739
216.1543 -63.78680417 47.99990261
-2.334729999 -107.353043 -42.85800739
70.11639 -58.59989123 47.99990261
48.23546 -22.4297421 47.99990261
209.99857 -242.9209462 47.99990261
174.23847 -21.69237721 -46.00009739
97.75383 -171.3802606 47.99990261
23.15965 -31.53493117 -46.00009739
84.45173 -213.10956 47.99990261
222.07223 -3.96424284 -40.00009739
29.48493 -93.56570803 39.99990261
156.56154 -199.3371216 47.99990261
16.86485 -151.1789527 44.99990261
91.15767 -53.66455917 47.99990261
103.7764 -40.10807615 -40.00009739
-0.0002699992001 -207.5938845 -22.13053539
76.90312 -207.1918016 43.99990261
129.90966 -66.4288577 -46.00009739
184.93663 -44.23097752 47.99990261
-0.0002699992001 -158.4929932 12.47340761
166.85227 -10.86895788 -46.00009739
1.048920001 -150.1095597 47.99990261
191.46696 -62.5073158 -46.00009739
82.01978 -165.2169559 43.99990261
14.8846 -2.49897879e-05 10.55128661
69.82676 -28.39958309 -46.00009739
33.83766 -2.49897879e-05 -29.87802239
-0.0002699992001 -23.34561528 -4.115429387
2.121450001 -233.396183 44.86083861
49.68526 -158.254724 43.99990261
40.05026 -2.49897879e-05 -39.90114439
106.45394 -12.12614616 -46.00009739
87.90717 -201.897062 43.99990261
37.60807 -154.3298949 47.99990261
25.98636 -226.801134 39.99990261
23.10516 -161.1932726 47.99990261
188.36351 -31.23214094 47.99990261
-0.0002699992001 -87.68005433 -16.24908539
50.84167 -57.28272984 -46.00009739
28.77999 -64.25523178 -46.00009739
37.86488 -105.7559733 44.99990261
237.57129 -248.4017837 44.10760961
157.78414 -27.30084202 -40.00009739
67.73951 -2.49897879e-05 -12.27525139
142.21777 -4.90550204 -46.00009739
204.03934 -32.15794095 -40.00009739
135.14617 -54.13331584 -46.00009739
155.18144 -210.4185489 47.99990261
33.77328 -26.48871457 47.99990261
231.5582 -51.39553123 -40.00009739
-0.0002699992001 -15.77743066 12.77568461
27.62846 -176.6218247 44.99990261
9.674440001 -87.59966349 39.99990261
6.723870001 -14.49933137 -40.00009739
146.77078 -24.23509743 -46.00009739
67.24665 -143.1338366 47.44411761
40.62273 -2.49897879e-05 14.23876061
12.33443 -17.23770358 47.99990261
29.6847 -141.8570059 43.99990261
84.00965 -43.82466063 47.99990261
149.28467 -64.71775126 -40.00009739
54.242 -2.49897879e-05 12.24751561
88.1257 -2.49897879e-05 -4.687371387
26.112 -156.0342286 43.99990261
138.59129 -40.00233696 -40.00009739
90.02548 -0.3869252098 -46.00009739
216.69863 -2.49897879e-05 1.093255613
193.67762 -2.49897879e-05 -21.30924339
163.06826 -2.49897879e-05 -34.18786339
-0.0002699992001 -72.95206002 2.973279613
-0.0002699992001 -95.40364905 -26.83984539
-0.0002699992001 -128.6089674 -31.65216339
152.15352 -2.49897879e-05 5.077510613
251.13224 -2.49897879e-05 42.30366361
241.77913 -35.79717821 47.99990261
44.18771 -193.277749 44.99990261
-0.0002699992001 -187.3366884 -28.06680139
64.89335 -180.2300453 43.99990261
86.6912 -192.4248914 47.99990261
167.41989 -241.4540239 47.99990261
42.91146 -33.8665592 -46.00009739
130.66025 -207.4792767 43.99990261
60.13802 -64.23198815 47.99990261
144.7702 -2.05411893 47.99990261
-0.2256099992 -219.18307 -49.42262839
26.89969 -213.9285639 44.99990261
-0.0002699992001 -181.9401064 -33.35383039
88.10166 -185.9240815 43.99990261
118.61906 -239.2424559 43.99990261
90.82715 -2.49897879e-05 19.95504861
34.0226 -200.5316623 44.99990261
193.09904 -56.44555411 -40.00009739
16.03289 -89.16988664 39.99990261
33.95961 -129.2483511 43.99990261
198.97262 -252.2721246 47.99990261
12.24342 -4.50449761 -40.00009739
241.61184 -55.57101604 47.99990261
244.31384 -9.40655935 47.99990261
108.34117 -49.19551279 47.99990261
187.60372 -0.6285926798 47.99990261
-0.0002699992001 -231.1496611 20.07792861
37.84972 -26.26354089 -46.00009739
176.65083 -33.22605013 -40.00009739
193.16306 -244.5927274 43.99990261
39.70701 -176.1777794 47.99990261
44.91313 -246.1321835 44.99990261
237.88575 -25.5448524 -40.00009739
167.99177 -40.8896244 -46.00009739
148.14986 -2.49897879e-05 -24.52594239
-0.0002699992001 -34.73682958 -48.63208339
42.19999 -226.2116338 39.99990261
65.53607 -161.321631 47.99990261
215.99733 -252.0345834 43.99990261
111.8724 -2.49897879e-05 -11.73445439
-0.0002699992001 -115.0909373 -31.10955239
46.44865 -173.0193681 47.99990261
187.62428 -19.22848929 -40.00009739
199.40595 -3.11815179 47.99990261
19.03131 -221.4277973 39.99990261
93.94471 -34.43815045 47.99990261
5.486800001 -95.81862883 44.99990261
-0.0002699992001 -173.76085 13.29698161
56.88265 -201.6580058 43.99990261
0.1617200008 -155.8771991 37.81384761
75.78622 -24.91683079 -40.00009739
166.74169 -226.0596731 43.99990261
244.35677 -39.68223815 -40.00009739
10.87252 -232.5190664 39.99990261
72.71558 1.57010628 -46.00009739
21.78519 -47.81498601 -40.00009739
75.13193 -53.49944691 -46.00009739
113.38476 -22.95824675 -46.00009739
-0.0002699992001 -18.59841117 0.5289736131
-2.183019999 -54.61527163 -40.00009739
52.01489 -63.64493707 -46.00009739
-0.6941999992 -165.1814733 43.99990261
139.30615 -217.0442216 43.99990261
142.3164 -227.1337518 43.99990261
177.49695 -8.66783584 -46.00009739
184.99719 -223.4420809 43.99990261
139.95643 -2.49897879e-05 -1.621173387
226.71651 -2.49897879e-05 15.93691961
71.1608 -2.49897879e-05 35.80787361
231.49585 -59.21180244 -46.00009739
105.2996 -202.3952738 47.99990261
31.06059 -19.34975943 -40.00009739
248.62907 -64.04484747 47.99990261
199.04785 0.3520601002 -40.00009739
193.67075 -8.6066861 -46.00009739
-0.0002699992001 -130.6659702 0.4973996131
25.38619 -251.954175 39.99990261
112.70284 -49.83397849 -40.00009739
169.63859 -29.83977445 -46.00009739
98.07308 -67.28833277 -40.00009739
-0.0002699992001 -223.0153253 -35.19932339
248.56786 -2.49897879e-05 -18.23771439
31.48702 -122.4127128 47.99990261
165.68226 -2.49897879e-05 40.48104761
6.201240001 -89.56018335 44.99990261
11.96875 -160.0701546 44.99990261
147.28717 -2.49897879e-05 -18.37432139
27.10378 -193.6447101 44.99990261
30.82233 -106.9891713 39.99990261
164.31368 -65.56601601 47.99990261
206.81347 -6.16671052 47.99990261
131.53303 -182.8655834 47.49663661
112.14436 -223.3155322 43.99990261
133.07575 -216.4573094 43.99990261
242.59113 -2.49897879e-05 17.50709861
144.15438 -47.03112437 -46.00009739
14.2077 -133.1055766 47.99990261
103.15244 -65.25833458 47.99990261
199.28219 -2.49897879e-05 -10.09567239
-0.0002699992001 -214.7621735 17.12505761
119.52492 -3.01478848 -46.00009739
67.0039 -213.5180072 44.05756661
44.32709 -165.5796572 43.99990261
99.92814 -224.3086485 43.99990261
6.362760001 -54.37381496 47.99990261
-0.0002699992001 -25.71563006 13.41794361
73.27675 -0.7129060698 47.99990261
81.36728 -2.49897879e-05 36.23098761
51.64638 -30.31428976 -46.00009739
70.20829 -2.49897879e-05 -24.44351439
-0.0002699992001 -236.829177 -0.2558753869
196.77161 -41.81150395 -40.00009739
17.92204 -162.4993132 44.99990261
120.15317 -26.29759456 -46.00009739
188.69026 -27.15843798 -40.00009739
55.80153 -54.70429093 -40.00009739
128.67682 2.48935773 47.99990261
59.4039 -155.7910411 47.99990261
208.71548 -2.49897879e-05 42.74991161
-0.0002699992001 -231.4645021 13.63971161
106.76464 -210.1925999 43.99990261
-0.0002699992001 -35.80298749 20.96354361
159.21196 -240.6830457 47.99990261
7.871900001 -215.4475382 39.99990261
-0.0002699992001 -38.69471789 7.226428613
89.87943 -18.25298538 47.99990261
129.41332 -59.49604893 -40.00009739
140.90617 -28.41900078 -40.00009739
217.48367 -21.1201483 -40.00009739
90.86896 -216.2270672 47.99990261
98.1059 -52.7832793 -40.00009739
87.68197 -43.64171757 -46.00009739
44.26295 -2.15173099 47.99990261
148.77912 -2.49897879e-05 26.96869661
166.05537 -248.4514352 47.99990261
147.45223 -243.6325423 47.99990261
-0.4254599992 -171.1603029 47.99990261
-0.0002699992001 -18.41839659 -18.43169639
237.36063 -64.62309991 -40.00009739
187.40393 -64.94464541 -40.00009739
12.97818 -99.36715217 39.99990261
248.31936 -14.16148458 -46.00009739
-1.282619999 -22.05267813 -46.00009739
140.14168 -11.90064334 -46.00009739
193.8157 -228.3644571 43.99990261
206.97768 -16.01075576 47.99990261
119.66778 -45.42471431 -46.00009739
217.82727 -2.49897879e-05 -26.82359239
180.35531 -225.6539885 47.99990261
-0.0002699992001 -180.4515277 18.24830461
213.81165 -67.7097465 -46.00009739
-0.0002699992001 -97.13763713 -32.77834339
3.475680001 -186.601396 39.99990261
25.17521 -142.1956198 47.99990261
179.52082 -42.46383739 -40.00009739
77.29732 -161.4585162 43.99990261
197.70554 -51.55092535 -46.00009739
242.06183 -18.60130374 -46.00009739
66.41462 -0.7137486498 -46.00009739
44.81828 -140.2515779 47.99990261
196.97568 -33.13478351 -46.00009739
20.65238 -119.7776162 43.99990261
0.4619900008 -4.0130584 -46.00009739
21.88067 -2.49897879e-05 -22.79750939
225.1332 -2.49897879e-05 -18.55477639
-0.0002699992001 -142.2683739 -15.44571739
174.62293 -57.41829681 47.99990261
72.34529 -17.9828533 -46.00009739
1.811390001 -125.9549983 44.81174561
101.9271 -2.49897879e-05 -11.03373139
-0.0002699992001 -216.4085923 -7.408558387
-0.0002699992001 -9.05305728 19.68389261
17.69777 -189.0004891 44.99990261
158.14274 -26.12326023 47.99990261
164.92466 -2.49897879e-05 10.91317961
-0.0002699992001 -99.80894714 14.27816761
205.04372 -26.67748548 -46.00009739
71.71098 -190.9478363 47.99990261
-0.0002699992001 -225.1951981 22.64845961
79.71959 -190.5901854 47.99990261
179.94747 -3.34864785 -40.00009739
44.99973 -73.78562105 44.34498961
31.98095 -146.7795596 47.99990261
93.8015 -2.49897879e-05 -18.04155639
58.64806 -53.35960403 -46.00009739
-0.0002699992001 -80.95304126 -41.43012339
115.74013 -2.49897879e-05 29.63036661
98.43588 -178.2163647 47.99990261
68.75516 -175.4589305 43.99990261
-0.0002699992001 -31.44742245 -12.23258739
-0.0002699992001 -106.2032788 -10.11302839
54.09747 -13.25712793 -46.00009739
11.01715 -182.3258193 39.99990261
89.53239 -68.00002403 49.82811761
1.763440001 -221.9235501 39.71229661
-0.0002699992001 -102.0011085 26.55149661
82.63561 -2.49897879e-05 -10.08876239
80.06103 -20.00687495 -46.00009739
-0.1062499992 -197.5993739 -48.66912839
120.3594 -52.64263552 -40.00009739
118.93686 -64.18831032 -40.00009739
-0.5009799992 -117.4441594 43.99990261
36.24383 -211.1608736 39.99990261
98.31929 -188.4116448 43.99990261
187.32081 -2.49897879e-05 -9.782342387
237.15952 2.21730286 47.99990261
85.48175 -2.70928401 47.99990261
175.56876 -233.6247705 43.99990261
42.41807 -123.6684435 39.99990261
77.12189 -151.9342956 47.99990261
103.23658 -180.8918674 43.99990261
52.99075 -68.00002403 49.86458661
178.90385 -63.30391534 -46.00009739
-1.312849999 -113.1033673 -42.85800739
41.26947 -78.45755663 44.99990261
196.75855 -2.49897879e-05 0.03194961305
-0.0002699992001 -62.14370517 -12.49899339
130.88473 -223.1178437 47.99990261
-0.0002699992001 -56.32799692 -23.81269639
147.09146 -47.66467038 47.99990261
65.72947 -200.2145158 43.99990261
40.38321 -90.76000914 44.99990261
249.03946 -2.49897879e-05 28.37073061
155.18657 -229.4934102 47.99990261
35.87182 -53.99573489 -40.00009739
233.29196 -2.49897879e-05 -6.683111387
-0.0002699992001 -116.414519 6.339889613
66.32975 -4.84831957 -40.00009739
217.08144 -20.04146645 47.99990261
204.82268 -229.0879943 47.99990261
155.06019 -11.75014066 -40.00009739
57.30832 -5.73193917 -40.00009739
13.12866 -42.90524508 -46.00009739
178.82632 -240.0022402 43.99990261
187.48242 -248.662811 47.99990261
97.79039 -2.49897879e-05 -3.609995387
140.03029 -2.49897879e-05 38.05504561
-0.0002699992001 -58.27699297 -5.203098387
136.46565 -228.8388128 47.99990261
33.56743 -207.168528 44.99990261
-0.0002699992001 -196.8892019 -15.94275739
188.01674 -2.49897879e-05 -24.79717539
192.62123 -234.6936035 43.99990261
45.39726 -2.49897879e-05 28.24511961
33.88628 -185.8454243 44.99990261
28.75359 -81.76689428 39.99990261
179.20997 -10.20926335 -40.00009739
70.75749 -2.49897879e-05 0.5076816131
90.95621 -223.8803557 43.99990261
163.16246 -23.86527013 -40.00009739
113.16762 -2.49897879e-05 -4.262938387
183.16496 -58.65482238 47.99990261
-0.0002699992001 -215.1725541 31.05395461
156.22932 -35.12067265 47.99990261
4.656270001 -2.49897879e-05 43.00876661
243.56181 -0.2790559798 -40.00009739
141.39573 -59.03053865 -40.00009739
20.34725 -14.84458834 -40.00009739
29.92245 2.0616317 47.99990261
155.03432 -206.3364304 43.99990261
203.06338 -246.7652268 47.99990261
8.964560001 -9.18317333 -40.00009739
7.212300001 -135.6873617 39.99990261
248.54318 -36.33569796 47.99990261
233.39253 -249.2581473 47.99990261
21.69008 -139.3309125 43.99990261
163.16877 -204.045497 43.99990261
17.46108 -2.49897879e-05 18.20019861
47.38641 -47.9475037 -40.00009739
-0.0002699992001 -83.80603649 -46.92033439
11.26562 -44.55376992 -40.00009739
22.90136 -3.48491575 -40.00009739
97.87335 -12.42725598 -46.00009739
174.25845 -49.13223726 -46.00009739
166.88878 -32.96092834 -40.00009739
25.32383 -74.06966759 44.99990261
30.56885 -219.9206616 39.99990261
136.34252 -208.520703 43.99990261
5.054230001 -68.00002403 -44.12684839
-0.5697699992 -70.63902344 -46.00009739
90.77624 -208.6043267 47.99990261
106.44456 -34.59245692 -46.00009739
167.87633 -3.07247999 -40.00009739
217.33491 -63.5650142 -40.00009739
173.38005 -38.05088567 -46.00009739
222.45557 -53.15018018 47.99990261
112.50621 -235.515208 43.99990261
15.76828 -72.39321752 44.99990261
-0.0002699992001 -166.0672382 21.88071761
188.76697 -222.2399481 47.99990261
117.0687 -226.5006779 43.99990261
186.05927 -3.70942298 -46.00009739
50.00004 -11.94856186 -40.00009739
115.41648 -183.6090205 47.99990261
28.76328 -191.1632141 39.99990261
200.64505 -240.9738289 47.99990261
176.12579 -56.86660154 -40.00009739
25.20288 -2.49897879e-05 33.12100161
82.92074 -222.5115495 47.99990261
28.07552 -2.49897879e-05 -37.60168439
205.62847 -236.365171 47.99990261
141.81484 -43.94609004 47.99990261
-0.0002699992001 -238.2547585 11.35446561
230.81511 -18.75753361 -40.00009739
239.4245 -6.74759878 -46.00009739
7.157680001 -178.5890618 44.99990261
5.452320001 -156.2591134 43.99990261
204.52433 -68.00002403 49.23754161
166.96762 -62.24936476 -40.00009739
42.14345 -93.49044777 39.99990261
69.05285 -180.2724286 47.99990261
-0.0002699992001 -141.8577204 -46.92007439
20.29164 1.08409331 47.99990261
35.29853 -70.96698394 39.99990261
186.83498 -2.49897879e-05 24.91433161
1.434420001 -39.25749271 47.99990261
29.84927 -83.96858325 44.99990261
3.483040001 -2.49897879e-05 7.704005613
8.568160001 -205.8582047 39.99990261
14.11248 -198.098686 44.99990261
18.14505 -60.1252799 -40.00009739
202.10868 -2.49897879e-05 20.89675861
127.32794 -244.488573 43.99990261
43.96828 -178.3310681 44.99990261
53.51234 -2.8597775 47.99990261
135.63926 -15.87703234 -46.00009739
149.39159 -220.0420781 43.99990261
137.20663 -198.3764104 43.99990261
53.93186 -34.00438891 47.99990261
42.32757 -14.96862005 47.99990261
-0.0002699992001 -219.0177371 -17.88916939
142.97597 -22.26043762 47.99990261
218.18027 -2.49897879e-05 -17.60847739
52.79006 -38.06902705 -40.00009739
2.357490001 -75.11754809 39.87213961
52.72955 -153.6338211 43.99990261
111.93726 -2.49897879e-05 -24.87921839
152.7766 -68.00002403 -45.80599639
225.56873 -34.60400257 -40.00009739
235.66203 -2.49897879e-05 43.16939261
111.02223 -199.7105409 47.99990261
130.3975 -26.69538267 -46.00009739
41.31958 -155.1671623 43.99990261
11.15323 -168.2493707 43.99990261
196.97278 -54.064481 47.99990261
59.59174 -173.0933538 43.99990261
217.35047 -28.56955714 -40.00009739
174.95234 -244.0962272 43.99990261
89.35954 -162.7465065 43.99990261
-0.0002699992001 -223.9333808 1.272799613
-0.0002699992001 -111.3866289 -16.01807239
67.33715 -36.52974404 47.99990261
153.43906 -44.95368917 -46.00009739
-0.0002699992001 -135.0304043 7.153503613
122.78942 -192.9180787 43.99990261
178.84681 -62.52067419 -40.00009739
33.46881 -170.6198822 44.99990261
76.39449 -169.6298335 43.99990261
116.65648 -203.5663078 43.99990261
28.12919 -205.2239809 39.99990261
81.32706 -195.8252302 43.99990261
238.18868 -52.01941687 -40.00009739
-0.0002699992001 -74.37395515 -21.27824339
176.45992 -252.2061608 43.99990261
159.75358 -52.18105374 -40.00009739
226.12031 -40.51238762 47.99990261
-0.3623499992 -39.69191547 -46.00009739
216.83479 -50.09712025 -40.00009739
6.140890001 -143.3285748 43.99990261
1.567070001 -213.3622174 44.77306161
36.93057 -4.4750443 -40.00009739
241.45771 -57.08442613 -46.00009739
111.07767 -214.6558854 47.99990261
201.517 -30.90464815 47.99990261
28.24286 -127.9548567 39.99990261
206.25146 -35.9017089 47.99990261
-0.0002699992001 -62.24745518 -22.30055639
107.63864 -185.7492461 43.99990261
29.61548 -131.8180428 47.99990261
213.06714 -2.49897879e-05 -9.740299387
4.439310001 -114.5133621 43.99990261
115.53235 -178.865778 43.99990261
86.34645 -37.95951498 -46.00009739
44.99973 -110.9156675 40.89870461
165.42485 -222.6365852 47.99990261
202.4177 -60.80861677 47.99990261
34.18798 -6.23884361 47.99990261
145.57093 -192.9130088 47.99990261
79.51642 -181.8976648 47.99990261
56.42135 -65.68710551 -40.00009739
-0.0002699992001 -129.7487453 13.61174061
37.48194 -2.49897879e-05 31.05794861
170.12048 -64.72081244 47.99990261
43.24474 -240.9318857 44.99990261
110.24981 -171.1038986 47.99990261
107.21194 -2.49897879e-05 -2.388716387
143.10814 -2.49897879e-05 -22.64255439
-0.0002699992001 -69.78146529 -3.605905387
34.80315 -244.7781534 39.99990261
246.05246 -15.035946 -40.00009739
133.13153 -251.648133 43.99990261
-0.0002699992001 -97.10577157 -7.330719387
-0.0002699992001 -193.3236914 -23.35345639
161.77613 -12.52609797 -40.00009739
243.2831 -30.4756181 -46.00009739
227.26792 -11.05704929 -46.00009739
-0.0002699992001 -207.8047696 -0.1342023869
227.95104 -2.49897879e-05 47.95058861
150.66152 -61.84970178 -46.00009739
7.688240001 -165.9262102 39.99990261
51.82779 -181.747092 47.99990261
52.54523 -2.49897879e-05 -0.3017593869
123.33204 -48.03536273 47.99990261
195.47122 -17.14567798 -46.00009739
15.08645 -46.21535945 47.99990261
18.93163 -133.4796543 39.99990261
111.0562 -15.3997823 47.99990261
205.71059 -58.28175436 -40.00009739
75.51854 -58.82777341 -46.00009739
-0.0002699992001 -222.9313 6.518212613
5.536710001 -27.25207602 47.99990261
9.018960001 -70.00002403 42.81373361
97.05739 -214.7138297 47.99990261
207.8421 -67.80479885 -40.00009739
136.82597 -234.1583376 47.99990261
-0.0002699992001 -115.3827964 17.19119961
94.01584 -31.20842833 -46.00009739
41.20515 -127.0390732 44.14742061
95.89276 -160.8383648 45.08731061
-0.0002699992001 -41.31903655 23.59432061
188.96344 -230.7571262 43.99990261
21.42746 -50.94192691 47.99990261
203.06616 -17.51955479 -40.00009739
160.41025 -208.7193209 43.99990261
229.09919 -68.00002403 48.34106061
87.57428 -2.49897879e-05 -28.27636439
17.68998 -62.60039174 47.99990261
98.57108 -167.9789034 43.99990261
124.24659 -2.49897879e-05 25.90878961
25.01425 -131.7713201 43.99990261
69.49335 -157.7849854 47.99990261
59.58598 -206.5440081 47.99990261
123.91751 -237.1329316 43.99990261
183.5944 -232.1473505 47.99990261
38.82198 -8.36275283 -46.00009739
194.72843 -2.49897879e-05 10.96029861
82.84401 -172.4286091 43.99990261
106.48043 -34.30572102 -40.00009739
184.15912 -215.5366201 47.99990261
-0.0002699992001 -233.5287855 -5.659034387
106.23589 0.8714119602 -40.00009739
215.18811 -5.07851498 -46.00009739
87.61737 -54.89028211 -46.00009739
67.43331 -191.0420398 43.99990261
44.99973 -119.580248 43.67292361
40.91058 -165.9564351 47.99990261
175.30529 -14.21458352 -46.00009739
185.55083 -7.86740672 -40.00009739
149.92333 -210.1137408 47.99990261
-0.0002699992001 -133.8772655 30.30289061
67.36065 -204.0670885 47.99990261
149.20515 -237.6946994 47.99990261
32.56783 -106.7653231 44.99990261
106.79523 -2.49897879e-05 -13.06861139
72.94555 -153.3321214 43.99990261
233.23875 -2.49897879e-05 11.11008661
76.90185 -2.49897879e-05 26.31748861
158.45305 -230.4169315 43.99990261
23.45444 -106.9786555 39.99990261
213.54979 -11.85559295 -40.00009739
10.21661 -163.9942633 47.99990261
3.919540001 -161.9187435 47.99990261
49.16842 -195.0320335 43.99990261
133.50555 -3.79775271 47.99990261
36.97943 -225.789729 39.99990261
18.13054 -127.1773272 39.99990261
96.29316 -205.321857 47.99990261
151.96036 -20.38573662 -40.00009739
137.59119 -244.003361 43.99990261
-0.0002699992001 -165.9246038 10.58651861
49.09795 -140.3464702 43.99990261
169.90706 -217.9464735 43.99990261
176.87541 -2.49897879e-05 1.849676613
178.65362 -212.928054 47.99990261
30.48008 -235.2954689 39.99990261
216.64826 -2.49897879e-05 28.02559261
183.89399 -36.10740885 -46.00009739
147.41982 -4.61668972 -46.00009739
222.18037 -2.49897879e-05 -32.06394139
-0.3144899992 -160.3757112 -40.75469539
148.38929 -234.4600101 43.99990261
158.65955 -2.49897879e-05 -0.3845293869
139.35973 -37.94124191 -46.00009739
-0.0002699992001 -86.25086548 12.12484161
116.45434 -195.0448511 47.99990261
27.1001 -152.724667 47.99990261
-0.0002699992001 -186.5010904 -6.226422387
159.503 -2.49897879e-05 -13.76939139
-0.0002699992001 -217.1874243 21.72351361
-0.0002699992001 -134.3575641 -4.080175387
44.32936 -135.0223864 47.99990261
46.93719 -33.77268662 -40.00009739
9.187640001 -208.9892692 44.99990261
200.07648 -2.49897879e-05 -4.446072387
40.01456 -174.5141039 39.99990261
-0.0002699992001 -169.188353 -26.52047139
23.72489 -175.002521 47.99990261
216.56183 -68.00002403 50.98955661
-0.0002699992001 -96.36351851 10.31021761
52.97353 -158.0554481 47.99990261
73.40191 -184.4449528 47.99990261
141.296 0.1839604802 -40.00009739
-0.0002699992001 -238.5777252 -32.57834939
175.71495 -2.49897879e-05 29.27699361
-2.045459999 -65.42222525 -26.91360339
185.90464 -16.47618805 -46.00009739
73.80997 -197.4397784 43.99990261
10.16277 -2.49897879e-05 -24.86184339
-0.0002699992001 -77.44151087 -36.82016939
135.53687 -60.19947672 -46.00009739
82.36708 -161.9762663 47.99990261
54.37623 -166.5574301 47.99990261
99.87697 -216.7704467 43.99990261
187.53859 2.37849625 -40.00009739
233.25507 -2.49897879e-05 5.954243613
4.580070001 -178.3271492 39.99990261
-0.0002699992001 -52.33794767 23.67715361
6.315150001 -28.9936118 -40.00009739
-0.0002699992001 -225.9885965 -46.83556839
133.17493 -199.9405656 47.99990261
59.58668 -11.37430164 -40.00009739
1.191210001 -248.6850559 39.33004061
138.44472 -189.9547126 47.99990261
245.4918 -59.04952182 47.99990261
126.28706 -65.45325122 47.99990261
166.41204 -234.4817367 47.99990261
16.66976 -47.73327091 -40.00009739
-0.0002699992001 -194.2425514 -41.35065839
132.75175 -236.3259088 43.99990261
-0.0002699992001 -42.74094382 10.35303261
17.04018 -34.7915742 -46.00009739
74.41475 -217.5482529 47.99990261
155.19384 -250.1487283 43.99990261
92.2997 -189.8447583 47.99990261
17.87461 -173.7783828 47.99990261
30.19307 -250.2426145 39.99990261
13.05002 -120.3323629 43.99990261
195.23029 -246.9800539 47.99990261
71.84628 -149.6876968 47.99990261
105.15915 -172.6107586 47.99990261
13.58899 -145.2929297 47.99990261
125.74199 -24.23295998 47.99990261
22.23535 -38.484703 -46.00009739
84.69842 -183.4418731 47.99990261
46.97838 -148.855148 43.99990261
-1.200889999 -244.199774 43.72761261
8.971140001 -131.0591387 47.99990261
247.02994 -2.49897879e-05 -7.343193387
