# .PCD v0.7 - Point Cloud Data file format
VERSION 0.7
FIELDS x y z
SIZE 4 4 4
TYPE F F F
COUNT 1 1 1
WIDTH 1248
HEIGHT 1
VIEWPOINT 0 0 0 1 0 0 0
POINTS 1248
DATA ascii
-242.057868 -22.50053697 41.49990261
-38.885995 -24.06427697 47.49990261
-51.64391 -39.86382793 47.49990261
-158.075426 -44.3435525 47.49990261
-206.772583 -2.498606102e-05 -20.80033439
-77.278007 0.8711327139 41.49990261
-135.703356 -32.70839129 47.49990261
-49.733369 -52.36547551 47.49990261
-233.824167 -2.498606102e-05 -3.590429386
-26.097172 -10.8951148 47.49990261
-65.569022 -38.63694594 41.49990261
-202.103496 -27.60482363 41.49990261
-245.690389 -99.69038193 46.64970461
-38.74794 -2.498606102e-05 -26.90015339
-78.410199 -2.498606102e-05 -39.79783839
-108.48452 -2.498606102e-05 28.38843061
-232.843822 -71.97221799 47.49990261
-130.614464 -5.753679816 47.49990261
-169.870184 -31.49945882 41.49990261
0.0002150001583 -125.702668 -33.29458539
-241.266369 -53.02286201 41.49990261
-252.230064 -9.552591946 47.49990261
-76.867012 -60.51457705 47.49990261
-177.512273 -2.498606102e-05 -16.16716239
-222.887797 -24.53558749 47.49990261
-158.064516 -33.57155206 47.49990261
-100.41832 -47.82470936 41.49990261
0.0002150001583 -97.83477639 -40.85468239
-197.704621 -50.9296532 41.49990261
-99.165399 -2.498606102e-05 -3.791131386
-190.831874 -14.54747763 41.49990261
-235.758441 -39.9606352 41.49990261
-9.256987 -60.88482104 41.49990261
-30.456468 -25.42815632 41.49990261
-163.042377 -2.498606102e-05 -25.25091139
-140.216228 -66.60973339 41.49990261
-234.977874 -2.498606102e-05 14.95507161
-68.395308 -2.498606102e-05 -15.56835239
0.0002150001583 -16.19293715 17.72550961
-115.890326 -2.498606102e-05 32.02747761
0.0002150001583 -18.9353932 -36.44071039
-238.482871 -10.52201795 47.49990261
-206.023394 -65.6598924 41.49990261
-2.282866 -46.14452433 41.49990261
-221.037202 -69.04793638 47.49990261
-248.279125 -33.0128207 41.49990261
-64.119943 -21.60131018 41.49990261
-90.01261 -2.498606102e-05 17.28756061
-149.721446 -29.7774335 41.49990261
-172.361544 -2.498606102e-05 -22.88301239
-31.098556 -39.75719166 47.49990261
-182.432192 -2.498606102e-05 40.49234761
-250.325329 -2.498606102e-05 21.50872461
-34.449416 -4.491728006 41.49990261
-154.436412 -43.73357386 41.49990261
-203.436687 -55.38435782 41.49990261
-149.845805 -48.97393108 47.49990261
-149.26971 0.1554652839 47.49990261
-152.062639 -2.498606102e-05 -41.75856639
-249.060144 -5.189885836 41.49990261
-17.488396 -2.498606102e-05 -45.41483839
-218.038156 -2.498606102e-05 -30.52072239
0.0002150001583 -144.3200383 -38.56554839
-106.632193 -56.20397379 47.49990261
-57.205338 -16.52306058 41.49990261
-17.237634 -12.29280251 41.49990261
0.0002150001583 -151.8059359 -48.51797839
-189.581326 -2.498606102e-05 17.94716261
-77.083959 -52.41688064 47.49990261
-56.629621 -52.7032739 41.49990261
0.0002150001583 -10.37939017 5.286197614
-91.440844 -2.498606102e-05 -43.67396739
-166.521242 -25.67910714 47.49990261
-232.04591 -62.86479266 47.49990261
-103.516625 -17.4266649 47.49990261
-104.089828 -40.65828282 41.49990261
-198.157825 -33.5786023 41.49990261
-35.595416 -49.37079598 47.49990261
-65.49784 -65.05081793 41.49990261
-95.944631 -2.498606102e-05 -32.69541339
-40.956929 -0.6512038861 47.49990261
-187.51993 -20.92189326 41.49990261
-208.453679 -38.15403156 47.49990261
-247.799227 -12.31332257 41.49990261
-105.883336 -61.52941419 41.49990261
-197.835263 -63.44219673 47.49990261
-137.252299 -41.57017643 47.49990261
-97.597028 -48.97850232 47.49990261
-188.068909 -53.80897716 47.49990261
-230.635702 2.488750054 41.49990261
-9.004261 -2.498606102e-05 -42.88430439
-146.682865 -2.498606102e-05 -33.86030639
-171.587997 -17.16575626 47.49990261
-73.04695 -15.31547525 41.49990261
-188.210331 -8.997621256 47.49990261
-15.388659 -1.490941046 47.49990261
-6.111429 -2.498606102e-05 -26.57948339
-223.842151 -50.58418132 41.49990261
-182.804906 -2.498606102e-05 -26.07523639
-245.784308 -87.00662348 47.49990261
-37.007602 -40.74554485 41.49990261
-238.215412 -59.22088861 41.49990261
-137.146394 -2.498606102e-05 -34.69963639
-122.409666 -56.06181509 41.49990261
-34.181583 -59.09445894 47.49990261
-24.084979 -57.96634325 47.49990261
-45.462071 -20.97054823 47.49990261
-83.815014 -2.498606102e-05 41.35612461
-174.786103 -2.498606102e-05 11.94225161
-170.183231 -2.498606102e-05 -32.13444739
0.0002150001583 -65.28978378 -11.76169439
-45.427306 -2.498606102e-05 -41.98014239
0.0002150001583 -39.1475343 -1.227423386
-158.588491 -21.60167756 41.49990261
-21.73024 -2.498606102e-05 17.16819961
0.0002150001583 -40.4887377 12.92273961
-122.412282 -2.498606102e-05 -36.58449139
-134.783301 -52.0278962 47.49990261
0.0002150001583 -42.80326227 -42.78009639
-76.542822 -67.66095869 47.49990261
0.0002150001583 -26.87185399 -33.88375539
-5.464701 -55.04819162 47.49990261
-48.533643 -18.55765483 41.49990261
0.6761030002 -24.41133835 47.49990261
-20.947918 -47.07550756 41.49990261
-178.412478 -53.61076571 47.49990261
0.0002150001583 -52.33872589 38.08611261
-104.036766 -2.498606102e-05 -50.44216139
-121.925475 -39.50620746 47.49990261
-243.392019 -2.498606102e-05 13.07903861
-126.757168 -33.27585671 41.49990261
0.0002150001583 -15.42867837 -0.3468403858
-248.567772 -46.03338686 41.49990261
-239.025745 -80.17396591 41.49990261
-122.484415 -24.56731917 47.49990261
-238.402688 -70.60144585 41.49990261
-51.453885 -2.498606102e-05 -35.62627239
-131.903795 -39.66961477 41.49990261
-201.605583 -2.498606102e-05 7.545826614
-55.530106 -63.20728666 41.49990261
-29.194102 -45.86100539 47.49990261
-113.902757 -2.498606102e-05 -26.35364539
-202.557261 -35.09738562 47.49990261
-105.444394 -2.498606102e-05 -0.1058283858
-150.114641 -19.2569344 47.49990261
-84.620145 -15.80019656 41.49990261
-157.857507 -2.498606102e-05 -10.26016139
2.429438 -18.0283604 47.49990261
-67.494116 -2.498606102e-05 41.22558761
-2.144675 -20.69298558 41.49990261
-251.68623 -72.74473837 47.49990261
-45.732952 -2.498606102e-05 -17.13962839
-88.556817 -2.498606102e-05 -10.72910439
-81.932687 -2.498606102e-05 -4.044077386
-47.122361 -5.959620376 41.49990261
-75.44262 -36.44070857 41.49990261
-94.294768 -54.96068499 41.49990261
-160.204418 -13.16432815 47.49990261
0.0002150001583 -104.088833 -38.77514239
-171.030514 -2.498606102e-05 -47.51238139
-245.748552 -2.498606102e-05 33.11559561
0.0002150001583 -84.64927267 -49.16732239
-42.202323 -2.498606102e-05 7.115679614
-115.231071 -2.498606102e-05 -33.25229139
0.0002150001583 -7.102348906 -2.145842386
-217.163395 -61.67874628 47.49990261
-114.315739 -19.9621432 41.49990261
-23.481472 -17.53615051 41.49990261
-203.235937 -2.498606102e-05 17.05110461
-140.138573 -51.1230987 41.49990261
-13.518774 -2.498606102e-05 -22.70010439
-53.613135 -7.327681016 47.49990261
-138.608097 0.6007081139 41.49990261
0.0002150001583 -137.5172745 -33.68383139
0.0002150001583 -55.4356106 -44.34003839
-231.164793 -2.498606102e-05 34.45078761
-67.853962 -2.498606102e-05 7.731635614
-226.950581 -14.64872046 41.49990261
-201.572485 -2.498606102e-05 -13.79193539
1.356791 -2.498606102e-05 -2.630671386
-117.454152 -31.15416825 41.49990261
-219.001974 -43.38577298 47.49990261
-162.855588 -2.498606102e-05 40.37410461
-126.486215 -14.83873976 41.49990261
-236.397029 -2.498606102e-05 -12.13958039
-224.66938 -78.66931385 41.58261961
-139.908272 -2.498606102e-05 -45.07676139
-241.951291 -14.28999484 41.49990261
-69.342045 -50.21931082 47.49990261
-39.133865 -16.3198625 41.49990261
-230.753683 -6.801634186 47.49990261
-183.010427 -2.498606102e-05 -6.474993386
-78.918418 -7.745028786 47.49990261
-226.267342 -79.51983096 47.49990261
-211.048933 -15.87317425 47.49990261
-252.418417 -51.90504201 47.49990261
-181.829571 -42.20083769 41.49990261
-129.327869 -45.36005255 41.49990261
-70.715441 -7.800458076 47.49990261
-181.986651 -2.498606102e-05 5.378974614
-37.218074 -47.51457259 41.49990261
-167.966559 -11.66232285 47.49990261
-216.768335 -8.685480006 47.49990261
1.064817 -58.48682532 47.49990261
-125.832519 -2.498606102e-05 -8.775070386
-123.485988 -2.498606102e-05 17.61033061
-30.605496 -2.498606102e-05 2.828051614
0.0002150001583 -68.38112664 9.034580614
0.0002150001583 -70.82436436 -9.078698386
-163.757828 -41.83729608 47.49990261
-16.32172 -19.45057333 47.49990261
-53.840283 -31.15419101 41.49990261
-35.471656 -67.64385681 41.49990261
-84.737034 -9.762169746 47.49990261
-215.779386 -56.99883921 41.49990261
-99.725366 -67.04651861 41.49990261
0.0002150001583 -94.41832746 -19.53824539
-33.284825 -26.24740095 47.49990261
-31.184777 -51.57385093 41.49990261
-244.48637 -62.35907773 47.49990261
-203.51298 -2.498606102e-05 1.493693614
-23.678046 -2.498606102e-05 -17.33960939
-230.788405 -2.498606102e-05 -42.43791939
-80.449432 -2.498606102e-05 31.71934161
0.0002150001583 -89.89507631 -30.67830439
-2.462476 -2.498606102e-05 -45.60379739
-79.03848 -2.498606102e-05 -23.10021839
-209.941564 -53.78583738 41.49990261
0.0002150001583 -57.61554129 -23.28121939
-135.604966 -2.498606102e-05 7.294114614
0.0002150001583 -32.97332438 40.44390661
-117.810099 -2.498606102e-05 4.529973614
0.0002150001583 -66.31019802 -43.36575939
-211.253868 -2.498606102e-05 0.9402206142
-22.937813 -64.35672976 41.49990261
-242.550929 -24.32228988 47.49990261
0.0002150001583 -23.77613174 8.124178614
0.0002150001583 -23.35353875 22.58004461
0.0002150001583 -52.4862012 -28.50855739
-196.596839 -16.25225207 41.49990261
-91.574805 -2.498606102e-05 27.23046461
0.0002150001583 -38.54415391 36.67825261
-71.301781 -44.5790285 41.49990261
-39.748279 -30.35397462 47.49990261
-90.094436 -4.357052286 41.49990261
0.0002150001583 -34.89928872 -29.74217539
-116.218686 -2.498606102e-05 -6.547855386
0.0002150001583 -154.4198531 -36.53705539
0.0002150001583 -52.65971008 9.930796614
-170.721339 -2.498606102e-05 -8.908051386
-17.480135 -5.564842586 41.49990261
-4.95315 -11.8976742 47.49990261
0.0002150001583 -15.94886143 -9.547733386
-226.564237 -2.498606102e-05 -12.42657939
-76.692034 -2.498606102e-05 3.586567614
0.0002150001583 -35.29999259 18.53110161
-178.143374 -2.498606102e-05 -22.35472639
-97.280716 -4.956220266 41.49990261
-172.084949 -65.50309055 47.49990261
-85.276366 -55.51337262 47.49990261
-88.008797 -43.83197512 41.49990261
0.0002150001583 -63.3386637 -1.478924386
-52.434585 -2.498606102e-05 2.499312614
-42.799241 -54.40261828 41.49990261
0.0002150001583 -14.02223532 -22.93984939
-223.502898 -14.5981137 47.49990261
0.0002150001583 -161.6892256 -45.50630339
-71.637305 -36.97621434 47.49990261
-91.979064 -46.42204646 47.49990261
-236.270145 -32.33130668 47.49990261
-136.314622 -2.498606102e-05 -12.97333239
-169.509671 -7.187039036 41.49990261
-18.229575 -39.6360625 47.49990261
0.0002150001583 -28.71456847 -16.51269739
0.0002150001583 -1.582404976 -13.15526639
-116.171717 -64.86119581 47.49990261
-58.72562 -57.09685052 47.49990261
-44.59853 -26.97418263 41.49990261
-157.119686 -2.498606102e-05 38.54208261
-89.444278 0.4988031439 47.49990261
0.0002150001583 -67.71173587 -32.69968039
-206.475835 -68.41960823 46.45919561
-125.916867 -61.97545626 41.49990261
-6.506228 -2.498606102e-05 -33.36821739
-199.464044 -17.37429025 47.49990261
-80.838802 -2.498606102e-05 -14.71348839
-165.621374 -2.498606102e-05 -20.22478939
-45.227057 -67.55905415 47.49990261
0.0002150001583 -18.90096881 -17.50920439
-21.087495 -25.62635747 47.49990261
-234.915361 -23.69183005 47.49990261
-92.953379 -10.187496 47.49990261
-185.370675 -2.498606102e-05 -13.23108639
-161.809438 -68.00002403 43.01705061
-26.456846 -30.6626939 41.49990261
0.0002150001583 -41.22048056 -19.32433139
-5.064261 -44.49544319 47.49990261
-237.683562 -2.498606102e-05 -34.20497439
-146.523865 -9.859316586 47.49990261
-236.461058 -76.23827613 47.49990261
-247.655433 -2.498606102e-05 -0.6344653858
0.0002150001583 -8.061165466 10.36443361
-72.810567 -58.45324046 41.49990261
0.0002150001583 -55.35357233 28.60554061
-187.977785 0.4662543439 47.49990261
0.0002150001583 -30.23743269 6.750039614
-196.683067 -49.4145819 47.49990261
-138.494967 -2.498606102e-05 31.85997161
0.0002150001583 -61.17263168 -41.01039839
0.0002150001583 -47.50360741 -5.521371386
1.998077 -73.03155196 1.648794614
-154.446158 -2.498606102e-05 11.48391261
-203.146981 -52.21261012 47.49990261
0.0002150001583 -21.11000327 -24.46034139
-176.434148 -2.498606102e-05 23.66919861
-250.067987 -101.9914624 41.49990261
-41.146293 -6.115167716 47.49990261
-83.245473 -36.42825899 47.49990261
-72.492481 -2.498606102e-05 -11.47597639
-231.501359 -2.498606102e-05 -31.00746239
-28.011184 -14.48583127 41.49990261
-181.449425 -2.498606102e-05 -46.05864039
-37.980736 -24.19155438 41.49990261
-159.27294 -64.93986706 47.49990261
-46.15863 -2.498606102e-05 -28.63254339
-28.981413 -2.498606102e-05 -18.56747639
0.0002150001583 -42.58734532 -9.095325386
0.0002150001583 -20.42077947 1.795954614
-5.782654 -2.498606102e-05 10.79095961
-81.16945 -2.498606102e-05 26.35278361
0.0002150001583 -41.63526576 32.23283961
-233.480465 -87.48042364 46.31790961
0.0002150001583 -46.92770399 3.570875614
-230.585652 -62.15169449 41.49990261
0.0002150001583 -140.4477543 -42.32660539
-136.900067 -23.51781081 41.49990261
-56.739261 -2.498606102e-05 -9.284785386
-246.74584 -0.1662720761 41.49990261
-91.527782 -2.498606102e-05 -16.45000739
-23.428899 -68.00002403 46.35747361
0.0002150001583 -131.555439 -32.50662739
0.0002150001583 -3.402734496 -22.95423939
-193.396 -2.498606102e-05 -47.03210239
0.0002150001583 -40.03912366 26.97565661
-223.208654 -2.498606102e-05 -2.044892386
-62.525577 -2.498606102e-05 23.79630361
-12.921841 -2.498606102e-05 9.925552614
-83.17026 -46.11000487 47.49990261
-75.038538 -20.70647019 41.49990261
-189.291459 -15.1664859 47.49990261
-76.90362 -43.24562347 41.49990261
-241.910908 -33.3483291 47.49990261
-91.956879 -68.00002403 44.30035561
-22.554084 -27.07006005 41.49990261
0.0002150001583 -57.06336382 -49.72447139
-118.820431 -24.769259 41.49990261
-131.716343 -40.73197079 47.49990261
-216.180618 0.2494912539 41.49990261
-230.147642 -2.498606102e-05 0.2006876142
0.0002150001583 -62.44639501 6.261598614
0.0002150001583 -18.57243115 26.56785661
-150.992179 -2.498606102e-05 -21.40067639
-61.95723 -2.498606102e-05 6.970745614
-112.41497 -52.58281219 41.49990261
0.0002150001583 -39.16352209 -33.20733539
-231.716686 -2.498606102e-05 -22.29375339
0.0002150001583 -100.0770643 -32.74218939
-87.587913 -2.498606102e-05 -29.02671739
-118.610113 -53.60026426 47.49990261
-43.329015 -49.2007603 47.49990261
0.0002150001583 -25.28888972 -2.448579386
0.0002150001583 -52.44279383 -18.45866139
-119.980207 -14.55759612 47.49990261
0.0002150001583 -12.28043302 21.14058161
-35.684852 -2.498606102e-05 38.97115261
-216.260219 -70.73588775 41.49990261
-244.652677 -2.498606102e-05 -36.33613439
-149.385216 -2.681518776 41.49990261
0.0002150001583 -27.81555931 -45.25383939
-245.71096 -67.36983368 47.49990261
-65.507685 -39.85051854 47.49990261
-118.514389 -2.498606102e-05 16.11950161
0.0002150001583 -82.49396512 -39.84754739
1.512276 -15.008121 -33.25553439
-8.547563 -59.1531327 47.49990261
-150.361641 -40.61779013 41.49990261
0.0002150001583 -13.83937298 12.88261661
-251.514496 -2.498606102e-05 34.33576161
0.0002150001583 -37.83848566 -44.52564839
0.0002150001583 -68.62170374 -24.05507939
-236.326963 -3.133808316 47.49990261
-173.893966 -24.88452888 41.49990261
-153.816463 -2.498606102e-05 0.9255906142
-93.357133 -2.498606102e-05 -27.35688339
0.0002150001583 -50.96176316 -10.81545739
-250.642273 -56.66195585 47.49990261
-1.680532 -67.71424581 47.49990261
-230.256463 -43.30274802 47.49990261
-228.74474 -49.31509554 41.49990261
-24.251691 -2.498606102e-05 -0.4337013858
-105.420779 -47.06598163 41.49990261
0.0002150001583 -52.09192341 3.550301614
-176.31638 -42.34354065 41.49990261
0.0002150001583 -15.70628306 32.01721761
-94.126027 -2.498606102e-05 -4.004174386
-186.497112 -23.25879404 47.49990261
-44.544014 1.089254024 41.49990261
-168.574722 -68.00002403 43.82425361
-121.586806 -1.557630366 41.49990261
-96.036473 -14.97131842 41.49990261
0.0002150001583 -114.2884997 -38.34251839
0.0002150001583 -73.90595116 -20.72267839
-178.97871 -12.15657344 41.49990261
0.0002150001583 -77.51036185 -27.92938939
-242.314929 -2.498606102e-05 -44.57911539
0.0002150001583 -109.0486728 -36.66648239
-190.665915 -67.37459867 47.49990261
-58.788789 -34.87936431 47.49990261
0.0002150001583 -3.500171266 1.266702614
0.0002150001583 -14.9147549 7.881614614
0.0002150001583 -56.08920081 -8.809183386
-217.34851 -72.59053613 46.00949661
0.0002150001583 -56.22250751 -36.25813839
-104.842729 -64.15561972 47.49990261
0.0002150001583 -5.084560256 -9.661948386
-95.810371 -2.498606102e-05 35.09337961
0.0002150001583 -4.600082616 -17.61358239
0.0002150001583 -26.46744074 -39.42254039
-199.346237 -44.78197375 41.49990261
-98.442327 -2.498606102e-05 8.420466614
0.0002150001583 -145.8058913 -28.49948439
-233.501272 -80.50038997 41.49990261
0.0002150001583 -80.57462004 -11.76557639
-14.398884 -2.498606102e-05 19.77515061
-192.184666 -2.498606102e-05 -12.95383639
-119.880358 -46.03989608 41.49990261
-157.202313 -2.498606102e-05 -35.64276439
0.0002150001583 -107.8028197 -47.98020739
0.0002150001583 -97.00371061 -47.54685739
-125.739345 -5.231088486 47.49990261
-103.13181 -2.993434836 41.49990261
0.0002150001583 -87.65128581 -22.64506639
-151.411618 -2.498606102e-05 23.64360261
0.0002150001583 -29.03875595 29.44471161
-64.400328 -6.124704466 47.49990261
-152.845747 -5.308117966 47.49990261
-209.618309 -2.498606102e-05 11.34041461
0.0002150001583 -166.9854965 -47.33332639
-22.136335 -2.498606102e-05 -6.537913386
-126.060345 -38.10275375 41.49990261
0.0002150001583 -36.3518675 -6.346654386
-145.047512 -14.75547055 41.49990261
-86.244497 -2.498606102e-05 27.73819761
-168.098689 -17.6259879 41.49990261
-238.793084 -48.86169095 41.49990261
0.0002150001583 -46.81497157 37.30269661
-233.145297 -52.68911349 41.49990261
-64.499356 -3.767444366 41.49990261
0.0002150001583 -47.60045547 -42.30869539
0.0002150001583 -55.81619666 13.57066761
-79.588641 -2.498606102e-05 20.79140461
0.0002150001583 -26.06236546 -9.953534386
0.0002150001583 -44.85530856 -30.57169139
-105.15445 -16.5133732 41.49990261
-186.829729 -2.498606102e-05 -3.553556386
0.0002150001583 -24.07340189 34.96332161
0.0002150001583 -68.30140665 -1.346921386
0.0002150001583 -62.77179368 -33.68137039
-247.231617 -2.498606102e-05 -22.94236939
-111.3636 -29.6264253 41.49990261
-212.855711 -45.92470491 41.49990261
-208.594155 -43.63896093 41.49990261
-240.893505 -66.30006536 47.49990261
-77.574814 -2.498606102e-05 -6.442437386
-136.65511 -10.85842039 41.49990261
-72.242479 -2.498606102e-05 40.92239361
-130.045234 -51.62416711 47.49990261
-48.268187 -68.00002403 42.90409561
-127.317737 -2.498606102e-05 -16.83359939
-225.225651 -70.43533881 41.49990261
0.0002150001583 -87.76202449 -36.92047839
0.0002150001583 -66.68313359 -17.17819739
-162.210032 -2.498606102e-05 17.18873861
-233.694153 -70.11420072 41.49990261
0.0002150001583 -5.689441656 25.30480761
0.0002150001583 -47.0993332 26.33662661
-197.389658 -38.2413911 41.49990261
-144.723933 1.408473594 47.49990261
-12.688211 -68.00002403 46.10614361
-49.701618 -60.69018655 41.49990261
-147.994053 -2.498606102e-05 -5.808210386
1.818479 -2.498606102e-05 17.30871461
0.0002150001583 -29.69906655 -22.92984739
0.0002150001583 -106.6778228 -27.06022639
-183.23795 -2.498606102e-05 -21.41572539
-158.451249 -2.498606102e-05 -24.36742339
-193.795471 -58.83974904 47.49990261
0.0002150001583 -33.58386421 -40.93509239
0.0002150001583 -93.1766624 -40.84710339
-142.387705 -2.498606102e-05 11.05941061
0.0002150001583 -58.89946855 -0.0993273858
-250.973236 -2.498606102e-05 -30.44930739
-193.503732 -31.65518864 41.49990261
-149.05716 -2.498606102e-05 -25.61021439
0.0002150001583 -48.28978209 -15.72266539
-125.245831 -42.73014645 47.49990261
-122.28067 -2.498606102e-05 7.338315614
-137.231096 -17.78159393 47.49990261
0.0002150001583 -44.04778599 17.10864161
-108.103067 -45.55522091 47.49990261
0.0002150001583 -84.66916494 -43.91465139
-9.040281 -20.12105021 47.49990261
-169.673646 -57.32014672 47.49990261
-178.006865 -41.04124757 47.49990261
-176.576155 -6.244342166 41.49990261
-23.67342 1.317841904 41.49990261
0.0002150001583 -5.190326226 -28.25482439
0.0002150001583 -24.36835982 12.67875461
0.0002150001583 -112.8228573 -28.03000339
-121.753952 -20.03836012 47.49990261
-206.022108 -2.498606102e-05 -32.20968839
-220.076488 -32.56967009 47.49990261
-120.720838 -11.48484271 41.49990261
-227.755973 -2.498606102e-05 17.72013561
0.0002150001583 -120.7321716 -47.31516539
-187.71918 -2.498606102e-05 -17.13848039
-156.886124 -68.00002403 42.93834161
0.0002150001583 -29.10400752 15.59446061
-21.760809 -12.36753156 47.49990261
-73.058127 -2.498606102e-05 30.38495861
-176.137373 -67.5641601 47.49990261
-112.602507 -48.67746131 47.49990261
0.0002150001583 -149.7243618 -44.49486039
-235.487118 -13.91316072 47.49990261
-4.664117 -29.38072575 41.49990261
-222.072058 -17.65142124 41.49990261
-11.291641 -43.843864 47.49990261
-70.168599 0.7691137139 47.49990261
-165.707376 -33.22272951 41.49990261
-172.896263 -36.8993684 47.49990261
-107.76008 -36.40212453 41.49990261
-213.315349 -7.257098796 41.49990261
0.0002150001583 -141.9945494 -33.30414439
0.0002150001583 -37.91458558 -15.56468539
0.0002150001583 -77.33730578 -15.84866139
-247.479335 -62.4343371 41.49990261
2.423782 -1.352690146 25.59601161
-202.484418 -2.498606102e-05 -19.55226339
-118.066912 -2.498606102e-05 27.62451961
-245.448534 -83.04052219 41.49990261
-28.661484 -68.00002403 47.06920061
-190.827716 -2.498606102e-05 35.02662161
0.0002150001583 -148.4365589 -40.19330739
-66.171889 -13.14955803 41.49990261
-125.466272 -2.498606102e-05 -28.45737339
-110.055378 -60.14978887 41.49990261
-54.334375 -36.39245062 47.49990261
0.0002150001583 -66.84914351 -28.39345439
-55.413474 -2.498606102e-05 -27.08916439
-104.591633 -2.498606102e-05 -13.85056439
0.0002150001583 -158.3600584 -38.45247539
-69.051964 -2.498606102e-05 18.00671861
-191.661233 -3.066516516 41.49990261
-160.156009 -2.498606102e-05 34.30966761
-18.470525 -43.48796254 41.49990261
-75.765462 -53.71644738 41.49990261
0.0002150001583 -38.48093362 -40.21713739
-244.43549 -87.71385304 41.49990261
-203.722875 -14.074062 41.49990261
-104.111037 -23.47103302 41.49990261
-221.478937 -38.71417109 41.49990261
0.0002150001583 -4.123375056 14.26204761
-45.087496 -53.53113272 47.49990261
-56.833823 -10.18470463 47.49990261
-134.563527 -36.85563407 47.49990261
-70.139486 -2.498606102e-05 -24.01585539
0.0002150001583 -36.93605042 -25.96165239
-164.643326 -31.58632569 47.49990261
-154.064192 -35.09232145 47.49990261
-140.223913 -34.88762924 41.49990261
-212.921366 -27.63041893 47.49990261
-80.004969 -49.29671808 47.49990261
-139.434448 -61.70091827 41.49990261
-226.029602 -2.498606102e-05 26.78764561
-80.790723 -41.82895199 47.49990261
-200.868447 -0.4934693961 47.49990261
-19.648879 -54.64245108 41.49990261
-125.851232 -2.054659826 41.49990261
-77.361816 -61.78717163 41.49990261
-239.979531 -3.591601086 41.49990261
-27.258738 -63.98833595 41.49990261
-234.36066 -2.498606102e-05 10.77633961
-224.255096 -2.498606102e-05 -43.97502539
-38.526948 -19.04226327 47.49990261
-223.790813 -2.498606102e-05 -8.680431386
-64.726965 -2.498606102e-05 -17.59483939
-47.679082 -1.689454316 41.49990261
-223.784608 -10.42746014 47.49990261
-163.770066 -11.71739574 41.49990261
-34.894565 -11.86509014 47.49990261
-230.405826 -25.45803091 41.49990261
-90.390217 -2.498606102e-05 -23.24816439
-52.635745 -51.52770434 41.49990261
-216.151824 -2.498606102e-05 -34.22115639
-8.690457 -1.995778946 47.49990261
-159.756754 -5.975144186 47.49990261
-57.911961 -2.498606102e-05 11.57554661
-157.441184 -10.10597126 47.49990261
-49.459822 -28.93071724 47.49990261
-26.402597 -51.23663254 47.49990261
-53.344908 -26.53446085 41.49990261
-92.034866 -33.05650818 47.49990261
-2.895268 -26.44642938 47.49990261
-220.304711 -52.71414968 47.49990261
-54.912584 -2.498606102e-05 -37.91052339
-122.369135 -32.12144798 41.49990261
-85.123644 -2.498606102e-05 2.027414614
-82.484571 -68.00002403 46.33428761
-192.505169 -2.498606102e-05 21.14629761
-130.469329 -2.498606102e-05 -40.34455539
-124.371091 -0.03840982606 47.49990261
-240.015225 -60.35634054 47.49990261
-211.023883 -32.82744592 41.49990261
-235.441537 -2.498606102e-05 -38.15595539
-127.635504 -2.498606102e-05 -45.19993239
-239.72887 -39.33725717 41.49990261
-201.583402 -26.09197932 47.49990261
-155.586841 -2.498606102e-05 -43.66955839
-230.186728 -55.55904241 47.49990261
-161.887579 -17.4722909 47.49990261
-214.639461 -41.19042488 41.49990261
-49.601174 -2.498606102e-05 -16.17461539
-190.34703 -2.498606102e-05 -44.46914539
-184.105869 -2.498606102e-05 1.383797614
-35.967192 -2.498606102e-05 27.38493661
-132.425701 -17.86600584 41.49990261
-57.4223 -2.498606102e-05 17.75078361
-153.680336 -51.78037983 47.49990261
-64.255757 1.956124744 47.49990261
-97.18658 -6.041709686 47.49990261
-115.024044 -68.00002403 44.64535261
-176.545691 -2.498606102e-05 1.533515614
-55.772315 -2.498606102e-05 -16.98500239
-35.417651 -2.498606102e-05 7.944830614
-23.879576 -7.429879786 41.49990261
-184.649308 -5.199274436 41.49990261
-246.839386 -2.498606102e-05 -41.06523339
-183.245204 -4.564021366 47.49990261
-80.624664 -25.68259524 41.49990261
-134.617283 -2.498606102e-05 -31.69391239
-187.904919 -1.923366126 41.49990261
-187.536681 -50.07731048 41.49990261
-158.408064 -2.498606102e-05 16.27764261
-251.402268 -17.44250887 47.49990261
-245.316896 -3.800803616 41.49990261
-70.327719 -2.498606102e-05 26.68070961
-63.499966 -41.94607577 41.49990261
-248.79963 -41.0306274 47.49990261
-209.259829 -2.498606102e-05 -23.80650439
-126.450387 -46.43564357 47.49990261
-167.597265 -38.59377316 47.49990261
-245.564402 -70.58128365 41.49990261
-181.554693 -68.00002403 44.54841261
-73.003489 -60.17225673 47.49990261
-132.591541 -2.498606102e-05 -24.33033039
-217.110425 -65.54228646 47.49990261
-62.279379 -1.867653426 47.49990261
-28.71174 -2.498606102e-05 -22.56745439
-149.356302 -38.20886846 47.49990261
-237.024129 -2.498606102e-05 -7.418858386
-221.216814 -2.498606102e-05 37.84469861
-36.949147 -2.498606102e-05 13.69919761
-220.198322 -39.74462049 47.49990261
-159.601127 -2.498606102e-05 -0.2709963858
-98.167889 -2.498606102e-05 -7.490271386
-67.829268 -36.56462621 47.49990261
-174.122835 -55.52863726 47.49990261
-7.072019 -2.498606102e-05 -14.65418939
-166.57843 -2.498606102e-05 -13.22429139
-237.879702 -84.86821608 41.49990261
-49.212761 -2.498606102e-05 -42.44226439
-127.223439 -33.29114791 47.49990261
-98.006721 -2.498606102e-05 21.20028861
-247.53586 -2.498606102e-05 -49.94040939
-33.290393 -3.776028446 47.49990261
-225.745349 -2.498606102e-05 20.95173361
-186.919872 -57.4154977 47.49990261
-234.682137 -6.542423186 47.49990261
-143.930435 -65.90370848 41.49990261
-4.124437 -2.498606102e-05 37.25562761
-1.558492 -52.7145788 41.49990261
-66.33028 -68.00002403 43.68838161
-80.702339 -2.498606102e-05 -27.06651639
-189.148886 -2.498606102e-05 7.332714614
-65.174505 -9.284549766 41.49990261
-176.368714 -33.27995777 47.49990261
-46.764135 -17.46638761 47.49990261
-244.823383 -17.23337098 47.49990261
-221.271707 -5.829830586 47.49990261
-153.61567 -44.45600946 47.49990261
-236.575881 -2.498606102e-05 -28.88110839
-230.249382 -2.498606102e-05 -11.99491339
-55.680498 -39.84836119 47.49990261
-208.036227 -25.02424777 47.49990261
-39.646933 -49.6286327 47.49990261
-22.869925 -2.498606102e-05 22.74619461
-247.237807 -2.498606102e-05 6.784009614
-117.123876 -16.10025352 41.49990261
-102.905906 -2.498606102e-05 21.52000861
-86.956269 -2.498606102e-05 24.03600361
-23.647082 -22.98584226 47.49990261
-144.785803 -2.498606102e-05 34.31894961
-124.070964 -5.331022076 41.49990261
-132.465727 -2.498606102e-05 27.54547461
-234.135224 -2.498606102e-05 40.83644361
-28.316307 -58.28930647 41.49990261
-34.329767 -2.498606102e-05 -31.59799939
-4.332411 -49.15529491 41.49990261
-63.8182 -2.498606102e-05 -33.22326739
-93.777348 -66.582837 41.49990261
-234.368053 -2.498606102e-05 -41.61499939
-173.709574 -2.498606102e-05 -17.57336139
-44.551322 -24.46400778 47.49990261
-133.71105 -48.148579 47.49990261
-214.71561 -35.75728158 41.49990261
-93.391406 -2.498606102e-05 24.12910561
-87.388125 0.2396572039 41.49990261
-112.644743 -2.498606102e-05 -3.336008386
-32.741021 -46.19203728 47.49990261
-12.816517 -60.94655027 41.49990261
-168.669539 -2.498606102e-05 12.93458761
-145.519266 -20.68059362 41.49990261
-236.570148 -59.51146281 47.49990261
-86.753614 -2.498606102e-05 15.89086761
-248.758666 -10.27406447 47.49990261
-63.124523 -36.07136591 41.49990261
-89.85334 -36.67450882 47.49990261
-251.518406 -47.97478476 41.49990261
-122.034523 -32.90043306 47.49990261
-179.25536 -2.498606102e-05 -26.22391839
-6.600488 -2.498606102e-05 29.29151261
-119.878175 -53.61969137 41.49990261
-172.038314 -2.498606102e-05 -29.14698839
-241.554077 -82.8995043 47.49990261
-198.244605 -2.498606102e-05 -12.70847039
-137.820733 -35.49337579 47.49990261
-123.34967 -27.9561182 47.49990261
-167.272115 -39.26242681 41.49990261
-97.508938 -2.498606102e-05 -0.7338443858
-198.64138 -64.63013437 41.49990261
-73.456952 -21.75528932 47.49990261
-24.978964 -2.498606102e-05 15.98638861
-125.478206 -53.36419073 41.49990261
-207.157496 -2.498606102e-05 26.44877361
-26.705369 -2.498606102e-05 -35.34133939
-28.139387 -46.53301388 41.49990261
-97.434404 -2.498606102e-05 4.934121614
-214.37157 -2.498606102e-05 -42.83789039
-115.447028 -23.17933609 41.49990261
0.5305020002 -22.55562323 40.49990261
-81.444274 -2.498606102e-05 -41.34524539
-108.300813 2.229057724 41.49990261
-201.979969 -2.498606102e-05 10.90687361
-174.335839 -19.13201311 47.49990261
-1.978533 -2.498606102e-05 -26.03190539
-252.452023 -2.498606102e-05 37.56807661
-54.803174 -20.08801431 47.49990261
-43.060504 -2.498606102e-05 -32.25696539
-20.732216 -57.77760262 47.49990261
-106.274464 -56.94399157 41.49990261
2.291276 -28.24294996 40.49990261
-2.215024 -13.83534364 47.49990261
-60.5531 -54.54246037 41.49990261
-157.422777 1.541596754 41.49990261
-50.673352 -16.5683468 47.49990261
-204.67367 -19.2440255 47.49990261
-19.210156 -2.498606102e-05 31.52380961
-170.763229 -20.38240906 47.49990261
-174.25708 -2.498606102e-05 15.22036361
-142.07938 -38.82855563 47.49990261
-129.751285 -2.498606102e-05 -29.08276639
-152.9651 -29.78075783 47.49990261
-212.342133 -2.498606102e-05 25.54731861
-140.163394 -43.11956198 47.49990261
-231.153755 -76.03642797 41.49990261
-230.676045 -2.498606102e-05 24.12116361
-4.153197 -2.498606102e-05 -31.07445339
-229.321134 -80.07179784 41.49990261
-2.466604 -2.498606102e-05 -11.69806539
-0.9953159998 -60.85554719 41.49990261
-61.85947 -13.74537164 41.49990261
-132.595474 -34.25957186 47.49990261
-88.627704 -16.72561993 41.49990261
-140.876115 -40.57781313 41.49990261
-19.759622 -2.498606102e-05 -15.57573839
-52.141602 -33.90564099 41.49990261
-29.867595 -25.12963566 47.49990261
-100.438898 -16.94619455 41.49990261
-33.608118 -49.46538949 41.49990261
-243.279164 -53.90127224 47.49990261
-53.721896 -2.498606102e-05 7.439040614
-50.15681 -2.498606102e-05 -10.15759739
-128.454875 -64.29003883 47.49990261
-84.811892 -2.498606102e-05 -27.29922239
-126.787962 -13.20612026 47.49990261
-118.813329 -68.00002403 46.69482961
-22.205216 -28.58529884 47.49990261
-25.07155 -20.25416311 41.49990261
-123.100687 -2.498606102e-05 -39.65356439
-225.286347 -2.498606102e-05 2.324595614
-169.287354 -20.99734 41.49990261
-71.320074 -48.96835802 41.49990261
-196.830431 -22.63165011 41.49990261
-72.095833 -2.498606102e-05 7.949820614
-174.071947 -55.55800132 41.49990261
-151.294413 -22.15966898 47.49990261
-135.454163 -29.58535411 47.49990261
-199.152145 -51.34071045 47.49990261
-89.667728 -52.68823768 47.49990261
-115.553462 -2.498606102e-05 -42.59691539
-26.824761 -2.498606102e-05 18.63268761
-36.243378 -11.27662769 41.49990261
-181.551 -67.40408923 41.49990261
-204.89927 -2.498606102e-05 -36.66829339
-118.91659 -2.498606102e-05 -8.078743386
-171.546152 -2.498606102e-05 2.734856614
-215.086713 -20.94556472 41.49990261
-241.301845 -59.22233658 41.49990261
-248.872299 -2.498606102e-05 32.74139161
-163.762009 -2.498606102e-05 -36.54364039
-118.799357 -2.498606102e-05 -38.63220439
-138.760401 -32.38302875 47.49990261
-2.927803 -2.498606102e-05 -48.64081839
-165.951567 0.6627595939 41.49990261
-107.062799 -2.498606102e-05 -38.05984939
-50.185771 -6.054170116 41.49990261
-5.787177 -46.47040221 41.49990261
-11.7244 -1.685206506 47.49990261
-101.859389 -2.498606102e-05 -44.13470039
-249.266023 -54.68779322 41.49990261
-26.18055 -2.498606102e-05 24.74184661
-184.182857 -25.31971258 41.49990261
-78.78083 -2.498606102e-05 -42.80084139
-173.409536 -2.498606102e-05 -7.540925386
-87.541941 -6.952999016 41.49990261
-116.830067 -2.498606102e-05 -18.71102939
-244.866769 -13.60548607 41.49990261
-6.738853 2.257200444 47.49990261
-228.281942 -2.498606102e-05 -35.66454439
-217.441076 0.05338070394 47.49990261
-36.584802 -2.498606102e-05 -19.18192639
-91.502302 -1.734768776 41.49990261
-58.21771 -57.62979676 41.49990261
-96.67648 -0.6401748661 47.49990261
-5.535751 -39.83047881 41.49990261
-159.217417 -2.498606102e-05 -7.623769386
-214.495894 -12.32358946 41.49990261
-81.874034 -7.587949106 47.49990261
-237.855324 -49.70052914 47.49990261
-50.251506 -2.498606102e-05 4.476452614
-128.598165 -39.88903567 47.49990261
-233.768014 -2.498606102e-05 -14.05568439
-195.203132 -27.56061456 47.49990261
-156.017968 -1.021892996 41.49990261
-169.507116 -10.10539834 41.49990261
-247.190612 -63.4466106 47.49990261
-89.549049 -2.498606102e-05 -26.03671839
-157.192737 -55.2789157 47.49990261
-57.791647 -2.498606102e-05 -4.679644386
-169.384826 -2.498606102e-05 38.59302161
-86.042403 -47.9113482 47.49990261
-135.30171 -2.498606102e-05 29.66766461
-199.138229 -58.91083305 41.49990261
-76.962602 -4.155189026 41.49990261
-2.993874 -2.498606102e-05 -21.14828239
-172.273964 -2.498606102e-05 -20.02305939
-14.804893 -6.507460606 41.49990261
-82.03337 -2.498606102e-05 23.65190461
-71.808432 -2.498606102e-05 33.54377061
-119.375635 -2.498606102e-05 30.13392861
-52.246563 -2.498606102e-05 14.26547361
-92.998269 -2.498606102e-05 -30.15856939
-206.248117 -2.498606102e-05 8.116472614
-145.954565 -57.8211549 47.49990261
-233.187084 -10.0383608 41.49990261
-181.978595 -2.498606102e-05 -48.80140739
-118.050388 -2.498606102e-05 -41.34684339
-82.620691 -19.27393115 41.49990261
-126.996492 -2.498606102e-05 -23.94883239
-44.449708 -58.64361936 47.49990261
-236.366028 -68.70941048 41.49990261
-64.169832 -2.498606102e-05 11.68467961
-47.20751 -2.498606102e-05 -36.07611939
-61.417552 -21.03513746 41.49990261
-31.698108 -2.498606102e-05 -18.14814439
-81.07131 -2.498606102e-05 41.22095661
-148.286589 -2.498606102e-05 20.10259961
-49.304922 -2.498606102e-05 38.72774261
-1.386451 -30.86243141 41.49990261
-240.880734 -2.498606102e-05 -42.25892839
-168.78242 -57.05671673 41.49990261
-252.337507 -2.498606102e-05 -1.353778386
-113.857652 -63.4329945 47.49990261
-67.776314 -41.38883431 47.49990261
-23.764775 -2.498606102e-05 -23.20445339
-250.100444 -104.1004488 43.62258661
-134.010162 -26.19329216 41.49990261
-142.207215 -22.04407762 41.49990261
-74.225665 -12.88197175 41.49990261
-178.254262 -43.73382282 47.49990261
-202.421701 -41.17756095 47.49990261
-51.294713 -11.46190777 41.49990261
-90.879432 -43.97234119 47.49990261
-98.562476 -45.90998348 41.49990261
-153.420323 -2.498606102e-05 20.77733161
-216.287537 -2.498606102e-05 13.80445661
-46.255617 -2.498606102e-05 -46.06724239
-125.197516 2.482321254 41.49990261
-45.104129 -41.10797006 41.49990261
-148.17528 -62.44499932 41.49990261
-107.854343 -53.86705597 47.49990261
-29.65039 -12.4252857 41.49990261
-23.219389 -2.498606102e-05 1.981762614
-189.95812 2.191175974 47.49990261
-36.317992 -0.2296949961 41.49990261
-174.357156 -22.30988157 41.49990261
-70.050887 -2.498606102e-05 -12.41239939
-170.150915 -67.22719414 47.49990261
-77.032162 -2.498606102e-05 20.44300361
-75.442726 -60.06468288 41.49990261
-183.331233 -2.498606102e-05 -28.59750039
-150.661997 -11.39781001 47.49990261
-203.142215 -37.59010715 47.49990261
-243.927371 -2.498606102e-05 -33.88078839
-93.397549 -17.74257455 41.49990261
-72.70536 -9.389273726 47.49990261
-67.792308 -2.498606102e-05 11.78750561
-193.011516 -19.57236323 47.49990261
-148.946147 -2.498606102e-05 -11.54414739
-78.125318 -2.498606102e-05 -20.74345639
-156.755335 -2.498606102e-05 6.286511614
-107.360666 -64.06194799 47.49990261
-115.153655 -2.498606102e-05 -3.449466386
-157.790416 -36.06579546 47.49990261
-6.778859 -2.498606102e-05 -30.87521339
-236.368631 -2.498606102e-05 12.87446261
-197.781218 -12.29781067 47.49990261
-249.441152 -49.36406923 41.49990261
-6.467744 -25.72025571 47.49990261
-18.1067 -20.68570231 41.49990261
-235.773811 -2.498606102e-05 -5.130189386
-30.614385 0.1592324139 41.49990261
-191.932774 0.04183547394 47.49990261
-236.49564 -55.71403631 47.49990261
-244.573588 -47.47984848 47.49990261
-94.072634 -43.58655682 41.49990261
-184.989576 -65.68418745 41.49990261
-132.885568 -4.832469316 47.49990261
-26.132679 -57.22417599 41.49990261
-71.671859 -50.90316586 47.49990261
-243.578212 -88.01524319 47.49990261
-240.713015 -68.70586107 47.49990261
-102.447732 -53.05260322 41.49990261
-114.387101 -7.202800396 47.49990261
-211.147171 -2.498606102e-05 13.18139161
-102.925287 -42.73073491 41.49990261
-48.911183 -54.59042741 47.49990261
-226.555615 -2.498606102e-05 33.34231261
-81.531961 -2.498606102e-05 -29.51132339
-15.323085 -53.75669905 47.49990261
-42.88031 -67.59162725 47.49990261
-227.645791 -41.11011439 47.49990261
-77.059402 -38.35400788 47.49990261
-222.26322 -54.79406688 47.49990261
-124.013721 -66.80982439 47.49990261
-241.0328 -62.42857437 47.49990261
-164.103978 -65.53881659 47.49990261
-113.902335 -2.498606102e-05 -40.68576539
-189.895674 -60.27132144 47.49990261
-211.909737 -68.45302076 47.49990261
-117.806 -52.70424974 41.49990261
-39.17605 -2.498606102e-05 41.22499561
-186.288753 -2.498606102e-05 2.860175614
-161.123495 -15.20948116 47.49990261
-236.837914 -24.84369465 47.49990261
-20.275137 -42.66886529 47.49990261
-243.168989 -35.20042915 47.49990261
-121.752989 0.6685906539 41.49990261
-214.973811 -52.51821871 41.49990261
-143.121791 -2.498606102e-05 -28.07492539
-108.480916 -2.498606102e-05 -17.08523739
-33.38142 -68.00002403 42.07952961
-231.701914 0.5669041539 41.49990261
-26.94042 -66.31107785 41.49990261
-228.632649 -57.10659835 41.49990261
-176.635981 -2.498606102e-05 -14.16532839
-86.144576 -34.86032179 47.49990261
-168.923521 -40.66818565 41.49990261
-101.292967 -2.498606102e-05 -4.153818386
-245.480332 -64.76054827 47.49990261
-238.936976 -57.19629161 41.49990261
-32.505232 -2.498606102e-05 3.824487614
-107.56491 -62.85717789 41.49990261
-87.242048 -2.325699196 47.49990261
-193.796335 -2.498606102e-05 -44.93562339
1.050114 -68.00002403 46.03079361
-59.454506 -61.53602665 47.49990261
-148.892663 -2.498606102e-05 -21.10171639
-30.121235 -2.498606102e-05 -16.73644639
-84.956193 -2.498606102e-05 24.68584161
-250.706663 -2.498606102e-05 31.37310961
-39.444946 -32.43202297 47.49990261
-46.451621 -44.11523576 41.49990261
-195.859241 -36.82909053 41.49990261
-152.228581 -64.6527978 41.49990261
-15.13916 -2.498606102e-05 -21.39251039
-171.139361 -2.498606102e-05 23.87580861
-246.440393 -87.18854318 41.49990261
-137.75096 -30.57692974 47.49990261
-240.140646 -1.542928676 41.49990261
-67.251892 -43.55964105 47.49990261
-111.923641 -50.61087252 47.49990261
-95.321467 -17.05605516 41.49990261
-102.581398 -2.498606102e-05 -13.51414239
-181.342188 -47.97014644 47.49990261
-100.981264 -9.561965516 47.49990261
-233.398575 -73.91452673 41.49990261
-226.911194 -2.498606102e-05 -14.41802839
-209.173641 -2.498606102e-05 26.57311361
-71.721482 -63.72995057 41.49990261
-75.472783 -53.625702 47.49990261
-22.2356 -18.89087073 47.49990261
-181.727013 -1.585085006 41.49990261
-81.212395 -2.498606102e-05 29.86643161
-156.174624 -38.2698035 41.49990261
-159.681478 -2.498606102e-05 -11.08213939
-185.984447 -68.00002403 43.82941261
-93.598528 -57.23138778 47.49990261
-29.390435 -50.74747599 41.49990261
-236.091864 1.068787674 41.49990261
-248.898948 -44.08915871 41.49990261
-237.722696 -87.484344 41.49990261
-237.984002 -2.498606102e-05 -48.20213239
-60.526015 -8.713208106 41.49990261
-77.309771 -2.498606102e-05 -41.39837139
-72.064991 0.3730185639 47.49990261
-130.794767 -3.824894516 47.49990261
-231.203722 -80.50553238 41.49990261
-140.253228 -2.498606102e-05 32.65437661
-162.128084 -12.70683966 41.49990261
-91.977399 -4.681543496 41.49990261
-36.645712 -19.36467863 47.49990261
-10.718472 -62.10947499 41.49990261
-71.541265 -2.498606102e-05 18.11223961
0.0002150001583 -0.6008060361 -7.873688386
-132.98539 -39.31791981 47.49990261
-28.612748 -2.498606102e-05 -14.68120539
-183.759533 0.8864718539 41.49990261
-117.25085 -68.00002403 44.55527361
-216.801335 -6.800664026 47.49990261
-63.421603 -2.498606102e-05 38.89120361
-208.6706 -2.498606102e-05 7.368785614
-189.435353 -7.706155066 41.49990261
-72.745729 -50.45330531 41.49990261
-176.236204 -41.61750408 47.49990261
-125.55023 -2.498606102e-05 -10.60616839
-247.847229 -84.50864155 41.49990261
-40.355164 -2.498606102e-05 7.112435614
-0.1760629998 -2.498606102e-05 -20.55095639
-180.15058 -51.50678262 41.49990261
-199.68655 -2.498606102e-05 -47.06067339
-243.055149 -28.31211839 41.49990261
-236.402582 -59.27969055 41.49990261
-37.37253 -49.04667907 47.49990261
-155.415319 -68.00002403 45.29112861
-211.524577 -7.075693256 41.49990261
-35.445287 -47.23258251 41.49990261
-175.660794 -2.498606102e-05 3.090228614
-85.274708 -2.498606102e-05 33.99402561
-213.223098 -34.81957584 41.49990261
-230.062087 -2.498606102e-05 -40.83286639
-213.159592 -2.498606102e-05 27.09789861
-214.127674 -47.1226805 41.49990261
-65.946322 -2.498606102e-05 40.42276861
-58.906326 -55.36924657 47.49990261
-105.369707 -62.50399464 47.49990261
-156.214545 -2.498606102e-05 -10.79656939
-57.775496 -2.498606102e-05 9.864077614
-85.534159 -14.35069244 41.49990261
-192.480955 -21.18895008 47.49990261
-5.226696 -50.58405751 41.49990261
-65.942719 -2.498606102e-05 -28.08276639
-174.114636 -36.68404399 41.49990261
-195.58377 -25.78807295 41.49990261
-130.115754 -49.95181641 47.49990261
-213.25212 -2.498606102e-05 -25.48919439
-210.414971 -47.30453212 47.49990261
-66.054222 -2.498606102e-05 15.34666361
-25.295197 -2.498606102e-05 -40.22740139
-196.529635 -33.78238875 41.49990261
-171.458773 -37.67352189 47.49990261
-66.815769 -2.498606102e-05 -15.16669239
-72.794792 -2.498606102e-05 9.421718614
-171.760366 -18.52340809 41.49990261
-7.449174 -2.498606102e-05 -42.48475639
-241.730001 -2.498606102e-05 -4.932860386
-51.287508 -9.867378946 41.49990261
-31.42803 -2.498606102e-05 -4.616650386
-133.842047 -29.42602615 41.49990261
-237.340687 -58.14834579 47.49990261
-40.696036 -16.36105702 41.49990261
-27.114627 -68.00002403 44.32976761
-43.314755 -23.00736661 41.49990261
-189.312033 -2.498606102e-05 35.21221561
-122.961355 -19.13128621 47.49990261
-158.388429 -2.498606102e-05 -1.156269386
-94.352905 -41.81744424 47.49990261
-214.176299 -37.15025049 41.49990261
-152.356426 -2.498606102e-05 41.24891661
-250.54239 1.463547134 41.49990261
-195.90843 -14.9431722 41.49990261
-236.888406 -86.26944022 41.49990261
-61.702995 -48.22957416 41.49990261
-156.671415 -50.36960992 41.49990261
-103.411284 -64.31017721 47.49990261
-191.878968 -3.382118686 47.49990261
-196.776569 -2.498606102e-05 36.69427861
-157.036656 -2.498606102e-05 16.68843561
-117.172302 -68.00002403 45.97985261
-115.956889 -2.498606102e-05 -40.91392339
-39.33685 -51.01800348 47.49990261
-246.190145 -17.48430749 47.49990261
-85.473095 -2.498606102e-05 -26.08247339
-189.023861 -0.4286737461 47.49990261
-181.991997 0.8250708339 41.49990261
-60.055956 -56.10388364 47.49990261
-175.588063 -10.79869694 41.49990261
-232.748302 -2.498606102e-05 40.87396261
-68.376015 -42.59219354 47.49990261
-49.397388 -4.966465076 41.49990261
-31.184103 -2.498606102e-05 4.039378614
-243.701964 -49.70420593 47.49990261
-229.853647 -2.498606102e-05 20.37965661
-28.680971 -13.35139372 41.49990261
-245.833074 -69.29331785 41.49990261
-15.186951 -18.79054376 47.49990261
-28.704755 -2.498606102e-05 40.69991961
-5.25497 -2.498606102e-05 -38.15579339
-50.110415 -12.46915509 47.49990261
-12.943477 -1.376753766 47.49990261
-169.080744 -16.85882709 41.49990261
-238.133312 -49.91870411 41.49990261
-114.460316 -37.34363545 47.49990261
-14.947199 -47.58747524 41.49990261
-192.040029 -2.498606102e-05 24.32581861
-136.955893 -36.35541985 47.49990261
-172.877378 -2.498606102e-05 -21.08058539
-178.851347 -44.78624101 47.49990261
-215.563164 -8.672834246 47.49990261
-201.954044 -42.28669423 47.49990261
-82.965259 0.8366762139 41.49990261
-19.98594 -46.38788247 41.49990261
-154.152151 -43.41462286 47.49990261
-95.29768 -35.42077048 41.49990261
-92.852006 -46.97178868 41.49990261
-137.200893 -2.498606102e-05 26.74631361
-246.807287 -12.85673892 41.49990261
-45.426379 0.3859047939 41.49990261
-209.10623 -54.53225207 41.49990261
-5.955626 -45.15389377 47.49990261
-106.902845 -2.498606102e-05 -35.92258939
-227.650214 -2.498606102e-05 18.81293561
0.4552290002 -56.77361416 41.49990261
-163.217126 -12.73406008 41.49990261
-41.15437 0.3983435639 47.49990261
-117.345531 -2.498606102e-05 28.39921061
-40.336014 -31.23027159 47.49990261
-35.960134 -40.86709325 41.49990261
-197.99233 -53.69087634 47.49990261
-66.295898 -2.498606102e-05 -34.74673839
-242.061762 -28.57314583 41.49990261
-105.627693 -2.498606102e-05 39.19738861
-238.64526 0.4694482139 41.49990261
-139.955377 -40.15900064 41.49990261
-173.816059 -56.52168715 41.49990261
-62.401811 -24.92617152 47.49990261
-235.832681 -2.498606102e-05 -37.25993339
-126.766014 -37.42832175 41.49990261
-234.278274 -57.31896089 47.49990261
-22.888619 -2.498606102e-05 4.473919614
-173.723449 -21.58790756 41.49990261
-182.424182 -67.7989905 41.49990261
-223.065686 0.03458571394 41.49990261
-102.450972 -2.498606102e-05 6.389770614
-252.387857 -52.82392907 47.49990261
-171.718978 -55.85873652 41.49990261
-54.224137 -26.45887585 41.49990261
-34.6103 -2.498606102e-05 8.292924614
-66.781415 -2.498606102e-05 14.87169061
-5.261825 -24.06103921 47.49990261
-116.923867 -15.26690399 41.49990261
-133.598894 -47.30061051 47.49990261
-82.76725 -2.498606102e-05 -3.858599386
-187.763583 -57.46079468 47.49990261
-118.249675 -54.35629213 47.49990261
-84.745687 -2.498606102e-05 5.261635614
-192.42715 -36.52550226 41.49990261
-215.282459 -31.2085809 47.49990261
-122.907602 -27.293077 47.49990261
-59.989869 -9.300005716 41.49990261
-107.314892 -2.498606102e-05 39.84586261
-202.619793 -52.80163152 47.49990261
-28.698682 -45.25051795 47.49990261
-208.856729 -37.48821454 47.49990261
-27.971279 -64.2940998 41.49990261
-66.455965 -12.4354166 41.49990261
-235.944019 -56.24208808 47.49990261
-153.064173 -52.19299082 47.49990261
-230.558897 -2.498606102e-05 20.29797961
-182.952959 -2.498606102e-05 -28.03197239
-223.865097 -2.498606102e-05 -1.923691386
-28.871178 -2.498606102e-05 -13.15888139
-43.419033 -2.498606102e-05 14.70600161
-45.870569 -43.92482866 41.49990261
-125.442617 1.924407134 41.49990261
-174.947371 -10.32132152 41.49990261
-206.5303 -28.8287473 47.49990261
-29.94022 -25.6931892 41.49990261
-154.664811 -2.498606102e-05 10.94869661
-26.099803 -57.79637149 41.49990261
-186.959179 -2.498606102e-05 34.91148761
-29.198706 -12.68654546 41.49990261
-160.18286 -2.498606102e-05 33.78948661
-130.269264 -2.498606102e-05 10.86107061
-157.28059 -2.498606102e-05 -35.18253039
-121.074019 -2.498606102e-05 37.20790161
-121.422759 0.4845215439 41.49990261
-8.311936 -58.96562119 47.49990261
-152.433499 1.726232294 41.49990261
-68.439414 -42.85109934 47.49990261
-133.828887 -26.32636095 41.49990261
-52.491763 -45.20899988 41.49990261
0.8478480002 -164.0847097 -38.20168439
1.29992 -171.4301738 -45.78047439
0.1544070002 -124.9425283 -25.91940339
1.80464 -80.76003796 -7.189350386
1.998077 -73.03155196 1.648794614
2.291276 -28.24294996 40.49990261
