# .PCD v0.7 - Point Cloud Data file format
VERSION 0.7
FIELDS x y z
SIZE 4 4 4
TYPE F F F
COUNT 1 1 1
WIDTH 1216
HEIGHT 1
VIEWPOINT 0 0 0 1 0 0 0
POINTS 1216
DATA ascii
-252.401854 -2.498624656e-05 40.97920261
-58.69991 -2.498624656e-05 8.131189614
-87.997583 -2.498624656e-05 22.76309561
0.000215000201 -55.91208313 13.23165661
-62.441097 1.901249004 -34.73422839
-223.907333 -26.94459187 -61.50009739
-177.465808 -28.61312113 -67.50009739
-169.071773 -2.498624656e-05 -14.30790139
-220.324062 -64.95214689 -67.50009739
-175.940191 -2.498624656e-05 51.28056161
-98.284853 -2.498624656e-05 47.68788161
-223.365122 -2.498624656e-05 -8.145937386
-117.8517 -2.498624656e-05 -0.07918738576
0.000215000201 -64.69441013 -43.24053239
0.000215000201 -98.92390944 51.76153561
0.000215000201 -54.15691104 56.48212361
0.000215000201 -31.14872059 -47.36803539
-64.981643 -46.3949946 -61.50009739
0.000215000201 -10.35727397 20.15167261
-50.343487 -68.00002403 -65.37684239
-42.795681 -2.498624656e-05 47.81598061
-178.591385 -2.498624656e-05 -36.30250439
-92.76028 -50.78956411 -67.50009739
-196.898035 -2.498624656e-05 40.92810861
-233.469064 -2.498624656e-05 12.77038161
-154.080981 -9.751782246 -67.50009739
-20.350533 2.413794454 -67.50009739
-14.836253 -2.498624656e-05 -23.40686439
1.032889 -75.00104768 -19.46446539
-116.118133 -35.15513381 -67.50009739
-139.772917 -53.00248112 -61.50009739
-172.863899 -52.27629497 -67.50009739
-83.276657 -2.498624656e-05 63.63848161
-182.706244 -2.498624656e-05 3.788948614
0.000215000201 -20.75651704 56.45804861
-19.334328 -42.5708026 -61.50009739
-118.441387 -2.498624656e-05 -50.48700639
-200.190211 -12.77894797 -67.50009739
1.601852 -68.00002403 -64.28185839
-93.899998 -10.50452277 -67.50009739
-235.731182 -2.498624656e-05 54.18482261
-152.711905 -2.498624656e-05 43.33718961
-21.074481 -2.498624656e-05 46.97721061
-235.165102 -49.94857712 -67.50009739
-134.667158 -19.67300418 -61.50009739
-37.532187 -23.28803292 -61.50009739
-3.487983 -2.498624656e-05 68.89816861
-20.958855 -2.498624656e-05 -3.216956386
-215.932251 -2.498624656e-05 -28.26237439
-59.434961 -26.84230586 -61.50009739
-115.712105 -2.498624656e-05 58.85612061
1.86783 -159.8097945 62.94988461
-153.43921 -2.498624656e-05 -36.72763439
-161.574031 -2.498624656e-05 7.608695614
-60.176377 -2.498624656e-05 -15.06726339
-158.213743 -2.498624656e-05 69.44678861
1.463221 -21.56435509 -67.50009739
-250.655295 -2.498624656e-05 -53.12837539
-70.410727 -8.954241236 -61.50009739
-64.816723 -2.498624656e-05 58.34046761
0.000215000201 -80.63309732 56.45753861
-252.28232 -2.498624656e-05 -24.88931339
0.000215000201 -122.5445701 64.42203061
-52.051882 -2.498624656e-05 26.20466761
-99.667324 -68.00002403 -65.46068539
-43.506874 -2.498624656e-05 70.17006161
-79.950524 -2.498624656e-05 -28.97286839
-251.996354 -15.64324296 -67.50009739
-127.407919 -2.498624656e-05 73.49811561
-219.526064 -2.498624656e-05 78.07596361
-100.27648 -28.30927218 -61.50009739
-130.01223 -2.498624656e-05 -32.51117739
0.000215000201 -67.5403323 -2.872549386
-141.32534 -2.498624656e-05 2.304426614
-130.51508 -2.498624656e-05 45.97386761
-130.517453 -68.00002403 -64.48317739
0.000215000201 -78.62718063 18.55982161
-12.922501 -2.498624656e-05 13.57442961
0.000215000201 -53.11540027 38.80205161
0.000215000201 -39.38842786 19.43619461
-104.002611 -2.498624656e-05 10.73782961
0.000215000201 -1.573745946 -34.68182039
-190.099566 -2.498624656e-05 64.77062661
-134.058425 -3.330240896 -67.50009739
-32.396706 -2.498624656e-05 10.30015061
-131.951637 -36.87373306 -61.50009739
-246.285375 -2.498624656e-05 23.94975061
0.000215000201 -143.0734383 55.01108761
1.919187 -1.310803736 -67.50009739
-70.101677 -2.498624656e-05 20.47060961
-220.406819 -10.53918497 -61.50009739
-81.605332 -2.498624656e-05 46.22404561
0.000215000201 -48.25292367 -40.08819939
0.000215000201 -31.8837827 -12.57810439
-45.017722 -2.498624656e-05 -30.28763839
-164.749443 -37.43490135 -61.50009739
-35.945801 -3.231868696 -67.50009739
-82.932946 -2.498624656e-05 7.012505614
-203.446971 -66.24786404 -67.50009739
-188.022433 -48.45561008 -61.50009739
-101.421955 -2.498624656e-05 -54.05554939
-237.10377 -2.498624656e-05 -16.95886239
-123.282251 -2.498624656e-05 -16.23684839
-106.624921 -2.498624656e-05 -11.67292339
-6.569398 -2.498624656e-05 31.79980961
-95.308259 -2.498624656e-05 -33.36183439
-169.329826 -15.55510281 -61.50009739
0.000215000201 -15.40601734 -50.32311639
-216.734328 -47.64087373 -61.50009739
-239.271792 -26.5496468 -67.50009739
-189.341722 -2.498624656e-05 23.83140261
0.000215000201 -156.779846 78.09900661
0.000215000201 -44.90007464 1.282815614
-30.669888 -55.79760607 -61.50009739
-210.398616 1.472752374 -67.50009739
0.000215000201 -13.52238868 35.25750461
0.000215000201 -88.78282427 69.51728961
-158.187998 -2.498624656e-05 -56.37882539
-0.2284849998 -2.498624656e-05 -17.11418639
0.000215000201 -111.2484781 36.75510461
-192.785264 -2.498624656e-05 -41.80144939
-153.185462 -2.498624656e-05 -7.070560386
-210.982263 -2.498624656e-05 47.22965961
0.000215000201 -35.76212734 55.54664561
-198.445059 -30.60652303 -61.50009739
0.000215000201 -94.36580442 33.36689261
-29.815978 -2.498624656e-05 -27.21351339
-230.881774 -2.498624656e-05 -54.85354239
-154.837832 -53.16980246 -61.50009739
-196.109289 0.2338874838 -61.50009739
-51.412331 -2.498624656e-05 -44.45480939
-105.596873 -43.64870485 -61.50009739
-125.882088 -2.498624656e-05 12.33385061
-84.15712 0.4635880938 -67.50009739
-182.740161 -2.498624656e-05 37.17916461
-204.137582 -2.498624656e-05 27.81060361
0.000215000201 -31.68873846 -28.62507339
0.000215000201 -57.59977903 76.50986161
0.000215000201 -18.16142097 -7.723577386
0.000215000201 -24.87391133 18.41253661
-248.496801 -2.498624656e-05 67.46191161
-158.233737 -2.498624656e-05 29.90672761
-12.516853 -55.75321147 -61.50009739
-16.682318 -2.498624656e-05 -37.77816439
-80.359975 -43.30995671 -67.50009739
-77.831642 -2.498624656e-05 76.95854161
-209.359473 -2.498624656e-05 -5.110871386
-211.862476 -32.83515192 -67.50009739
-141.899652 -2.498624656e-05 74.98207461
-64.155614 -65.54931056 -67.50009739
-45.29932 -2.498624656e-05 3.484984614
-105.59061 -1.430755226 -67.50009739
-233.771881 -65.1370528 -61.50009739
-31.497701 -34.44939987 -67.50009739
-238.441601 -2.498624656e-05 36.80936361
-136.480288 -2.498624656e-05 33.29425761
1.229725 -55.3646988 -57.10495939
-6.884446 -10.62745938 -61.50009739
-162.58024 -2.498624656e-05 55.15167861
-74.007446 -2.498624656e-05 -42.21011139
0.000215000201 -64.44607321 46.81946261
-7.483821 -30.29595713 -61.50009739
-186.344734 -12.34629201 -67.50009739
-220.833017 -2.498624656e-05 7.152705614
-194.183169 -2.498624656e-05 -4.056475386
0.000215000201 -93.62519971 15.51867061
-162.720206 -2.498624656e-05 -26.76398039
-22.905739 -10.03635459 -61.50009739
0.000215000201 -46.14188129 67.26583361
0.000215000201 -60.9652869 -17.55481239
-106.688921 -2.498624656e-05 -40.40930339
-37.160706 -67.10458108 -67.50009739
0.000215000201 -126.8416895 77.06952161
-207.10918 -2.498624656e-05 -38.97318239
-33.696131 -2.498624656e-05 57.52011561
-192.518633 -2.498624656e-05 77.83674661
-111.44374 -2.498624656e-05 46.10897061
-220.587655 -2.498624656e-05 56.31334661
-182.278557 -2.498624656e-05 -14.59816739
-54.989801 -52.59181941 -67.50009739
0.000215000201 -114.8456084 52.51378961
-236.217926 -38.26586112 -61.50009739
-235.888162 -2.498624656e-05 -0.1021163858
-174.847305 -65.47660946 -61.50009739
-92.573173 -38.85204737 -61.50009739
0.000215000201 -65.23539104 26.17294161
-249.949226 -2.498624656e-05 54.54642761
-83.796596 -16.02059722 -61.50009739
-76.998025 -2.498624656e-05 33.60656361
-164.801817 -2.498624656e-05 -42.98090839
-162.140268 -24.49465895 -67.50009739
-121.323208 -1.067467096 -67.50009739
-122.43772 -45.87581594 -61.50009739
-104.834661 -2.498624656e-05 31.77882061
-130.101874 -2.498624656e-05 -3.944205386
-72.675295 -2.498624656e-05 -4.589091386
-76.943752 -56.18739769 -67.50009739
-60.909711 2.369334194 -61.50009739
-146.750688 -20.33688414 -67.50009739
-247.26351 -2.498624656e-05 -40.90422739
0.9744920002 -69.43510633 -31.55391439
-233.74843 -15.17339711 -67.50009739
-33.824511 -2.498624656e-05 -55.49320339
-226.506605 -2.498624656e-05 67.59621561
-248.161284 -2.498624656e-05 11.53223061
0.000215000201 -15.51251158 4.543149614
0.000215000201 -50.08807057 26.70360961
-48.834927 -29.27110681 -67.50009739
-170.891069 -2.498624656e-05 64.36237561
-233.917454 -2.498624656e-05 25.27970461
-188.232232 -2.498624656e-05 49.98606661
-113.540753 -23.180805 -61.50009739
-186.859884 -36.16847413 -61.50009739
-99.812322 -2.498624656e-05 59.92055961
-92.463105 -2.498624656e-05 -0.6809633858
-196.109431 -57.64206215 -61.50009739
-170.53248 -2.498624656e-05 36.43314961
-103.064044 -15.88350898 -61.50009739
-44.25523 -2.498624656e-05 35.56078461
-88.561114 -63.05831629 -61.50009739
0.000215000201 -65.16966396 64.73394861
-52.700166 -2.498624656e-05 59.23420261
-210.860223 -56.62523141 -67.50009739
-224.715719 -2.498624656e-05 -39.08108839
-129.611636 -2.498624656e-05 -45.82890839
0.000215000201 -39.06608741 -57.80920639
0.000215000201 -72.71407144 8.193839614
-144.010334 -2.498624656e-05 -29.43655939
0.000215000201 -0.6115696562 9.745404614
-222.242408 1.370436584 -67.50009739
-213.877397 -2.498624656e-05 21.09145261
-52.917435 -16.81729528 -67.50009739
-14.166939 -2.498624656e-05 75.88676961
-219.102845 -2.498624656e-05 -56.24361739
-91.043907 -2.498624656e-05 -22.45236439
-145.96815 -2.775540356 -61.50009739
-27.647443 -2.498624656e-05 -12.70106239
-250.313099 -57.16770356 -67.50009739
-127.05551 -13.37319291 -67.50009739
-15.132048 -2.498624656e-05 -57.50307939
0.000215000201 -89.5311913 45.10850061
-185.156836 -2.498624656e-05 -53.65254539
-44.17032 -57.99212692 -67.50009739
-76.930571 -2.498624656e-05 -58.02838339
0.000215000201 -15.30109194 -36.97083139
-9.194357 -2.498624656e-05 -5.188464386
-71.309956 -36.8329178 -61.50009739
-206.535182 -20.19068109 -61.50009739
-12.481484 -2.498624656e-05 61.81681561
0.000215000201 -24.6787459 44.49814161
-68.019626 -22.24484205 -67.50009739
-164.034899 -4.152247936 -67.50009739
-209.699753 -2.498624656e-05 -18.09750839
-129.042824 -2.498624656e-05 -57.21373639
-157.031912 -2.498624656e-05 18.05644861
-164.968292 -2.498624656e-05 -3.260602386
-90.684217 -2.498624656e-05 33.81536061
0.000215000201 -56.51647988 -7.116602386
-227.25774 -2.498624656e-05 -22.50125839
-190.5923 -2.498624656e-05 -25.44719039
-193.61527 -21.9340419 -67.50009739
-216.468438 -19.22600597 -67.50009739
-58.113718 -2.498624656e-05 -3.114381386
1.922503 -32.66990329 -67.50009739
-20.747337 -29.9299517 -61.50009739
0.000215000201 -103.3734519 61.91513261
-49.942268 -2.498624656e-05 15.32197361
-184.619893 -58.29892926 -67.50009739
-145.537891 -65.23482001 -61.50009739
-35.797098 -2.498624656e-05 -1.677625386
-177.301283 -2.498624656e-05 13.13703661
-223.799772 -42.11813734 -67.50009739
-19.966766 -2.498624656e-05 33.55728861
-157.264355 -2.498624656e-05 -17.51796839
-243.863533 -45.62415151 -61.50009739
-152.470718 -2.498624656e-05 58.35741661
-127.146795 -55.3601811 -61.50009739
-24.380622 -2.498624656e-05 17.19923561
-94.366332 -2.498624656e-05 69.98733461
-166.269674 -57.83979394 -61.50009739
-222.444003 -54.10089943 -67.50009739
-214.157822 -2.498624656e-05 33.42768861
0.5093050002 -25.18201786 77.86514861
-134.180552 -2.498624656e-05 18.94654261
-43.653786 -2.498624656e-05 -51.43049739
-92.376614 -2.498624656e-05 11.44538961
-237.242539 -2.498624656e-05 67.05480361
-57.393975 -39.25864349 -61.50009739
-117.877695 -2.498624656e-05 -40.08956839
0.000215000201 -42.34696875 47.48087061
-4.637022 -2.498624656e-05 21.65139261
-69.759619 -2.498624656e-05 49.29593061
-26.965109 -45.98067301 -67.50009739
0.000215000201 -31.89165059 26.83070361
0.000215000201 -151.5064644 68.71168161
-10.569083 -68.00002403 -64.54382439
-130.473178 -2.498624656e-05 60.95273661
-24.582043 -2.498624656e-05 -51.07149439
0.000215000201 -41.72929835 -15.31732939
-65.935552 -2.498624656e-05 -23.50766939
-8.215253 -0.2430306762 -67.50009739
-151.453612 -2.498624656e-05 3.046441614
-60.773713 -2.498624656e-05 -48.26502139
-94.798618 -1.616382556 -61.50009739
-121.905931 -62.97894305 -67.50009739
-240.308772 -2.498624656e-05 -58.20192839
0.000215000201 -59.94987675 -28.64874839
-140.163942 -42.44026342 -61.50009739
-40.710949 -16.08039841 -67.50009739
-155.124012 0.1228399438 -67.50009739
-43.601022 -1.509624946 -61.50009739
-142.556014 -9.794922926 -67.50009739
-41.267903 -35.62835122 -67.50009739
-113.532962 -0.7189394562 -61.50009739
0.000215000201 -83.91857215 37.02727361
-73.189696 -2.498624656e-05 -14.37759239
-172.412731 -43.53006841 -61.50009739
-12.850038 -38.35367203 -67.50009739
0.000215000201 -113.423357 67.85612561
0.000215000201 -35.93789526 -37.39598439
0.000215000201 -77.65888784 -3.808732386
0.000215000201 -93.45859689 78.04591461
-91.424092 -19.90161288 -67.50009739
-12.928069 -2.498624656e-05 41.69959561
-154.044857 -39.06164049 -61.50009739
-97.165953 -2.498624656e-05 25.81205761
-221.909702 -2.498624656e-05 46.74876361
-99.834259 -36.73153629 -67.50009739
-194.980155 -41.77610697 -61.50009739
-68.030883 -2.498624656e-05 72.21346961
0.000215000201 -134.9822494 60.23694861
-107.010869 -53.15832761 -61.50009739
-213.288572 -68.00002403 -61.70473239
0.000215000201 -27.13282431 63.64104961
-249.823927 -8.467022706 -61.50009739
-179.749069 -2.498624656e-05 68.05150961
-63.16101 -4.767698916 -67.50009739
-46.93419 -11.99451029 -61.50009739
-46.905735 -2.498624656e-05 -6.869003386
-53.337036 -59.84344208 -61.50009739
-3.175205 -54.53188804 -67.50009739
0.000215000201 -42.0423616 33.22002661
-0.3382789998 -2.498624656e-05 55.69411761
-148.048007 -50.43122661 -67.50009739
-114.496015 -66.50464316 -61.50009739
-231.79049 -6.728572206 -61.50009739
-119.39503 -2.498624656e-05 68.55235761
-63.886604 -32.55894108 -67.50009739
-238.608088 -56.3186188 -61.50009739
0.000215000201 -22.91281923 35.25358961
-208.240501 -39.08144332 -61.50009739
0.000215000201 -80.8669854 77.95515461
-181.858176 -17.97322629 -61.50009739
-228.231155 -48.65593261 -61.50009739
-215.720723 -2.498624656e-05 65.40031361
0.000215000201 -24.88907101 -54.17232339
0.000215000201 -71.492143 57.81505261
-74.953634 -23.36786619 -61.50009739
-143.694601 -2.498624656e-05 45.06664361
-7.612473 -2.498624656e-05 -39.56656439
0.000215000201 -42.0743102 -29.24856139
0.000215000201 -23.11683815 -18.55046139
0.000215000201 -5.238146216 -58.02280839
-138.865154 -2.498624656e-05 11.08887161
-8.23008 -2.498624656e-05 -29.69191339
-106.53776 -2.498624656e-05 -21.06341739
-174.205844 -2.498624656e-05 0.5423486142
-127.426007 -2.498624656e-05 34.12059561
-123.724952 -7.430390686 -61.50009739
-243.254631 -21.0481751 -61.50009739
-168.769213 2.453151904 -61.50009739
-8.83798 -20.51908399 -67.50009739
-135.553431 -26.33903256 -67.50009739
0.000215000201 -68.8327804 -12.98811939
-231.637123 -31.31896173 -67.50009739
0.000215000201 -43.95557976 -47.97017239
-28.6823 -68.00002403 -64.69526139
-202.69642 -2.498624656e-05 69.54083561
-189.263789 -5.549551226 -61.50009739
0.000215000201 -33.57869425 12.05389761
-240.200887 -2.498624656e-05 -7.940877386
-168.506719 -31.97847214 -67.50009739
-17.318131 -51.24364426 -67.50009739
-149.531593 -2.498624656e-05 28.00894761
0.000215000201 -83.11466599 26.24867061
-75.668972 -49.75723522 -61.50009739
-66.845966 -2.498624656e-05 12.20714461
1.176462 -0.5000249862 -44.30795639
-202.019538 -2.545318226 -67.50009739
-205.966157 -2.498624656e-05 -30.17894839
-32.628466 -11.45416297 -67.50009739
0.000215000201 -4.696650736 -24.60719239
-132.557375 -43.28870121 -67.50009739
-115.239644 -2.498624656e-05 -9.937947386
0.000215000201 -100.7499301 43.16627861
0.000215000201 -151.9343737 59.53513661
-204.762535 -49.75790588 -61.50009739
-166.494985 -2.498624656e-05 44.19894061
-0.7282459998 -12.09983181 -67.50009739
-9.827833 -2.498624656e-05 5.427436614
-135.18695 -61.30660071 -67.50009739
-71.762072 -44.62992055 -67.50009739
-193.006702 -2.498624656e-05 31.71568361
-5.124257 -47.4797522 -61.50009739
-178.390925 -45.43732096 -67.50009739
-134.141301 -2.498624656e-05 -21.31768339
-61.376419 -2.498624656e-05 66.30334061
-85.736075 -2.498624656e-05 73.40033961
0.000215000201 -21.73915113 26.67559161
-149.577268 -2.498624656e-05 69.94307161
0.000215000201 -118.1914675 77.08126661
-231.206843 -22.30521749 -61.50009739
-27.656021 -2.498624656e-05 41.38314361
-227.267455 -36.96749726 -61.50009739
-202.232807 -24.65959247 -67.50009739
-107.763645 -25.4143072 -67.50009739
-29.59509 -2.498624656e-05 76.22317261
-214.560519 -2.498624656e-05 -43.27065439
-221.174957 -2.498624656e-05 15.74427861
-231.191111 -57.56158372 -67.50009739
-194.162685 -48.6121051 -67.50009739
0.000215000201 -50.15393329 -12.88240739
-163.191239 -15.98135761 -67.50009739
-114.863887 -2.498624656e-05 7.959273614
-230.765882 2.305291954 -67.50009739
-192.52375 -33.88447675 -67.50009739
0.000215000201 -77.78862615 64.52632661
-187.596536 -2.498624656e-05 15.45587561
-28.278395 -2.498624656e-05 2.404180614
-180.285109 -36.68311223 -67.50009739
-246.729678 -2.498624656e-05 34.59105361
-210.385125 -7.060520886 -67.50009739
-174.098399 -6.903346526 -67.50009739
0.000215000201 -15.14369192 50.04224761
0.000215000201 -97.90013159 70.78627761
-54.360281 -2.498624656e-05 50.89420861
-241.959119 -36.44643949 -67.50009739
-115.441762 -43.60567161 -67.50009739
0.000215000201 -7.934726246 28.27467561
-120.512504 -19.01412946 -67.50009739
-145.82285 -2.498624656e-05 -45.44208339
-110.203079 -2.498624656e-05 16.46915061
0.000215000201 -15.8143964 13.71431761
-201.593761 -2.498624656e-05 5.207387614
-52.891774 -2.498624656e-05 -60.43978939
-81.115754 -10.75324349 -67.50009739
-14.213838 -2.498624656e-05 53.57786861
-183.5406 -4.200699166 -67.50009739
0.000215000201 -9.047881916 -44.83385539
-166.870037 -2.498624656e-05 28.44667261
-101.951145 -60.18753116 -67.50009739
-43.327333 -2.498624656e-05 56.18388461
0.000215000201 -37.05892509 -5.988008386
-250.877722 0.2252902438 -61.50009739
0.000215000201 -55.32877254 4.880773614
-200.777367 -2.498624656e-05 -48.20309439
-170.260771 -2.498624656e-05 -35.60485039
-37.953876 -9.108207696 -61.50009739
0.000215000201 -25.07456233 -2.988011386
-22.953771 -2.498624656e-05 -31.94038339
0.000215000201 -131.1814418 67.63721161
-147.727031 -26.01283519 -61.50009739
-86.131937 -37.32751812 -67.50009739
-95.204312 -2.498624656e-05 78.25708761
-107.648659 -2.498624656e-05 56.87119761
0.000215000201 -10.86229591 -3.797942386
-177.904676 -2.498624656e-05 -44.55827939
-226.094146 -2.498624656e-05 22.39244061
-65.658 -2.498624656e-05 3.669933614
0.000215000201 -118.0791465 44.59977061
0.000215000201 -165.3216969 76.51259961
-62.721527 -41.22837092 -67.50009739
0.000215000201 -45.04129914 55.25355361
-147.315907 -57.2156704 -61.50009739
0.000215000201 -68.22869852 15.06799961
-243.241075 -2.498624656e-05 -49.61283539
-134.649151 -8.894269316 -61.50009739
-79.646463 -20.33206243 -67.50009739
-121.962084 -2.498624656e-05 53.56976561
-40.136769 -54.1543081 -61.50009739
-111.000164 -32.97878536 -61.50009739
-93.676829 -2.498624656e-05 -51.43504739
-82.578069 -2.498624656e-05 -18.19209939
-165.004153 -2.498624656e-05 20.49532561
-175.120042 -15.00398996 -67.50009739
-178.385573 -2.498624656e-05 -7.456897386
0.000215000201 -13.33356996 -18.67972739
0.000215000201 -50.37159563 48.69251861
-86.703106 -27.22128396 -61.50009739
0.000215000201 -72.54545803 47.11117361
-225.288469 -62.70834052 -61.50009739
0.000215000201 -65.94366988 36.10146761
-143.179179 1.846697514 -67.50009739
-146.894864 -2.498624656e-05 10.33183661
-109.844868 -2.498624656e-05 0.8474566142
-236.702149 -2.498624656e-05 44.66309061
0.000215000201 -49.24111719 17.72263261
-228.733548 -66.91412751 -67.50009739
-152.945937 -2.498624656e-05 -50.30988639
-190.389963 -15.78452674 -61.50009739
-232.242407 -2.498624656e-05 -41.76221839
-19.474853 -2.498624656e-05 9.010913614
-81.162625 -2.498624656e-05 54.19499661
-84.432688 -2.498624656e-05 14.84979261
-100.073153 -20.19177889 -67.50009739
-117.813912 -2.498624656e-05 -22.35995539
-188.640452 -28.41802905 -61.50009739
-78.555535 -33.57468853 -61.50009739
-100.10882 -2.498624656e-05 -2.811507386
-141.538587 -2.498624656e-05 52.87807861
-88.653181 -2.498624656e-05 42.60642461
0.000215000201 -53.75996818 69.41649761
-10.302906 -2.498624656e-05 -13.02248639
-93.379698 -58.67348728 -67.50009739
-62.033246 -2.498624656e-05 18.47676561
-7.221527 -2.498624656e-05 -21.35372939
-71.112967 -2.498624656e-05 63.06532861
-149.809576 -2.498624656e-05 -20.01095839
-199.874944 -2.498624656e-05 19.65106761
-7.277269 -61.2301125 -67.50009739
-49.04926 -2.498624656e-05 43.06696761
0.000215000201 -91.08929812 62.02694961
0.000215000201 -123.3407657 53.16223261
-89.953805 -46.61051827 -61.50009739
-124.172668 -2.498624656e-05 19.97286161
-230.866033 -2.498624656e-05 61.11281261
-2.700579 -38.96390816 -67.50009739
-175.862531 -59.48659579 -67.50009739
0.5236470002 -19.53153716 65.31073861
-80.899945 -2.498624656e-05 -3.098385386
-173.462899 -32.00890846 -61.50009739
-29.314349 1.984095674 -61.50009739
-197.956592 -68.00002403 -62.29274139
0.000215000201 -7.903286006 5.990339614
-193.537717 -7.910350756 -67.50009739
-28.479636 -15.39835865 -61.50009739
0.000215000201 -82.701192 48.72894261
-23.424933 -49.30872282 -61.50009739
0.000215000201 -130.9761915 52.09066561
-156.879419 -2.498624656e-05 -43.69113939
-211.733612 -42.40126168 -67.50009739
-136.423849 -35.1113065 -67.50009739
-183.51598 -2.498624656e-05 29.53203461
-190.184325 -41.94806119 -67.50009739
-101.536231 -9.659971416 -67.50009739
0.000215000201 -55.78832328 -41.51531339
-240.185297 -66.71922527 -67.50009739
-3.947255 -27.12584082 -67.50009739
0.000215000201 -4.603962856 -8.191335386
-245.067479 -2.498624656e-05 60.42558661
-242.266136 -2.498624656e-05 -30.00880739
-118.466052 -2.498624656e-05 43.12299461
-138.281499 -68.00002403 -65.65277239
-115.573294 -49.11460916 -61.50009739
0.000215000201 -80.1945167 6.948464614
-16.770544 -63.38797616 -61.50009739
-70.908116 -2.498624656e-05 29.09665361
-241.448563 -16.81700276 -67.50009739
-106.615824 -2.498624656e-05 64.36008861
-207.100238 -63.45561608 -61.50009739
-33.436286 -29.6412448 -61.50009739
-136.985496 -2.498624656e-05 -11.79861539
-203.526116 -2.498624656e-05 48.35208661
-41.453184 -2.498624656e-05 -44.22098539
0.000215000201 -107.3804243 51.56214261
0.000215000201 -26.88783209 -34.40296739
-168.532481 -41.22635116 -67.50009739
-230.071591 -2.498624656e-05 40.00095561
-130.715659 -48.7695061 -61.50009739
-130.218059 -2.498624656e-05 53.47055361
-239.634897 -2.498624656e-05 20.44743861
-187.001183 -2.498624656e-05 -31.99503339
-186.179585 -22.60765083 -67.50009739
-32.601724 -2.498624656e-05 33.16868261
-12.681882 -15.30513184 -61.50009739
-11.186746 -42.39982218 -61.50009739
-122.507369 -41.33031513 -67.50009739
-141.572433 -16.97238105 -61.50009739
-120.246475 -2.498624656e-05 -57.67706239
0.000215000201 -141.1631789 64.44009961
-193.388955 -2.498624656e-05 -49.18451339
-122.662777 -55.61252546 -67.50009739
-177.726309 -49.72317433 -61.50009739
-163.508342 -2.498624656e-05 74.60098561
-2.663962 -23.03203229 -61.50009739
-216.731386 -2.498624656e-05 -4.918322386
-75.894053 -2.498624656e-05 40.89741961
-45.439058 -21.73360665 -67.50009739
-220.476339 -29.49595637 -67.50009739
-44.23363 -66.66317591 -61.50009739
-226.864918 -2.498624656e-05 77.55838761
-108.198745 -36.18406464 -67.50009739
-44.1686 -26.39888466 -61.50009739
-51.043428 -2.498624656e-05 -34.45698639
-51.670488 -2.498624656e-05 66.47541461
-70.603485 -17.49053285 -61.50009739
-99.442751 -2.498624656e-05 40.47108261
-206.341994 0.4969039438 -61.50009739
-108.11362 -46.94559139 -67.50009739
-47.581552 -42.92151249 -67.50009739
-59.101383 -52.99582839 -61.50009739
-56.802503 -23.67941107 -67.50009739
-216.63438 -26.76496021 -61.50009739
-244.649774 -2.498624656e-05 49.56282061
0.000215000201 -77.72337225 -11.07919239
0.000215000201 -60.77904877 -52.41758339
-170.063654 -2.498624656e-05 13.68280261
-78.873264 -59.76945784 -61.50009739
-1.755473 0.8613682438 -61.50009739
-109.115546 -16.56257521 -67.50009739
-68.052813 1.252095014 -61.50009739
-72.250282 -2.498624656e-05 -52.51902739
-113.749209 -60.33205732 -67.50009739
0.000215000201 -25.89912265 11.26529661
0.000215000201 -49.66910352 -52.38308039
-19.679251 -33.78894919 -67.50009739
-107.900269 -2.498624656e-05 39.84829961
-74.602818 -33.42936367 -67.50009739
-102.116825 -3.320173796 -61.50009739
0.000215000201 -12.4534194 42.36253161
-56.85791 -16.52298125 -61.50009739
-213.878803 -0.3582123562 -61.50009739
-146.916567 -35.03459346 -61.50009739
-106.094864 -9.383689226 -61.50009739
-154.664768 -27.15725523 -67.50009739
-58.240178 -2.498624656e-05 39.73780561
-104.820439 -2.498624656e-05 -47.75280639
-93.646445 2.169805634 56.99990261
-62.143305 -2.498624656e-05 33.04356161
-10.790435 -6.908310626 -67.50009739
-245.804354 -2.498624656e-05 4.788197614
0.000215000201 -90.5679335 21.97198261
0.000215000201 -100.7162856 30.10925761
-15.631514 -2.498624656e-05 -30.73264139
-30.387272 -38.12269265 -61.50009739
0.000215000201 -37.77134226 -23.57800439
-43.977792 -5.311533696 -67.50009739
-214.858049 -2.498624656e-05 41.26844261
-53.159991 -2.498624656e-05 -13.94939839
-246.039968 -8.232191896 -67.50009739
-159.550545 -4.712025306 -61.50009739
-228.591639 -4.732380236 -67.50009739
-165.407892 -44.52630815 -61.50009739
-66.013423 -29.40997963 -61.50009739
-228.700891 -2.498624656e-05 53.53025161
-216.548828 -10.49551444 -67.50009739
-163.468466 -2.498624656e-05 34.63542361
-96.457867 -19.38578994 -61.50009739
-21.306939 -2.498624656e-05 63.13712061
-98.072567 -2.498624656e-05 -21.99578639
-227.896117 -2.498624656e-05 8.466931614
0.000215000201 -8.981524076 -30.18863339
0.000215000201 -21.16045802 -46.32611439
-243.879961 -2.498624656e-05 -18.71829739
-182.774956 -2.498624656e-05 61.74032961
-30.876653 -2.498624656e-05 67.97999261
-125.614133 -2.498624656e-05 -27.07466639
-35.95117 0.3059955238 46.41733861
0.000215000201 -32.04003948 43.88047361
-106.423277 -22.10578634 -61.50009739
-179.782683 -60.54027418 -61.50009739
-124.397649 -65.52671447 -61.50009739
-162.436875 -2.498624656e-05 -33.72351939
-250.604482 -2.498624656e-05 -34.80077139
0.000215000201 -64.15033879 53.76402061
-241.955865 -28.79458115 -61.50009739
-157.95523 -51.65827104 -67.50009739
0.000215000201 -133.2782095 74.52526461
-133.952577 -13.90318781 -67.50009739
-63.746232 -10.78652646 -61.50009739
-37.716611 -63.72014702 -61.50009739
-175.74101 -2.498624656e-05 -54.86075939
-170.362151 -20.01009982 -67.50009739
-191.499876 -2.498624656e-05 -16.29928439
0.000215000201 -60.82470045 0.7409566142
-146.410857 -47.51503531 -61.50009739
-160.608941 -2.498624656e-05 47.73729161
-206.6517 -2.498624656e-05 -11.94654539
-225.192152 -19.01367832 -61.50009739
-158.561923 -58.91688212 -61.50009739
0.000215000201 -40.13236226 64.01588761
-250.323308 -43.41588689 -61.50009739
-108.10863 -2.498624656e-05 -33.73200039
-29.033251 -52.99098504 -67.50009739
-185.917501 0.3805575838 -61.50009739
0.000215000201 -71.25992831 29.64296161
-213.491171 -2.498624656e-05 59.03877561
-137.044711 -2.498624656e-05 26.58281861
-90.34778 -14.492442 -61.50009739
-102.989878 -2.498624656e-05 22.44541761
-227.824629 1.659026484 -61.50009739
-59.364309 -62.78479116 -61.50009739
-92.161297 -0.2118671062 -67.50009739
-135.938809 -2.498624656e-05 -29.39119439
-186.521432 -2.498624656e-05 -44.16291439
0.000215000201 -62.71266446 11.27968761
-177.716603 -2.498624656e-05 44.83392961
0.4741360002 -90.43364384 5.555801614
-203.797162 -14.12271109 -61.50009739
-45.599086 -2.498624656e-05 27.83871761
-15.766933 -2.498624656e-05 19.58948461
-229.938032 -2.498624656e-05 -7.114330386
-66.251232 -52.92280893 -61.50009739
-113.495698 -41.51413681 -61.50009739
1.612414 -2.498624656e-05 64.64344561
-96.724126 -10.87956249 -61.50009739
-25.490993 -63.1474816 -61.50009739
-192.978337 -63.69590576 -61.50009739
-172.445418 -2.498624656e-05 6.931839614
-179.057109 -26.29283122 -61.50009739
-202.24609 -36.3035367 -61.50009739
-63.926325 -2.498624656e-05 24.79413361
-0.5494549998 -31.50624942 -61.50009739
-144.297816 -55.85140926 -67.50009739
-162.97913 -2.498624656e-05 61.71969561
-152.577318 -55.43816706 -67.50009739
-176.479667 -67.60835256 -67.50009739
0.000215000201 -0.5245035162 26.25947161
-67.227304 -2.498624656e-05 -47.15803739
-168.648616 -10.52497577 -67.50009739
-86.019663 -46.58822117 -67.50009739
-196.742419 -2.498624656e-05 -27.66294439
-194.383071 -2.498624656e-05 59.83562761
-41.645028 -29.10915892 -67.50009739
-60.24882 -56.45741194 -67.50009739
-75.76369 -41.60016544 -61.50009739
0.000215000201 -81.84215369 69.63555961
-242.010112 -47.37605875 -67.50009739
-83.448431 -2.498624656e-05 -58.12052139
0.000215000201 -60.69539696 30.84882161
-51.372087 -29.089166 -61.50009739
-115.797748 -2.498624656e-05 51.47530761
0.000215000201 -158.9621021 71.97198261
0.000215000201 -70.12772097 21.28363661
-149.785694 -2.498624656e-05 37.53487061
0.000215000201 -44.02087676 13.85407961
-36.971567 -16.82171305 -61.50009739
0.000215000201 -7.707885406 -15.45108039
-74.643605 -11.17458825 -67.50009739
-71.501864 -51.10752281 -67.50009739
-229.955011 -40.09026715 -67.50009739
-15.054349 -26.83489931 -61.50009739
0.000215000201 -25.51300706 -11.41350239
-19.340259 -57.44752885 -61.50009739
-53.433476 -49.87105993 -61.50009739
-166.835501 -54.61127736 -67.50009739
-152.691544 -11.70537819 -61.50009739
-1.047059 -59.51392499 -61.50009739
-181.255606 -68.00002403 -61.92724439
-200.357913 -2.498624656e-05 -5.921026386
-225.853697 -34.16864124 -67.50009739
-22.264747 -36.83859879 -61.50009739
0.000215000201 -35.75296449 2.029000614
-213.507414 -2.498624656e-05 75.86675461
-57.990509 -12.8992965 -67.50009739
-82.85966 -2.498624656e-05 31.01389561
-164.318375 -25.01278781 -61.50009739
-93.657156 -2.498624656e-05 19.77563661
-140.389967 -20.90584507 -67.50009739
0.000215000201 -27.10540634 -24.17811339
-71.469379 -2.498624656e-05 55.44459361
-22.106735 1.156829114 -61.50009739
0.000215000201 -42.55368288 -37.23099039
-124.235445 -2.498624656e-05 -40.40620739
-79.07728 -2.498624656e-05 -50.13530839
-63.862262 -2.498624656e-05 -5.837895386
-182.201383 -11.62489043 -61.50009739
-180.678196 -2.498624656e-05 55.49726361
-208.560533 -24.62200133 -67.50009739
1.25078 -62.56871429 -67.50009739
-12.70836 -7.318245496 -61.50009739
-207.273143 -18.38305642 -67.50009739
-33.298939 -2.498624656e-05 16.53937361
0.000215000201 -58.3166273 48.28937861
0.000215000201 -49.19824547 73.76225761
-75.275884 -13.28705841 -61.50009739
-48.83528 -2.498624656e-05 -25.29624439
-18.176021 -45.0264245 -67.50009739
-34.851882 -47.5008413 -67.50009739
-150.2017 -2.498624656e-05 -30.43536839
-248.241509 -62.74889293 -61.50009739
-115.825936 -2.498624656e-05 19.22052961
0.000215000201 -96.98206956 64.59500761
-54.359961 -2.498624656e-05 3.622700614
-165.791709 -3.961024906 -61.50009739
0.000215000201 -88.24200462 12.34277761
-124.859546 -2.498624656e-05 -0.5439393858
0.000215000201 -26.6286874 -43.05499339
0.000215000201 -110.2652316 62.48258961
-29.381345 -2.498624656e-05 -21.01437539
-210.817447 -28.94790703 -61.50009739
-163.561711 -36.3930353 -67.50009739
-108.2002 -2.498624656e-05 26.56824461
-214.822663 -2.498624656e-05 -34.36526239
-147.645292 -18.18358777 -61.50009739
0.000215000201 -42.31565072 39.39486561
0.000215000201 -80.64398769 42.91151061
-211.442464 -55.3792103 -61.50009739
-80.667848 -53.34477168 -61.50009739
-27.382402 -8.243199946 -67.50009739
-147.546713 -2.498624656e-05 -9.527295386
-5.345294 -46.18009028 -67.50009739
-219.151708 -62.94760411 -61.50009739
-221.780616 -32.7058821 -61.50009739
-74.714593 -2.498624656e-05 16.42036061
-95.009181 -67.52302895 -61.50009739
-138.150499 -55.93800969 -67.50009739
-67.673629 -2.498624656e-05 -11.69951639
0.000215000201 -107.4664841 69.28945761
0.000215000201 -9.048863366 49.48841161
-138.52978 -2.498624656e-05 41.79525661
-231.419127 -2.498624656e-05 34.03801661
-187.650329 -49.5258847 -67.50009739
0.000215000201 -9.926423466 12.09886661
-130.843609 -14.92466398 -61.50009739
-78.194275 1.701157164 -67.50009739
-78.17682 -2.498624656e-05 3.212590614
0.000215000201 -29.60980776 69.19049661
-1.625135 -2.498624656e-05 -28.09190039
-13.068209 -16.08616178 -67.50009739
-57.314685 -2.498624656e-05 70.79705961
-53.874907 -60.46516287 -67.50009739
-168.893173 -2.498624656e-05 70.05460861
0.000215000201 -0.6077912462 17.84235261
0.000215000201 -28.07421206 32.13308861
-47.338544 -59.26522294 -61.50009739
0.000215000201 -98.26350075 19.36547261
0.000215000201 -49.11968665 5.581899614
0.000215000201 -149.7077494 74.45575761
-222.580921 -68.00002403 -62.43831239
0.000215000201 -60.63200499 -11.49963139
-50.542594 -10.76618507 -67.50009739
-104.60336 -37.73610494 -61.50009739
-123.872049 -2.498624656e-05 40.55764861
-41.894249 -52.45834568 -67.50009739
-55.78309 2.022876364 -40.92436639
-157.254642 -15.36232216 -67.50009739
-195.27274 -2.498624656e-05 24.49996061
-6.86522 -2.498624656e-05 16.11783861
-15.070731 -2.498624656e-05 -4.101699386
0.000215000201 -34.58129077 -17.88075539
0.000215000201 -49.44121611 -34.25908939
-113.608814 -24.32001368 -67.50009739
-177.250931 -2.498624656e-05 -17.76618139
-31.303475 -61.94900076 -61.50009739
0.000215000201 -66.22779384 73.61317761
-144.119333 -2.498624656e-05 -35.36749639
-207.384671 -2.498624656e-05 42.51616061
-232.948537 -54.57451972 -61.50009739
-193.845257 -2.498624656e-05 69.34664561
-221.824825 -2.498624656e-05 -28.66693339
-181.597804 -15.83470373 -67.50009739
-37.962214 -3.217596286 -61.50009739
-108.239168 1.848372954 -61.50009739
-137.17783 -47.49983587 -61.50009739
-92.68813 -44.92077959 -67.50009739
0.000215000201 -121.1844695 72.03276661
-53.049927 -2.498624656e-05 9.683083614
-66.144896 -46.26466737 -67.50009739
-235.42904 -38.03844813 -67.50009739
-86.55916 -2.498624656e-05 -26.19223339
-39.97204 -2.498624656e-05 39.52834661
-26.696557 -37.76764269 -67.50009739
-245.607753 -20.9100205 -67.50009739
-237.606358 -2.498624656e-05 -51.11822639
-172.249818 -2.498624656e-05 -45.98501139
0.000215000201 -13.4922129 -12.85016539
-3.847076 -2.498624656e-05 -0.6794033858
-44.31868 -50.1076469 -61.50009739
-133.049812 -42.58836355 -61.50009739
0.000215000201 -26.46229546 55.31798961
-6.414662 -39.07087775 -61.50009739
-1.420448 -2.498624656e-05 34.49626261
-187.080372 -2.498624656e-05 7.610543614
0.000215000201 -45.99044148 -8.833644386
-218.790097 -21.37298393 -61.50009739
-6.166809 -2.498624656e-05 -57.83388039
-31.797439 -2.498624656e-05 -32.66063039
-156.95884 -44.06038069 -61.50009739
-144.675363 -2.498624656e-05 64.98681061
-202.239315 -2.498624656e-05 -42.07255739
-14.636574 1.639556694 -67.50009739
-123.809491 -8.613726966 -67.50009739
-235.369706 -9.658870146 -67.50009739
-225.169675 -2.498624656e-05 61.86274861
-139.799577 -3.210616566 -67.50009739
0.000215000201 -34.9904577 61.22888761
-140.951033 -2.498624656e-05 -57.41776439
-76.519768 -2.498624656e-05 71.38858761
-97.639994 -36.19807813 -61.50009739
0.000215000201 -40.25488145 5.551822614
-57.7551 -2.498624656e-05 22.26076661
0.000215000201 -96.47410645 38.66860261
-76.932591 -2.498624656e-05 49.49736061
0.000215000201 -19.71563546 -57.70374639
-60.707845 -5.965516966 -61.50009739
-46.86394 -2.498624656e-05 -41.02409939
-122.846241 -59.08244808 -61.50009739
-103.521019 -2.498624656e-05 16.40135161
0.000215000201 -55.80812022 -14.47671339
-222.635533 -47.81971985 -61.50009739
-203.54623 -2.498624656e-05 33.43719661
-235.97705 1.537649114 -61.50009739
-170.095356 -25.65846444 -67.50009739
0.000215000201 -93.61867517 56.97276761
-108.146159 -2.498624656e-05 6.894783614
0.000215000201 -40.6820495 77.79149761
0.000215000201 -55.60366855 -1.418489386
-22.462224 -2.498624656e-05 -14.93821439
0.000215000201 -65.14518836 -21.34162639
0.000215000201 -125.1716399 58.49586361
0.000215000201 -59.3654922 -46.96183539
-157.507842 -2.498624656e-05 -28.89927639
-84.744456 -21.56918982 -61.50009739
0.000215000201 -65.33553054 -27.01316539
-244.828918 -2.498624656e-05 -4.746453386
-90.063216 -2.498624656e-05 -58.93864839
0.000215000201 -5.328047316 -2.620278386
-242.628065 -2.498624656e-05 10.58203461
-157.670374 -4.869490866 -67.50009739
-136.121883 -3.487659246 -61.50009739
-175.295447 -2.498624656e-05 33.48450361
-56.256726 -2.498624656e-05 -9.285169386
0.000215000201 -59.9274464 36.39415861
0.1446460002 -0.5000249862 40.89455861
-225.300157 -13.24524046 -61.50009739
0.000215000201 -76.14999012 70.96406961
0.000215000201 -98.95055761 77.08737961
-89.234109 -2.498624656e-05 -17.17979739
0.000215000201 -17.57338234 -42.06004539
-222.000188 -18.54957983 -67.50009739
-161.233962 0.5990930738 -61.50009739
-60.721684 -2.498624656e-05 -20.59953339
-193.163952 -36.52208594 -61.50009739
-94.837765 -2.498624656e-05 -38.90024139
-122.569748 -2.498624656e-05 63.99699961
0.000215000201 -129.6458951 61.78032361
0.000215000201 -54.72107219 -35.97004839
-121.428582 -2.498624656e-05 -35.62004539
1.032039 -72.57404573 -24.44137039
-192.137228 -28.36251919 -67.50009739
0.000215000201 -72.70109334 2.659240614
-242.872645 -66.94844516 -61.50009739
-245.361628 -2.498624656e-05 -61.20247139
-123.799325 -2.498624656e-05 -53.45135139
-4.824018 -15.74381466 -61.50009739
0.000215000201 -59.66255387 64.44543861
-138.601268 -2.498624656e-05 -2.484530386
-58.182291 -2.498624656e-05 59.77310561
-151.384615 -2.498624656e-05 -43.38074739
-208.954714 -2.498624656e-05 35.20665861
-85.962802 -67.89783656 -61.50009739
-234.099087 -11.70306631 -61.50009739
0.000215000201 -76.84920955 52.50717561
-120.050292 -52.25716816 -61.50009739
0.000215000201 -78.36007238 12.08620661
-211.862507 -2.498624656e-05 -9.954967386
0.000215000201 -82.65120258 61.50851161
-157.044409 -2.498624656e-05 4.603948614
-183.551597 -30.30674122 -61.50009739
-95.151303 -65.78520506 -67.50009739
-146.396178 -2.498624656e-05 -56.85662039
-247.369286 -63.33545266 -67.50009739
-11.21725 -2.498624656e-05 -35.53597539
-76.254933 -39.79052062 -67.50009739
-200.388778 -3.069547806 -61.50009739
-63.836516 -2.498624656e-05 53.02442261
-116.403607 -32.89921227 -61.50009739
0.000215000201 -13.05528411 26.58769361
0.000215000201 -34.20766913 21.96889661
0.000215000201 -21.80806454 49.05232461
-18.837655 -23.01223777 -61.50009739
-128.48428 -39.77975626 -67.50009739
0.000215000201 -37.42496134 30.47962761
-55.017707 -66.48382047 -67.50009739
-233.312572 -2.498624656e-05 70.68867961
0.000215000201 -116.3395488 35.10794761
0.000215000201 -59.30412465 -22.63074339
0.000215000201 -8.236587176 34.49802461
0.000215000201 -18.60470911 -15.72453939
-232.240536 -2.498624656e-05 -47.08252339
-135.667904 -2.498624656e-05 -54.55637939
0.000215000201 -113.1566842 47.47927261
0.000215000201 -46.84830581 30.96394461
0.000215000201 -64.01929855 59.55542861
-241.081054 -2.498624656e-05 73.20127261
-21.115208 -28.69086701 -67.50009739
0.000215000201 -31.10855063 52.77886361
-231.778898 -41.1467987 -61.50009739
0.000215000201 -54.79668026 -29.83810839
0.000215000201 -87.9779156 50.16208961
0.000215000201 -72.44700342 -4.840230386
-20.75477 -61.16072 -67.50009739
-106.184734 -2.498624656e-05 69.62760561
-221.727281 -48.86624193 -67.50009739
-18.246333 -2.498624656e-05 67.44221561
-91.08075 -39.15494594 -67.50009739
-237.272336 -2.498624656e-05 -40.18864439
-191.126505 -55.95312206 -61.50009739
-166.352448 -52.57947547 -61.50009739
-29.503064 1.080765164 54.53652361
0.000215000201 -5.115764996 -48.32069239
-88.124737 -58.70558569 -67.50009739
-41.73228 -20.1337292 -61.50009739
0.000215000201 -24.14750953 2.173390614
0.000215000201 -33.43840275 -42.65552639
0.000215000201 -55.10834742 25.20939461
0.000215000201 -44.06488443 72.74677461
-8.613029 -11.66561677 -67.50009739
-221.329522 -2.498624656e-05 -2.422325386
0.000215000201 -7.513040716 -39.83488539
-243.53394 -40.40967257 -61.50009739
-150.809153 -5.685230576 -67.50009739
0.000215000201 -21.80651831 -35.55898139
0.000215000201 -98.61281771 59.64968661
-68.570406 0.1747026538 -42.13028039
-149.954948 -0.4881425162 -67.50009739
-158.162063 -2.498624656e-05 52.32927561
-184.610953 -63.49616549 -67.50009739
-77.950409 -2.498624656e-05 -20.55470339
-12.27017 -50.02960897 -67.50009739
-143.049096 -14.96037875 -67.50009739
-134.070571 -2.498624656e-05 -16.08981939
-21.326578 -2.498624656e-05 -56.50633639
0.000215000201 -45.71099327 -55.73205539
-72.913038 -2.498624656e-05 75.34540761
0.000215000201 -70.45424048 42.38440961
0.000215000201 -12.46165406 -24.26280039
0.000215000201 -72.63983702 62.84853761
-70.500594 -26.87219469 -61.50009739
-159.95032 -2.498624656e-05 -2.115076386
-216.878863 -42.46012142 -67.50009739
-10.22234 -25.07129164 -61.50009739
-114.665074 -2.498624656e-05 -56.54059139
-71.856885 -46.3185798 -61.50009739
0.000215000201 -65.45826443 -34.64319239
0.000215000201 -163.0115087 66.49220261
-239.911411 -2.498624656e-05 3.071807614
0.000215000201 -46.59375241 44.61414761
-228.782763 -13.91161922 -67.50009739
0.000215000201 -111.365083 57.48151561
-192.47724 -2.498624656e-05 43.50952861
-171.235015 -2.498624656e-05 -57.28965739
-2.20385 -66.34490886 -67.50009739
-167.492151 -2.498624656e-05 9.276883614
-119.257496 -2.498624656e-05 30.74581861
-189.535685 -2.498624656e-05 -6.142110386
0.000215000201 -29.96462297 18.50748961
1.861112 -15.96977857 61.92889761
-217.506867 -24.20857171 -67.50009739
-126.259851 -2.299634406 -67.50009739
0.000215000201 -106.9879075 39.53452161
-131.254392 -2.012676776 -61.50009739
0.000215000201 -36.22205462 -47.04737139
0.000215000201 -100.6061566 25.02755661
-155.959444 -1.119169386 -61.50009739
-25.81154 -2.498624656e-05 -4.699700386
0.000215000201 -4.789780216 52.23551761
-50.469356 -22.30069547 -67.50009739
-81.522563 -25.4697572 -61.50009739
-91.079363 -5.033707416 -61.50009739
0.000215000201 -59.60672114 55.96981461
0.000215000201 -48.93054816 58.47396961
-125.074396 -21.17697935 -67.50009739
-178.437792 -2.498624656e-05 39.80711161
-173.056173 -2.498624656e-05 28.97276561
-170.852853 -58.97851282 -67.50009739
-174.160371 -16.94356765 -61.50009739
0.000215000201 -102.7450175 72.10840961
-80.420279 -2.141662006 -61.50009739
0.000215000201 -88.41346355 17.35060861
0.000215000201 -37.41552777 48.34922961
0.000215000201 -26.59075731 39.87198361
0.000215000201 -31.88365108 -34.16941639
0.000215000201 -136.4766383 55.46543061
-199.689305 -62.96106819 -67.50009739
-102.089984 -2.498624656e-05 50.91694561
-160.223747 -35.33232283 -61.50009739
0.000215000201 -104.6179674 57.08835061
0.000215000201 -4.928849316 20.32399561
0.000215000201 -66.17390013 31.06570861
0.000215000201 -41.3012454 -52.17886939
-113.732117 -2.498624656e-05 -14.67425839
-38.697993 -28.1183091 -61.50009739
-178.390359 -32.63984106 -61.50009739
-103.718662 -68.00002403 -62.59211039
-44.065311 -2.498624656e-05 -13.93166539
-205.11502 -44.8086512 -61.50009739
0.1894530002 -50.89168816 -67.50009739
-2.514727 -2.498624656e-05 61.89840361
0.000215000201 -6.389291786 44.87407961
0.000215000201 -118.8555453 61.11727261
-216.127982 -35.34962282 -67.50009739
-11.15889 -2.498624656e-05 -17.88950139
0.000215000201 -19.4559215 10.37588561
0.000215000201 -31.70658614 -21.89670939
-241.370354 -2.498624656e-05 63.70014561
-60.384758 -51.52173198 -67.50009739
-120.959396 -2.498624656e-05 11.97167261
-128.77043 -2.498624656e-05 68.75727661
0.000215000201 -61.4678724 16.05118461
-217.30892 -2.498624656e-05 72.72913961
0.000215000201 -20.28911969 -0.8893623858
0.000215000201 -92.09643595 28.99643561
0.000215000201 -48.84790106 12.81440561
0.000215000201 -46.16804936 35.90259861
0.000215000201 -18.79698106 -20.88844839
-60.240131 -68.00002403 -65.83065639
-246.581056 -34.78951664 -67.50009739
0.000215000201 -4.364159286 -19.34985439
-68.816335 -2.498624656e-05 -16.59771739
-108.386447 -2.498624656e-05 -16.52302439
0.000215000201 -64.33663468 21.35454261
-46.112344 -2.498624656e-05 -45.86636539
0.000215000201 -40.16421607 -0.09855638576
-32.790086 -24.49877479 -61.50009739
-231.811643 -1.178580556 -61.50009739
0.000215000201 -40.20163722 68.90544161
0.000215000201 -8.436491176 39.38138461
-75.426717 -56.30526493 -61.50009739
-32.914075 -19.54387454 -61.50009739
-72.659893 -68.00002403 -62.26973539
0.000215000201 -86.27871406 73.70188761
-30.767341 -2.498624656e-05 22.64071561
-9.020913 -2.498624656e-05 65.24320361
-151.922957 -65.70042054 -61.50009739
-183.549142 -2.498624656e-05 71.09359361
0.000215000201 -37.26563062 -28.61618039
-6.198387 -2.498624656e-05 -10.44340639
-105.874312 -2.498624656e-05 -55.96832739
-83.227352 -2.498624656e-05 23.61081561
-130.607032 -2.498624656e-05 15.67936961
-150.690215 -2.498624656e-05 -2.923957386
-237.443812 -31.02820524 -67.50009739
0.000215000201 -35.17739164 17.05766261
-217.714073 -2.498624656e-05 -39.60491139
0.000215000201 -15.18222436 19.84512561
-168.66716 -32.62044177 -61.50009739
-56.197602 -2.498624656e-05 -46.72556539
0.000215000201 -105.2844402 28.55056061
0.000215000201 -50.78766962 34.53116761
-201.81711 -7.359910486 -67.50009739
0.000215000201 -130.9032328 47.27398461
0.000215000201 -25.8896916 -47.81271639
0.009638000201 -139.8411837 51.44672461
-146.361746 -2.498624656e-05 76.77919661
0.000215000201 -66.5232992 8.346786614
0.000215000201 -68.09964405 68.54578361
-136.423752 -2.498624656e-05 58.63466061
-165.200684 -2.498624656e-05 -22.65048539
-153.567956 -2.498624656e-05 25.40529161
-1.582472 1.975722344 -67.50009739
0.000215000201 -112.1387598 77.43103261
0.000215000201 -38.47089671 -11.79079439
-240.973209 -2.498624656e-05 -1.610575386
-156.742443 -2.498624656e-05 13.26700661
-71.119605 -55.88998329 -67.50009739
-63.770553 -24.79614452 -61.50009739
0.000215000201 -107.6656545 33.57393961
-188.904905 -2.498624656e-05 29.23953861
-195.090527 -2.498624656e-05 19.70060461
-12.523949 0.3217638138 -61.50009739
0.000215000201 -75.88290899 30.86564061
0.000215000201 -113.8585709 40.76101261
0.000215000201 -12.71979105 54.16153661
-19.146528 -12.98736584 -61.50009739
0.000215000201 -59.91760663 6.204797614
0.000215000201 -10.64745407 -50.67746739
-103.960658 -2.498624656e-05 -7.716952386
-117.015701 -2.498624656e-05 -27.37215439
0.000215000201 -2.659013666 -52.50506639
-222.722782 -2.498624656e-05 -23.99717239
-189.086172 -2.498624656e-05 69.41479161
-123.360976 -2.498624656e-05 45.28238161
-197.545995 -5.278876446 -67.50009739
-207.821322 -58.45296757 -61.50009739
0.000215000201 -30.34977256 60.14963061
0.000215000201 -55.41508847 -52.52691639
0.000215000201 -155.9719968 65.01060761
-33.389538 -7.834416466 -61.50009739
0.000215000201 -27.28468777 48.45095061
-124.019662 -2.711800866 -61.50009739
-8.29409 -2.498624656e-05 42.63145861
-3.77273 -2.498624656e-05 52.45041861
-6.915542 -67.5460505 -67.50009739
0.000215000201 -49.52178009 53.77313561
-188.115794 -5.334066656 -67.50009739
-136.753937 -7.191444936 -67.50009739
-209.226385 -2.498624656e-05 20.36705261
-87.734499 -2.498624656e-05 65.14665861
0.000215000201 -20.14498267 15.55588061
-38.381361 -41.90729178 -67.50009739
0.000215000201 -17.55982851 24.52133461
-132.632719 -23.91175327 -61.50009739
0.000215000201 -51.73119274 -17.30671739
-42.853225 -2.498624656e-05 -9.241989386
-87.996867 -2.498624656e-05 -2.128983386
-50.448932 -2.498624656e-05 1.025516614
-45.722226 -2.498624656e-05 -34.91473239
0.000215000201 -148.2267407 62.38713461
-73.83331 -0.4619132562 -61.50009739
0.000215000201 -87.35805364 33.86056861
-119.11359 -2.498624656e-05 6.013512614
-144.067466 -2.498624656e-05 -12.63995039
0.000215000201 -76.47911986 58.56896061
0.000215000201 -36.97001104 25.84338561
0.000215000201 -121.9703155 48.72040261
-181.324525 -2.498624656e-05 -41.41404539
-111.644531 -2.498624656e-05 -23.51928139
0.4853230002 -147.5718775 56.04133161
0.000215000201 -30.97518073 -38.73148739
-211.855612 -27.87539487 -67.50009739
-85.094793 -2.498624656e-05 59.38259061
0.000215000201 -55.68394967 52.11663761
-78.979196 -34.91829401 -67.50009739
0.000215000201 -27.28135577 26.52551261
