# .PCD v0.7 - Point Cloud Data file format
VERSION 0.7
FIELDS x y z
SIZE 4 4 4
TYPE F F F
COUNT 1 1 1
WIDTH 1184
HEIGHT 1
VIEWPOINT 0 0 0 1 0 0 0
POINTS 1184
DATA ascii
-196.1853802 -2.498423532e-05 -115.0196014
-121.4402552 -2.498423532e-05 -159.8260004
51.75365682 -2.498423532e-05 -14.39538039
110.7450548 -2.498423532e-05 -9.185879386
169.7489358 -2.498423532e-05 -148.3892534
158.4121718 -53.4757342 -9.738615927e-05
97.39636582 -2.498423532e-05 -75.47206639
-69.01108118 -2.498423532e-05 -217.9131694
-175.6077322 -64.33730186 -9.738615927e-05
-22.49605118 -2.498423532e-05 -66.66919839
192.8209868 -2.498423532e-05 -92.54522839
-180.0002492 -47.66251471 -196.0210004
161.9920488 -2.498423532e-05 -198.5944364
-180.0002492 -10.14981641 -100.5978174
-137.1176352 -2.498423532e-05 -205.5617644
184.0007278 -106.8958769 -110.6889124
-165.0779722 -23.60208217 -9.738615927e-05
129.2037728 -2.498423532e-05 -69.38257039
-84.38821718 -10.65710543 -9.738615927e-05
-180.0002492 -0.3891716542 -196.5936204
184.2051738 -225.2139961 -40.99674339
103.4981928 -2.498423532e-05 -113.7746584
180.0007278 -16.58909888 -148.3228804
198.9171288 -2.498423532e-05 -136.4755574
-55.53050218 -12.2620531 -9.738615927e-05
-31.02511718 -9.050872704 -9.738615927e-05
-134.6422762 -9.028116334 -9.738615927e-05
-176.0002492 -12.63974708 -171.7132064
-134.3020202 -2.498423532e-05 -240.6088994
-180.0002492 -96.63122323 -15.24583439
-11.27625418 -2.498423532e-05 -141.0580714
31.23428582 -2.498423532e-05 -103.9896944
-89.77757618 -2.498423532e-05 -130.7603964
-176.0002492 -29.57590992 -191.3887824
-139.9090872 -2.498423532e-05 -135.5902184
-33.39348918 -60.75278847 -9.738615927e-05
-129.2101102 -130.5513516 -9.738615927e-05
-180.0002492 -25.23769542 -216.5469514
-163.9426972 1.448936596 -9.738615927e-05
195.6674718 -167.3117736 -40.00009739
20.56937482 -23.31871722 -9.738615927e-05
-180.0002492 -12.14259552 -80.55822239
182.0416838 -115.4958706 -42.69377339
-176.3655152 -109.1678263 -38.98092439
-107.7296192 -78.69322325 -9.738615927e-05
5.052748821 -2.498423532e-05 -94.06598739
183.3463488 -82.63281388 -41.51909939
-98.39151418 0.8024609758 -9.738615927e-05
184.0007278 -234.4432038 -142.4196534
137.9636018 -2.498423532e-05 -213.6755834
-144.0286252 -38.92438664 -9.738615927e-05
180.0007278 -99.72928152 -190.0972194
184.0007278 -32.66701938 -92.41382739
-176.0002492 -35.21878254 -61.59003339
-15.46733218 -17.80938356 -9.738615927e-05
-45.69722818 -2.498423532e-05 -164.0476264
189.0341558 -90.98466862 -200.0000974
139.0245958 -2.498423532e-05 -179.8852644
176.0007278 -110.0205716 -165.8790884
-30.22907118 -2.498423532e-05 -118.5183684
-137.0360672 -2.498423532e-05 -84.53815139
111.1184288 -2.498423532e-05 -61.46485539
99.61045682 -27.15096673 -9.738615927e-05
-193.2844122 -85.76470019 -9.738615927e-05
182.6348978 -216.4919342 -197.9068364
-180.0390682 -2.498423532e-05 -236.5855134
31.09079282 -2.498423532e-05 -73.40397039
-81.76592418 -2.498423532e-05 -232.8734884
-180.0002492 -14.06865608 -150.3815164
184.0007278 -154.1059523 -153.7664594
180.0007278 -64.36874034 -237.2526084
-17.78184618 -2.498423532e-05 -155.5180844
176.0007278 -117.7218076 -67.08525339
-92.15336718 -25.73037128 -9.738615927e-05
184.0007278 -225.9716548 -73.74695839
39.82781382 -2.498423532e-05 -162.0623754
-0.7713991794 -6.124065284 -9.738615927e-05
-82.60853518 -2.498423532e-05 -205.1044974
177.1941228 -2.498423532e-05 -102.1931494
14.76247782 -2.498423532e-05 -24.60993439
37.92965082 -2.498423532e-05 -232.2992134
184.0007278 -250.8160236 -168.4509404
-58.34079918 -2.498423532e-05 -37.47014239
184.0007278 -26.36072626 -110.7607744
-199.8225302 -2.498423532e-05 -148.8932314
180.0007278 -101.9203 -92.84444039
163.7081088 -2.498423532e-05 -46.48797939
184.0007278 -76.19381851 -95.72836239
187.5018128 -2.498423532e-05 -158.8322934
180.0007278 -208.314103 -123.7621454
-65.99602718 -2.498423532e-05 -133.9574574
176.0007278 -39.88218688 -161.5321024
-180.0002492 -70.5423599 -114.9068384
-148.9362422 -2.498423532e-05 -176.0443734
182.5781568 -250.2758346 -197.8588534
189.7710508 -68.45572366 -40.00009739
-163.6624892 -54.65617681 -9.738615927e-05
186.5743018 -135.5096846 -40.14087939
180.0007278 -43.22586492 -145.1615664
-158.8038902 -130.0282732 -9.738615927e-05
-176.3507482 -84.81513193 -111.5046444
-16.22313918 -2.498423532e-05 -92.88217139
176.0007278 -162.8694472 -113.8363504
184.0007278 -50.32785794 -187.7760484
-37.85106918 -2.498423532e-05 -140.7673484
185.2691168 -18.39393447 -194.8985244
-182.7537852 -2.498423532e-05 -170.3330334
-160.7968212 -86.4829333 -9.738615927e-05
-176.4693552 -65.68114845 -187.6548364
89.51349682 -2.498423532e-05 -102.2915764
180.0007278 -34.72018716 -240.4800104
198.0355798 -126.594641 -44.00009739
-113.1277512 0.6895400958 -9.738615927e-05
180.0007278 -37.71438433 -12.29325739
184.0007278 -60.3831605 -92.04702939
-98.53082018 -2.498423532e-05 -164.6500514
184.0007278 -230.5765018 -172.6243294
-155.6473382 -2.498423532e-05 -155.9663804
184.0007278 -144.5589965 -74.14978039
180.0007278 -13.69804602 -82.69433239
184.0007278 -202.5827565 -103.0982674
67.02556382 -68.00002402 1.479886614
-180.0002492 -89.68509413 -46.93982239
184.0007278 -186.3017009 -51.50837039
176.0007278 -1.829570574 -200.1887944
184.0007278 -37.54732772 -119.8988154
-183.4868292 -105.7914591 -9.738615927e-05
110.9339788 -2.498423532e-05 -182.9153604
-176.0002492 -51.7664732 -210.5756164
-176.0002492 -65.59973415 -156.6240744
52.99046382 -2.498423532e-05 -206.6336114
3.788687821 -2.498423532e-05 -229.8990284
176.0007278 -93.70956132 -139.2628644
-108.5186392 -2.498423532e-05 -87.66900139
162.7905688 -2.498423532e-05 -251.7402604
180.0007278 -27.7462032 -137.2586264
184.0007278 -29.36919861 -64.07879739
-180.0002492 -34.54807874 -240.9483304
92.97670182 -2.498423532e-05 -51.92804939
180.0007278 -127.4735836 -191.6576184
184.0007278 -71.64261605 -61.27769639
184.0007278 -185.182683 -163.7134994
-109.8415212 -2.498423532e-05 -186.6370924
180.0007278 -120.7660349 -81.32383739
129.1867978 -2.498423532e-05 -151.2025344
180.7730718 -49.94067754 -44.57431939
180.0007278 -5.305871664 -38.19321539
-4.397601179 -2.498423532e-05 -174.5425524
176.0007278 -94.27533603 -119.0962574
-132.7674962 -2.498423532e-05 -67.90328139
-77.49039018 -30.5749679 -9.738615927e-05
-30.57402218 -2.498423532e-05 -227.6067924
185.6852498 -43.22273428 -9.738615927e-05
-180.0002492 -29.55196125 -178.1065174
-176.0002492 -20.08802195 -11.33564639
-176.0002492 -30.98239781 -106.8004574
197.6418478 -11.33441505 -42.10639939
180.0007278 -44.08671318 -252.2173944
46.72198982 -2.498423532e-05 -74.07326039
-108.8179502 -2.498423532e-05 -154.2945544
180.0007278 -50.14572895 -100.4995314
180.0007278 -116.5250013 -119.6714614
-182.5780882 2.481609216 -9.738615927e-05
-105.7023212 -2.498423532e-05 -70.91863739
-169.4593942 -2.498423532e-05 -147.1667884
-61.55276218 -2.498423532e-05 -78.24491839
-89.37955318 -39.10095183 -9.738615927e-05
-176.0002492 -59.83477281 -104.9389894
37.56214882 -2.498423532e-05 -11.02964539
176.0007278 -163.135739 -129.1135544
143.2405378 -2.498423532e-05 -55.01853439
180.0007278 -12.88961901 -21.76069439
180.0007278 -239.0310168 -89.75657839
-164.7586812 -2.498423532e-05 -81.62136039
-176.0002492 -12.31965254 -130.1699554
-38.96111918 -2.498423532e-05 -45.88111439
-155.1549002 -2.498423532e-05 -28.46719939
-153.7490342 -2.498423532e-05 -99.74143239
90.70278182 -11.87369241 -9.738615927e-05
-179.2031872 -2.498423532e-05 -90.55919639
125.9286288 -68.00002402 0.8981226138
184.0007278 -141.7067873 -131.0379794
101.0910448 -2.498423532e-05 -216.3787514
-157.0647332 -101.2727259 -9.738615927e-05
187.2636288 -237.4578133 -199.9190644
-137.2808182 -119.7194002 -9.738615927e-05
-176.0002492 -49.53551459 -14.34474739
-176.0002492 -10.75926394 -63.49241939
96.61568382 -2.498423532e-05 -32.21884439
51.71245182 -2.498423532e-05 -29.79661439
35.18158782 -2.498423532e-05 -246.9791454
-62.40353118 -2.498423532e-05 -119.0488154
180.0007278 -194.6271483 -183.1380354
180.0007278 -3.437642014 -173.4903654
184.0007278 -49.30569658 -169.6199404
180.0007278 -80.83754482 -144.7094694
-54.88139318 -2.498423532e-05 -107.0652274
-180.0002492 -50.19801862 -34.09331739
-176.0002492 -50.47853785 -239.1205324
176.0007278 -26.05851442 -213.7520874
184.0007278 -164.6816076 -172.7130194
180.0007278 -97.8668186 -70.41596139
-145.0180092 -86.75692464 -9.738615927e-05
187.0537678 -212.332124 -40.09339839
180.0007278 -226.881139 -120.0167534
184.0007278 -145.1226952 -143.9623144
72.54187182 -2.498423532e-05 -121.4686924
-52.01279918 -2.498423532e-05 -236.7167804
48.74804482 -2.498423532e-05 -96.54077439
32.75558382 -2.498423532e-05 -190.6408794
-197.6905362 -2.498423532e-05 -48.87971839
180.0007278 -55.56427319 -72.89241039
-76.20565618 -2.498423532e-05 -24.12171039
-97.06077618 -2.498423532e-05 -96.89007039
8.186031821 -2.498423532e-05 -162.8710474
185.7779998 -29.31084593 -40.35464039
-176.5006052 -89.15552134 -97.30329939
93.68578882 -2.498423532e-05 -12.13199739
-123.1224602 -2.498423532e-05 -215.1726594
95.00518882 -2.498423532e-05 -151.7955094
176.0007278 -72.02226538 -39.01893439
176.0007278 -81.12764808 -104.9077554
176.0007278 -64.57648289 -211.3095254
184.0007278 -220.3674364 -152.7383784
12.74238382 -34.97743787 -9.738615927e-05
169.2384398 -2.498423532e-05 -8.181572386
121.9074138 2.080834306 -9.738615927e-05
-69.67612418 -2.498423532e-05 -51.78356939
-124.2980962 -2.498423532e-05 -100.5279194
176.0007278 -89.70122724 -203.3828374
180.0007278 -127.8740773 -104.1416054
-176.0002492 -85.33922584 -20.34857939
-160.4508402 -2.498423532e-05 -65.56909039
-125.3082882 -2.498423532e-05 -31.48530739
180.0007278 -8.792649684 -133.3017624
-185.0671512 -2.498423532e-05 -214.6155214
147.0916158 -47.14512045 -9.738615927e-05
-83.89837418 -2.498423532e-05 -112.4900454
180.0007278 -250.0482838 -131.0693604
78.01132882 -56.2875406 -9.738615927e-05
62.26745582 -2.498423532e-05 -82.01914439
27.79891982 -2.498423532e-05 -220.3311674
139.1018188 -22.64358465 -9.738615927e-05
45.65177282 -18.27997698 -9.738615927e-05
-180.0002492 -14.32523531 -37.00605439
96.36916482 -59.41977175 -9.738615927e-05
177.0572228 -115.0919424 -193.7008414
-26.53652618 -44.97558005 -9.738615927e-05
176.0007278 -119.599406 -145.3221794
176.0007278 -57.76785101 -248.5962464
-176.0002492 -36.00465778 -88.94968439
186.9829958 -2.498423532e-05 -60.76447339
82.83463782 -2.498423532e-05 -226.0044604
62.35422882 -2.498423532e-05 -215.8129704
184.0007278 -114.9871232 -136.2929704
-135.5696542 -2.498423532e-05 -149.7610094
184.0007278 -80.71255857 -118.4756334
166.9611178 -2.498423532e-05 -178.5037394
180.0007278 -170.4739829 -89.71214239
123.9722638 -2.498423532e-05 -232.1376384
-89.40964418 -66.50016379 -9.738615927e-05
180.0007278 -151.7341959 -106.4800384
1.320609821 -2.498423532e-05 -109.1730384
-180.0002492 -77.04335174 -75.18309039
176.0007278 -48.8127703 -56.30685639
195.3902578 -52.56373444 -9.738615927e-05
189.3922608 -62.59386115 -196.0000974
193.4552588 -11.94243605 -9.738615927e-05
176.0007278 -14.0381601 -236.6007204
-149.4348182 -2.498423532e-05 -87.13984739
194.0644138 -2.498423532e-05 -9.813218386
167.5748848 -2.498423532e-05 -66.38490239
-176.0002492 -7.034052554 -22.42138439
176.0007278 -55.56079928 -179.5143914
-12.35944118 -2.498423532e-05 -16.27754639
24.85904182 -2.498423532e-05 -39.63807039
-71.29794818 -82.69515285 -9.738615927e-05
176.0007278 -155.4959655 -163.5466684
176.0007278 -69.96542869 -88.26985339
180.0007278 -139.6120815 -60.86357639
-180.0002492 -10.44665968 -247.9530894
176.0007278 -45.21464076 -202.3576694
199.7296648 -170.061579 -200.0000974
25.35299682 -2.498423532e-05 -115.0786994
84.14219882 -2.498423532e-05 -128.2610604
-46.46182218 -2.498423532e-05 -12.42853939
-176.0002492 -39.0819531 -162.7458154
-180.0002492 -59.27977829 -146.5846934
22.27391682 -2.498423532e-05 -163.1143354
182.1291538 -17.63731053 -47.32124939
184.0007278 -17.05408978 -67.71871739
159.8804318 -36.18382039 -9.738615927e-05
-180.0002492 -22.25694319 -57.27372239
-42.81721318 -2.498423532e-05 -182.5640304
-181.4499212 -120.1525743 -9.738615927e-05
-176.0002492 -30.3927158 -30.95906439
184.0007278 -119.5077119 -166.8593004
165.5559938 -14.04914872 -9.738615927e-05
192.3404408 -2.498423532e-05 -219.3886814
42.24894082 -54.68003313 -9.738615927e-05
-180.0002492 -64.08057256 -52.68157039
63.59122882 -2.498423532e-05 -54.66688539
74.36778182 -2.498423532e-05 -25.55360739
-197.9469672 -2.498423532e-05 -15.94802739
-184.8261152 -2.498423532e-05 -62.58705339
61.00184382 -42.36271363 -9.738615927e-05
-180.0002492 -106.8802569 -24.19362339
180.0007278 -228.5970374 -55.44210039
-180.0002492 -43.6557427 -111.6695044
64.84491282 -2.498423532e-05 -176.1856044
79.40706782 -2.498423532e-05 -241.1703144
-114.3779942 -2.498423532e-05 -133.2227464
129.5572548 -2.498423532e-05 -125.2914614
127.0295428 -2.498423532e-05 -205.7594044
10.78341182 -2.498423532e-05 -185.0142424
73.17042182 -2.498423532e-05 -134.1777724
-84.99221018 -2.498423532e-05 -144.7679214
54.47590582 -2.498423532e-05 -235.5127594
17.31868782 -2.498423532e-05 -94.40853039
184.0007278 -131.7122524 -153.9970604
-176.0002492 -22.76482796 -201.5850594
53.18024682 -2.498423532e-05 -150.5471154
-180.1792512 -2.498423532e-05 -48.53694739
180.0007278 -197.8289005 -75.30897039
54.91601582 -66.84341762 -9.738615927e-05
-23.18633918 -2.498423532e-05 -104.8346954
-157.3649572 -8.876616774 -9.738615927e-05
180.0007278 -213.7583354 -88.99646239
-82.94202018 -2.498423532e-05 -58.47042239
176.0007278 -181.1986537 -120.8343914
31.44362482 -62.24219137 -9.738615927e-05
-59.53424818 -89.53472489 1.632254614
-141.4351702 -2.498423532e-05 -45.05055839
184.0007278 -8.865304674 -111.1661524
176.0007278 -78.22071963 -156.0070284
-176.0002492 -56.94764062 -172.4510374
15.23197582 -11.86765441 -9.738615927e-05
176.0007278 -68.79294434 -142.5517724
-134.0094832 -2.498423532e-05 -178.2163484
-153.0501462 -112.6963876 -9.738615927e-05
117.1509778 -9.559714864 -9.738615927e-05
176.0007278 -65.04642829 -159.6672304
176.1851768 -124.2935421 -93.25058839
-180.0002492 -68.28729658 -66.21372739
180.0007278 -13.45398255 -219.3074554
184.0007278 -200.5610124 -143.3461444
114.9445418 -2.498423532e-05 -137.7262084
-192.4724392 -48.28303987 -9.738615927e-05
180.0007278 -53.20818303 -210.9942704
-38.98467818 -35.70636846 -9.738615927e-05
3.818956821 -2.498423532e-05 -197.4389334
180.0007278 -250.2454626 -58.81918639
75.04298182 -2.498423532e-05 -104.4518344
-163.6208282 -2.498423532e-05 -211.3569294
-132.8390202 -106.5156259 -9.738615927e-05
180.0007278 -163.0720513 -57.13121339
85.77609882 -2.498423532e-05 -199.1365154
-176.0002492 -35.092841 -139.5874544
180.0007278 -146.6273783 -93.59484139
180.0007278 -38.80589848 -76.25209839
176.0007278 -103.0100185 -154.4555114
176.0007278 -47.36107983 -226.8478444
-110.7287012 -2.498423532e-05 -166.0718244
103.3077238 1.628069376 -9.738615927e-05
-79.63758318 1.686697856 -9.738615927e-05
176.0007278 -11.55227212 -191.8121804
195.0290328 -2.498423532e-05 -125.2142464
-168.1526282 -76.54276221 -9.738615927e-05
176.0007278 -77.60005549 -51.28865039
119.3527308 -2.498423532e-05 -18.74263039
184.0007278 -50.11409663 -131.6219934
127.4137088 -41.20041972 -9.738615927e-05
-93.52194918 -106.7419947 -9.738615927e-05
77.51385082 -2.498423532e-05 -56.16348439
180.0007278 -247.8857465 -81.32277439
-12.58936218 -2.498423532e-05 -75.74177139
10.26122982 -2.498423532e-05 -210.2043524
-180.0002492 -90.29568365 -3.661679386
133.5593078 -2.498423532e-05 -0.4614153862
176.0007278 -164.5484362 -148.2690934
-120.4145272 -85.0170283 -9.738615927e-05
-197.6191662 -2.498423532e-05 -211.8680154
194.5074088 -2.498423532e-05 -39.47905139
115.7537658 -26.45048425 -9.738615927e-05
156.3137258 -2.498423532e-05 -147.1049494
-100.5296852 -2.498423532e-05 -33.54634039
154.1426918 -2.498423532e-05 -30.10550239
176.0007278 -140.9076527 -170.8159324
176.0007278 -28.6054919 -119.3976174
157.9051488 -2.498423532e-05 -123.3558174
-164.6639462 -2.498423532e-05 -109.0094194
-180.0002492 -29.6148395 -16.88133839
-84.73149418 -2.498423532e-05 -186.8719784
180.0007278 -27.28162779 -188.3814664
-116.5983932 -102.8633226 0.5892246138
-56.83745218 -2.498423532e-05 -6.148711386
180.0007278 -182.9568526 -132.4306574
176.0007278 -14.20550278 -7.840686386
184.0007278 -155.3610371 -181.2877864
180.0007278 -190.4121588 -84.70197639
-131.7590412 -2.498423532e-05 -17.54898739
180.6081658 -103.8399513 -45.02785239
99.42190182 -2.498423532e-05 -64.00165639
-180.0002492 -45.90190627 -59.30198539
189.7614578 -45.56409026 -200.0000974
-105.5441362 -2.498423532e-05 -206.6221694
-147.9949132 -2.498423532e-05 -194.5868264
88.01075482 -27.43304469 -9.738615927e-05
39.23142982 -2.498423532e-05 -217.7559244
-33.77494218 -2.498423532e-05 -93.74293739
117.9412428 -2.498423532e-05 -32.41552239
-177.2235282 -2.498423532e-05 -185.3771904
15.67220182 -55.78754288 -9.738615927e-05
-180.0002492 -70.87632211 -85.95233639
-66.42949418 -2.498423532e-05 -153.9207744
163.3812508 -2.498423532e-05 -222.3525724
-176.0002492 -27.13324231 -128.1189924
-155.6499342 -2.498423532e-05 -246.7804954
-75.94997318 -105.9504957 0.8466526138
53.28681782 -50.91357633 -9.738615927e-05
176.0007278 -30.85520398 -25.64163139
9.005255821 -2.498423532e-05 -142.9982604
-72.73974118 -2.498423532e-05 -90.30526539
16.24688782 -2.498423532e-05 -55.00632739
-80.32426018 -2.498423532e-05 -167.7539974
-75.28747918 -2.498423532e-05 -193.3961744
184.0007278 -96.25470753 -58.60069739
-176.0002492 -74.54833354 -135.3821714
86.37182282 -2.498423532e-05 -159.2665604
190.4642338 -143.7781258 -200.0000974
-102.4997952 -2.498423532e-05 -129.6348844
180.0007278 -54.58778774 -144.3645754
-64.54290518 -2.498423532e-05 -188.2523294
194.5734108 -240.9207233 -44.00009739
115.3519058 -2.498423532e-05 -164.5335554
173.5754238 -60.14324662 -9.738615927e-05
77.55171682 -2.498423532e-05 -212.1590334
-116.7883922 -125.0656308 -9.738615927e-05
95.32179182 -2.498423532e-05 -124.3456704
184.0007278 -73.1666016 -110.0242644
199.7276258 -122.6708185 -200.0000974
-148.2874432 -2.498423532e-05 -125.2379944
189.5364508 -185.6268709 -200.0000974
184.0007278 -58.00547847 -62.59093839
184.0007278 -167.9571839 -104.8334874
169.4469328 -2.498423532e-05 -78.39509539
184.0007278 -38.90508387 -188.3941884
-180.0002492 -23.35048223 -239.3979214
176.0007278 -32.62813553 -226.4479294
-176.0002492 -40.85053509 -6.044458386
-99.78564518 -86.67190247 -9.738615927e-05
-180.0002492 -63.96958522 -11.97026039
-176.0002492 -106.1663265 -10.08694939
-168.9546672 -2.498423532e-05 -234.7780004
42.18690182 -2.498423532e-05 -200.0642594
141.2292098 -2.498423532e-05 -134.3547234
176.0007278 -78.87395041 -78.91332439
-157.4170832 -2.498423532e-05 -167.0037524
-176.0002492 -39.72439462 -215.9869414
182.5513108 -245.2671615 -42.16982039
184.0007278 -213.5989639 -101.3141094
-176.0002492 -99.16588258 -66.14795139
184.0007278 -114.2576337 -155.7819144
-160.6169032 -2.498423532e-05 -127.6321474
139.5119338 -2.498423532e-05 -12.38139839
176.0007278 -76.20050624 -191.4080624
176.0007278 -75.8626083 -178.2911614
-27.26213018 -2.498423532e-05 -163.5827594
200.4233988 -102.2018806 -40.00009739
179.5595048 -2.498423532e-05 -27.41160839
151.3365478 -2.498423532e-05 -229.5157924
176.0007278 -94.08701793 -99.58695139
-136.0406752 -2.498423532e-05 -6.259067386
71.88636882 -2.498423532e-05 -46.64060039
184.0007278 -11.29765615 -181.1411034
71.21802982 -3.284402974 -9.738615927e-05
-23.10141918 -2.498423532e-05 -185.2023124
184.0007278 -166.1908565 -140.8741834
-36.01426118 -2.498423532e-05 -73.67851239
176.0007278 -130.8938661 -77.33376139
190.3950108 -145.0594185 -44.00009739
21.56608382 -2.498423532e-05 -187.1124424
186.2466338 -179.7841503 -40.20971939
-118.5465792 -2.498423532e-05 -62.27966739
176.0007278 -163.6421936 -80.98954839
-126.4431952 -2.498423532e-05 -190.4115604
199.8592688 -69.99359398 -44.00009739
162.4611258 -2.498423532e-05 -157.5316844
184.0007278 -21.73339618 -92.31965939
184.6525058 -82.92644715 -194.0524834
-61.30014718 -2.498423532e-05 -227.5701004
176.0007278 -20.19574359 -160.4009544
92.62536782 -2.498423532e-05 -178.3293184
-142.9260622 -2.498423532e-05 -214.8024234
184.0007278 -142.7702574 -115.6674504
-95.55674018 -2.498423532e-05 -10.48552639
-33.43113818 -2.498423532e-05 -34.26179739
-20.30813718 -2.498423532e-05 -234.7989514
184.0007278 -118.8593352 -109.8369124
-106.0563192 -2.498423532e-05 -246.4699014
-48.16050918 -2.498423532e-05 -137.3459384
176.0007278 -111.6311851 -90.11059139
-113.1717872 -47.21899359 -9.738615927e-05
65.23495682 -2.498423532e-05 -113.4660064
-176.0002492 -40.95344716 -38.21552039
176.0007278 -47.93907064 -17.56820339
57.59046282 -2.498423532e-05 -184.2128664
179.7604358 -87.11723077 -225.5163744
128.9380708 -2.498423532e-05 -43.20929739
-190.9592952 -4.284536414 -9.738615927e-05
-70.88843018 -2.498423532e-05 -144.1266504
-4.325711179 -54.09718109 -9.738615927e-05
177.2145198 -109.2039362 -102.6689394
-189.0288952 -2.498423532e-05 -106.9980154
-101.5282452 -2.498423532e-05 -224.5051574
-131.6386772 -2.498423532e-05 -163.2160864
81.37263282 -45.37715463 -9.738615927e-05
-176.0002492 -55.83089018 -183.1110494
180.0007278 -23.76617273 -238.6588064
184.0007278 -191.9303081 -102.0810354
-176.0002492 -15.04286921 -160.2457654
-10.69119018 -27.36319783 -9.738615927e-05
-180.0002492 -8.247322074 -225.0826454
27.05983182 -2.498423532e-05 -9.120518386
148.3321218 -2.498423532e-05 -113.6665494
195.6806998 -220.8702351 -40.00009739
-143.6071982 -2.498423532e-05 -233.9961074
-73.61247018 -56.53858183 -9.738615927e-05
180.2759088 -91.80809314 -45.97943939
-176.0002492 -36.9179324 -72.60495139
-170.8589102 -2.498423532e-05 -203.5509324
184.0007278 -242.7046307 -190.5191174
172.1970868 -2.498423532e-05 -190.4274514
184.0007278 -245.5569611 -106.8679974
176.0007278 -88.19861425 -164.2601224
33.34025982 -17.47757869 -9.738615927e-05
128.0278338 -2.498423532e-05 -108.6000574
184.0007278 -72.75303617 -136.8659694
178.7768338 -25.50002498 -101.5980334
197.8315508 -86.68533947 -196.0000974
-181.4386892 -2.498423532e-05 -248.7431604
-180.0002492 -8.462772024 -118.9586304
176.0007278 -12.91173543 -247.2102504
188.2849588 -2.498423532e-05 -78.37954239
184.0007278 -241.2525355 -118.9226054
189.2337738 -193.1030795 -44.00009739
-108.2268472 -2.498423532e-05 -112.6198004
193.4712998 -49.91997291 -40.00009739
183.1838298 -2.498423532e-05 -225.0909774
-165.0911662 -66.47845295 -9.738615927e-05
-180.0002492 -34.28535483 -51.90612839
107.5498588 -2.498423532e-05 -193.4894984
191.1367208 -108.5280314 -44.00009739
-122.2022762 -2.498423532e-05 -112.3252854
-105.4630112 -2.498423532e-05 -45.75053339
180.0007278 -61.68466142 -37.86276939
180.9961918 -9.245839694 -59.08802539
192.4393948 -213.4250613 -200.0000974
66.62785082 -14.43299314 -9.738615927e-05
-189.7471312 -2.498423532e-05 -92.90703639
-1.570480179 -2.498423532e-05 -45.56008939
-168.4814642 -2.498423532e-05 -43.98305739
176.0007278 -48.82202053 -33.74132139
149.3885088 -2.498423532e-05 -89.63231839
-56.26641918 -2.498423532e-05 -67.38418039
-124.3667272 -73.20893869 -9.738615927e-05
-184.0844182 -19.81111929 -9.738615927e-05
-14.32194318 -2.498423532e-05 -167.2269624
180.0007278 -134.4644798 -163.6941094
-55.04666018 -78.46349439 -9.738615927e-05
176.0007278 -37.389701 -38.69903839
176.0007278 -134.7578772 -148.1102744
176.0007278 -150.1169164 -80.54902639
200.2202358 -235.9057278 -200.0000974
199.9466018 -194.8923264 -40.00009739
141.6282208 -2.498423532e-05 -69.98720539
180.0007278 -122.2431247 -182.0200724
-180.0002492 -91.02678914 -57.21637139
-102.5619812 -2.498423532e-05 -177.8746784
181.7785838 -138.2626537 -196.9700564
184.0007278 -108.495951 -66.66262439
-180.0002492 -47.05720347 -170.0265024
-45.43818118 -2.498423532e-05 -90.92476639
1.959465821 -2.498423532e-05 -58.22249339
-176.0002492 -53.59598447 -84.72967639
176.0007278 -58.56055508 -84.12519939
77.05683782 -2.498423532e-05 -80.30933239
180.0007278 -83.78077128 -215.1342264
180.0007278 -177.3560123 -48.23393639
45.36498182 -2.498423532e-05 -170.7801374
-123.8121112 -2.498423532e-05 -43.69516839
-64.67083718 -2.498423532e-05 -28.99080839
184.0007278 -188.6398144 -191.4075424
23.03048782 -35.5235365 -9.738615927e-05
-176.0002492 -97.1783983 -41.12540739
33.78335282 -42.00322464 -9.738615927e-05
200.4677178 -140.1382975 -200.0000974
-192.6407092 -2.498423532e-05 -141.5713474
-20.12856818 -2.498423532e-05 -116.7404564
184.0007278 -94.5336994 -79.25127839
67.32363882 -2.498423532e-05 -161.8249514
-180.0002492 -13.68342972 -198.1900444
184.0007278 -230.4459065 -82.95570539
185.1131498 -107.9402664 -194.7412664
184.0007278 -235.5903263 -181.5424354
131.4025878 -2.498423532e-05 -79.36969139
-130.9955022 -2.498423532e-05 -92.78882939
-176.0002492 -74.75547751 -18.39011039
176.0007278 -38.54262767 -89.97013639
-180.0002492 -48.66240338 -226.9266324
9.017457821 -2.498423532e-05 -6.912536386
44.05721282 -2.498423532e-05 -105.6103554
-176.0002492 -28.13556236 -153.7176624
52.97692082 -2.498423532e-05 -47.82382439
-176.0002492 -51.47123203 -24.79331039
-187.8650682 -2.498423532e-05 -8.726519386
-134.0430922 -45.03939516 -9.738615927e-05
184.0007278 -44.71118409 -92.86403839
-180.0002492 -52.02801466 -129.3947014
176.0007278 -74.1064604 -130.1521284
180.0007278 -241.6384444 -170.3048274
180.0007278 -121.9162065 -57.52675739
180.0007278 -17.40060052 -114.9916214
-176.0002492 -6.473444874 -141.8568944
-44.48477618 -2.498423532e-05 -115.3457214
180.0007278 -195.8295244 -159.4472654
-176.0002492 -38.14153991 -250.0472774
184.0007278 -203.3250328 -53.95737039
16.97688582 -2.498423532e-05 -136.3580874
194.9318338 -2.498423532e-05 -151.9660434
-168.7536082 -33.11596161 -9.738615927e-05
184.0007278 -10.21615867 -123.1052064
-130.2971692 -2.498423532e-05 -249.8901734
-137.7247972 -18.97951171 -9.738615927e-05
-48.68507518 -2.498423532e-05 -43.16011039
183.1576608 -15.51522111 -9.738615927e-05
30.56013282 -2.498423532e-05 -84.04165239
184.0007278 -223.7709225 -63.32793839
-77.73526218 -67.92554783 -9.738615927e-05
176.0007278 -21.04804966 -171.3417194
184.0007278 -175.5781799 -146.4469004
184.0007278 -235.7950386 -61.17580139
184.0007278 -105.2924348 -120.5892044
60.38161182 -2.498423532e-05 -3.929591386
-199.0419032 -58.84180212 -9.738615927e-05
184.0007278 -164.6514461 -119.5864014
184.0007278 -90.29645816 -124.2186684
-67.34471418 -29.70472845 -9.738615927e-05
44.78632382 -2.498423532e-05 -2.160876386
176.0007278 -46.30113353 -118.1438954
184.0007278 -206.1314771 -164.4497494
180.0007278 -56.21980932 -124.8159254
195.3221698 -2.498423532e-05 -180.2720884
180.0007278 -139.4760071 -181.1576194
-176.0002492 -37.57445129 -185.4350954
-41.59486018 -55.0942482 -9.738615927e-05
176.0007278 -102.9250094 -176.1287244
116.6991478 -2.498423532e-05 -240.0478364
5.812643821 -2.498423532e-05 -175.2127444
-18.20208418 -2.498423532e-05 -40.89142039
184.0007278 -32.04740321 -52.32556839
40.51674482 -2.498423532e-05 -48.98062139
-180.0002492 -49.53718249 -68.99065239
187.4211688 -2.498423532e-05 -133.1821344
-76.57277318 -46.31897877 -9.738615927e-05
82.63628382 -2.498423532e-05 -146.6958374
-90.45961018 -2.498423532e-05 -238.5876524
-8.726774179 -2.498423532e-05 -197.8133764
104.0741198 -2.498423532e-05 -82.81978239
53.66907182 -2.498423532e-05 -129.4785094
176.0007278 -67.79680006 -196.6717444
180.0007278 -129.6654001 -127.3666104
151.3769118 -31.09503258 -9.738615927e-05
-172.3576722 -2.498423532e-05 -5.016793386
-145.4455562 -2.498423532e-05 -150.4836734
135.0394878 -2.498423532e-05 -117.0489834
-50.97826718 -2.498423532e-05 -153.4034044
184.0007278 -117.3189385 -72.88232939
-28.10469618 -2.498423532e-05 -2.700677386
-180.0002492 -91.2475214 -87.53129039
64.51630782 -2.498423532e-05 -149.9446624
-176.0002492 -83.84522867 -40.05649539
180.0007278 -70.02570894 -229.1620904
180.0007278 -190.1820926 -124.9959944
184.0007278 -222.6669294 -183.7253094
124.5851228 -30.8590885 -9.738615927e-05
-144.2618672 -11.23091265 -9.738615927e-05
-134.4555052 -2.498423532e-05 -109.0592214
187.8579098 -234.8984676 -40.01416839
143.3491308 -2.498423532e-05 -31.46013739
-174.0863862 -108.7599084 -9.738615927e-05
190.2986838 -1.396082244 -9.738615927e-05
-0.1730341794 -41.635155 -9.738615927e-05
-190.4809022 -2.498423532e-05 -130.6476434
-159.9815962 -2.498423532e-05 -189.6727544
-11.16964618 -2.498423532e-05 -245.4860584
-118.2234362 -2.498423532e-05 -89.19562839
-85.05068818 -2.498423532e-05 -48.60892639
180.0007278 -240.1990141 -150.7198684
134.3520398 -2.498423532e-05 -22.45644139
193.3821978 -2.498423532e-05 -245.9745524
180.0007278 -84.71334577 -175.4187364
188.1122218 -73.96696393 -196.0000974
-21.99872818 -2.498423532e-05 -209.1297374
168.4380358 -2.498423532e-05 -206.1393864
184.0007278 -217.2436872 -123.6321724
176.0007278 -31.81384052 -179.6771594
81.22168382 -2.498423532e-05 -8.030094386
-176.0002492 -8.830776484 -237.6618074
176.0007278 -10.82536334 -50.70735439
147.3546898 -2.498423532e-05 -208.9585884
122.3340768 -2.498423532e-05 -196.1635034
-180.0002492 -4.429734414 -162.0777534
-176.0002492 -22.0183116 -185.2100754
176.0007278 -64.56005595 -185.8892374
180.0007278 -178.8663524 -79.68656939
-176.0002492 -0.1844853342 -122.2175004
183.1744228 -52.63723176 -9.738615927e-05
176.0007278 -11.06774111 -168.6203684
184.0007278 -216.9924608 -78.49980039
178.5106268 -2.498423532e-05 -155.1404604
-17.49479318 -8.311083014 -9.738615927e-05
-5.211892179 -2.498423532e-05 -220.5799794
69.46489682 -2.498423532e-05 -67.34212039
-176.0002492 -9.026096014 -89.04119839
152.2324758 -2.498423532e-05 -70.67511839
-180.0002492 -69.02787076 -39.11363939
-189.2058212 -2.498423532e-05 -162.2065394
199.9630268 -34.63111602 -44.00009739
184.0007278 -78.93066204 -84.35670839
169.2087578 -2.498423532e-05 -96.72905139
132.6455738 -57.00790108 -9.738615927e-05
186.4643258 -226.0794461 -195.6801644
184.0007278 -102.5924153 -164.2074864
176.0007278 -54.09298226 -111.1158904
-153.7126642 -29.52048442 -9.738615927e-05
200.8607368 -111.2843713 -196.0000974
-154.2632202 -2.498423532e-05 -7.581242386
-153.9722442 -63.49571435 -9.738615927e-05
176.1340628 -2.498423532e-05 -134.2129574
147.6231028 -2.498423532e-05 -173.2128134
184.0007278 -48.96125491 -158.9797724
-73.82260318 -2.498423532e-05 -209.0819114
-127.8110482 -57.34336294 -9.738615927e-05
176.0007278 -35.68776793 -68.05879339
-127.8756372 -2.498423532e-05 -202.8390184
180.0007278 -190.0856839 -140.8399574
5.342832821 -2.498423532e-05 -26.62886939
101.5817588 -37.86168018 -9.738615927e-05
184.0007278 -44.67090123 -52.90815339
176.0007278 -26.71038498 -52.72611039
-32.33186518 -2.498423532e-05 -24.70391939
-180.0002492 -67.49158812 -29.13267039
180.0007278 -214.4729001 -146.2754584
184.0007278 -202.7804927 -178.7424604
176.0007278 -83.94531976 -114.2562244
176.0007278 -172.9947609 -115.8012274
-176.4273162 -60.39491392 -214.7519684
176.0007278 -93.7628075 -148.8460594
114.6287938 -2.498423532e-05 -87.75486039
189.5076618 -17.02688408 -41.24370139
-146.1725002 -2.498423532e-05 -36.25647739
180.0007278 -203.3816655 -135.1174464
199.7796288 -2.498423532e-05 -100.4902214
-1.255436179 -2.498423532e-05 -165.4994314
180.6291928 2.499975016 -165.0069934
-142.9625072 -2.498423532e-05 -68.78407939
-176.0002492 -5.688065074 -152.6977904
-47.22352218 -2.498423532e-05 -70.49570539
184.0007278 -251.4651655 -156.9988504
-113.0298112 -37.47557471 -9.738615927e-05
11.34420282 -2.498423532e-05 -114.9748274
-91.64436918 -2.498423532e-05 -104.7442934
176.0007278 -65.20671589 -67.18578839
121.0620488 -2.498423532e-05 -64.41938139
79.38442182 -2.498423532e-05 -179.7709024
-7.659384179 -2.498423532e-05 -24.57007539
-77.25350718 -2.498423532e-05 -224.4796954
180.0007278 -8.001538414 -91.05209639
-108.0410942 -21.09882647 -9.738615927e-05
184.0007278 -35.58854458 -141.1081584
144.0234458 -2.498423532e-05 -188.6059104
-169.9206682 -2.498423532e-05 -129.6353364
-41.63220018 -2.498423532e-05 -20.61508139
-179.2900452 -81.55600406 -9.738615927e-05
113.7477098 -52.4417438 -9.738615927e-05
184.0007278 -60.67372106 -151.0744894
184.0007278 -160.7041427 -76.81586839
184.0007278 -112.1643199 -81.45261639
190.0601168 -33.60309458 -9.738615927e-05
176.0007278 -104.4798423 -63.56282539
180.0007278 -225.9036272 -104.5105634
184.0007278 -153.9387022 -56.26364339
176.0007278 -76.60420186 -62.29267439
-98.08773018 -48.83621733 -9.738615927e-05
183.5522208 -2.498423532e-05 -45.35032139
39.22439782 -2.498423532e-05 -68.30374639
-166.9648562 -2.498423532e-05 -172.1559604
176.0007278 -61.46652979 -18.73648339
4.052992821 -2.498423532e-05 -37.97009739
-14.09081818 -55.98627519 -9.738615927e-05
184.0007278 -158.8402944 -95.57284239
31.52135482 -2.498423532e-05 -166.5453544
-44.65948918 -2.498423532e-05 -55.22062639
-11.52596618 -2.498423532e-05 -206.8275494
-181.0326602 -2.498423532e-05 -26.99562239
107.7606578 -2.498423532e-05 -143.8206424
-179.8311622 -2.498423532e-05 -206.4185274
186.5510488 -2.498423532e-05 -101.1391004
-197.4452412 -2.498423532e-05 -25.34753439
-111.7997612 -2.498423532e-05 -235.6140484
180.6790258 -206.2050933 -195.2000574
98.98320082 -2.498423532e-05 -199.5225284
-167.2717242 -45.35873566 -9.738615927e-05
-150.2712202 -2.498423532e-05 -185.3422464
-151.5638092 -124.0631457 -9.738615927e-05
-4.429856179 -2.498423532e-05 -71.12768639
-160.9372032 -2.498423532e-05 -35.84487839
184.0007278 -181.2875738 -155.1885704
176.0007278 -127.0281205 -168.6182214
191.5905308 -100.6484929 -196.0000974
-176.0002492 -20.82794625 -79.41823239
160.5086838 -2.498423532e-05 -171.2838704
155.7769118 -2.498423532e-05 -81.18435839
-180.0002492 -41.29733844 -131.7877724
183.5552778 -2.498423532e-05 -205.3990834
-101.9782382 -2.498423532e-05 -105.6583654
-99.37639718 -74.48742358 -9.738615927e-05
176.0007278 -95.47572922 -182.7507824
-196.1211372 -2.498423532e-05 -174.6624614
180.0007278 -28.46282939 -8.323473386
184.0007278 -152.2480669 -130.2817634
176.0007278 -66.55428554 -174.8171544
184.0007278 -145.5373894 -85.03078539
33.04692082 2.427030786 -9.738615927e-05
145.1044538 -2.498423532e-05 -160.8626904
-38.48663518 -2.498423532e-05 -3.294646386
176.2952248 -24.98494192 -149.8460174
177.4034398 -2.498423532e-05 -62.24259339
27.17212582 -2.498423532e-05 -251.6672174
-179.9420842 -2.498423532e-05 -99.80939439
176.0007278 -58.42642884 -169.9578274
184.0007278 -61.09495785 -104.3672754
142.4214068 -2.498423532e-05 -3.170192386
130.3125068 -2.498423532e-05 -225.3824304
109.1395778 -2.498423532e-05 -121.1026954
-40.91350318 -2.498423532e-05 -203.6741854
-55.45483718 -2.498423532e-05 -28.24399239
180.0007278 -146.8364549 -163.3055554
184.0007278 -90.34520232 -182.1039074
6.057847821 -12.95136019 -9.738615927e-05
176.0007278 -19.69440565 -197.2888374
116.6658648 -2.498423532e-05 -173.6745004
176.0007278 -69.0338218 -47.85356939
86.71101982 -2.498423532e-05 -33.20575939
176.0007278 -21.15733324 -69.75262439
-73.75661118 -2.498423532e-05 -9.919043386
184.0007278 -170.4251213 -67.06350039
188.9728108 -2.498423532e-05 -167.9924514
194.1997158 -177.6875604 -200.0000974
-176.0002492 -21.02164069 -101.2304364
-176.0002492 -63.62538551 -124.0630124
183.4007178 -151.7892267 -41.47285339
107.6924548 -2.498423532e-05 -69.98043939
-98.79044218 -2.498423532e-05 -24.22246839
176.0007278 -47.56018498 -137.5070634
-176.0002492 -54.97139478 -247.1147904
104.6734938 -2.498423532e-05 -160.0007294
180.0007278 -188.2793207 -59.49493239
193.0478688 -37.02689826 -196.0000974
-4.226472179 -2.498423532e-05 -5.836468386
158.9725218 -2.498423532e-05 -100.8012534
176.0007278 -33.98833297 -209.2347384
184.8965338 -2.498423532e-05 -7.217045386
-164.7040442 -2.498423532e-05 -220.7591574
176.0007278 -71.98948976 -97.15475939
176.0007278 -29.53079742 -88.62544039
-180.0002492 -28.3545963 -230.9009504
34.05082382 -2.498423532e-05 -139.8003914
96.87364482 -2.498423532e-05 -43.70356339
-184.4541892 -57.42493276 -9.738615927e-05
-176.0002492 -44.26522882 -146.8917884
186.8192838 -28.51197173 -195.8015874
176.0007278 -3.629619714 -243.4698014
-180.0002492 -60.64100411 -163.1086964
-47.30221818 -2.498423532e-05 -244.4915604
-180.0002492 -5.378889904 -38.53620439
-19.86538318 -2.498423532e-05 -57.98890439
184.0007278 -250.7546535 -50.70645839
180.0007278 -51.92807711 -26.23129839
-176.0002492 -56.67713056 -192.1271154
180.2474848 -225.0575997 -159.5000974
-153.3856362 -2.498423532e-05 -108.8111704
180.0007278 -206.4669697 -110.2104654
184.0007278 -170.3042036 -53.47796139
184.0007278 -41.65289637 -153.6670884
184.0007278 -233.2565195 -48.11300139
-180.0002492 -30.78579309 -82.75972639
-53.63481018 -2.498423532e-05 -168.3530664
-72.34993518 -8.061836554 -9.738615927e-05
-176.0002492 -56.99906896 -72.12481839
-60.70454918 -2.498423532e-05 -214.3869994
191.2309078 -157.8415853 -196.0000974
176.0007278 -148.2947709 -150.4393184
-34.36241718 -2.498423532e-05 -107.4519204
-120.4851362 -30.38925153 -9.738615927e-05
176.0007278 -29.99241764 -165.7594094
176.0007278 -46.23311618 -187.0570334
-176.0002492 -4.699841784 -215.7164314
-180.0002492 -52.03508088 -107.0323684
104.8958418 -2.498423532e-05 -35.77285139
-10.19447418 -68.00002402 0.8472406138
150.8819308 -2.498423532e-05 -130.8513084
-194.2838372 -2.498423532e-05 -73.82326939
176.0007278 -55.4552373 -230.7520554
184.0007278 -106.581719 -174.2976704
117.3026248 -2.498423532e-05 -210.5210644
-31.94874118 -2.498423532e-05 -186.7101114
-188.4055082 -93.28990267 -9.738615927e-05
-54.52407718 -21.34256921 -9.738615927e-05
176.0007278 -88.70209626 -71.16428239
-32.41962118 -2.498423532e-05 -237.0450714
-146.2347872 -2.498423532e-05 -26.61568739
180.0007278 -251.9672453 -140.5388444
129.4230928 -11.51223765 -9.738615927e-05
-179.5053882 -10.85086437 -15.12463039
-177.1993302 -112.3783306 -30.65592139
184.0007278 -81.06464695 -53.23972639
184.0007278 -208.9465806 -60.88593039
-180.0002492 -16.00426624 -72.25148839
184.0007278 -189.2899923 -171.6285214
39.91574582 -2.498423532e-05 -19.62106839
176.0007278 -112.308966 -152.3879604
176.0007278 -47.80334439 -74.60056439
-176.0002492 -2.730441594 -175.4340274
164.4055798 -2.498423532e-05 -58.07591739
180.0007278 -6.984041024 -232.8616074
-180.0002492 -119.0690173 -9.235703386
179.6881288 -25.38086157 -9.738615927e-05
135.5849908 -2.498423532e-05 -171.7003634
176.0007278 -36.48172387 -248.2041084
183.6039908 -2.498423532e-05 -111.2653474
180.0007278 -248.3088017 -98.80056239
130.7046788 -2.498423532e-05 -193.2193064
-110.8818882 -56.70945671 -9.738615927e-05
176.0007278 -154.5037654 -92.79675939
-176.0002492 -46.69434339 -90.29631839
114.8701608 -2.498423532e-05 -106.6390564
184.0007278 -37.54954539 -99.80654539
176.0007278 -48.46684157 -65.15038239
134.7064898 -2.498423532e-05 -239.4106584
189.9486238 -125.0612107 -200.0000974
153.8286948 -11.97257783 -9.738615927e-05
-46.86662418 -14.03957933 -9.738615927e-05
17.10420582 -2.498423532e-05 -70.01213739
-197.4041282 -2.498423532e-05 -125.0493024
157.3163218 -2.498423532e-05 -8.772700386
25.76723082 -2.498423532e-05 -175.9141764
-176.0002492 -61.20267188 -113.9403034
-120.2399752 -2.498423532e-05 -223.5228134
176.0007278 -55.63939992 -92.44206939
194.9466308 -212.0503295 -44.00009739
-5.816159179 -2.498423532e-05 -114.8676904
197.7682548 -196.436204 -196.0000974
12.24415182 -2.498423532e-05 -232.3538864
-176.2973922 -72.98452589 -1.500097386
176.0007278 -34.4899548 -150.6806094
97.64144982 -50.71819242 -9.738615927e-05
170.5816758 -2.498423532e-05 -22.45129839
100.1629268 -2.498423532e-05 -22.76144239
-180.0002492 -86.0868526 -31.10794739
176.0007278 -36.14544811 -113.0568924
176.0007278 -62.33824844 -114.1421384
180.0007278 -96.709104 -128.6930334
82.47735182 -2.498423532e-05 -73.13170339
-179.2254512 -71.31453367 -162.4566504
-63.57123218 -8.043745924 -9.738615927e-05
-145.8028762 -2.498423532e-05 -204.3079044
184.0007278 -58.9615232 -186.2267984
-138.6750222 -2.498423532e-05 -55.33120939
-180.0002492 -2.801407094 -82.28813439
-176.0002492 -53.13171334 -54.00419239
11.61874282 -2.498423532e-05 -33.54740239
102.6199058 -2.498423532e-05 -55.05899439
-180.0002492 -54.19799328 -98.55685139
180.0007278 -37.52501455 -171.2353174
112.3074198 -2.498423532e-05 -40.70669739
180.0007278 -131.7420048 -95.77935939
-114.6551692 -2.498423532e-05 -15.24726139
-126.3354832 1.798943486 -172.4923194
35.04782982 -2.498423532e-05 -96.13669039
176.0007278 -97.67231864 -199.5861644
-134.4753892 -2.498423532e-05 -38.62927539
186.9559768 -200.789324 -40.10303339
24.55633282 -2.498423532e-05 -153.8999984
-176.0002492 -67.15994895 -98.36970739
180.0007278 -173.4932175 -153.9622464
184.0007278 -181.538826 -117.4070084
63.17584082 -2.498423532e-05 -235.1511304
176.0007278 -79.73395338 -121.8727604
56.26396582 -2.498423532e-05 -106.6760884
-176.0002492 -46.70828602 -123.5807944
-180.0002492 -14.00582621 -138.7508054
184.0007278 -20.7599578 -184.0465604
180.0007278 -9.674764914 -143.0542444
-38.30060318 -2.498423532e-05 -168.6098064
-122.3607302 -2.498423532e-05 -129.8001574
180.0007278 -232.0479577 -67.91152339
176.0007278 -97.62831337 -80.60549439
98.67460382 -6.219086434 -9.738615927e-05
-147.2797562 -2.498423532e-05 -223.7771514
171.4474978 -51.7350454 -9.738615927e-05
184.0007278 -91.60979048 -141.8631294
180.0007278 -11.34567214 -30.28987139
3.849684821 -2.498423532e-05 -238.5633824
-91.21476918 -121.2153343 1.105106614
176.0007278 -39.10249955 -19.84096139
-169.6281142 -2.498423532e-05 -189.5220474
180.5074528 -90.48538817 -194.7289944
-176.0002492 -53.80911372 -5.834679386
192.5459378 -2.498423532e-05 -18.32261939
-176.0002492 -35.55632591 -99.46659039
184.0007278 -72.26804937 -52.65727839
180.0007278 -39.5260639 -58.57809239
-90.99623518 -2.498423532e-05 -18.67132939
-180.0002492 -46.16328387 -156.3684484
-141.1654962 -3.114538974 -9.738615927e-05
184.0033028 -138.0313294 -47.97796439
-180.0002492 -8.861760304 -29.83851739
176.0007278 -46.14701014 -169.0129044
-148.8224692 -2.498423532e-05 -142.5556144
-184.2543132 -2.498423532e-05 -74.42183139
184.0007278 -159.3542293 -106.5687334
184.0007278 -134.4207372 -186.8579104
153.4111868 -2.498423532e-05 -155.2020724
-188.4609462 -2.498423532e-05 -198.0920954
176.0007278 -8.236094514 -15.27895539
184.0007278 -128.6425985 -79.51049939
48.80253282 -2.498423532e-05 -84.61657539
-59.89282118 -2.498423532e-05 -160.3871594
-145.6745592 -78.19547251 -9.738615927e-05
161.6306678 -2.498423532e-05 -35.33609139
184.0007278 -215.2023203 -163.7935394
-92.25430018 -55.16752011 -9.738615927e-05
-73.49506218 -2.498423532e-05 -235.7179194
22.71847482 -60.80831381 -9.738615927e-05
95.30407082 -19.74080667 -9.738615927e-05
180.0007278 -211.9107905 -134.2867494
184.0007278 -6.361861754 -153.4616594
180.0007278 -101.2883357 -138.0387384
188.2558148 -55.41635292 -44.00009739
190.9686198 -82.64686084 -200.0000974
176.4144008 -157.7978515 -122.4397494
-101.2815042 -2.498423532e-05 -149.5310974
180.0007278 -174.2814729 -178.6184354
176.0007278 -40.48988498 -231.9351004
-163.6250832 -14.69271943 -9.738615927e-05
-176.0002492 -20.97354738 -2.505398386
176.0007278 -44.81269758 -152.5296014
184.0007278 -211.8576463 -179.6567334
180.0007278 -23.43048308 -29.70390539
184.0007278 -78.93214467 -160.7043124
94.25208282 -2.498423532e-05 -243.4399784
-180.0002492 -17.20099839 -124.4653144
-54.17532218 -51.01453637 -9.738615927e-05
180.0007278 -197.908097 -151.2004634
176.0007278 -33.1336704 -127.8331444
-24.84444318 -2.498423532e-05 -140.9349874
180.0007278 -174.627183 -101.4217664
30.93791382 -2.498423532e-05 -64.73257639
52.08244082 -2.498423532e-05 -66.14130139
176.0007278 -37.23262319 -2.712185386
54.68322082 -2.498423532e-05 -78.25797239
-77.95474718 -2.498423532e-05 -101.5334614
180.0007278 -84.58309056 -63.47012839
-116.0625972 -2.498423532e-05 -72.31706839
-176.0002492 -60.02814967 -138.4100774
190.9276088 -2.498423532e-05 -117.8234844
-180.0002492 -21.4641596 -192.6334114
-16.14393918 -2.498423532e-05 -24.90040739
180.0007278 -67.71179291 -218.0553824
176.0007278 -67.12311333 -150.8257804
-110.1770292 -2.498423532e-05 -61.19070939
11.34779482 -2.498423532e-05 -78.55549639
57.24292382 -2.498423532e-05 -226.4996294
184.0007278 -116.7694346 -88.52427239
176.3654988 -103.1912601 -117.6918064
93.60195482 -2.498423532e-05 -116.0929774
45.54596082 -2.498423532e-05 -141.9243114
-176.0002492 -22.31994874 -37.22614939
-102.9044142 -29.67552219 -9.738615927e-05
46.44805782 -2.498423532e-05 -211.9298214
-92.80093818 -2.498423532e-05 -191.8496204
184.0007278 -64.58902576 -143.6336074
-180.0002492 -55.87487079 -18.19202839
176.0007278 -27.69136697 -62.12898039
-125.3467722 2.174654596 -9.738615927e-05
176.0007278 -70.46083419 -112.0527564
127.8871508 -2.498423532e-05 -97.88325139
184.0007278 -115.1251833 -126.9004454
176.0007278 -156.19383 -155.1268564
-180.0002492 -43.02813123 -204.8875294
-160.9864152 -2.498423532e-05 -149.5110664
184.0007278 -149.6461832 -67.09736439
-152.0757282 -2.498423532e-05 -65.43508239
-180.0002492 -79.37229104 -60.24909139
184.0007278 -91.69124397 -164.2109794
180.0007278 -148.1545439 -179.8358264
176.0007278 -14.79243944 -227.9957014
-119.8073022 0.1218155758 -183.4094484
176.0007278 -163.2870487 -138.7937134
-99.11316218 -95.00841417 -9.738615927e-05
176.1581558 -126.0758433 -67.44823239
184.0007278 -186.2376729 -108.2061154
180.0007278 -78.34673999 -228.3365514
-176.0002492 -71.76448884 -122.1500674
53.72416082 -2.498423532e-05 -170.8896884
-129.7524522 -91.76618636 -9.738615927e-05
179.2285618 2.153353376 -9.738615927e-05
-180.0002492 -29.61998006 -198.9845024
-148.0840832 -2.498423532e-05 -116.5624204
184.0007278 -131.0070494 -144.6033794
-176.0002492 -17.925121 -216.8348924
-180.0002492 -42.12469259 -233.2161554
184.0007278 -38.65821092 -178.4639264
176.0007278 -97.35181441 -160.5798794
-176.0002492 -51.72044967 -43.32767839
176.0007278 -9.121200004 -181.9905594
184.0007278 -154.6618181 -138.7918624
84.00196182 -34.73591437 -9.738615927e-05
180.0007278 -136.4326825 -109.0821084
-63.72064918 -2.498423532e-05 -100.7713534
-59.73571618 -69.59704929 -9.738615927e-05
-107.0111282 -2.498423532e-05 -194.4568514
-176.0002492 -47.66566496 -218.4529174
184.0007278 -6.882475844 -76.53912139
15.96055182 -44.93157126 -9.738615927e-05
-124.4670782 -2.498423532e-05 -152.0970514
180.0007278 -70.77354856 -243.4963374
73.08779082 -44.9294313 -9.738615927e-05
-159.7212362 -2.498423532e-05 -50.22785639
171.5373778 -2.498423532e-05 -114.2905814
-180.0002492 -28.26414236 -247.7266384
180.0007278 -57.07126069 -162.4096424
180.0007278 -27.89806688 -158.8088024
162.4290358 -25.56354423 -9.738615927e-05
-180.0002492 -99.38201478 -7.435601386
184.0007278 -115.8401288 -147.2584624
184.0007278 -82.66573785 -106.3741164
176.0007278 -33.61335631 -81.30222439
176.0007278 -107.2828063 -144.8131854
192.0430458 -76.99018635 -40.00009739
-183.6896622 -66.00728495 -9.738615927e-05
190.7296088 -198.0328814 -200.0000974
45.02795882 -2.498423532e-05 -155.6599044
200.0273178 -44.92009874 -40.00009739
176.0007278 -71.73464228 -206.7784184
-131.4636652 -2.498423532e-05 -219.5901154
-176.0002492 -5.530288784 -72.42999839
-199.8537252 -43.39631832 -9.738615927e-05
180.0007278 -97.3477304 -211.5235194
180.0007278 -250.0420098 -67.04143739
-176.0002492 -42.91363142 -66.20978539
176.0007278 -38.72398316 -121.3874004
150.5188948 -39.67616861 -9.738615927e-05
180.0007278 -208.3797207 -95.20660739
176.0007278 -139.1048492 -77.35512839
176.0007278 -84.58333704 -97.46368739
184.0007278 -95.63406172 -117.8792184
184.0007278 -21.58641785 -166.1875844
184.0007278 -15.8496311 -132.1317264
184.0007278 -160.5505503 -159.6197624
-180.0002492 -29.91232055 -144.5039594
-3.968517179 -2.498423532e-05 -144.7419704
180.0007278 -205.989988 -172.2328264
-176.0002492 -6.955901784 -110.2167164
176.0007278 -37.25973742 -141.0893234
-97.56800318 -2.498423532e-05 -244.5268324
-97.55715718 -2.498423532e-05 -71.56279339
-173.3474382 -2.498423532e-05 -251.5133034
73.71009482 -2.498423532e-05 -166.9107204
-81.37957618 -2.498423532e-05 -37.41837839
180.0007278 -180.3289207 -67.50931439
-75.86416718 -2.498423532e-05 -62.52267239
