# .PCD v0.7 - Point Cloud Data file format
VERSION 0.7
FIELDS x y z
SIZE 4 4 4
TYPE F F F
COUNT 1 1 1
WIDTH 1194
HEIGHT 1
VIEWPOINT 0 0 0 1 0 0 0
POINTS 1194
DATA ascii
197.6457048 -39.48460889 -196.0000974
48.36500882 -2.49858407e-05 -86.69993239
-180.0002492 -63.20629626 -91.61480339
164.9736248 -68.00002403 0.1979996136
176.0007278 -111.6842316 -195.8709684
-132.7893552 -26.09112151 -9.738644258e-05
180.0007278 -119.0923895 -128.2357794
-164.9768502 -2.49858407e-05 -113.2096754
-83.51037318 -2.49858407e-05 -141.6368144
150.4144138 -2.49858407e-05 -159.6885774
15.89397782 -2.49858407e-05 -187.9387624
-37.78162918 -2.49858407e-05 -204.7555594
180.0007278 -125.8389571 -170.7600794
180.0007278 -77.53956236 -109.0023984
176.0007278 -80.16829492 -136.3095694
180.0825108 -166.1096816 -192.8312114
-141.6449552 -71.78505085 -9.738644258e-05
-177.4915992 -2.49858407e-05 -136.6002094
-138.7459062 -104.411774 -9.738644258e-05
-76.38083018 -2.49858407e-05 -173.7296034
-111.9137052 -110.2070153 -9.738644258e-05
-174.9876202 -2.49858407e-05 -171.4022014
195.4511898 -186.243223 -200.0000974
-179.9370052 -97.88197269 -70.47391639
-53.54275518 -29.53591771 -9.738644258e-05
68.03793782 -2.49858407e-05 -126.6701324
182.7207968 -222.271993 -197.9790904
-11.51941718 -20.92189326 -9.738644258e-05
184.0007278 -10.75760501 -124.5479574
-145.2322942 -2.49858407e-05 -102.4808124
185.1685558 -145.9892625 -199.4423984
42.46500982 -2.49858407e-05 -21.55970639
-97.43915618 -2.49858407e-05 -103.4116584
-180.0002492 -18.15830921 -227.5571544
-81.75810718 -2.49858407e-05 -76.04465739
-160.6096082 -2.49858407e-05 -246.3867414
-54.63518918 2.488750054 -9.738644258e-05
125.3404618 -2.49858407e-05 -151.0660364
184.0007278 -19.48525233 -155.0324344
-176.0824892 -83.99928178 -9.738644258e-05
67.51599282 -2.49858407e-05 -13.11156939
-180.0002492 -89.61802337 -26.40396439
75.99646382 -2.49858407e-05 -204.7756274
176.0007278 -44.73447793 -19.82194939
-18.81468718 -68.00002403 1.483062614
-176.0002492 -37.53792421 -196.2789244
-176.0002492 -21.40461803 -39.89813039
180.0007278 -232.3276198 -107.5600534
20.48055482 -2.49858407e-05 -222.6680164
-180.0002492 -36.08527386 -113.3824064
-146.0757242 -2.49858407e-05 -38.04239039
197.3621918 -24.46043267 -40.00009739
113.4925168 -2.49858407e-05 -179.5870214
176.0007278 -51.52354636 -241.6869534
197.2356348 -2.49858407e-05 -159.1286044
-110.9296782 -2.49858407e-05 -197.7575174
-149.8259442 -2.49858407e-05 -177.7542024
200.6815838 -238.099433 -44.00009739
87.81446582 -2.49858407e-05 -103.7216254
180.0007278 -149.6220512 -140.6366514
149.8199628 -2.49858407e-05 -16.75815339
200.9234868 -2.49858407e-05 -138.2310534
43.57481182 -17.86600584 -9.738644258e-05
184.0007278 -115.2608338 -82.39201039
-23.46677618 -2.49858407e-05 -252.1804964
-28.78287018 -2.49858407e-05 -17.55431139
145.8792778 -2.49858407e-05 -58.23644639
176.0007278 -151.8059359 -90.01797839
176.0007278 -42.61802397 -118.0147594
113.3725148 -2.49858407e-05 -101.6636684
184.0007278 -17.69613125 -187.3632024
131.5907558 -43.66174561 -9.738644258e-05
-93.90656818 -95.78568914 -9.738644258e-05
-144.6053872 -2.49858407e-05 -68.74070239
-33.51745518 -2.49858407e-05 -134.4936234
176.0007278 -8.061165466 -31.13556639
-116.4809382 -2.49858407e-05 -98.42935039
180.1193488 -120.4757988 -46.96010439
180.0007278 -65.83326884 -204.4345114
-22.24409218 -2.49858407e-05 -54.20847039
-124.1326662 -2.49858407e-05 -139.9115294
181.9365788 -147.4277411 -42.81991739
185.7282638 -2.49858407e-05 -200.7057894
-159.8660672 -57.52603549 -9.738644258e-05
5.279173821 -2.49858407e-05 -50.40805139
72.16285182 -2.49858407e-05 -231.9087544
-109.7990712 -2.49858407e-05 -174.8141124
-16.23851018 -2.49858407e-05 -211.1539574
167.1647358 -2.49858407e-05 -130.5818064
85.36054682 -2.49858407e-05 -173.7473884
4.969998821 -2.49858407e-05 -89.01238139
180.0007278 -192.496848 -130.4869154
-180.0002492 -68.26096389 -149.6471254
83.00224382 -2.49858407e-05 -71.65856939
-41.59584618 -2.49858407e-05 -175.2547374
144.1650818 -2.49858407e-05 -216.6905014
-9.414503179 -2.49858407e-05 -175.2284094
-74.72230518 -2.49858407e-05 -12.22707439
179.8556548 -85.71759733 -227.6651614
108.7857568 -2.49858407e-05 -229.2972844
51.67617882 -2.49858407e-05 -170.9097304
-102.5907002 -2.49858407e-05 -140.0624564
-86.51109318 -20.8777955 -9.738644258e-05
184.0007278 -197.6200038 -94.28759939
19.51911582 -2.49858407e-05 -102.2538844
-176.0002492 -51.7397347 -23.71448439
184.5551228 -11.57822081 -9.738644258e-05
180.0007278 -206.1820927 -184.7020594
47.26071482 -2.49858407e-05 -194.2258874
169.1566108 -2.49858407e-05 -162.2798894
184.0007278 -91.07201632 -73.91882939
184.0007278 -182.1571128 -160.7015094
-140.5632382 -8.853552896 -9.738644258e-05
-180.0002492 -20.12968753 -174.7204924
73.07522582 -42.73073491 -9.738644258e-05
5.976541821 -2.49858407e-05 -15.86953139
-194.1143802 -2.49858407e-05 -194.5383054
-72.27861218 -33.0128207 -9.738644258e-05
-172.2019722 -111.7531396 -9.738644258e-05
-176.0002492 -34.10720137 -131.7379154
180.0007278 -32.05443943 -62.85352139
72.53508582 -2.49858407e-05 -50.95166339
147.5972478 -2.49858407e-05 -118.1227004
-176.0002492 -11.13460771 -77.38825739
94.06470982 -21.97938046 -9.738644258e-05
184.7056848 -90.52795203 -40.73217139
-180.0002492 -3.777619966 -208.3336334
106.0047768 -2.49858407e-05 -209.8916644
197.3052288 -62.94577136 -40.00009739
-88.54524618 -2.49858407e-05 -231.1020334
-34.00656818 -2.49858407e-05 -222.8064114
-176.0002492 -30.73481948 -242.2570374
-156.5498002 -34.64803947 -9.738644258e-05
180.0007278 -120.8660414 -109.9224734
105.8327938 -2.49858407e-05 -144.0849584
33.91636082 -2.49858407e-05 -235.1689454
-118.5826162 -2.49858407e-05 -66.09630839
-143.3696052 -2.49858407e-05 -146.6784394
-48.18810618 -2.49858407e-05 -103.0035904
115.4474128 -54.54246037 -9.738644258e-05
44.40472882 -2.49858407e-05 -134.0550754
-179.6039782 -2.49858407e-05 -240.3158894
109.3111268 -2.49858407e-05 -68.07362939
-113.9552182 -43.70756873 -9.738644258e-05
-150.5913482 -2.49858407e-05 -231.1800994
-184.6268002 -2.49858407e-05 -52.36604339
176.0007278 -50.18350141 -214.8800454
176.0007278 -88.07098216 -170.8992874
200.6952728 -184.7624438 -44.00009739
176.0007278 -38.48093362 -81.71713739
176.0007278 -143.9240021 -161.6715084
180.0317978 -199.9943057 -47.69817039
184.0007278 -174.9183959 -66.19637939
-118.1287652 -2.49858407e-05 -231.0129304
78.71979682 -4.956220266 -9.738644258e-05
181.4105838 -234.7017064 -159.5000974
18.02970182 -49.72044522 -9.738644258e-05
24.58889482 -2.49858407e-05 -17.85639739
-4.092706179 -2.49858407e-05 -251.6168534
184.0007278 -127.6948356 -187.9946094
180.0007278 -45.97914563 -51.80106139
184.0007278 -7.297051106 -64.01435139
-159.9432472 -2.49858407e-05 -134.1031404
176.0007278 -60.77758583 -11.62192139
135.6453488 -2.49858407e-05 -34.38756439
180.0007278 -231.7053835 -76.91017439
184.0007278 -38.11102631 -184.8239154
-168.1940032 0.7610380942 -9.738644258e-05
-68.93445618 -2.49858407e-05 -131.7635464
71.09840282 -2.49858407e-05 -85.51229939
-56.32585018 -2.49858407e-05 -204.3743894
-180.0002492 -61.5860716 -130.5243684
172.6975798 -37.87036202 -9.738644258e-05
180.0007278 -203.860273 -78.48641339
116.0106438 -9.300005716 -9.738644258e-05
-180.0002492 -1.958846956 -153.7373694
160.2780338 -2.49858407e-05 -182.0578744
176.0007278 -67.71173587 -74.19968039
148.0292338 -64.2940998 -9.738644258e-05
199.9375398 -2.49858407e-05 -47.45394239
184.0007278 -160.8556487 -124.0846024
176.0007278 -94.49775467 -190.0065774
149.5436668 -30.6626939 -9.738644258e-05
-176.0002492 -39.45706763 -37.68044739
184.0007278 -11.50184396 -107.3301164
-190.1742152 -2.49858407e-05 -86.76204239
-116.2844802 -2.49858407e-05 -45.40955839
-180.0002492 -52.30161837 -210.0119224
192.4461188 -2.49858407e-05 -13.60503239
-55.50084618 -2.49858407e-05 -72.50746239
180.0007278 -25.96835172 -117.3344654
180.0007278 -210.0291042 -137.0084644
12.95813582 -2.49858407e-05 -66.75091139
187.7085908 -83.51246262 -199.9675144
50.17290282 -2.49858407e-05 -104.7634334
-176.0002492 -33.88863741 -157.1187094
43.40897182 -2.49858407e-05 -65.83033039
-190.5933222 -2.49858407e-05 -125.5594934
-180.0002492 -51.80774978 -184.5361304
5.202184821 -2.49858407e-05 -230.0515394
1.659632821 -10.26378722 -9.738644258e-05
184.0007278 -165.3838087 -52.19823239
148.9461128 -2.49858407e-05 -88.64590539
-82.69794418 -62.72303577 -9.738644258e-05
-176.0002492 -41.34932156 -55.13602939
-70.10753918 -2.49858407e-05 -234.4876274
68.25224382 -2.49858407e-05 -159.9754734
142.1495608 -2.49858407e-05 -191.0063804
-176.0002492 -23.52651231 -207.2717754
-57.82365418 -2.49858407e-05 -45.09042939
29.37345682 -2.49858407e-05 -153.7059514
193.8896218 -111.0543705 -196.0000974
-174.1753502 -2.49858407e-05 -98.29201939
180.0007278 -17.18112347 -170.9156544
-22.15731218 -33.5786023 -9.738644258e-05
29.78490182 -2.49858407e-05 -251.6463214
182.7666328 -196.5654283 -198.0178404
3.857219821 -2.49858407e-05 -129.3903594
-174.1879492 -131.6232007 -9.738644258e-05
136.3689318 2.199778554 -9.738644258e-05
180.0007278 -17.0557831 -92.18709039
-28.55862518 -2.49858407e-05 -69.36981639
184.0007278 -90.85147651 -96.03502539
180.0007278 -61.44825232 -57.69243039
145.3907068 -2.49858407e-05 -249.5568204
-180.0002492 -15.59923291 -23.31404539
-127.3747252 -2.49858407e-05 -117.0052274
180.0007278 -167.3710563 -174.9266194
-83.57725118 -2.49858407e-05 -56.61417239
-176.0482682 -92.80810929 -85.53796739
-176.0002492 -65.08502771 -57.07693039
-31.74460118 -2.49858407e-05 -35.76453839
180.0007278 -20.18519178 -238.9757414
-176.0002492 -55.03859115 -158.3003374
194.8724688 -63.17107556 -9.738644258e-05
-80.32652218 -2.49858407e-05 -97.25682239
-180.0002492 -32.15714888 -76.69252239
177.9985898 -73.03155196 -39.85120539
89.75601582 -2.49858407e-05 -13.76180239
180.0007278 -216.176512 -160.7548444
-44.27639518 -2.49858407e-05 -159.3007704
101.3363138 -2.49858407e-05 -112.4960144
-200.4021242 -2.49858407e-05 -57.29899739
-152.8341842 -2.49858407e-05 -215.2761084
-176.0002492 -72.74322038 -109.1051344
-180.0002492 -67.30524339 -31.32103439
-190.1235822 -2.49858407e-05 -224.9069044
50.52230682 -53.36419073 -9.738644258e-05
-21.70410818 -50.9296532 -9.738644258e-05
-152.5963752 -2.49858407e-05 -54.94858739
120.2930608 -2.49858407e-05 -83.42999339
-78.30565918 -2.49858407e-05 -156.6505754
-164.9228292 -72.70109843 -9.738644258e-05
184.0007278 -235.0038696 -188.5850184
-12.88742718 -2.49858407e-05 -112.3101774
167.9568198 -2.49858407e-05 -245.4483394
180.0007278 1.364714614 -78.07889039
160.2249358 -2.49858407e-05 -144.8248674
-29.52519418 -2.49858407e-05 -99.62422339
-3.208284179 -2.49858407e-05 -189.7830764
120.9406398 -2.49858407e-05 -26.93946739
180.0007278 -46.54589944 -135.1743154
-95.61801118 -2.49858407e-05 -125.9198294
184.0007278 -33.51712954 -147.3174074
180.0007278 -143.0564731 -76.84404339
37.34350882 -2.49858407e-05 -219.2506464
176.0007278 -64.72184339 -139.0610474
15.07244582 -2.49858407e-05 -170.0553474
184.0007278 -236.9798125 -127.2570644
19.11438882 -68.00002403 1.438341614
180.0007278 -251.2441761 -103.3479834
180.0007278 -32.07752182 -30.45583139
-151.8272322 1.959066734 -9.738644258e-05
-33.93978918 -2.49858407e-05 -238.9318544
-113.9130442 -2.49858407e-05 -155.1157334
112.6762888 -2.49858407e-05 -195.1343464
180.0007278 -198.5539906 -166.6000584
184.0007278 -86.19827272 -157.2530514
138.8691178 -2.49858407e-05 -231.8867144
-143.2144072 -2.49858407e-05 -201.3675754
-200.6076292 -21.53200659 -9.738644258e-05
152.3270928 1.317841904 -9.738644258e-05
57.48612382 -2.49858407e-05 -25.38049839
-176.0002492 -98.18430169 -6.386247386
189.9737468 -2.49858407e-05 -237.9957034
-176.0002492 -44.30027404 -233.1459274
-13.58081318 -2.49858407e-05 -23.55283739
180.0007278 -174.5803077 -117.9709594
-157.7988082 -106.2977822 -9.738644258e-05
-86.17344618 -2.49858407e-05 -39.56461739
130.2675608 -2.49858407e-05 -58.63962839
176.0007278 -118.7661929 -157.6569714
-131.0616492 -83.25736529 -9.738644258e-05
180.0007278 -208.9554935 -104.7761364
176.0007278 -78.24828508 -214.8722394
60.80178182 -12.95569164 -9.738644258e-05
-176.0002492 -104.9992635 -33.52349239
-144.9152282 -119.7500609 -9.738644258e-05
180.0007278 -22.97967375 -220.8438324
196.2085698 -221.8253802 -44.00009739
-107.8925902 -10.53577819 -9.738644258e-05
180.0007278 -185.6931688 -146.4662834
176.8483608 -164.0847097 -79.70168439
-180.0002492 -5.049571836 -115.6441654
199.3215098 -141.468264 -196.0000974
176.0007278 -5.689441656 -16.19519239
17.90773482 -2.49858407e-05 -123.8927564
180.0007278 -70.25640157 -173.2602614
-176.0002492 -77.72933098 -91.66643339
81.70574482 -54.96068499 -9.738644258e-05
-180.0002492 -21.25972294 -108.6678344
59.78093282 -2.49858407e-05 -202.2902594
180.0007278 -61.21971275 -188.2310674
176.0007278 -32.71950997 -196.1536554
180.0007278 -144.5014892 -102.3072194
169.0577108 -52.24780948 -9.738644258e-05
178.6891408 -91.90657117 -57.40403139
-65.58579918 -2.49858407e-05 -115.7727274
180.0007278 -15.77836106 -141.2603454
90.87686882 -2.49858407e-05 -39.47258539
176.0007278 -1.695181936 -215.3435494
-180.0002492 -88.2230527 -59.33138439
115.9764968 -2.49858407e-05 -162.4405724
176.0007278 -62.06308542 -109.4570624
-176.0002492 -47.85749368 -126.6718434
176.0007278 -35.50797042 -210.9768734
-180.0002492 -66.71015404 -2.076001386
197.7358878 -233.1914005 -196.0000974
-135.8819622 -2.49858407e-05 -26.80158839
109.6702328 -68.00002403 2.188381614
128.1587678 -2.49858407e-05 -136.8293414
1.214409821 -2.49858407e-05 -29.55774839
56.02079782 -2.49858407e-05 -118.5785124
180.0007278 -136.3054318 -134.9715994
35.12439782 -40.57781313 -9.738644258e-05
-35.10294718 1.707769754 -9.738644258e-05
-185.7780022 -2.49858407e-05 -33.99346239
-180.0002492 -11.05501347 -63.54333239
184.0007278 -91.59095034 -139.8052094
77.05891482 -2.49858407e-05 -115.4866694
-127.6126202 -2.49858407e-05 -13.86135839
35.74728482 -2.49858407e-05 -8.845623386
180.0007278 -54.7587293 -82.57842639
-24.17707618 -11.55404117 -9.738644258e-05
176.0007278 -50.07649502 -164.5573574
176.0007278 -113.7561825 -143.0040934
176.0007278 -18.90096881 -59.00920439
176.0007278 -43.54425082 -103.5723904
54.61694682 -2.49858407e-05 -55.70446739
183.1293758 2.499975014 -162.4494454
-76.85737618 -2.49858407e-05 -192.4527814
2.106546821 -24.88452888 -9.738644258e-05
184.0007278 -213.1598737 -51.16545839
180.0007278 -77.31025882 -239.9951634
106.0033808 -2.49858407e-05 -128.4704944
-180.0002492 2.334053764 -75.65488739
-195.3911802 -109.3754423 -9.738644258e-05
-89.50320618 -2.49858407e-05 -13.55588739
64.49269682 -2.49858407e-05 -140.3456734
-176.0002492 -23.96570342 -10.56308939
-131.1268142 -2.49858407e-05 -103.0449864
180.0007278 -134.9619312 -49.08268239
-114.0013922 -2.49858407e-05 -9.799162386
-176.0002492 -26.91074704 -187.0602204
-54.58513918 -62.15169449 -9.738644258e-05
-177.9192772 -66.52618163 -183.5359994
-76.88483718 -82.4505482 -9.738644258e-05
-139.1032202 -2.49858407e-05 -168.6379814
-180.0002492 -13.7815066 -135.7526944
176.0007278 -92.7596028 -107.9871034
184.0007278 -100.0628634 -85.48034739
184.0007278 -248.0397013 -165.0522254
-180.0002492 -119.7293154 -8.472798386
8.728397821 -39.26242681 -9.738644258e-05
181.6713208 -67.80189405 -9.738644258e-05
-99.16372618 -2.49858407e-05 -68.43256839
6.640840821 -2.49858407e-05 -145.1036624
-96.69668518 -2.49858407e-05 -208.1261234
-120.7427862 -123.3567722 -9.738644258e-05
165.4949438 -2.49858407e-05 -224.3265564
60.85010782 -2.49858407e-05 -42.29061639
184.0007278 -229.8609044 -63.23539239
-87.74570618 -36.08360818 -9.738644258e-05
-50.02908918 -2.49858407e-05 -14.71235439
180.0007278 -249.2388825 -132.3079214
121.9345028 -2.49858407e-05 -224.9500684
179.1985388 -2.49858407e-05 -117.2815264
70.71210282 -2.49858407e-05 -218.1546744
176.0007278 -71.02908 -120.5220064
-166.7228242 -2.49858407e-05 -208.5675694
183.9099548 -178.7867241 -198.8402394
89.64353782 -2.49858407e-05 -237.7727444
29.96511282 -2.49858407e-05 -130.9928384
-45.40153818 -2.49858407e-05 -191.6080214
-74.06747418 -101.9914624 -9.738644258e-05
180.0007278 -251.8003747 -74.79322439
125.9182998 -2.49858407e-05 -109.7621144
-17.64643818 -2.49858407e-05 -81.70605639
-149.6696782 -2.49858407e-05 -81.66531739
180.0007278 -166.4234226 -92.98488539
66.08760082 -2.49858407e-05 -244.1408894
176.0007278 -10.91353395 -197.7982444
180.0007278 -249.8434393 -191.7215034
184.0007278 -238.8308512 -143.4651624
182.5936398 -107.2579517 -42.13799039
-176.0002492 -0.6641016958 -185.7835354
-125.5770642 -70.92832671 -9.738644258e-05
179.3532198 -106.0380235 -132.4583544
180.0007278 -56.94181149 -24.12662939
-176.0002492 -12.37416496 -161.3187544
184.0007278 -188.8434647 -79.09953839
84.55966882 -2.49858407e-05 -85.17396739
184.0007278 -200.8602562 -117.0882294
167.0799788 -2.49858407e-05 -37.18182839
184.0007278 -71.80629539 -94.08595039
-124.0128462 -15.97328992 -9.738644258e-05
198.3479478 -94.41980059 -44.00009739
-173.6062612 -13.58276925 -9.738644258e-05
188.3931618 -33.50704619 -44.00009739
43.42112582 -2.49858407e-05 -181.3926054
180.0007278 -134.306793 -111.7491814
192.9281658 -2.49858407e-05 -212.5826874
180.0007278 -236.8803022 -176.0099604
-176.0002492 -39.36566672 -11.76026339
184.0007278 -62.29913151 -157.5874884
184.0007278 -108.7616813 -161.1773584
-180.0002492 -46.61232054 -105.2992994
26.44778382 -16.6040557 -9.738644258e-05
178.0520408 -118.9494633 -95.08897739
173.0066388 -2.49858407e-05 -62.64828239
-126.5471432 -37.7889395 -9.738644258e-05
176.0007278 -50.99303577 -228.0980234
-68.65216418 -2.49858407e-05 -77.83613439
138.0197768 -24.19155438 -9.738644258e-05
-185.7013182 -2.49858407e-05 -7.364818386
-78.56462418 -4.640363096 -9.738644258e-05
147.0386238 -2.49858407e-05 -173.5143574
-159.0709772 -2.49858407e-05 -35.91102739
193.9504418 -52.11748862 -196.0000974
-162.4888692 -2.49858407e-05 -15.72212939
67.69969982 2.229057724 -9.738644258e-05
184.0007278 -149.6791406 -56.50109639
176.0007278 -112.5919935 -180.6570284
-31.15378918 -2.49858407e-05 -186.9787854
112.8759898 -36.07136591 -9.738644258e-05
176.0007278 -177.9153048 -100.6691824
-171.1317702 -2.49858407e-05 -125.1722704
-179.4836882 -33.45880124 -9.738644258e-05
138.8224938 -2.49858407e-05 -150.7674834
-88.44708718 -2.49858407e-05 -168.7704534
-180.0002492 -26.92704881 -89.02329239
-70.32050118 -66.76865951 -9.738644258e-05
184.0007278 -84.17791493 -120.6651594
173.8558378 -20.69298558 -9.738644258e-05
184.0007278 -229.2632093 -89.55850239
92.45170082 -2.49858407e-05 -146.6314584
-52.74422718 -49.31509554 -9.738644258e-05
-16.22733918 -2.49858407e-05 -148.9093664
5.059738821 -55.39654336 -9.738644258e-05
188.2348688 -2.49858407e-05 -53.53708039
-58.97736118 -2.49858407e-05 -26.54492839
184.0007278 -238.2607471 -52.19669539
15.97634382 -2.49858407e-05 -154.0253994
-117.9144072 -2.49858407e-05 -186.9130904
-35.02337018 -32.82744592 -9.738644258e-05
-9.370162179 -2.49858407e-05 -54.73108639
-125.5654262 -2.49858407e-05 -204.3642124
176.0007278 -161.26968 -144.4029464
157.8938128 -20.68570231 -9.738644258e-05
184.0007278 -102.3577046 -110.9593644
198.9367528 -77.27763749 -200.0000974
191.8256558 -193.5315123 -40.00009739
180.0007278 -15.35862843 -250.8681784
-180.0002492 -17.71035796 -52.57676539
-47.88480918 -2.49858407e-05 -238.8542194
-68.79240518 -2.49858407e-05 -207.3265004
45.37329982 -2.49858407e-05 -206.8916804
39.87952982 -2.49858407e-05 -97.15643639
187.9760678 -159.5606501 -40.00252639
20.24060482 -2.49858407e-05 -238.1364874
126.0013348 -2.49858407e-05 -197.1963254
161.6016288 -2.49858407e-05 -21.72484939
180.0007278 -173.2892861 -149.5515844
-50.01210818 -2.49858407e-05 -89.30588839
-119.4640922 -2.49858407e-05 -81.17556839
189.1200368 -54.0338713 -44.00009739
-176.0002492 -51.73744303 -87.76902539
188.2246858 -26.95748245 -9.738644258e-05
180.0007278 -33.07299251 -238.8568794
130.9838358 -2.49858407e-05 -121.4422004
-45.96098318 -2.49858407e-05 -214.5075044
176.0007278 -78.8883711 -201.7655554
77.99379182 -2.49858407e-05 -20.29971139
-200.4590002 -2.49858407e-05 -94.16650439
-50.95006818 -14.64872046 -9.738644258e-05
-162.3203732 -2.49858407e-05 -175.7165584
-94.98184818 -10.31816148 -9.738644258e-05
199.5446258 -2.49858407e-05 -124.8912414
-132.6004812 -2.49858407e-05 -39.00558639
95.29872482 -2.49858407e-05 -181.5391594
131.9250598 -2.49858407e-05 -163.8576454
-176.0002492 -9.708301576 -219.0983254
-2.464242179 -2.49858407e-05 -218.1955624
184.0007278 -118.8454623 -65.36943039
-180.0002492 -80.7721645 -117.9565954
-180.0002492 -58.72132402 -173.4847414
176.0007278 -65.13071215 -241.4708584
-125.3046822 -96.93951633 0.2958726136
-100.0366332 -114.2394267 -9.738644258e-05
33.61280782 -2.49858407e-05 -30.44058939
-176.0002492 -51.52987027 -197.6262554
186.0076548 -26.11343596 -199.7324354
199.9101658 -51.72227561 -9.738644258e-05
180.0007278 -179.653233 -53.52981939
184.0007278 -225.1656242 -119.8757914
-22.32091218 -2.49858407e-05 -173.5460944
102.9423858 -2.49858407e-05 -11.11504139
-81.40560518 -2.49858407e-05 -27.50076339
158.2650908 -2.49858407e-05 -59.60231039
13.87242882 -12.70683966 -9.738644258e-05
186.3507318 0.7391766542 -9.738644258e-05
176.0007278 -83.37350623 -68.30540739
-189.0423992 -83.29485457 -9.738644258e-05
76.27514682 -67.04651861 -9.738644258e-05
196.8819208 -12.29322621 -42.41829139
101.6981498 -2.49858407e-05 -97.46997139
-19.66049518 -2.49858407e-05 -128.7239194
184.0007278 -44.03969576 -94.13284939
184.9456898 -71.28179028 -194.4895874
184.0007278 -148.6463353 -153.5080004
57.18008182 -24.769259 -9.738644258e-05
95.29817382 -2.49858407e-05 -68.56651639
146.8012088 -2.49858407e-05 -202.4504184
-88.84783118 -2.49858407e-05 -88.31391739
176.0007278 -131.2596758 -79.35063839
-98.81820618 -2.49858407e-05 -180.3705684
194.1762208 -2.49858407e-05 -171.0283934
-166.8259712 -2.49858407e-05 -145.8505144
180.0007278 -154.3745174 -167.5572744
180.0007278 -135.7039468 -179.6055734
183.2093198 -102.0839296 -198.3910484
-176.0002492 -77.96415358 -24.31911139
142.3923948 -49.46538949 -9.738644258e-05
-152.1039992 -2.49858407e-05 -165.7135514
168.5513388 -2.49858407e-05 -83.98475639
-180.0002492 -88.82296733 -13.19156439
-148.6935712 -2.49858407e-05 -249.1675754
84.57915682 -2.49858407e-05 -189.6039384
-186.8354612 -2.49858407e-05 -20.87616339
176.0007278 -42.6197529 -250.8859334
-38.33895018 -2.49858407e-05 -145.7135994
87.96436882 -2.49858407e-05 -207.1542914
-159.7227302 -2.49858407e-05 -102.1983514
94.91180582 -55.85356349 -9.738644258e-05
-10.91599418 -56.6112421 -9.738644258e-05
144.5724828 -2.49858407e-05 -46.11665039
-55.35457218 -2.49858407e-05 -57.21204639
-64.81940618 -2.49858407e-05 -249.0503954
-176.0002492 -95.11736489 -40.63544039
65.69000782 -2.49858407e-05 -173.2385614
-143.6912902 -31.50405325 -9.738644258e-05
184.0007278 -219.8136453 -76.61261639
-144.8676802 -133.000025 0.5823966136
82.60296382 -17.74257455 -9.738644258e-05
-62.87422718 -2.49858407e-05 -175.6939674
188.4914588 -236.0685307 -40.00009739
196.4761828 -13.87013 -9.738644258e-05
59.11237982 -2.49858407e-05 -92.34204039
174.5745038 -2.49858407e-05 -192.6850614
184.0007278 -203.546452 -62.37368239
189.7940138 -122.4481222 -40.00009739
-130.0508522 -2.49858407e-05 -69.88559639
-110.2574492 -2.49858407e-05 -32.72059839
117.6557418 -2.49858407e-05 -243.5967544
176.0007278 -100.0770643 -74.24218939
-184.1830622 -104.3030851 -9.738644258e-05
-189.7777152 -2.49858407e-05 -160.4996484
-87.46076218 -2.49858407e-05 -243.0988754
180.0007278 -34.05069666 -8.780517386
176.0007278 -39.1475343 -42.72742339
-66.49737618 -2.49858407e-05 -158.9024044
-150.2950912 -2.49858407e-05 -115.3988934
184.0007278 -35.56136564 -111.3589574
189.8062388 -168.4240518 -200.0000974
190.7198748 -2.49858407e-05 -101.2525724
-119.6992032 -2.49858407e-05 -166.3377844
39.68589082 -2.49858407e-05 -54.47333239
18.14300582 -2.49858407e-05 -51.76016139
57.17607982 -68.00002403 2.016716614
-104.7220302 -89.98418136 -9.738644258e-05
184.0007278 -198.518372 -139.9680544
-180.0002492 -52.3957183 -12.50235239
178.6722338 -2.49858407e-05 -105.3442734
-176.0002492 -29.1951134 -145.1396564
-176.0002492 -19.18681097 -239.3671944
3.637560821 -2.49858407e-05 -242.4010874
180.0007278 -9.706825456 -42.85899239
127.7273278 -56.2043623 -9.738644258e-05
126.3496868 -2.49858407e-05 -185.3250354
113.4749358 -2.49858407e-05 -17.70369639
153.4709398 -2.49858407e-05 -99.61650039
176.0007278 -97.98930103 -164.3852944
-176.0002492 -69.3827798 -122.5249874
-172.2140822 -2.49858407e-05 -249.5944514
89.24689882 -2.49858407e-05 -25.60913239
-22.15751418 -2.49858407e-05 -5.184586386
-114.7837262 -2.49858407e-05 -242.7954984
-129.5362292 0.6950494542 -175.5780054
184.0007278 -7.799016826 -84.40975239
184.0007278 -238.0116239 -97.98480439
180.0007278 -49.20236041 -185.6280284
103.1683588 -2.49858407e-05 -47.52181639
-180.0002492 -54.52212216 -240.5189344
149.2951438 -2.49858407e-05 -76.84133939
176.0007278 -27.81555931 -86.75383939
180.0007278 -26.95644067 -178.4622844
-176.0002492 -7.112580886 -230.5915104
176.3061208 -10.67958525 -72.26735639
-132.5709562 -2.49858407e-05 -131.0788194
6.615686821 -2.49858407e-05 -2.906978386
176.0007278 -39.48083037 -154.2148574
-76.07447518 -2.49858407e-05 -45.56134739
-180.0002492 -37.53844063 -251.3526134
197.0640688 -2.49858407e-05 -65.08064839
184.0007278 -72.66126306 -67.18096039
184.0007278 -153.4454369 -114.2157854
-97.38345418 -65.09516257 -9.738644258e-05
184.0007278 -86.77364844 -186.3062604
184.0007278 -252.452983 -57.62115339
-176.2960912 -2.49858407e-05 -197.9018234
-59.75792818 -39.9606352 -9.738644258e-05
-187.8719842 -44.18191418 -9.738644258e-05
184.0007278 -70.22349719 -132.5743644
-180.0002492 -82.01967468 -81.37740039
15.40304282 -2.49858407e-05 -212.1588014
180.0007278 -177.4878275 -185.7980534
-176.0002492 -65.54974063 -80.93235739
197.4090388 -174.3334615 -40.00009739
167.3496328 -2.49858407e-05 -99.89737039
200.0685348 -222.5198333 -200.0000974
176.0007278 -88.45224273 -147.6418364
-141.2010772 -88.95245561 -9.738644258e-05
176.0007278 -28.37992905 -158.8597474
-186.2564742 -2.49858407e-05 -180.3698674
-111.2086762 -2.49858407e-05 -55.85813639
-145.6273222 -60.89130595 -9.738644258e-05
184.0007278 -137.9624167 -60.10112339
184.0007278 -156.1888583 -188.3583604
-180.0002492 -41.41490394 -67.59453839
-48.66886718 -78.66931385 0.08261961356
180.0007278 -143.2031748 -189.4836974
184.0007278 -32.81723034 -126.2722944
130.6487398 -2.49858407e-05 -90.05750239
-180.0002492 2.110346254 -62.72661439
159.7850038 -2.49858407e-05 -170.5278434
108.1465508 -2.49858407e-05 -33.76836439
176.0007278 -43.58315205 -174.6012204
13.79048082 -2.49858407e-05 -24.31126139
193.0228218 -148.6228491 -40.00009739
25.10678182 -2.49858407e-05 -181.0593564
-149.5919922 -20.01223064 -9.738644258e-05
123.3792568 -2.49858407e-05 -172.2249994
-173.5979602 -2.49858407e-05 -85.05343939
-134.2417352 -59.46768931 -9.738644258e-05
-176.0002492 -5.910055776 -27.97594039
184.0007278 -122.8439245 -146.5968784
-139.3963382 -2.49858407e-05 -228.7369014
-37.79480718 -2.49858407e-05 -107.8229274
-39.77887318 -56.99883921 -9.738644258e-05
-138.7018852 -2.49858407e-05 -113.2451234
126.6031248 -4.966465076 -9.738644258e-05
-75.51789318 -47.97478476 -9.738644258e-05
-176.0002492 -55.40409004 -98.94242439
-30.02288118 -65.6598924 -9.738644258e-05
180.0007278 -218.1465021 -187.6806424
-81.73716418 -2.49858407e-05 -130.3652874
-176.0002492 -26.56942442 -165.8617494
60.15244782 -2.49858407e-05 -80.99360239
116.5480858 -2.49858407e-05 -140.2166554
180.0007278 -5.656634236 -169.9681614
188.3736168 -206.2615267 -196.0000974
54.78823882 -2.49858407e-05 -239.5771374
184.0007278 -52.01440793 -106.9384664
153.0298508 -2.49858407e-05 -133.8087054
184.0007278 -197.5763032 -177.8832534
176.0007278 -107.8028197 -89.48020739
184.0007278 -112.7503519 -54.55412039
1.201406821 -2.49858407e-05 -78.32572139
105.2404638 -23.84710686 -9.738644258e-05
176.0007278 -96.76096654 -178.9064074
38.85411882 -2.49858407e-05 -76.19963639
-32.70615318 -2.49858407e-05 -48.45422839
-138.0265232 -2.49858407e-05 -9.474489386
184.0007278 -4.001221386 -134.6850784
-71.61378618 -2.49858407e-05 -147.5557454
120.5870388 -2.49858407e-05 -68.58916439
180.0007278 -21.34412654 -26.98023939
-106.4252592 -2.49858407e-05 -110.2311084
-180.0002492 -40.57623145 -185.3775204
176.0007278 -1.615259316 -237.7350524
-27.34658018 -2.49858407e-05 -212.9463604
-114.3871792 -2.49858407e-05 -134.2914014
-188.9741662 -11.1012851 -9.738644258e-05
-45.47842418 -38.71417109 -9.738644258e-05
187.4326828 -77.40132128 -44.10947339
157.3953868 -2.49858407e-05 -192.9122384
25.35285882 -2.49858407e-05 -193.9911274
180.0007278 -215.5142072 -148.6008794
184.0007278 -128.1385574 -101.5238474
198.9291088 -25.61185341 -200.0000974
88.61238782 0.2396572042 -9.738644258e-05
-180.0002492 -31.3513713 -99.27020739
139.7767238 -2.49858407e-05 -24.02286039
-126.7141732 -2.49858407e-05 -238.1313714
184.0007278 -149.9649811 -129.2695004
186.5684508 -21.68499416 -40.14121639
-176.0002492 -30.99356678 -45.57477739
-63.97901818 -3.591601086 -9.738644258e-05
180.0007278 -50.33307277 -11.05997839
155.6146378 -2.49858407e-05 -245.1641994
87.99171582 -43.83197512 -9.738644258e-05
-6.111460179 -2.49858407e-05 -153.5159864
176.0007278 -92.51448424 -87.07407339
40.80917382 -28.62934817 -9.738644258e-05
184.0007278 -219.3838453 -132.5418044
110.0541908 -2.49858407e-05 -1.077231386
176.0007278 -113.7485314 -74.85336739
-176.0002492 -64.77441131 -44.19342139
-176.0002492 -51.91155703 -35.25061639
184.0007278 -81.0597694 -167.7720864
138.2835318 -2.49858407e-05 -112.1078184
105.5493338 -2.49858407e-05 -171.8533384
187.5763318 -120.8602829 -195.9506254
184.0007278 -137.056151 -165.0769904
-77.05286618 -2.49858407e-05 -86.67864239
-151.8092592 1.576703104 -93.72748439
-74.14959718 -2.49858407e-05 -107.6841284
-28.69632718 -2.49858407e-05 -81.26616039
184.0007278 -159.3052069 -137.0397684
66.57990982 -2.49858407e-05 -31.85939639
12.23850382 -2.49858407e-05 -78.04364039
41.93424982 -2.49858407e-05 -146.9811614
195.1662008 -249.381939 -44.00009739
56.62487782 -2.49858407e-05 -11.36607139
-21.49688318 -2.49858407e-05 -241.1454984
75.36479682 -2.49858407e-05 -134.9040744
184.8552708 -237.2640954 -199.3352894
-141.7334632 -2.49858407e-05 -189.3594454
180.0007278 -127.0900729 -57.08201939
-176.0002492 -33.68972081 -230.2232944
36.82916182 -2.49858407e-05 -190.7603714
185.7617908 -212.4892947 -40.35596739
-165.0205052 -94.73132381 -9.738644258e-05
90.18276382 -2.49858407e-05 -158.5979794
176.0007278 -41.55568154 -68.56638239
109.1847438 -2.49858407e-05 -56.66669239
184.0007278 -213.1360213 -172.2565104
-180.0002492 -75.22908131 -56.14993739
184.0007278 -99.2232211 -51.24983739
180.0007278 -128.516539 -122.6974004
184.0007278 -113.7527317 -119.5923254
-89.38445518 -2.49858407e-05 -218.1298174
-176.0002492 -99.52227655 -20.63848039
-150.5575612 -2.49858407e-05 -27.36732939
-143.3242382 -2.49858407e-05 -135.0165114
-176.0002492 -49.97581082 -167.9518824
102.4880098 -2.49858407e-05 -238.1867714
188.9135448 -2.49858407e-05 -180.5621724
136.4327118 -2.49858407e-05 -205.7752054
-108.6614282 -53.24899312 -9.738644258e-05
180.0007278 -34.35336316 -52.22043139
182.7867618 -169.8072898 -41.97770339
-180.0002492 -44.06186965 -81.20655439
-176.0002492 -46.62184117 -222.5379514
184.0007278 -156.179076 -77.63920039
184.0007278 -172.9224444 -166.4989634
-176.0002492 -54.25116695 -57.57414639
-200.4573132 -2.49858407e-05 -162.3792514
184.0007278 -80.72929893 -77.13253039
184.0007278 -111.2786659 -103.1257894
84.47273082 -2.49858407e-05 -57.95000739
28.00645982 -2.49858407e-05 -47.30821039
81.87448582 -2.49858407e-05 -45.50417439
189.4253908 -39.95647063 -9.738644258e-05
-169.5002282 -2.49858407e-05 -74.98587539
-176.0002492 -9.515912506 -42.24453139
-190.0344302 -2.49858407e-05 -209.2157594
-103.0667382 -2.49858407e-05 -43.71356939
176.0007278 -66.31019802 -84.86575939
184.0007278 -175.5299388 -79.41835339
-189.4481862 -2.49858407e-05 -71.08741039
176.0007278 -38.93861738 -142.6353114
36.09224082 -2.49858407e-05 -86.57676139
176.0007278 -67.59760204 -99.88153239
-180.0002492 -27.81233239 -221.4586294
-176.0002492 -67.37299863 -138.6193184
-75.15244118 -2.49858407e-05 -67.20933039
-107.3706322 -2.49858407e-05 -92.77767539
-186.2508242 -2.49858407e-05 -248.7265184
176.0007278 -50.50952615 -126.0619114
43.31408282 -2.49858407e-05 -228.1166164
161.1956198 -6.507460606 -9.738644258e-05
184.0007278 -153.9320183 -99.27436039
3.123134821 -2.49858407e-05 -62.58058539
-13.43484018 -7.706155066 -9.738644258e-05
179.7912978 -182.7011957 -124.8723054
180.0007278 -141.65182 -88.45179339
-92.77305118 -2.49858407e-05 -146.8769754
200.5636708 -2.49858407e-05 -237.0633674
-139.1445992 -2.49858407e-05 -93.77415439
180.0007278 -125.1591643 -136.9563404
184.0007278 -45.13696508 -79.58831039
180.0007278 -19.77418567 -128.4524124
-196.2442162 -2.49858407e-05 -183.9280524
197.0128198 -195.935026 -196.0000974
-159.0897822 -6.199633796 -9.738644258e-05
180.0007278 -58.62108719 -248.8067604
184.0007278 -34.44459708 -89.65184239
-180.0002492 -22.14152855 -73.26062239
-90.10201618 -120.1025785 2.011228614
-110.0486152 0.6511258942 -9.738644258e-05
176.0007278 -26.87185399 -75.38375539
-25.84619818 -2.49858407e-05 -144.4977564
-176.0002492 -97.42241964 -54.79371239
68.34030482 -2.49858407e-05 -195.7987824
80.70283282 -35.42077048 -9.738644258e-05
-187.6904192 -2.49858407e-05 -139.3329924
-58.10765918 -2.49858407e-05 -108.3555714
94.78960182 -33.64185604 -9.738644258e-05
-140.5820932 -2.49858407e-05 -156.8268004
-5.448912179 -2.49858407e-05 -87.55864039
-180.0002492 -28.44414406 -31.98205439
-176.0002492 -42.51854989 -149.9714864
176.0007278 -21.5992753 -195.6879434
6.103992821 -2.49858407e-05 -99.46138839
115.4353568 -2.49858407e-05 -216.6994644
184.9757738 -67.29397249 -45.44904839
180.1300018 -187.5707825 -193.3138344
184.0007278 -197.6124659 -104.7718834
141.4777058 -2.49858407e-05 -10.41098339
184.0007278 -131.1255253 -155.0157574
176.0007278 -115.5870489 -167.6219374
176.0007278 -76.10770939 -230.4075844
27.27619482 -2.49858407e-05 -93.16211439
184.0007278 -224.0098251 -155.1166544
72.41067482 -2.49858407e-05 -69.42634439
176.0007278 -85.3633744 -100.6373574
123.1989588 -2.49858407e-05 -97.34383239
-45.21630118 -2.49858407e-05 -3.655301386
-180.0002492 -24.51290458 -131.3483434
-58.36754018 -2.49858407e-05 -83.11499939
183.2491628 -2.49858407e-05 -230.0639274
-180.0002492 -9.079310056 -170.7971034
-49.28583418 -2.49858407e-05 -39.17540439
180.0007278 -72.71690803 -144.3461724
183.1407978 -2.49858407e-05 -41.02936239
184.0007278 -184.3472338 -96.85676739
180.0007278 -53.24045336 -204.9779864
-147.6632882 -109.6669013 -9.738644258e-05
-180.0002492 -66.57201567 -101.3964974
180.0007278 -87.90222458 -130.7266234
180.0007278 -223.6500317 -52.87024339
19.82588882 -38.2698035 -9.738644258e-05
9.561537821 -2.49858407e-05 -196.1056794
191.3244258 -157.9829593 -200.0000974
-189.4238392 -2.49858407e-05 -237.1175464
176.0007278 -14.00308718 -217.6968244
184.0007278 -37.07870126 -135.9940274
176.0007278 -66.18957673 -215.5555234
-176.0002492 -21.75426656 -197.1286494
184.0007278 -103.835325 -185.3107524
77.60563482 -2.49858407e-05 -102.3937984
176.0007278 -91.14902369 -120.4503624
58.04751082 -2.49858407e-05 -250.5645964
-141.3047502 -2.49858407e-05 -47.15427539
176.0007278 -3.553268866 -205.2299644
184.0007278 -82.28300356 -61.49128139
180.0007278 -61.43187386 -166.9979694
184.0007278 -37.15770834 -174.5264484
-180.0002492 -76.95520778 -10.77007339
-17.31650518 -2.49858407e-05 -163.4834924
-180.0002492 -87.80596159 -72.33438839
190.3927158 -2.49858407e-05 -77.02777739
180.0007278 -224.4076416 -98.96897839
95.13612282 -2.49858407e-05 -170.7192264
184.0007278 -206.1921395 -128.4058934
-192.7499042 -53.17346282 -9.738644258e-05
58.16146682 -2.49858407e-05 -161.6129754
-180.0002492 -31.48393714 -122.7084084
-110.0721042 -100.161818 -9.738644258e-05
-180.0002492 -43.58819403 -203.4679834
184.0007278 -22.78675003 -54.00861039
187.1587598 -44.51621572 -195.9019494
184.0007278 -107.6541208 -141.3940464
180.0007278 -49.37620254 -30.94020639
-176.6122712 -61.80101055 -207.0468214
51.45774982 -8.972009866 -9.738644258e-05
180.0007278 -231.5349287 -135.6899144
180.0007278 -63.23640886 -148.3060374
-174.4345882 -58.49228574 -9.738644258e-05
42.37149582 -3.147045376 -9.738644258e-05
191.1641408 -135.2391846 -200.0000974
-198.3691492 -2.49858407e-05 -40.20054739
176.0007278 -28.75543221 -21.36217039
184.0007278 -50.33017578 -116.9206664
-8.718894179 -68.00002403 0.7990596136
166.3949988 -29.9591069 -9.738644258e-05
176.0007278 -52.44279383 -59.95866139
-118.3512462 -7.605649246 -9.738644258e-05
199.4395168 -115.5343566 -44.00009739
184.0007278 -209.3170822 -85.93991739
181.3416758 -2.49858407e-05 -28.36178539
176.0007278 -123.1076567 -179.5613544
90.19729582 -2.49858407e-05 -93.48556639
120.2281978 -2.49858407e-05 -58.48500239
-145.1400692 -2.49858407e-05 -239.5987514
184.0007278 -21.25014735 -104.9774414
176.0007278 -60.71887886 -48.52912139
176.0007278 -27.25713576 -231.2043884
131.4656478 -2.49858407e-05 -221.8768164
150.8556858 -2.49858407e-05 -149.6841834
184.0007278 -96.36681688 -65.42940039
-190.3571922 -2.49858407e-05 -96.75734739
67.10502682 -2.49858407e-05 -114.6539634
-21.09688218 -2.49858407e-05 -201.6197754
184.0007278 -34.34695295 -71.68950039
89.78390182 -9.655079486 -9.738644258e-05
180.0007278 -188.9740668 -50.05764439
-113.3779002 -2.49858407e-05 -217.1203414
45.45241982 -2.49858407e-05 -31.02963339
0.5144368207 -2.49858407e-05 -175.1470184
184.0007278 -69.95921543 -163.9081244
-176.0002492 -4.986218276 -145.0365094
184.0007278 -30.21520033 -164.4153854
180.0007278 -188.8968153 -168.8256794
-87.05791818 -2.49858407e-05 -205.8360664
180.0007278 -241.019838 -73.12838139
48.25231582 -2.49858407e-05 -124.9649054
180.0007278 -178.4804627 -173.6072234
180.0007278 -139.6386216 -146.0887404
-133.9145912 0.7120382942 -9.738644258e-05
176.0007278 -155.2611479 -105.4042794
-180.0002492 -44.67322049 -46.27055939
184.0007278 -17.41225202 -64.58170239
41.71622582 -48.93571055 -9.738644258e-05
-199.3986662 -2.49858407e-05 -83.29777939
32.11422782 -2.49858407e-05 -67.48079839
176.0007278 -100.8386163 -118.7367384
176.0007278 -53.22230536 -141.1923154
-0.5451781793 -2.49858407e-05 -39.96648439
184.0007278 -73.1913264 -181.7421184
190.7161558 -2.49858407e-05 -140.6376514
-113.6279092 -2.49858407e-05 -21.92729239
184.0007278 -239.1510369 -88.22690939
-176.0002492 -53.29551323 -135.0162564
-121.3774052 -109.2139815 2.434332614
82.92918582 -2.49858407e-05 -229.9812244
188.7461678 -94.13785036 -200.0000974
-176.0002492 -7.936148486 -128.2359574
180.0007278 -60.74642938 -68.59719339
-151.9829362 -2.49858407e-05 -139.7932234
-108.7875272 -2.49858407e-05 -73.86084939
176.0007278 -97.13178058 -140.6610594
-176.0002492 -10.98404511 -203.0937154
184.0007278 -4.904971076 -156.1532534
176.0007278 -87.76202449 -78.42047839
142.3081288 -2.49858407e-05 -128.5164164
-167.1783502 -120.1097481 -9.738644258e-05
179.6455528 -66.05996309 -27.56138139
171.2303358 -2.49858407e-05 -172.0777544
176.0007278 -56.14028567 -156.9344954
-50.15922218 -2.49858407e-05 -179.8931784
127.4668698 -18.55765483 -9.738644258e-05
-183.7561182 -114.7006434 -9.738644258e-05
-180.0002492 -55.95227287 -122.5916544
184.0007278 -24.9719676 -135.9362804
156.7903568 -2.49858407e-05 -9.976190386
158.5121168 -2.49858407e-05 -86.91483839
-37.39751118 -2.49858407e-05 -65.32583539
-119.8997712 -78.81658837 -9.738644258e-05
-176.0002492 -61.45014632 -23.32693139
100.0753168 -2.49858407e-05 -224.9902454
184.0007278 -243.5035536 -183.8770324
191.0823758 -2.49858407e-05 -118.3444944
176.0007278 -166.2284156 -122.8976734
-180.0002492 -17.43441659 -85.49016839
29.01988482 -2.49858407e-05 -104.2109494
97.70606482 -2.49858407e-05 -246.6253934
-58.08328518 -2.49858407e-05 -131.3007374
165.9665578 -2.49858407e-05 -53.73834739
180.0007278 -165.1067561 -61.60431139
184.0007278 -46.29319975 -160.6749294
-174.1561102 -2.49858407e-05 -48.80037739
-98.71601518 -2.49858407e-05 -10.71771739
176.0007278 -33.05046689 -95.55452339
198.7190588 -172.0842786 -200.0000974
-180.0002492 -57.21828185 -148.6998084
184.0007278 -124.9671319 -74.09430939
-176.0002492 -14.48863715 -12.26547239
175.0051968 -60.85554719 -9.738644258e-05
-97.93335918 -2.49858407e-05 -228.9846624
180.6237258 -212.0352214 -195.0876784
-180.0002492 -44.44093573 -241.8959544
184.0007278 -41.43514639 -59.27688039
-22.53967518 -2.49858407e-05 -89.98687539
179.3219198 -25.1954148 -148.4817274
-180.0002492 -7.823314096 -180.3291044
-176.0002492 -83.9553572 -33.06468339
-158.4921472 -2.49858407e-05 -236.6456764
-156.2995432 -68.48590053 -9.738644258e-05
180.0007278 -15.93872725 -7.234920386
180.0007278 -123.0043547 -86.61282139
187.5774178 -2.49858407e-05 -191.2977784
169.4000248 -2.49858407e-05 -12.20848739
-163.0232922 -2.49858407e-05 -188.6385974
-161.4240812 -2.49858407e-05 -51.22758139
184.0007278 -28.88582194 -187.3893174
176.0007278 -29.61861356 -109.4395454
157.6924378 -2.49858407e-05 -218.7813654
-62.10912818 -2.49858407e-05 -217.5388254
-180.4992722 1.405001174 -216.3608634
70.55611882 -2.49858407e-05 -41.60582839
-176.0002492 -60.65015489 -67.00810239
176.0007278 -43.92540597 -234.5127874
-180.0002492 -31.75826161 -209.9618274
184.0007278 -84.22853963 -49.81784639
167.2430528 -2.49858407e-05 -198.7842104
176.0007278 -83.66116829 -161.7796584
62.51414782 -2.49858407e-05 -211.4237804
12.72423382 -2.49858407e-05 -113.3342504
144.7380238 -2.49858407e-05 -104.7321104
198.1954358 -36.38966109 -40.00009739
-116.3387392 -2.49858407e-05 -206.7313684
171.8668688 -2.49858407e-05 -138.8617484
86.08823682 -2.49858407e-05 -139.5619424
176.0007278 -57.51518366 -132.4850774
176.0007278 -40.4887377 -28.57726039
72.25370682 -11.91407452 -9.738644258e-05
184.0007278 -29.03627661 -81.78369939
153.8641778 -2.49858407e-05 -48.03791339
-135.4823832 -2.49858407e-05 -141.4127854
-27.88381518 -42.85864066 -9.738644258e-05
-20.82991818 -22.63165011 -9.738644258e-05
-176.0002492 -43.3218426 -161.2202234
125.7490068 -2.49858407e-05 -37.02354739
31.82554482 -2.49858407e-05 -140.2688414
-180.0002492 -18.15542286 -217.7154994
-84.51299318 -2.49858407e-05 -178.5355854
-173.4264412 -2.49858407e-05 -162.0901614
-100.3705402 -2.49858407e-05 -193.0636714
-25.55248018 -2.49858407e-05 -227.0105174
-53.03238518 -2.49858407e-05 -249.0905844
-37.89941218 -2.49858407e-05 -166.2395414
-81.37852518 -2.49858407e-05 -224.5020154
77.99182382 -2.49858407e-05 -156.7368274
180.0007278 -243.4069569 -155.4220694
184.0007278 -63.971906 -77.45280839
-19.81029318 -2.49858407e-05 -119.1565364
176.0007278 -80.86371187 -124.3306954
176.0007278 -14.38671138 -183.6938814
-198.7063562 -9.301427996 -9.738644258e-05
-176.0002492 -12.66443382 -103.0406944
176.0007278 -70.82436436 -50.57869839
-176.0002492 -43.7816759 -29.35005439
184.0007278 -43.63040383 -144.8872194
150.2458228 -2.49858407e-05 -66.54410239
176.0007278 -154.9422626 -134.0238834
-103.0911632 -80.74688267 -9.738644258e-05
176.0007278 -18.19388705 -228.8093744
-180.0002492 -45.00118688 -116.2680634
-5.585921179 -2.49858407e-05 -129.3403054
-9.913392179 -2.49858407e-05 -238.8123054
-21.38059018 -2.49858407e-05 -104.2080674
145.7295098 -2.49858407e-05 -240.2223864
184.0007278 -184.7974477 -68.62500039
63.59841082 -2.49858407e-05 -228.1947594
184.0007278 -184.0716269 -138.1910484
-49.16228418 -2.49858407e-05 -141.2604694
-66.05735518 -22.50053697 -9.738644258e-05
180.0007278 -118.5157819 -186.6492734
184.0007278 -195.7055529 -57.21108239
41.85261282 -2.49858407e-05 -171.7729424
-190.8412822 -2.49858407e-05 -151.2492034
176.0007278 -157.1531912 -152.7500514
-127.5122462 -2.49858407e-05 -228.8612754
-180.0002492 -86.11154931 -92.17052539
-186.9111622 -60.41142035 -9.738644258e-05
-180.0002492 -103.925484 -12.60535039
-108.0222612 -2.49858407e-05 -64.59266939
176.0007278 -68.92083949 -196.6362854
184.0007278 -109.8324703 -69.99448139
-68.43497718 -87.71385304 -9.738644258e-05
176.0007278 -137.2454234 -155.0124874
185.5134218 -139.2164231 -40.43264639
181.7257488 -128.8489296 -196.9056244
133.7808598 -2.49858407e-05 -16.95655639
180.0007278 -80.42484872 -176.1051154
176.0007278 -92.24210622 -201.4999354
-180.0002492 -65.13012149 -161.3786454
-176.0002492 -29.19616405 -251.4323854
184.0007278 -86.80585536 -84.10695939
176.0007278 -76.25135796 -96.61373639
184.0007278 -192.9894447 -151.5733524
198.8265598 -71.12388731 -44.00009739
181.2025448 -243.0934414 -43.83397339
56.12015482 -46.03989608 -9.738644258e-05
190.0296938 -16.85019743 -199.5810624
180.0007278 -141.9139196 -67.39274539
-124.7327582 -2.49858407e-05 -126.2620794
176.0007278 -50.43377745 -112.3823564
200.0243278 -194.6868855 -44.00009739
184.0007278 -145.8203863 -167.8512494
-180.0002492 -14.17550099 -114.5851504
-159.4006392 -48.45895275 1.355242614
161.5766268 -2.49858407e-05 -123.3011364
184.0007278 -163.1017728 -85.36457539
46.49653482 -2.49858407e-05 -163.3375454
-144.7584142 -2.49858407e-05 -210.9351104
184.0007278 -61.56200184 -135.5754304
191.3313108 -219.8374453 -196.0000974
180.0007278 -26.93025888 -212.5567224
-68.25011918 -2.49858407e-05 -168.2730994
111.9799668 -2.49858407e-05 -87.28357039
-147.0282342 -44.72571553 -9.738644258e-05
-176.0002492 -48.10919389 -177.1721584
-79.07753818 -2.49858407e-05 -239.4140144
-134.0776672 -2.49858407e-05 -200.7881534
-180.0002492 -45.0659493 -134.7707344
184.0007278 -132.088946 -142.8070294
184.0007278 -224.6297614 -110.4654964
-101.4829542 -29.68875152 -9.738644258e-05
101.7748478 -12.88197175 -9.738644258e-05
-140.4480412 -20.17972802 -9.738644258e-05
33.79329782 -22.04407762 -9.738644258e-05
67.51959682 -2.49858407e-05 -58.58523739
-68.00277318 -2.49858407e-05 -194.6778874
180.0007278 -42.58205911 -202.9147874
-100.7263912 -123.3330897 -9.738644258e-05
7.905865821 -2.49858407e-05 -217.3430684
-32.22366018 -2.49858407e-05 -249.6586034
-85.14872818 -2.49858407e-05 -67.58952139
-45.74358818 -2.49858407e-05 -117.1201804
-118.5416882 -133.000025 0.2321356136
-109.2975182 -2.49858407e-05 -165.7311074
-176.2875982 -76.9052722 -140.1282944
-176.0002492 -9.044714746 -51.31905739
180.0007278 -157.2691747 -51.40510739
26.61529682 -2.681518776 -9.738644258e-05
188.2899848 -59.20764603 -196.0000974
194.6053728 -102.9458154 -200.0000974
180.0007278 -110.5229654 -151.8743034
180.0007278 -62.30077034 -232.9551774
-35.99409418 -20.99875905 -9.738644258e-05
180.0007278 -8.906391596 -244.5559414
-198.2355212 -2.49858407e-05 -21.25197139
176.5462998 -91.61861363 -219.3497714
-89.28665718 -106.5774192 -9.738644258e-05
184.0007278 -81.9245171 -97.35744339
47.98084382 -2.49858407e-05 -13.94979739
176.0007278 -55.19327767 -179.5808624
184.0007278 -9.227303726 -177.2170014
184.0007278 -235.5818247 -118.3506614
114.5829608 -21.03513746 -9.738644258e-05
184.0007278 -100.3407311 -157.9783314
59.24233782 -2.49858407e-05 -106.9499944
180.0007278 -57.23432761 -222.9836584
-66.73316818 -2.49858407e-05 -21.96841339
181.9640218 -34.17129563 -9.738644258e-05
-119.8679922 -2.49858407e-05 -196.7779314
196.2353728 -84.86318881 -196.0000974
180.0007278 -12.78517324 -53.78063439
-176.0002492 -20.82113131 -139.6309004
176.0007278 -41.8077607 -90.73070739
-87.48401518 -55.14385263 -9.738644258e-05
-106.6971852 -2.49858407e-05 -184.6417674
184.0007278 -189.7298795 -89.69463639
44.68965082 -60.16418264 -9.738644258e-05
-40.93183618 -2.49858407e-05 -97.75452639
-120.7922212 -2.49858407e-05 -90.03036139
184.7637428 -2.49858407e-05 -124.6847674
-37.15907918 -2.49858407e-05 -14.40210139
180.0007278 -180.8413982 -108.8765684
-132.1592692 -11.91072139 -9.738644258e-05
165.1277428 -2.49858407e-05 -236.9679414
136.7434838 -2.49858407e-05 -251.8013584
-183.4124822 -2.49858407e-05 -109.1129294
176.0007278 -170.9093539 -110.8415814
176.0007278 -92.14028868 -66.63108739
184.0007278 -87.52543775 -112.3916604
-180.0002492 -7.902995866 -246.3008704
-14.81722918 -2.49858407e-05 -182.3268594
144.2695778 -2.49858407e-05 -32.12071239
184.0007278 -44.95322338 -127.3663914
184.0007278 -80.06580048 -140.2345674
