# .PCD v0.7 - Point Cloud Data file format
VERSION 0.7
FIELDS x y z
SIZE 4 4 4
TYPE F F F
COUNT 1 1 1
WIDTH 1212
HEIGHT 1
VIEWPOINT 0 0 0 1 0 0 0
POINTS 1212
DATA ascii
-128.973933 -45.68175764 -61.50009739
-130.826848 -28.77876846 -61.50009739
-237.782446 -10.75758097 -67.50009739
-47.616032 -50.02321708 -61.50009739
-103.145303 2.091835256 -61.50009739
-115.656543 -2.498437236e-05 44.04141761
-230.361292 -42.21189776 -67.50009739
-149.613306 -12.89705143 -67.50009739
0.0002150000555 -10.82895887 -51.41744139
-36.975917 -2.498437236e-05 46.61473561
-245.060219 -29.78322667 -67.50009739
-101.246888 -2.498437236e-05 55.31040661
0.0002150000555 -99.57893997 34.33454261
-235.653297 -2.498437236e-05 62.88414261
-186.476445 -2.645328604 -61.50009739
-249.524026 -59.64790545 -67.50009739
-7.562477 -2.498437236e-05 20.36061361
-22.822748 -2.498437236e-05 51.68551061
-249.14287 -16.26501816 -61.50009739
-172.174127 -36.65249339 -61.50009739
-87.07407 -2.498437236e-05 -11.49048939
-183.044641 -2.498437236e-05 -50.15583139
-154.908491 -30.1215773 -61.50009739
-164.251229 -43.46042055 -67.50009739
0.0002150000555 -30.59295477 -14.47670939
-58.166531 -2.498437236e-05 8.425379614
0.0002150000555 -164.5484362 78.23090661
-58.107202 -2.498437236e-05 45.11290061
-187.092199 -2.498437236e-05 42.76900461
0.0002150000555 -55.43804202 14.41970561
-155.794673 -2.498437236e-05 -59.30835239
-217.635352 -5.911505804 -61.50009739
-237.274404 -2.498437236e-05 -30.49401939
0.0002150000555 -88.08099319 72.79281761
-77.17547 -24.34351819 -61.50009739
0.0002150000555 -145.7002949 63.47417061
0.0002150000555 -81.00356921 13.66900061
-34.35106 -56.6101784 -61.50009739
-178.800592 -2.498437236e-05 -36.12464339
-79.920882 -2.498437236e-05 -37.56804839
-40.678358 -62.20336779 -61.50009739
-119.234669 -2.498437236e-05 59.45174061
-211.733336 -63.99639001 -67.50009739
-199.409009 -17.90528097 -67.50009739
-172.901336 -2.498437236e-05 -26.88647139
-220.750965 -2.498437236e-05 -9.027724386
-10.008346 -5.919370704 -61.50009739
-173.047195 -2.498437236e-05 66.19728461
-250.066654 -2.498437236e-05 60.84082661
0.0002150000555 -72.05645563 -8.907268386
-137.086206 -24.80421245 -61.50009739
0.0002150000555 -81.02246592 -2.052086386
-98.431222 -29.13197423 -67.50009739
-93.083764 -2.498437236e-05 22.45045561
0.0002150000555 -39.96400109 -50.62140739
-5.925956 -2.498437236e-05 -25.57946839
-243.367719 -2.498437236e-05 -13.38872839
-203.477004 -2.498437236e-05 48.96611561
-45.329908 2.029086726 -61.50009739
-41.19554 -42.2988564 -61.50009739
-34.457341 -26.77714457 -61.50009739
-12.544984 -56.46322814 -61.50009739
-226.425563 1.821079896 -67.50009739
-181.027607 -2.498437236e-05 13.05837361
-179.27425 -2.498437236e-05 -13.35468439
-141.855072 -38.88235339 -61.50009739
-10.578808 2.327593726 -61.50009739
-78.420349 -2.498437236e-05 -48.85085639
-153.267161 -55.72163283 -67.50009739
-125.844066 -2.498437236e-05 -27.95143039
-70.174583 -28.2709213 -67.50009739
-241.386655 -62.61264273 -67.50009739
-151.771866 -39.32223909 -61.50009739
-89.21102 -2.498437236e-05 -26.69755839
-214.301116 -2.498437236e-05 57.89019361
-78.753762 -5.396486694 -67.50009739
-187.526479 -2.498437236e-05 19.67245061
0.0002150000555 -40.33796711 1.104272614
-246.731626 -2.498437236e-05 -55.04758539
-188.739513 -56.26059258 -67.50009739
-106.277016 -16.12471147 -61.50009739
-11.496479 -2.498437236e-05 51.43356461
0.0002150000555 -18.11039297 -25.59958139
0.0002150000555 -97.70235148 50.52692061
-111.789105 -34.93192101 -61.50009739
-204.490044 -2.498437236e-05 -38.41101639
-51.369924 -2.498437236e-05 39.82906161
-133.101133 -2.498437236e-05 2.335546614
-231.671902 -50.98653777 -67.50009739
-211.855088 -12.81807913 -67.50009739
-169.948638 -2.498437236e-05 15.02369161
-223.645104 -2.498437236e-05 62.03809461
0.0002150000555 -27.43152708 42.24943361
-104.989674 -1.182692954 -67.50009739
-80.211189 -59.9512051 -67.50009739
-244.261804 -41.37982476 -67.50009739
-189.587483 -18.47506407 -61.50009739
-129.85985 -64.79657133 -61.50009739
-152.477605 -2.498437236e-05 -13.78994739
-50.293199 -2.498437236e-05 53.11436861
-140.576999 -2.498437236e-05 -45.20478039
-220.804367 -43.55495269 -67.50009739
-156.269553 -4.266010554 -67.50009739
0.0002150000555 -22.73254666 -33.82809639
-194.163689 -2.498437236e-05 -18.34136839
0.0002150000555 -49.70364925 18.74906361
-82.694809 -28.89058815 -61.50009739
2.240278 -2.498437236e-05 28.80992461
-47.91995 -2.498437236e-05 -15.19103939
0.0002150000555 -57.82464424 29.30319861
-26.648545 -24.28657911 -67.50009739
-22.344435 -2.498437236e-05 -6.397385386
-140.384093 -49.29319034 -67.50009739
-84.244128 -48.53106127 -67.50009739
-164.310235 -56.04649067 -61.50009739
-197.291947 -67.28806712 -61.50009739
-89.399878 -58.55111765 -61.50009739
-243.729412 -2.498437236e-05 30.88902861
-168.686355 -36.25091875 -67.50009739
0.0002150000555 -64.05301357 -27.03430839
-189.767332 -2.498437236e-05 -10.61794739
-42.475812 -7.428847234 -67.50009739
-206.574535 -2.498437236e-05 -1.106792386
0.0002150000555 -1.412343414 3.559072614
-180.483276 -53.04880538 -61.50009739
-52.012343 -2.498437236e-05 -57.85349139
-210.104386 -54.4987076 -67.50009739
0.0002150000555 -5.733029814 52.00358261
-70.989478 -41.81562499 -61.50009739
-209.897205 -50.83418245 -61.50009739
-4.494716 -24.71126351 -61.50009739
-64.96018 -2.498437236e-05 71.95391961
-75.125798 -56.06171354 -61.50009739
-193.120753 -25.94017973 -67.50009739
-177.362194 -7.597566484 -61.50009739
0.0002150000555 -44.09775835 -16.16966239
0.0002150000555 -20.19574359 66.09904561
-216.569795 -61.19291952 -61.50009739
-181.212405 -2.498437236e-05 5.920020614
0.0002150000555 -61.33405778 9.178501614
-176.830829 -2.498437236e-05 58.92200261
0.0002150000555 -25.00739977 -23.75882639
-12.619262 -2.498437236e-05 4.147427614
-107.050379 -2.498437236e-05 24.20206861
-231.642421 -2.498437236e-05 -42.20424839
-239.433717 -7.986432884 -61.50009739
0.0002150000555 -115.0479399 44.04940861
-27.110177 -38.95087312 -67.50009739
0.0002150000555 -56.23549147 -45.48223139
-99.404996 -52.4044799 -61.50009739
-114.643179 -2.498437236e-05 -46.28034939
0.0002150000555 -7.811334394 -34.33248939
-68.033874 -56.41010041 -61.50009739
-21.831687 -45.5521446 -67.50009739
-162.466653 -2.498437236e-05 46.35375761
-192.783569 -2.498437236e-05 65.55423861
-40.973932 -24.17580795 -61.50009739
-142.837578 -66.39016263 -67.50009739
-25.765994 -53.74927809 -61.50009739
-166.358702 -28.75113697 -61.50009739
-24.08319 -2.498437236e-05 3.538376614
-101.400683 -2.498437236e-05 -30.68830839
-153.308806 -32.68509967 -67.50009739
-142.451688 -2.498437236e-05 52.61014061
-225.427049 -2.498437236e-05 -4.021738386
-40.876686 -2.498437236e-05 -45.07049039
0.0002150000555 -57.04304543 1.017252614
-116.051621 -50.13049432 -67.50009739
0.0002150000555 -41.08102313 76.78969361
-204.410585 -2.498437236e-05 19.15874061
-228.285566 -15.23126415 -61.50009739
-221.583444 -47.80806483 -61.50009739
-81.834543 -2.498437236e-05 19.17992561
-33.165277 -2.498437236e-05 -18.09375339
-192.605034 -2.498437236e-05 -44.63491139
-63.33117 -30.2769228 -61.50009739
-13.63683 -11.4317961 -61.50009739
-99.553448 -3.440512674 -61.50009739
-194.630355 -0.7159395244 -67.50009739
-97.458255 -2.498437236e-05 -21.83516039
0.0002150000555 -65.04642829 66.83276961
-186.369323 -45.43871513 -67.50009739
0.0002150000555 -57.25506544 -35.76647339
-192.517994 -12.60804308 -61.50009739
-50.250538 -50.23105772 -67.50009739
-113.682634 -4.894356664 -61.50009739
-163.810863 -63.89481526 -67.50009739
-232.842105 -34.91769218 -67.50009739
-251.700783 -58.19576279 -61.50009739
-145.902057 -5.383531114 -61.50009739
0.0002150000555 -65.57144128 58.22322961
-219.344915 -2.498437236e-05 -31.01894439
-96.616091 -2.498437236e-05 46.72909761
-102.404017 -23.17010297 -67.50009739
-229.389128 -4.663159774 -61.50009739
-146.128549 -60.76905905 -67.50009739
-110.918209 -2.498437236e-05 1.130634614
0.0002150000555 -78.84441306 56.00684661
1.05671 -115.0919424 32.79915861
-118.056904 -22.26237936 -67.50009739
-8.672118 -2.498437236e-05 -10.53755639
-174.454829 -50.63179109 -61.50009739
-112.082406 -19.02025739 -61.50009739
-229.664631 -27.88919903 -67.50009739
-7.198436 -14.6350075 -67.50009739
-252.469997 -36.5362821 -61.50009739
-238.447447 -2.498437236e-05 -22.22862239
0.0002150000555 -3.629619714 -16.96980139
-241.52691 -55.18909722 -61.50009739
-241.900715 -2.498437236e-05 -50.60667739
-53.666436 -2.498437236e-05 30.33649661
-184.816845 -2.498437236e-05 -1.103711386
0.0002150000555 -5.342438774 -1.630993386
-10.325342 -48.58685352 -67.50009739
-101.72494 -58.50637278 -67.50009739
-71.793794 -2.498437236e-05 20.65991461
-22.399491 -14.47946328 -61.50009739
-174.57555 -26.4894246 -61.50009739
-225.495512 -68.00002402 -65.47305039
-6.853719 -7.880067664 -67.50009739
-203.282599 -34.30898426 -67.50009739
-85.994009 -2.498437236e-05 53.99874761
-35.283279 -50.29156169 -61.50009739
-20.804371 -57.93141296 -67.50009739
-185.465026 -2.498437236e-05 55.15692161
-19.704707 -2.498437236e-05 -21.82168439
-1.744776 -16.15795559 -61.50009739
-76.130295 -65.76007889 -67.50009739
-55.339236 -18.2592818 -61.50009739
-137.292739 -2.498437236e-05 71.33335261
-196.074948 -56.74627229 -67.50009739
-79.507113 -41.03645644 -67.50009739
-102.317008 -2.498437236e-05 -9.730833386
-5.180716 -2.498437236e-05 -41.64639639
0.0002150000555 -43.41954239 -45.12400539
0.0002150000555 -106.4093404 34.37875661
-225.090646 -2.498437236e-05 8.466372614
0.0002150000555 -19.69440565 29.21116261
-244.083957 -13.97022643 -67.50009739
-26.52887 -65.48071042 -67.50009739
0.0002150000555 -131.626546 51.28045061
-106.534257 -2.498437236e-05 13.43774661
-5.026193 -35.64856814 -67.50009739
0.0002150000555 -92.48711567 37.97039961
-89.86548 -2.498437236e-05 -35.71185939
0.0002150000555 -40.48988498 -5.435100386
-198.242067 -49.33317295 -67.50009739
-68.516075 -63.39404651 -61.50009739
-208.482617 -17.00839989 -61.50009739
-29.498786 -43.37333861 -61.50009739
0.0002150000555 -37.69775445 28.37017861
-228.112057 2.191528346 -61.50009739
-37.195939 -10.94513685 -61.50009739
-11.753564 -34.05703746 -61.50009739
0.0002150000555 -24.88942308 -53.37000239
-125.73311 -56.14404636 -67.50009739
-189.110342 -32.77813294 -67.50009739
0.3214530001 -1.120188744 -54.12026039
0.0002150000555 -44.54807248 -36.11800239
-229.003126 -43.1798372 -61.50009739
-153.015049 -46.81650401 -61.50009739
-58.827333 -38.3595302 -61.50009739
0.0002150000555 -14.91415959 50.06670661
-125.334821 -2.498437236e-05 -53.65189139
-91.497117 -17.19657077 -61.50009739
0.0002150000555 -4.002065894 -9.562505386
0.0002150000555 -33.98833297 17.26526161
-193.628378 -2.498437236e-05 10.46212661
0.0002150000555 -36.26564546 -55.58646439
-58.234051 2.177489206 -67.50009739
-133.623598 -2.498437236e-05 -59.40704739
-25.629985 -2.498437236e-05 35.37149461
-184.930887 -45.68012962 -61.50009739
-181.361659 -59.31144475 -67.50009739
0.6762660001 -50.09192082 -61.50009739
-11.299006 -2.498437236e-05 -31.10172439
-203.916797 -23.67200219 -67.50009739
-183.53913 -12.98809955 -67.50009739
0.0002150000555 -24.36634128 -45.41491339
0.0002150000555 -71.73464228 19.72158161
0.0002150000555 -17.12334353 -39.84025839
-37.457505 -2.498437236e-05 -4.935266386
-123.941306 -65.60952506 -67.50009739
0.0002150000555 -57.76785101 -22.09624639
-90.921043 -47.02519768 -67.50009739
-152.751982 -62.91256637 -67.50009739
-112.601995 -57.83109035 -67.50009739
0.0002150000555 -56.29673849 -15.74732939
-61.876451 -3.736659124 -67.50009739
-163.988688 0.4005456856 -61.50009739
0.0002150000555 -5.867434634 -23.80624839
-141.452807 -30.02008345 -67.50009739
-73.613782 2.065740196 -61.50009739
-47.541851 -2.498437236e-05 66.52238361
-243.983543 -2.498437236e-05 44.75417261
-87.610149 -2.498437236e-05 5.229365614
-230.610136 -2.498437236e-05 -36.20497139
-246.611592 -67.18387588 -61.50009739
-183.327981 -65.66424913 -61.50009739
-4.437081 -2.498437236e-05 15.16488761
-225.815165 -33.34596592 -61.50009739
-165.576438 -2.498437236e-05 -35.00098539
-146.946718 -57.70217468 -61.50009739
0.0002150000555 -94.56226775 21.73892661
-140.282084 -13.79278282 -61.50009739
-53.093046 -2.498437236e-05 -41.36626939
-106.717015 -52.24825377 -61.50009739
0.0002150000555 -5.153204384 30.94514161
0.0002150000555 -67.12311333 75.67421961
-102.145416 -22.96580983 -61.50009739
-209.789498 -1.445189214 -61.50009739
0.0002150000555 -60.66230623 62.42985161
-192.096845 -2.498437236e-05 -31.60227739
0.0002150000555 -11.91845635 3.780982614
-142.535685 -40.91201043 -67.50009739
0.0002150000555 -78.22071963 70.49297161
-238.697146 -36.38140059 -61.50009739
-96.072516 -60.61519423 -67.50009739
-174.227079 -2.498437236e-05 -19.20602639
-199.101932 -2.498437236e-05 41.29768761
-242.820389 -2.498437236e-05 61.03324061
-59.976749 -2.498437236e-05 -28.51255639
-116.750175 -40.85078252 -67.50009739
0.0002150000555 -6.135172734 39.37243261
0.0002150000555 -32.40273401 52.85202961
-197.689999 -2.498437236e-05 69.98309061
-186.886137 -27.27125367 -61.50009739
0.0002150000555 -96.59040018 60.04786461
-156.930113 -2.498437236e-05 -32.71503939
-249.823116 -2.498437236e-05 17.41808861
0.0002150000555 -25.67060238 -5.794510386
-166.691675 -47.33983828 -61.50009739
-141.174202 -2.498437236e-05 -9.557915386
0.0002150000555 -47.77779875 5.528589614
-240.404749 -54.17882281 -67.50009739
-103.666149 -68.00002402 -63.96251039
0.0002150000555 -138.8945293 75.04605361
-215.965155 -68.00002402 -66.73953139
-75.832124 -2.498437236e-05 -54.12439939
0.0002150000555 -100.9551795 40.04546861
0.0002150000555 -93.99387552 32.29612361
-220.858352 -21.35597627 -67.50009739
-217.752585 -54.29859577 -61.50009739
-60.024778 -65.05231311 -61.50009739
-244.86686 -45.80339516 -61.50009739
0.0002150000555 -140.2670228 61.31189161
-50.326788 -2.498437236e-05 -2.617404386
-110.701583 -2.498437236e-05 37.79370761
-188.892456 -54.4390727 -61.50009739
-175.141865 -2.498437236e-05 -41.32428239
-89.14174 -2.498437236e-05 47.28247161
0.0002150000555 -28.48316595 -34.79980139
-213.665332 -19.33870433 -67.50009739
-117.716794 -60.3004042 -61.50009739
-137.679888 -44.09090721 -67.50009739
-89.799507 -68.00002402 -62.58756339
-205.524899 -64.02852241 -61.50009739
-220.736495 -4.183583494 -67.50009739
-4.053871 -2.498437236e-05 8.838688614
0.0002150000555 -107.2245792 50.90992461
0.0002150000555 -15.57681083 20.94366761
-138.722885 -23.90487138 -67.50009739
0.0002150000555 -92.16856556 52.14755861
-226.096922 -2.498437236e-05 -40.67210739
-206.977348 -2.498437236e-05 -49.05044939
0.0002150000555 -58.0412013 68.36654961
-66.475193 -56.65412102 -67.50009739
0.0002150000555 -151.8808164 67.61519961
-14.008464 -2.498437236e-05 27.90556361
-5.570926 -2.498437236e-05 -32.67506639
-121.668686 -14.09057725 -61.50009739
0.0002150000555 -119.7845588 62.07519061
0.0002150000555 -95.90346001 71.43809061
0.0002150000555 -9.140448144 -12.35967139
-235.484387 -65.66695582 -67.50009739
-219.635552 -2.498437236e-05 72.19693061
0.0002150000555 -28.6126321 20.35384761
-176.040703 -56.55270214 -61.50009739
-134.119453 -50.26980728 -67.50009739
-247.611341 -7.177356604 -61.50009739
0.0002150000555 -51.42600973 41.66150461
-149.251789 -2.498437236e-05 11.71613761
-148.267988 -2.498437236e-05 75.44565061
0.0002150000555 -19.43844275 -20.11940539
-100.919582 -2.498437236e-05 42.63563161
0.0002150000555 -11.98312239 -29.63432939
0.0002150000555 -81.55351713 49.73022861
-69.68551 -6.901122214 -61.50009739
-28.37741 -2.498437236e-05 53.28718661
-144.479158 -2.498437236e-05 59.95464561
-18.365252 -63.35196242 -61.50009739
-35.467355 -2.498437236e-05 33.50715061
0.0002150000555 -31.05394955 71.39865061
-119.460161 -33.11529052 -61.50009739
-242.430007 -2.498437236e-05 72.57922561
-39.101975 -30.11421036 -67.50009739
-109.716967 -0.9549870944 -61.50009739
0.0002150000555 -14.79243944 -1.495701386
0.0002150000555 -140.9076527 55.68406761
-92.232709 -66.10135465 -67.50009739
-63.59042 -48.07374897 -67.50009739
-215.056407 -2.498437236e-05 37.06511961
-164.520847 -2.498437236e-05 10.64350761
0.0002150000555 -46.71583104 -30.90768039
-198.058778 -36.2330238 -67.50009739
-151.371294 -2.498437236e-05 68.42656161
-24.340209 -33.34797421 -67.50009739
-230.005493 -58.5109214 -61.50009739
-113.646284 -2.498437236e-05 10.68702961
-43.09007 -53.68397211 -67.50009739
-245.011594 -2.498437236e-05 8.586830614
-135.921737 -17.48602068 -67.50009739
-164.532695 -2.498437236e-05 68.51258961
-217.727135 -27.17048133 -67.50009739
-118.757589 -2.498437236e-05 0.0003706141447
-25.817158 -4.935040084 -67.50009739
0.0002150000555 -55.4552373 -4.252055386
0.0002150000555 -35.6439877 -37.87708539
-15.491829 -2.498437236e-05 55.21612961
-196.322988 -29.56632421 -61.50009739
-236.705062 -2.498437236e-05 12.11300061
0.0002150000555 -82.89624818 60.13188761
-105.231979 -32.06832731 -61.50009739
0.0002150000555 -114.8969892 49.55490861
-225.527109 -2.498437236e-05 3.000681614
-245.954205 -2.498437236e-05 37.39239161
-206.131683 -28.68074087 -67.50009739
-13.834172 -30.46777244 -67.50009739
-198.786495 -2.498437236e-05 -61.44654239
-166.799684 -8.256201754 -61.50009739
-190.98253 -43.39796785 -61.50009739
-60.535048 -2.498437236e-05 68.74782761
-248.291755 1.833411656 -61.50009739
-91.714721 -2.498437236e-05 -17.11305039
0.0002150000555 -66.31687597 -15.40421739
-35.047702 -2.498437236e-05 -35.05187239
-120.627822 -2.498437236e-05 -31.60470439
-76.286401 -2.498437236e-05 11.83547861
-64.489892 -2.498437236e-05 -34.69115039
-113.129768 -2.498437236e-05 -32.74497139
0.0002150000555 -49.99769974 -47.41394239
0.0002150000555 -113.8223931 38.78473861
0.0002150000555 -46.93218425 -5.766000386
0.0002150000555 -6.217424264 21.48199061
-133.32194 -2.498437236e-05 65.98938561
-66.443387 -65.65551319 -67.50009739
-131.332446 -2.498437236e-05 31.78112961
-40.100521 -18.15835064 -67.50009739
-74.139309 -2.498437236e-05 60.88541661
0.0002150000555 -88.19861425 62.23987761
-63.238424 -41.52342472 -61.50009739
-74.122665 -8.048941814 -67.50009739
-153.210345 -68.00002402 -61.71649939
-223.655884 -2.498437236e-05 -25.19389139
0.0002150000555 -134.7578772 78.38972561
-176.279869 -7.054091044 -67.50009739
-156.53138 -2.498437236e-05 49.07566261
0.0002150000555 -77.04191128 21.27658761
-205.232674 -12.82137967 -61.50009739
-90.650847 -2.498437236e-05 -0.8476903859
0.0002150000555 -41.62795521 54.73355161
0.0002150000555 -65.43262563 -32.14301339
0.0002150000555 -71.80277504 65.54211661
-146.342305 -17.05593993 -67.50009739
-17.081449 -29.28575764 -61.50009739
-52.931485 -2.498437236e-05 9.101299614
-105.444509 -50.95621144 -67.50009739
0.0002150000555 -120.5044874 73.36778361
0.0002150000555 -46.02071205 -11.25702139
0.0002150000555 -22.45662561 -39.09551839
0.0002150000555 -113.9178033 69.09830461
-115.886439 -2.498437236e-05 -52.86514839
0.0002150000555 -84.1941209 67.89049961
-112.536359 -40.12458877 -61.50009739
-68.477717 -29.306032 -61.50009739
0.0002150000555 -76.65552743 75.83749161
0.0002150000555 -41.44201104 48.54422261
-231.733513 -2.498437236e-05 -19.19529639
0.0002150000555 -126.5728697 49.97290161
0.0002150000555 -14.0381601 -10.10072039
0.0002150000555 -40.13949511 70.50923161
1.247025 -0.5000249844 51.29871661
-238.685076 -31.25810043 -67.50009739
-191.800557 -2.498437236e-05 -56.01028339
-204.711565 -53.40151104 -67.50009739
-93.268668 -2.498437236e-05 13.99349561
-150.494345 -20.20761353 -61.50009739
-247.421022 -2.498437236e-05 -32.57817539
-209.816911 -2.498437236e-05 71.86415561
-145.692014 -2.498437236e-05 -31.69387639
-224.193757 -2.498437236e-05 14.59032561
0.0002150000555 -25.73411185 -58.46992239
0.0002150000555 -58.42642884 56.54217261
-142.41841 -45.83010362 -61.50009739
-51.186393 -1.851634364 -67.50009739
-21.494541 -40.53081433 -61.50009739
0.0002150000555 -102.5980985 28.40951661
0.0002150000555 -65.97489085 20.14198161
-59.301365 -2.498437236e-05 -13.54783639
-56.300125 -40.86631412 -67.50009739
0.0002150000555 -61.25947723 -14.44716839
0.0002150000555 -17.02730305 -15.50620839
-74.957418 -9.080784344 -61.50009739
-123.010049 -2.498437236e-05 19.86638861
-174.03434 -68.00002402 -62.05999539
-160.16819 -2.498437236e-05 29.79177861
-127.639955 -19.49937228 -67.50009739
-198.681812 -63.90457125 -67.50009739
-199.019322 -2.498437236e-05 56.25536061
-146.946928 -2.498437236e-05 -38.53603639
-102.172126 -2.498437236e-05 -25.64960339
0.0002150000555 -61.45346556 77.59951861
-0.1534619999 -2.498437236e-05 -12.69390139
-148.30273 -43.03727218 -61.50009739
0.0002150000555 -19.25942464 61.10456561
-216.061501 -46.2432598 -67.50009739
-135.707121 -10.53272868 -61.50009739
0.0002150000555 -75.58694633 62.16478861
-17.299508 -2.498437236e-05 50.26544661
-214.752078 -2.498437236e-05 70.30343261
-51.486572 -10.19774005 -67.50009739
0.0002150000555 -93.0668624 9.201128614
-14.608656 -39.71275373 -67.50009739
-95.396511 -49.33964293 -67.50009739
0.0002150000555 -46.92470204 -40.55861539
0.0002150000555 -4.638824974 7.422880614
0.0002150000555 -31.93275338 5.035875614
-60.538334 -3.573442174 -61.50009739
0.0002150000555 -81.91830358 34.47205061
0.0002150000555 -162.5460261 73.63115261
-172.761946 -2.498437236e-05 40.66790861
0.0002150000555 -34.1421574 42.25750261
0.0002150000555 -146.9402461 68.42145461
-38.336615 -29.93958406 -61.50009739
0.0002150000555 -49.62435846 -35.76416539
0.0002150000555 -52.08799442 1.703996614
-14.936699 -2.498437236e-05 -8.165975386
-42.784023 -2.498437236e-05 7.794990614
-27.612247 -59.33301188 -61.50009739
0.02101300006 -4.565317934 56.85564161
-146.931745 -32.06081997 -61.50009739
0.0002150000555 -51.05179222 58.40175261
0.0002150000555 -20.21830781 6.768811614
0.0002150000555 -1.249824174 -48.79061739
-112.824672 -2.498437236e-05 -8.651130386
0.0002150000555 -100.1784087 45.40009261
-158.846807 -44.715672 -67.50009739
0.0002150000555 -85.95882568 14.14921261
0.0002150000555 -53.50651009 70.41444761
-203.347246 -2.498437236e-05 64.29848961
0.0002150000555 -57.34293706 -50.33065039
-52.071553 -22.89702717 -67.50009739
-212.608021 -2.498437236e-05 42.22824961
0.0002150000555 -44.40889837 44.22528661
0.0002150000555 -51.64196285 -22.98322739
0.0002150000555 -124.2829414 45.57920761
-186.812933 -2.498437236e-05 29.25830961
0.0002150000555 -125.8944389 72.95849261
0.0002150000555 -40.6055472 59.93161661
-96.439582 -35.54799323 -67.50009739
0.0002150000555 -110.0205716 60.62091161
-164.882027 -2.498437236e-05 -49.62035339
0.0002150000555 -99.08177566 55.27239361
-138.410818 -2.498437236e-05 -53.62204139
0.0002150000555 -52.08823556 50.48445461
-36.921231 -2.498437236e-05 41.68720261
-126.920753 -2.498437236e-05 9.085636614
-40.611021 0.6169758356 -61.50009739
-46.12094 -42.30841498 -61.50009739
-96.17609 -2.498437236e-05 -46.75773139
-150.751281 -50.39028063 -67.50009739
-2.10756 -2.498437236e-05 39.69850261
-250.420203 -2.498437236e-05 -25.67070639
-51.082092 -2.498437236e-05 -19.77504839
0.0002150000555 -19.60558486 -44.19782339
-115.087493 -2.498437236e-05 -41.38962939
-122.276352 -2.498437236e-05 55.61031161
-57.288163 -2.498437236e-05 -5.903269386
0.0002150000555 -86.10941958 51.53138261
-251.99016 -68.00002402 -64.43002039
0.0002150000555 -41.54178253 10.06977861
-128.033346 -2.498437236e-05 -38.42618039
0.0002150000555 -99.69837894 75.63403061
-246.272609 -2.498437236e-05 -5.549742386
0.0002150000555 -52.46444753 22.77228961
0.0002150000555 -124.4293533 63.56654661
-159.981335 -7.431336684 -67.50009739
0.0002150000555 -38.10690368 -27.23014239
0.0002150000555 -89.70122724 23.11716261
-35.2418 -2.498437236e-05 17.50240861
0.0002150000555 -11.55227212 34.68781961
0.0002150000555 -30.33448939 -23.16150739
0.0002150000555 -107.0432237 74.73361861
0.0002150000555 -22.22062488 16.38161161
0.0002150000555 -28.08523655 2.089531614
0.0002150000555 -15.28554076 42.13322161
-81.369078 -35.68327993 -61.50009739
-13.084373 -2.498437236e-05 63.72851661
-52.585155 -63.75221963 -61.50009739
0.3716720001 -107.0893386 25.14415561
-18.000033 -2.498437236e-05 -54.77161539
-73.366223 -36.01665983 -61.50009739
0.0002150000555 -10.98005418 52.86076261
-196.043822 -2.498437236e-05 29.46202161
-142.221819 -2.498437236e-05 15.34253961
0.0002150000555 -77.45696523 -5.284473386
-80.994345 -2.498437236e-05 -43.21719939
-59.583122 -33.28464371 -61.50009739
0.0002150000555 -4.436896814 -28.38250539
-235.892867 -16.50269059 -61.50009739
-160.086996 -2.498437236e-05 66.37096061
-108.676874 -2.498437236e-05 64.67504861
-122.491714 -30.36613882 -67.50009739
-129.538444 -50.482484 -61.50009739
-73.010229 -26.85190789 -61.50009739
0.0002150000555 -60.11368234 16.87275461
0.0002150000555 -31.81384052 46.82284061
-165.124685 -2.498437236e-05 -56.89316439
0.0002150000555 -118.1096443 66.53012161
-193.141826 -60.48859369 -67.50009739
-19.723961 -4.018661914 -61.50009739
-106.746878 -2.498437236e-05 76.86786861
-3.323676 -2.498437236e-05 -3.853032386
-14.421467 -2.498437236e-05 9.645254614
-123.399208 -2.498437236e-05 -60.92007139
0.0002150000555 -32.57602472 37.79139361
-225.404022 -2.498437236e-05 19.16354061
-238.53003 -31.65798191 -61.50009739
-235.206354 -4.104478644 -61.50009739
-81.740391 -2.498437236e-05 -5.992168386
0.0002150000555 -66.55428554 51.68284561
-0.9552739999 -2.498437236e-05 56.18729961
0.0002150000555 -132.1615759 67.87505261
-42.802485 -27.19338487 -67.50009739
-119.570716 -2.498437236e-05 -45.36617639
0.0002150000555 -77.64404925 10.36309561
0.0002150000555 -64.93339979 -1.212077386
-72.402852 -2.498437236e-05 -24.14163239
0.0002150000555 -26.05851442 12.74791261
-58.259194 -2.498437236e-05 39.58421361
-207.424624 -11.27815685 -67.50009739
0.0002150000555 -15.23859035 31.79194461
0.0002150000555 -75.8626083 48.20883861
0.0002150000555 -74.64264847 39.51012761
0.0002150000555 -79.30876976 38.91947361
-10.626726 -17.81884324 -67.50009739
0.0002150000555 -44.81269758 73.97039861
-242.046164 -64.3959191 -61.50009739
-246.358987 -18.74158 -67.50009739
-40.847661 -2.498437236e-05 31.85387561
-94.963982 -67.4613133 -61.50009739
0.0002150000555 -39.88218688 64.96789761
0.0002150000555 -73.67109553 31.17841361
-220.144938 -43.37670778 -61.50009739
0.0002150000555 -132.051976 55.91608161
-68.088285 -2.498437236e-05 -61.35357639
-245.047779 -24.18327225 -61.50009739
-114.977424 -2.498437236e-05 21.96468061
0.0002150000555 -69.51153025 55.76648261
0.0002150000555 -75.83810232 6.085434614
0.0002150000555 -28.99020577 -45.81818839
0.0002150000555 -29.94823371 76.76181561
0.0002150000555 -41.85838971 -39.89289739
0.0002150000555 -69.6745035 -19.94107439
-23.166587 -64.31548276 -61.50009739
-152.265523 -2.498437236e-05 73.09523461
-171.485927 -2.498437236e-05 24.48615461
-232.680661 -2.498437236e-05 -55.14167939
0.0002150000555 -33.38491268 -8.201446386
-56.835405 -2.498437236e-05 -31.89443539
-213.655158 -24.14158551 -67.50009739
0.0002150000555 -93.08412034 67.65998461
0.0002150000555 -23.30726529 -17.56959439
-101.866349 -61.68847861 -61.50009739
0.0002150000555 -8.758961304 11.88785961
-16.828882 -2.247677264 -67.50009739
-195.081123 -61.53595064 -61.50009739
0.0002150000555 -42.27166477 28.82890361
-211.872637 -13.90442529 -61.50009739
0.0002150000555 -65.67909226 10.72927261
0.0002150000555 -36.45304396 4.208429614
-79.174242 -2.498437236e-05 31.03480761
-245.260533 -3.172255024 -67.50009739
-166.33528 -68.00002402 -64.38393839
0.0002150000555 -46.92970722 32.57661461
-183.356837 -2.498437236e-05 -35.63851539
-237.30066 -2.498437236e-05 -1.070100386
-129.369955 -40.97570827 -67.50009739
-102.367114 -2.498437236e-05 72.75297761
-161.122934 -2.498437236e-05 5.404391614
-31.204295 -2.498437236e-05 71.24291461
-246.066379 -2.498437236e-05 19.99585061
0.0002150000555 -33.84744049 -47.71005039
-151.851667 -0.6111251044 -61.50009739
-180.42678 -16.50045422 -61.50009739
-187.63983 -67.11476319 -61.50009739
0.0002150000555 -67.79680006 29.82825561
0.0002150000555 -23.8389835 37.76585061
0.0002150000555 -102.6806863 59.66662761
-68.786045 -2.498437236e-05 -1.386563386
0.0002150000555 -32.2829163 -32.11911639
-243.523778 -9.951480774 -61.50009739
-205.636775 -2.498437236e-05 53.69469861
-63.969639 -2.498437236e-05 -6.885277386
0.0002150000555 -57.48194565 -40.28840739
0.0002150000555 -50.28279846 63.99263361
0.0002150000555 -29.0134984 33.64646361
0.0002150000555 -19.92225124 2.141692614
-16.042405 -68.00002402 -66.80627039
-3.073089 -2.498437236e-05 46.30699961
-11.179007 -4.033474444 -67.50009739
-153.215284 -10.18151114 -67.50009739
-247.579563 -2.498437236e-05 57.08268861
0.0002150000555 -86.19584066 8.448144614
0.0002150000555 -52.32842994 -52.28009339
0.4812230001 -2.498437236e-05 -28.95669139
-168.421278 -24.75212955 -61.50009739
0.0002150000555 -20.23080004 20.41299161
0.0002150000555 -4.766242544 -42.68764339
-185.478734 -2.498437236e-05 -9.302720386
-96.549199 -42.26023571 -67.50009739
0.0002150000555 -97.41348807 18.28809261
0.0002150000555 -108.2395421 68.84508261
-138.070862 -2.498437236e-05 -5.799213386
0.0002150000555 -144.1685379 74.33612561
-51.019444 -21.6571791 -61.50009739
-183.708318 -64.49035594 -67.50009739
-19.972664 -2.498437236e-05 13.04712661
0.0002150000555 -138.5452871 66.57077761
-135.458088 -2.498437236e-05 48.51833561
0.0002150000555 -50.12415895 28.09702361
0.0002150000555 -81.65898448 18.06649661
0.0002150000555 -16.88331588 57.34987261
0.0002150000555 -19.55692883 34.47780361
0.0002150000555 -44.3394482 18.96285161
0.0002150000555 -39.74681642 -17.02303839
-7.337255 -28.03767918 -67.50009739
-188.083284 -51.88096512 -67.50009739
-78.794267 -20.22289073 -61.50009739
0.0002150000555 -29.99241764 60.74059061
-154.392529 -36.97480238 -67.50009739
-203.25417 -2.498437236e-05 -26.96964539
0.0002150000555 -70.22001911 39.54190061
-153.978583 -2.498437236e-05 38.56028761
0.0002150000555 -156.5545969 75.77051961
-158.547933 -66.57433782 -61.50009739
-221.240352 0.8945961056 -61.50009739
-102.290418 -2.498437236e-05 59.58927961
0.0002150000555 -130.0072889 61.12004861
0.0002150000555 -9.874948694 -45.65897239
-165.739283 -2.498437236e-05 16.29564761
-1.711205 -2.498437236e-05 63.54836261
-174.953589 -2.498437236e-05 -60.71442039
-175.461105 -2.498437236e-05 -9.186394386
-196.399372 -39.48037584 -61.50009739
-139.252454 -63.86453831 -67.50009739
-243.458352 -2.498437236e-05 -1.332875386
0.0002150000555 -50.06540109 14.38180061
-152.081919 -2.498437236e-05 -37.65408839
0.0002150000555 -86.24592956 42.26218961
0.0002150000555 -10.41031858 -17.12068239
0.0002150000555 -64.56005595 40.61076261
-34.087888 -6.626624924 -67.50009739
-133.108736 -2.498437236e-05 57.21890261
-247.964104 -39.71847234 -61.50009739
-16.091306 -25.60662856 -67.50009739
-139.952605 -10.07175805 -67.50009739
-149.31371 -2.498437236e-05 -20.85177639
0.0002150000555 -11.89522841 -55.62618039
0.0002150000555 -102.9250094 50.37127561
-175.054154 -2.498437236e-05 10.09057261
-66.200736 -2.498437236e-05 -20.71887639
-236.095901 -2.498437236e-05 -11.14721539
-198.103285 -2.498437236e-05 -20.96254439
-95.072296 -4.144728144 -67.50009739
-7.375957 -2.498437236e-05 33.85187061
-124.009082 -2.498437236e-05 62.71120961
-167.814481 -2.498437236e-05 63.62895261
-222.782262 -2.498437236e-05 69.29181061
-202.239719 -9.758700794 -61.50009739
0.0002150000555 -48.98777555 -55.86260639
-3.47818 -44.61754907 -61.50009739
-234.712534 -28.08372186 -61.50009739
-91.260095 -2.498437236e-05 63.28741261
-180.631605 -4.857037364 -61.50009739
-171.310737 -2.498437236e-05 -22.31759839
-32.232348 -2.498437236e-05 -31.86135339
-136.350473 -59.32368152 -67.50009739
-37.427284 -46.61677447 -61.50009739
-192.311246 -2.498437236e-05 -14.51186639
-33.236387 -2.498437236e-05 -57.18169939
-230.103974 -2.566451134 -67.50009739
-207.03794 -42.83120646 -67.50009739
-148.901552 -26.55458965 -67.50009739
-162.701619 -26.63410746 -61.50009739
-9.039395 -2.498437236e-05 47.99626061
-144.779257 -2.498437236e-05 -19.01246339
-26.052951 -28.46287353 -67.50009739
-218.474766 -32.41956686 -61.50009739
-195.626181 -2.785751954 -61.50009739
-202.706539 -2.296700254 -61.50009739
-64.103046 -2.498437236e-05 -41.10251139
-228.489023 -68.00002402 -62.51750539
-158.72209 -28.36018148 -61.50009739
-90.224414 -2.498437236e-05 27.36348461
-110.198279 -61.32371519 -67.50009739
0.0002150000555 -2.980652194 46.64510061
-74.465277 -2.498437236e-05 -39.60738639
-117.736076 -29.74668206 -67.50009739
-1.029222 -2.498437236e-05 -8.594076386
-157.093407 -47.76574527 -61.50009739
-60.567673 -2.498437236e-05 -36.14385239
-146.362908 -2.498437236e-05 38.64456161
-213.238966 -2.498437236e-05 -18.09672939
-204.534685 -68.00002402 -62.29949239
-188.318254 -2.498437236e-05 -47.47825039
-32.451878 -2.498437236e-05 -40.91008939
-105.969256 -2.498437236e-05 39.13991061
-91.560234 -51.13586375 -67.50009739
-14.526407 -2.498437236e-05 -57.37492939
-193.730277 -18.82771586 -61.50009739
-161.583713 -38.8351112 -61.50009739
-0.1327389999 -53.72675552 -67.50009739
-173.71509 -60.39027714 -61.50009739
-126.23547 -2.498437236e-05 -15.00814239
-60.257722 -2.498437236e-05 -22.62251239
-184.603071 -56.23651294 -67.50009739
-0.4072109999 -20.47511102 -61.50009739
-246.9714 -2.498437236e-05 -23.41034939
-27.354573 -20.22701868 -67.50009739
-133.390413 -43.72521843 -61.50009739
-29.268779 -3.058882444 -61.50009739
-45.688006 -2.498437236e-05 1.117569614
-50.751363 -2.498437236e-05 69.88950761
-231.93404 -59.35464805 -67.50009739
-24.663965 -2.498437236e-05 -3.015792386
-165.12071 -2.498437236e-05 -43.00015339
-106.921371 -2.498437236e-05 0.2497066141
-49.683719 -2.498437236e-05 -39.10888439
1.95022 -40.26402418 -58.50009739
-85.913444 -2.498437236e-05 18.92631361
-198.055177 -2.498437236e-05 52.28566461
-170.634174 -2.498437236e-05 57.75655961
-123.315026 -36.39104394 -67.50009739
-126.833962 -42.21864374 -61.50009739
-197.363153 -21.41743727 -67.50009739
-115.318438 -12.5379832 -67.50009739
-2.188178 -39.11177754 -61.50009739
-141.480709 -7.439135354 -61.50009739
-68.739103 -2.498437236e-05 69.11423261
-56.128342 -2.498437236e-05 -44.04906339
-116.682463 -19.99636436 -61.50009739
-33.033657 -2.498437236e-05 78.21088661
-146.416802 -2.498437236e-05 29.85428561
-168.378394 -17.3885926 -61.50009739
-178.277464 -12.63304957 -61.50009739
-30.704129 -2.498437236e-05 -46.69837839
-22.178371 -18.67777242 -67.50009739
-21.544831 -2.498437236e-05 26.41783261
-27.518192 -2.498437236e-05 16.05582361
-19.385593 -2.498437236e-05 44.44117861
-38.455847 -14.49150085 -67.50009739
-102.237437 -64.41616016 -67.50009739
-43.919027 -2.498437236e-05 42.44471461
-14.425606 -2.498437236e-05 -34.74362239
-222.230782 -54.42842888 -67.50009739
-15.701594 -2.498437236e-05 -21.77691739
-55.220879 -7.745701724 -61.50009739
-57.449794 -60.98886814 -67.50009739
-142.884007 -2.498437236e-05 73.67487761
-54.71132 -2.498437236e-05 15.86949261
-138.492177 -40.19379564 -67.50009739
-31.530918 -2.498437236e-05 10.68978661
-194.526094 -68.00002402 -65.16424039
-118.061248 -2.498437236e-05 12.39431261
-45.036813 -2.498437236e-05 -29.79684239
-98.48917 -23.8168521 -67.50009739
-78.558796 -58.05011512 -61.50009739
-25.967504 -2.498437236e-05 75.24233761
-0.6751179999 -47.40377981 -67.50009739
-52.502306 -2.498437236e-05 56.39661561
-47.391917 -2.498437236e-05 29.92651561
-179.565575 -51.2575757 -67.50009739
-248.616194 -62.0992384 -61.50009739
-83.81222 -58.33368481 -67.50009739
-145.154092 -35.57949855 -61.50009739
-122.033999 -2.498437236e-05 -56.77117239
-50.628436 -58.90901091 -67.50009739
-81.657246 -51.49642982 -67.50009739
-111.64592 -2.498437236e-05 -29.09085939
-25.985481 -28.73793741 -61.50009739
-207.173783 -46.75458527 -67.50009739
-248.731539 -4.999765934 -67.50009739
-165.217101 -2.498437236e-05 41.48575761
-170.822433 -49.16211907 -61.50009739
-161.970905 -26.94484791 -67.50009739
-157.757826 -34.61244364 -61.50009739
-173.659955 -2.498437236e-05 -30.71154839
-223.078053 -0.1782303744 -67.50009739
-119.127214 -2.498437236e-05 64.26204261
-225.796269 -46.66470414 -61.50009739
-173.147657 -40.6590425 -61.50009739
-23.53208 -2.498437236e-05 -31.18950439
-213.284921 -2.498437236e-05 -60.63642339
-132.050882 -17.28073023 -67.50009739
-180.398114 -2.498437236e-05 51.95744761
-169.580039 -47.79583209 -67.50009739
-63.040749 -55.82252727 -61.50009739
-99.38564 -2.498437236e-05 70.29840561
-45.746503 -68.00002402 -63.55995539
-70.557977 -3.144098314 -61.50009739
-221.922316 -18.53897747 -61.50009739
-33.337578 -2.498437236e-05 45.33918661
-178.070328 -3.642427334 -67.50009739
-232.718751 -47.27932976 -67.50009739
-237.752693 -2.498437236e-05 54.79506061
-70.726639 -2.498437236e-05 30.34051561
-104.241807 -1.590741884 -61.50009739
-135.111348 -68.00002402 -64.54530239
-146.621072 -66.41294327 -61.50009739
-198.10945 -2.498437236e-05 -17.12802539
-131.894706 -10.82486763 -61.50009739
0.0002150000555 -1.829570574 26.31120561
-120.439452 -68.00002402 -66.43786039
-98.658713 -2.498437236e-05 -28.03711239
-136.648191 -48.33176447 -61.50009739
-196.100234 -11.31638004 -61.50009739
-185.132666 -21.29134237 -67.50009739
-66.587329 -2.498437236e-05 45.27067061
-169.799681 -2.498437236e-05 -15.05022939
-69.690113 -36.95302615 -61.50009739
-192.325017 -56.04000356 -61.50009739
-115.949152 -0.1423722944 -61.50009739
-223.395822 -10.99594922 -67.50009739
-205.038477 -2.498437236e-05 -52.26524739
-141.04457 -52.98011713 -67.50009739
-73.782226 -2.498437236e-05 -51.00414739
-29.70083 -2.498437236e-05 -24.67143339
-121.524607 -2.498437236e-05 -9.012759386
-238.857288 -3.380280784 -61.50009739
-237.197861 -2.498437236e-05 73.74285961
-59.818062 -2.498437236e-05 12.45251561
-63.952348 -2.498437236e-05 75.51151661
-159.969603 -2.498437236e-05 74.42688561
-134.529539 -22.14684901 -61.50009739
-223.943078 -13.73819344 -61.50009739
-13.493277 -58.00985919 -67.50009739
1.8996 -2.498437236e-05 0.7507606141
2.110648 -46.7115224 -61.50009739
-11.278022 -2.498437236e-05 -22.12161139
-99.776415 -2.498437236e-05 -43.96169339
-126.461578 -2.498437236e-05 3.446381614
-60.179359 -56.54811363 -67.50009739
-199.546552 -2.498437236e-05 -38.39991239
-78.065247 -32.48867385 -61.50009739
-24.56793 -2.498437236e-05 -26.21919839
-84.658453 -2.498437236e-05 -24.93400439
-141.584552 -2.498437236e-05 18.91499461
-245.540243 -44.77246923 -67.50009739
0.2854230001 -16.10686875 -58.50009739
-129.887285 -3.687317554 -61.50009739
-13.377985 -59.98321818 -61.50009739
-39.600987 -2.498437236e-05 13.45350661
-116.364627 -55.13686769 -61.50009739
-158.688298 -2.498437236e-05 37.56093061
-66.779138 -12.83101731 -61.50009739
-167.308979 -32.22491844 -61.50009739
-207.867601 -37.41778648 -67.50009739
-87.354996 -2.498437236e-05 50.39879561
-154.532974 -62.75472466 -61.50009739
-141.490932 -1.992942544 -61.50009739
-186.324227 -48.97765648 -61.50009739
-224.651023 -2.498437236e-05 -21.30603339
-115.59695 -55.89763827 -67.50009739
-103.542239 -2.498437236e-05 -15.82153339
-195.145922 -2.498437236e-05 -57.20708139
-138.885587 -32.61637042 -61.50009739
-167.108335 -63.14092309 -61.50009739
-15.733353 -35.36658856 -61.50009739
-71.327019 -2.498437236e-05 66.49927061
-229.785296 -2.498437236e-05 -22.48029439
-190.675761 -2.498437236e-05 55.76569961
-79.326955 -27.12845242 -61.50009739
-68.450654 -2.498437236e-05 33.01050161
-70.894753 -2.112749094 -67.50009739
-54.74052 -40.88901447 -61.50009739
-136.769083 -2.498437236e-05 8.744075614
-137.345827 -2.407186584 -61.50009739
-203.081241 -2.498437236e-05 3.140269614
-240.277078 -2.498437236e-05 34.76359961
-196.095996 -29.89729564 -67.50009739
-0.2658569999 -7.811369764 -67.50009739
-144.108687 -28.20680787 -61.50009739
-86.838932 -34.47035299 -61.50009739
-132.573713 -2.498437236e-05 -1.671335386
-57.010952 -10.6703701 -67.50009739
-52.028249 -2.498437236e-05 -5.637638386
-77.450881 1.217394756 -61.50009739
-47.382957 -45.26737684 -67.50009739
-164.179994 -2.498437236e-05 19.76423061
-211.469914 -18.74546041 -61.50009739
-51.119757 -2.498437236e-05 28.00647761
-235.860589 -13.62110001 -67.50009739
-78.551411 -2.498437236e-05 36.25411361
-179.544338 -16.71141581 -67.50009739
-32.349982 -24.06112443 -61.50009739
-99.264769 -2.498437236e-05 -18.91433039
-153.194488 -2.498437236e-05 48.26524361
-220.014243 -59.84341991 -61.50009739
-247.2179 -32.44589499 -67.50009739
-248.452955 -23.4334027 -61.50009739
-19.676388 1.305042276 -67.50009739
-150.080863 -33.7945186 -67.50009739
-205.019705 -68.00002402 -67.49751539
-32.065557 -2.498437236e-05 24.12859961
-40.415522 -2.498437236e-05 54.79963661
-41.978584 -59.05634167 -61.50009739
-236.009095 -33.68839411 -67.50009739
-182.992467 -45.16880744 -67.50009739
-122.509967 -2.498437236e-05 -27.35747739
-26.597711 -1.644941774 -67.50009739
-123.642615 -2.498437236e-05 -42.23747439
-190.976269 -31.97799105 -61.50009739
-195.530845 -2.498437236e-05 -42.96136839
-42.13161 -2.498437236e-05 -16.17546039
-16.521688 -2.498437236e-05 30.78335961
-203.173165 -2.498437236e-05 -35.31814139
-26.275637 -2.498437236e-05 40.51135561
-112.454286 -2.498437236e-05 40.64707261
-192.243627 -57.26410091 -67.50009739
-18.796712 -2.498437236e-05 55.89446161
-147.195887 -20.72486275 -61.50009739
-137.80997 -2.498437236e-05 12.49459561
-94.541653 -18.54632072 -61.50009739
-86.318546 -2.498437236e-05 28.85774861
-22.754746 -2.498437236e-05 61.12517461
-122.727741 -62.51072197 -67.50009739
-104.064092 -4.378601684 -67.50009739
-251.342427 -52.11096095 -61.50009739
-13.679838 -64.09297072 -67.50009739
-73.930686 -2.498437236e-05 28.20870861
-58.747679 -22.25557369 -61.50009739
-44.021347 -22.8558896 -61.50009739
-102.104541 -42.49299459 -61.50009739
-143.485758 -12.94020748 -61.50009739
-170.187869 -2.498437236e-05 51.28725561
-113.211154 -2.498437236e-05 73.73387961
-1.622456 -2.498437236e-05 -22.13495339
-146.164881 -2.498437236e-05 41.93473461
-165.159867 -46.6110891 -67.50009739
-238.704184 -2.498437236e-05 4.673985614
-169.504915 -2.498437236e-05 4.268339614
-104.312454 -2.498437236e-05 -47.08044139
-118.41005 -2.498437236e-05 42.28713361
-205.965208 -1.257125544 -61.50009739
-23.759485 -67.64609172 -67.50009739
-76.20958 -1.784089614 -61.50009739
-240.52911 -12.49000542 -67.50009739
-136.172699 -2.498437236e-05 64.43762461
-87.358414 -47.63390093 -67.50009739
-235.893334 -2.498437236e-05 66.11284061
-60.648607 -2.498437236e-05 61.96644461
-97.372971 -1.081077534 -61.50009739
-90.776394 -2.498437236e-05 -38.78991439
-198.945721 -3.796858134 -67.50009739
-116.857789 -7.065300284 -61.50009739
-23.733309 -63.90563872 -67.50009739
-117.495018 -14.89123171 -67.50009739
-87.189439 -2.498437236e-05 15.78417661
-73.818132 -2.498437236e-05 23.14044461
-232.210314 -2.498437236e-05 -45.35506039
-57.501498 -2.575875114 -61.50009739
-225.075355 -7.980226044 -67.50009739
-79.293868 -7.535934134 -61.50009739
-174.634114 -21.17509641 -61.50009739
-245.043235 -2.498437236e-05 24.80212261
-152.190314 -36.17430027 -61.50009739
-112.93576 -2.498437236e-05 15.76894961
-67.454839 -2.498437236e-05 40.00155361
-100.720332 -2.498437236e-05 49.99567661
-95.115223 -2.498437236e-05 11.43995861
-37.909056 -24.8984298 -61.50009739
-148.881298 -2.498437236e-05 -46.40794739
-185.035608 -2.498437236e-05 40.38604161
-141.558585 -2.498437236e-05 48.94884361
-131.511186 -17.81741533 -61.50009739
-75.767711 -2.498437236e-05 -57.25685239
-148.67384 -38.90340959 -61.50009739
-38.146227 -2.498437236e-05 -34.66453739
-100.624227 -2.498437236e-05 -21.72287339
-167.326328 -2.498437236e-05 69.90134261
-156.078198 -2.189274604 -61.50009739
-170.616505 -2.498437236e-05 36.99853961
-52.804737 -2.498437236e-05 -44.46250539
-98.834241 -3.328389144 -67.50009739
-106.221029 -2.498437236e-05 21.21266661
-50.066618 -2.498437236e-05 7.922146614
-200.758001 -9.469425184 -67.50009739
-139.042665 -2.498437236e-05 60.92229861
-166.634821 -65.11638595 -67.50009739
-13.460511 -20.9651593 -67.50009739
-225.717931 -28.5204888 -67.50009739
-249.410818 -36.36554187 -61.50009739
-63.559928 -55.72137535 -67.50009739
-210.025856 -63.18574806 -61.50009739
-75.339798 -59.09894695 -61.50009739
-193.782359 -2.498437236e-05 70.98191561
-241.171453 -2.498437236e-05 -11.29150639
-41.590546 -39.10502425 -67.50009739
-180.083841 -64.22004015 -61.50009739
-201.325052 1.744447516 -61.50009739
-210.657527 -19.9153119 -67.50009739
-215.008854 -49.08185844 -67.50009739
-210.287371 -30.87898725 -67.50009739
-161.810046 -31.01238417 -61.50009739
-183.455385 -2.697520044 -61.50009739
-196.922701 -14.2318687 -61.50009739
-115.424857 -50.94144719 -61.50009739
-107.521185 -55.15052021 -61.50009739
-86.071369 -6.503735764 -61.50009739
-219.390273 -53.43900431 -67.50009739
-230.44697 -2.498437236e-05 -57.15106239
-68.294035 -39.60619964 -61.50009739
-202.364474 -66.10140092 -61.50009739
-51.466572 -4.944301244 -67.50009739
-77.761244 -45.70351603 -61.50009739
-155.688401 -62.37656278 -67.50009739
-192.629937 -12.64019177 -67.50009739
-228.708225 -50.65417132 -67.50009739
-232.077339 1.534020136 -61.50009739
-52.565201 -2.498437236e-05 6.148968614
-215.236319 -7.669031944 -61.50009739
-83.730503 -2.498437236e-05 52.07070561
-53.967208 -2.498437236e-05 22.68662961
-22.396506 -48.46638231 -67.50009739
-141.458292 -66.46554197 -61.50009739
-44.453122 -2.498437236e-05 -3.954360386
-44.893511 -6.164044224 -61.50009739
-191.248621 -51.73224783 -61.50009739
-101.582174 -2.498437236e-05 -54.80167039
-195.004933 -2.498437236e-05 26.69982761
-1.836866 -2.498437236e-05 -46.87155639
-218.091835 -2.498437236e-05 69.70430561
-169.792603 -2.498437236e-05 17.94203761
-244.882559 -2.498437236e-05 34.67373861
-244.413005 -2.498437236e-05 70.44914661
-75.543538 -5.509439164 -67.50009739
-134.437324 -2.368280624 -61.50009739
-149.195629 -45.70007314 -67.50009739
-178.710378 -25.23256422 -61.50009739
-188.260462 -2.498437236e-05 3.129051614
-237.220758 -26.62519514 -61.50009739
-234.65104 -37.18241166 -67.50009739
-130.635531 -2.498437236e-05 55.71986261
-45.796278 -2.601023774 -61.50009739
-6.10544 -2.498437236e-05 75.22963061
-189.56862 -2.498437236e-05 -54.18351939
-236.154723 -1.381996514 -61.50009739
-41.638933 -51.96356129 -61.50009739
-71.286607 -2.498437236e-05 60.49793161
-82.24415 -46.46048602 -67.50009739
-107.071155 0.1521642156 -61.50009739
-54.296102 -3.111640974 -67.50009739
-120.001099 -2.498437236e-05 68.58463161
-105.386877 -68.00002402 -66.23817639
-93.165875 -2.498437236e-05 0.4955396141
-31.539373 -2.498437236e-05 -43.61094939
-84.499606 -2.498437236e-05 -10.26763539
-57.187495 -2.498437236e-05 59.91700261
-114.757204 -2.498437236e-05 62.24844361
-12.550018 -2.498437236e-05 30.34426561
-155.40864 -32.9129119 -61.50009739
-222.660489 -50.42805482 -61.50009739
-250.155061 -5.723953714 -61.50009739
-59.395047 -2.498437236e-05 -52.83914939
-71.855154 -31.97416189 -61.50009739
-201.852071 -30.71547921 -67.50009739
-55.092503 0.4574011156 -61.50009739
-180.663383 -10.07110992 -61.50009739
-79.596593 -2.498437236e-05 -40.36398939
-80.181744 -2.498437236e-05 -46.65637239
-46.813715 -2.498437236e-05 75.29746561
-3.803426 -2.498437236e-05 36.07254861
-157.641716 -2.498437236e-05 -57.19444839
0.0002150000555 -2.157738164 -21.37950639
-187.588649 -37.00519981 -61.50009739
-102.250872 -2.498437236e-05 75.54355161
-10.758659 -59.02856331 -61.50009739
-223.225263 -32.32557042 -61.50009739
-216.914016 -2.498437236e-05 22.82581461
-189.761602 -2.498437236e-05 8.328708614
-202.841961 -26.12626904 -61.50009739
-181.19952 -2.498437236e-05 37.95682761
-108.886748 -4.917179514 -61.50009739
-29.815088 -39.50125655 -67.50009739
-74.819407 -63.20319079 -61.50009739
-5.055547 -12.90554902 -67.50009739
-15.537312 -2.498437236e-05 -12.83213439
-19.390987 -2.498437236e-05 -57.20495639
-59.080468 -2.498437236e-05 65.00949861
-59.173724 -4.210755364 -67.50009739
-126.709455 -48.44655696 -67.50009739
-8.965109 -2.498437236e-05 78.27602961
-226.97878 -2.498437236e-05 73.09659561
-104.41931 -45.40532188 -61.50009739
-215.391504 -2.498437236e-05 -58.93308139
-58.794563 -2.498437236e-05 47.73113961
-11.935643 -2.498437236e-05 8.574732614
-143.259538 -2.498437236e-05 -45.54992939
-88.168052 -2.498437236e-05 64.95755361
-245.689863 -64.65520626 -61.50009739
-242.471157 -25.0131173 -61.50009739
