# .PCD v0.7 - Point Cloud Data file format
VERSION 0.7
FIELDS x y z
SIZE 4 4 4
TYPE F F F
COUNT 1 1 1
WIDTH 1272
HEIGHT 1
VIEWPOINT 0 0 0 1 0 0 0
POINTS 1272
DATA ascii
100.632395 -2.498622655e-05 -135.9364844
232.594268 5.862881204 -150.0000974
245.600023 57.28945488 -150.0000974
191.347719 -2.498622655e-05 130.8191816
0.0002150000537 22.02821388 8.063400614
74.428498 -2.498622655e-05 71.16131661
124.290671 -2.498622655e-05 -137.2165794
52.717312 -2.498622655e-05 -118.7015454
25.657837 65.18560798 -144.0000974
11.394862 12.44729078 143.9999026
142.945552 -2.466925746 -144.0000974
69.090249 -2.498622655e-05 -33.05756739
225.39331 5.734537024 149.9999026
68.076414 -2.498622655e-05 58.22577261
228.02688 -2.498622655e-05 0.5628476142
123.713623 -2.498622655e-05 104.3993286
170.018283 -2.498622655e-05 -43.19239039
221.803811 -2.498622655e-05 -108.0605944
0.0002150000537 49.96796398 -93.66475439
0.0002150000537 11.48816116 48.21156561
95.386058 8.147459644 -144.0000974
80.910661 -2.498622655e-05 -38.39536339
-0.3781929999 49.99997498 12.95794761
0.0002150000537 23.46692878 109.9860366
112.554078 -2.498622655e-05 -61.16902939
249.133593 -2.498622655e-05 -92.31642239
140.493447 -2.498622655e-05 116.9427516
47.115907 -2.498622655e-05 35.83594961
71.752019 -2.498622655e-05 -135.5361904
37.774716 -2.498622655e-05 -7.347842386
0.0002150000537 17.08435318 74.74837161
54.429298 -2.498622655e-05 -71.04948539
105.177451 -2.498622655e-05 18.47737461
0.0002150000537 45.83396338 71.00512361
217.417117 -2.498622655e-05 -132.3054124
188.084862 -2.498622655e-05 -56.22222539
36.578396 24.45511318 149.9999026
213.9259 -2.498622655e-05 -18.82459439
208.371008 0.2627154238 149.9999026
0.0002150000537 12.83023398 -119.8548074
177.351905 -2.498622655e-05 88.96048361
189.528178 59.07777098 -150.0000974
0.0002150000537 20.16019128 -76.26356039
95.724062 56.32015018 149.9999026
201.349779 48.31969148 143.9999026
116.039422 32.87144508 149.9999026
249.188559 -2.498622655e-05 68.54522261
173.455879 -2.498622655e-05 -138.3086424
105.393254 3.411883484 143.9999026
55.887169 31.55540748 -150.0000974
0.0002150000537 37.24556368 61.17503661
10.914649 34.26903488 149.9999026
42.18272 -2.498622655e-05 -139.7727834
21.647356 33.53527318 143.9999026
158.317053 -2.498622655e-05 -38.59120239
23.492266 -2.498622655e-05 10.59587561
48.322931 55.83531728 -144.0000974
120.331746 -2.498622655e-05 -14.49781239
39.566969 -2.498622655e-05 113.1587926
160.254174 39.27033588 -144.0000974
251.367246 8.076044904 -144.0000974
151.372653 -2.498622655e-05 7.379133614
33.598092 -2.498622655e-05 22.19626261
122.561675 42.06358698 -150.0000974
-2.140027 -2.143944046 -150.0000974
115.431881 -2.498622655e-05 4.615431614
231.616372 -2.498622655e-05 -12.75225439
88.049375 14.72718008 -150.0000974
184.992671 -2.498622655e-05 -109.5564894
0.0002150000537 49.46394248 47.86836961
149.569012 -2.498622655e-05 -122.9740214
0.0002150000537 0.3445028938 -17.91418939
83.190355 -2.498622655e-05 -99.84279539
25.548716 -2.498622655e-05 -74.84733339
220.83301 56.29166208 143.9999026
99.98443 -2.498622655e-05 -39.44336839
162.995097 -2.498622655e-05 -53.10324039
138.858644 -2.498622655e-05 58.23383561
119.703275 -2.498622655e-05 57.56934361
136.704101 45.88366958 149.9999026
152.797147 -2.498622655e-05 23.03067161
148.10222 59.72098388 -150.0000974
173.730273 -2.498622655e-05 -125.2406134
43.339545 64.29888958 149.9999026
103.069386 -2.498622655e-05 41.85786261
36.500391 57.81816508 -150.0000974
201.360111 49.17485958 -150.0000974
0.0002150000537 28.79408498 -37.35544139
239.073112 -2.498622655e-05 119.4676526
84.91963 12.15971008 143.9999026
83.41489 42.64187278 149.9999026
12.466048 37.04851358 -144.0000974
0.0002150000537 15.02157708 117.3696906
64.940952 44.12687698 149.9999026
164.328278 41.51570188 143.9999026
132.933833 12.32187718 -144.0000974
110.852995 57.25856868 -150.0000974
141.259531 59.44073778 143.9999026
218.440684 25.81604138 143.9999026
64.592186 -2.498622655e-05 -75.70577239
0.0002150000537 37.28560268 27.37943561
66.016028 58.01097348 -144.0000974
18.509811 -2.498622655e-05 -32.20612739
129.081566 67.99997498 -144.4292744
235.783919 35.57553128 143.9999026
157.635718 -2.498622655e-05 64.98261361
160.584618 -2.498622655e-05 1.140039614
183.258026 44.69173068 -150.0000974
155.638975 46.08844198 149.9999026
56.300488 -2.498622655e-05 24.58566861
187.607775 58.13229748 149.9999026
179.420086 -2.498622655e-05 -30.53649239
66.633183 9.767384044 -144.0000974
79.738872 67.99997498 -148.1499554
212.735678 -2.498622655e-05 12.85805161
0.0002150000537 12.35364478 27.37448361
71.946749 24.94851848 143.9999026
51.331564 -2.498622655e-05 70.35408461
142.524008 -2.498622655e-05 88.67639761
62.205904 -2.498622655e-05 2.636162614
75.574455 -2.498622655e-05 -8.574089386
-2.246119 28.88442108 -144.0000974
128.046142 -2.498622655e-05 -126.9352254
144.706897 -2.498622655e-05 141.4779826
223.77373 16.26019118 143.9999026
126.387434 -2.498622655e-05 91.55557761
167.565451 26.93291618 -144.0000974
139.056271 -2.498622655e-05 8.581331614
0.0002150000537 4.824612754 75.53577361
0.0002150000537 44.96697828 1.301408614
168.790627 0.2844495538 -150.0000974
0.0002150000537 32.37685828 101.6325956
189.545633 -2.498622655e-05 69.82465661
78.178275 58.59309398 149.9999026
167.649205 6.805014134 143.9999026
0.0002150000537 23.15409138 -27.80088439
220.164305 -2.498622655e-05 -34.57408139
251.447728 50.32038808 -144.0000974
89.286964 31.66664658 149.9999026
132.719937 7.330871024 143.9999026
79.109708 -2.498622655e-05 91.58347861
206.026419 13.43084928 -150.0000974
0.0002150000537 42.63908688 123.6792896
70.306532 -2.498622655e-05 121.3519586
124.965489 -2.498622655e-05 -40.37242739
247.087383 -2.498622655e-05 79.80129561
38.028018 45.74270368 143.9999026
71.634018 -2.498622655e-05 -22.71924739
201.941782 -2.498622655e-05 -68.76504439
2.529992 -2.498622655e-05 105.3656106
117.900766 -2.498622655e-05 -74.11798339
0.0002150000537 41.38409988 141.8119296
251.785984 -2.498622655e-05 -136.6986394
166.617258 -2.498622655e-05 88.42592861
58.167592 -2.498622655e-05 -41.84141039
137.745584 -2.498622655e-05 -87.67413639
162.582387 -2.498622655e-05 -141.0934374
165.902651 -2.498622655e-05 -67.49225839
102.456862 -2.498622655e-05 -4.811097386
193.621822 -2.498622655e-05 -5.735603386
0.0002150000537 12.54784598 -29.83673139
-0.7123559999 -2.498622655e-05 42.66350661
170.120287 17.88380558 -150.0000974
152.587042 58.45551838 143.9999026
21.763353 54.03836628 149.9999026
6.767624 -2.498622655e-05 128.8112786
5.608169 0.2652677938 149.9999026
152.791014 18.49486988 149.9999026
108.874615 43.25657138 149.9999026
55.676902 51.97867818 143.9999026
0.0002150000537 28.49035328 -96.80023739
142.900067 43.63370548 -144.0000974
110.948003 60.02981038 149.9999026
193.377477 -2.498622655e-05 120.2635436
161.080615 -2.498622655e-05 122.4991396
113.350885 -2.498622655e-05 -5.610878386
68.132185 -2.498622655e-05 -88.42142339
124.076789 -2.498622655e-05 34.20610361
92.809297 -2.498622655e-05 89.32519361
136.656763 -2.498622655e-05 71.08699661
122.436754 60.65988118 143.9999026
168.60903 -2.498622655e-05 63.83841661
170.657 -2.498622655e-05 -14.15778439
42.35603 -2.498622655e-05 -67.09352939
214.247771 -2.498622655e-05 118.4737626
131.249262 0.6819254438 -150.0000974
239.149018 -2.498622655e-05 -24.66778039
192.121752 19.53991388 143.9999026
0.0002150000537 18.29136738 -100.0002934
236.497257 22.81707508 -144.0000974
100.491723 23.56022208 143.9999026
116.216869 12.01332754 -144.0000974
64.65507 57.24553298 143.9999026
16.399836 -0.9911584162 149.9999026
69.979126 26.05806538 -144.0000974
210.895203 -2.498622655e-05 -103.0280044
123.728366 33.91954928 -144.0000974
247.184047 -2.498622655e-05 -13.15189039
19.713751 -2.498622655e-05 71.92890261
152.373561 -2.498622655e-05 76.23516161
131.201115 -2.498622655e-05 -30.67130039
191.946435 9.386013154 143.9999026
6.957338 30.98698538 -150.0000974
101.263807 -2.498622655e-05 27.84498061
112.646974 2.502221554 -144.0000974
72.78899 -2.498622655e-05 16.74261461
9.420015 -2.498622655e-05 -76.19470239
221.023351 -2.498622655e-05 -69.55633539
11.64112 15.41245478 -150.0000974
0.0002150000537 49.95475308 -103.7598094
231.480667 -2.498622655e-05 -50.22029539
204.098202 41.53820698 -144.0000974
146.14918 16.49508178 -144.0000974
111.282886 -2.498622655e-05 -118.8723164
0.0002150000537 36.70800308 -110.0065244
179.39191 33.34703588 149.9999026
142.064305 -2.498622655e-05 46.02454161
25.582363 27.73502948 -144.0000974
0.0002150000537 36.68470748 49.05666561
77.007598 31.33275608 -150.0000974
9.318569 -2.498622655e-05 25.04747061
200.526765 57.38049928 -144.0000974
26.591141 -2.498622655e-05 100.5457376
0.0002150000537 7.733809404 -44.66787339
79.539243 45.96513818 -144.0000974
192.576127 27.59880338 149.9999026
207.578708 -2.498622655e-05 66.31918561
92.284932 31.86369978 -144.0000974
0.7542000001 67.37209418 -144.0000974
0.0002150000537 47.15664418 -27.29327039
114.652825 -2.498622655e-05 117.2422716
10.825604 -2.498622655e-05 -59.72784339
28.234026 -2.498622655e-05 48.46209061
221.858682 -2.498622655e-05 44.27747561
151.028054 29.01232298 143.9999026
194.338118 -2.498622655e-05 -114.6818634
149.799075 -2.498622655e-05 96.52332761
0.0002150000537 2.739022044 19.62745661
188.131928 38.46866508 -144.0000974
208.699367 9.303792934 143.9999026
-1.941448 17.27601308 -140.7256124
236.284288 52.72384478 149.9999026
0.0002150000537 14.64180108 -53.02537339
209.689471 42.12828128 149.9999026
220.911028 36.04017068 149.9999026
164.50709 50.35795688 -144.0000974
35.458691 10.32523544 143.9999026
235.069551 -2.498622655e-05 56.09196661
103.091266 24.37606658 -150.0000974
37.61278 -2.498622655e-05 33.30618861
0.0002150000537 30.44744558 120.4429796
31.056448 6.838288164 -144.0000974
134.900208 -2.498622655e-05 -5.209749386
133.78978 48.30571228 -150.0000974
182.660945 43.93173918 143.9999026
205.8973 -2.498622655e-05 -124.7470494
218.719324 37.58084578 -150.0000974
-1.849035 36.54300748 -150.0000974
88.940582 -2.498622655e-05 3.637549614
236.768979 -2.498622655e-05 -125.7034904
91.281414 -2.498622655e-05 -16.47806039
46.472372 -2.498622655e-05 -96.59116639
178.29446 59.88709038 -150.0000974
0.0002150000537 23.22117398 82.26303761
0.0002150000537 7.723680884 5.150376614
15.441633 -2.498622655e-05 -138.3790734
0.0002150000537 9.930258954 -87.41964239
95.675385 -2.498622655e-05 -109.2527064
77.092933 -2.498622655e-05 -107.4911274
111.516543 7.900873534 149.9999026
56.793905 12.80244478 -144.0000974
110.035203 -2.498622655e-05 125.7138856
242.476399 -2.498622655e-05 12.07074161
48.740639 45.26385538 149.9999026
161.014457 8.121812124 -150.0000974
8.684466 66.26058008 143.9999026
88.487761 -2.498622655e-05 130.9212466
32.52886 -2.498622655e-05 121.0156736
214.280092 67.99997498 -147.1638254
29.114136 -2.498622655e-05 -131.9975234
175.590785 25.37509868 143.9999026
132.135154 -2.498622655e-05 108.8998586
53.773512 -2.498622655e-05 -13.44808439
229.978703 62.02538808 -150.0000974
35.798144 -2.498622655e-05 -48.31342439
42.853991 39.68028258 -150.0000974
85.065826 -2.498622655e-05 -78.27735039
3.600722 53.61678078 143.9999026
-0.2897029999 -2.498622655e-05 -106.8965054
165.513317 -2.498622655e-05 -85.74106239
0.0002150000537 31.01360588 -58.96127639
0.0002150000537 7.276208174 -71.13537539
238.449279 -2.498622655e-05 -68.88346239
210.896412 -2.498622655e-05 -40.96567939
242.966766 64.60122988 143.9999026
164.369338 -2.498622655e-05 41.55048861
118.720992 -1.963602966 -150.0000974
48.076906 58.25931288 143.9999026
158.370243 -2.498622655e-05 -29.13207739
95.152574 -2.498622655e-05 -99.41892739
162.478401 -2.498622655e-05 -105.3244124
60.198254 -2.498622655e-05 85.56575861
180.854168 -2.498622655e-05 -83.47427039
50.592204 -0.06774822623 -144.0000974
206.863819 6.237367994 -144.0000974
144.647332 26.34773448 -150.0000974
83.241488 -2.498622655e-05 67.91226361
203.803222 -2.498622655e-05 47.23391061
122.366164 -2.498622655e-05 73.37514761
0.0002150000537 26.29989838 -18.98457039
218.303721 44.62338198 143.9999026
125.045313 -2.498622655e-05 -6.423878386
162.48379 31.40085988 143.9999026
6.016352 4.810178684 -150.0000974
9.705943 60.06976998 -144.0000974
224.302935 -2.498622655e-05 92.69552361
204.883539 -2.498622655e-05 -84.96331039
246.039319 7.280070914 143.9999026
117.798713 54.47299768 -144.0000974
13.898587 -2.498622655e-05 -12.26842439
88.462653 -2.498622655e-05 26.17405361
61.78679 -2.498622655e-05 -104.2552424
229.117419 -2.498622655e-05 21.88102361
225.538618 64.40678548 149.9999026
120.056319 -2.498622655e-05 25.82876861
60.063018 66.77101878 -144.0000974
186.248148 1.726510314 149.9999026
243.347955 6.539021684 -150.0000974
59.090771 56.81897048 -150.0000974
0.0002150000537 40.84748138 -58.21368939
71.802932 43.15700948 -150.0000974
146.581163 40.82560998 149.9999026
102.348615 49.55055458 -150.0000974
37.761724 -2.498622655e-05 59.00418761
63.885396 64.17253038 149.9999026
0.0002150000537 38.12851798 -37.88369639
213.408188 19.26980478 -147.7076204
38.473002 -2.498622655e-05 -28.35458339
65.625531 2.892964844 -150.0000974
200.081949 41.49156948 149.9999026
82.866596 18.79284718 149.9999026
91.435786 48.15753118 149.9999026
137.666231 -2.498622655e-05 -121.7844264
-0.4128039999 49.99997498 -46.22297239
44.930991 -2.498622655e-05 5.899427614
130.312311 -2.498622655e-05 11.30265161
119.908981 -2.498622655e-05 -121.8832444
249.943702 32.18884138 -150.0000974
128.929907 36.50073898 143.9999026
171.679675 14.75236758 149.9999026
194.752083 67.99997498 144.2994156
101.837143 -2.498622655e-05 105.0585196
182.029988 -2.498622655e-05 -118.6288674
0.0002150000537 48.07162128 -18.25873339
19.564743 42.70606788 -144.0000974
199.155753 -2.498622655e-05 69.69839961
243.448714 -2.498622655e-05 137.3458646
175.076471 -2.498622655e-05 134.7762946
73.287128 31.64470648 149.9999026
230.220527 44.96184688 -144.0000974
92.271075 6.892490104 143.9999026
53.775787 15.95348508 149.9999026
63.314624 42.01412308 -144.0000974
248.350036 18.24348748 -150.0000974
182.386757 -2.498622655e-05 -68.80608639
198.364247 25.46647458 -150.0000974
192.052403 65.30197878 -144.0000974
212.309275 -2.498622655e-05 88.96526461
173.827776 -2.498622655e-05 107.1063426
67.258336 -2.498622655e-05 -55.01034139
108.811351 36.17321728 143.9999026
56.587961 4.599950794 -150.0000974
172.414402 -2.498622655e-05 76.07372761
157.879152 59.25610098 -150.0000974
247.79154 -2.498622655e-05 101.0133306
0.0002150000537 25.35517168 68.38194261
189.050559 -2.498622655e-05 -38.95829439
235.618034 37.80320058 -144.0000974
0.0002150000537 44.64264618 107.7992686
214.697001 -2.498622655e-05 80.00088061
18.677779 9.612111024 149.9999026
172.746433 -0.7830428862 149.9999026
32.18938 -2.498622655e-05 -85.06503039
43.88653 31.61550968 -144.0000974
132.542038 21.98312878 143.9999026
201.213296 -2.498622655e-05 -26.59741039
0.0002150000537 35.92377488 -88.82284439
107.571427 36.89030428 -144.0000974
203.890565 -2.498622655e-05 11.73154961
105.385339 19.14888058 149.9999026
0.0002150000537 20.30150098 -124.6988434
0.0002150000537 1.690592974 66.31910061
0.0002150000537 16.48928498 91.37245861
241.222202 -2.498622655e-05 48.14483161
138.479106 -2.498622655e-05 79.77170461
0.0002150000537 38.82327248 -6.144420386
202.8101 -2.498622655e-05 87.96143261
141.696994 -2.498622655e-05 -23.83192839
222.362471 54.28649608 -144.0000974
145.82731 -2.498622655e-05 -135.2008254
40.280119 4.500188694 149.9999026
185.246803 -2.498622655e-05 13.26366461
49.276431 -2.498622655e-05 -36.50722939
192.076629 9.387025434 -150.0000974
1.868929 47.86006588 -150.0000974
202.039564 -2.498622655e-05 35.89670461
16.625768 -2.498622655e-05 -118.1323634
181.976111 6.430051304 -144.0000974
224.850619 1.599106954 -150.0000974
209.927343 -2.498622655e-05 -50.69791639
0.0002150000537 28.84970868 -71.11550739
10.115927 -2.498622655e-05 -37.12010139
223.830094 -2.498622655e-05 13.46953761
250.779977 -2.498622655e-05 121.5230336
235.435703 -2.498622655e-05 107.7409746
28.987781 29.47898188 149.9999026
131.919015 -2.455817846 143.9999026
0.0002150000537 22.57534858 101.2286296
20.226754 -2.498622655e-05 -85.47494139
172.292775 53.97801778 149.9999026
48.867053 4.503849484 143.9999026
102.021479 58.22934378 -144.0000974
153.826301 -2.498622655e-05 -141.1965544
239.307808 -2.498622655e-05 -54.52582739
92.978748 39.58104318 143.9999026
24.56671 1.078303124 -150.0000974
206.280812 23.78770038 149.9999026
160.272539 9.502792944 149.9999026
126.337879 19.35721848 149.9999026
194.02042 -2.498622655e-05 -14.64566639
78.70469 66.12492858 143.9999026
-1.929825 43.63832258 149.9999026
88.584686 -2.498622655e-05 -86.24258039
62.609683 -2.498622655e-05 106.7883546
230.123368 10.33499376 143.9999026
188.114597 29.69209798 -144.0000974
31.140042 1.112885354 143.9999026
219.728685 48.60300168 -150.0000974
226.017221 32.15044718 -144.0000974
205.702598 65.08370068 149.9999026
48.622201 49.60985178 -150.0000974
97.423181 -2.456729646 -150.0000974
123.646795 48.32757398 143.9999026
47.133144 18.91066748 143.9999026
229.701116 -2.498622655e-05 127.9695006
86.812826 58.76795028 149.9999026
207.413682 50.55608558 -144.0000974
39.133081 9.801522494 -144.0000974
91.052291 -2.498622655e-05 118.0311556
185.275749 -2.498622655e-05 -17.06691139
168.56131 -2.498622655e-05 4.320967614
31.610685 46.64363668 149.9999026
116.776174 4.740743924 143.9999026
183.095787 13.92429838 143.9999026
238.182134 -0.6423194862 -150.0000974
240.878632 -2.498622655e-05 -35.93508639
61.128869 -2.498622655e-05 -21.71678239
19.506921 17.71930518 143.9999026
243.162315 -2.498622655e-05 3.546378614
130.069027 -2.498622655e-05 -51.24310639
250.400514 -1.299465916 -150.0000974
12.033741 52.26333188 143.9999026
241.489204 -2.498622655e-05 -96.09482839
210.190033 -2.498622655e-05 22.81964861
18.456902 38.65406868 149.9999026
123.011357 -2.498622655e-05 -62.44776139
113.26881 -2.498622655e-05 52.01582761
175.199567 23.20330348 -144.0000974
120.14141 -2.498622655e-05 43.07707961
164.275777 49.17790688 149.9999026
237.767324 54.02721178 -150.0000974
225.570546 -2.498622655e-05 -99.68797639
59.857575 4.824811134 149.9999026
87.966878 67.24024448 -150.0000974
199.704712 10.75826148 -144.0000974
236.996019 -2.498622655e-05 76.79252861
152.537697 18.58936928 -150.0000974
148.045445 4.592026684 149.9999026
111.564715 -2.498622655e-05 -95.76329139
138.494498 35.20146238 -144.0000974
7.51208 -2.498622655e-05 -103.7113534
176.282051 54.32768458 -144.0000974
111.136309 -2.498622655e-05 -44.72664839
239.974578 -2.498622655e-05 84.64580361
22.000645 22.01564028 -150.0000974
22.052135 -2.498622655e-05 -106.5250484
101.961241 43.69915508 -144.0000974
6.622184 16.98051618 149.9999026
227.211243 -1.689301116 143.9999026
77.561495 0.2312315938 -144.0000974
26.819006 46.47923208 -150.0000974
0.0002150000537 38.57030328 94.06979761
99.402111 60.83945348 143.9999026
114.074141 42.70582258 -150.0000974
0.0002150000537 8.418519334 56.33981661
165.900421 36.54547698 -150.0000974
62.262047 20.96906358 149.9999026
177.716621 62.98950758 149.9999026
85.503379 19.92731648 -144.0000974
158.205197 -2.498622655e-05 -92.44643939
0.0002150000537 28.84148808 137.7815346
232.769807 21.87334578 143.9999026
148.38631 -2.498622655e-05 -57.20149139
170.687129 -2.498622655e-05 -103.4925604
0.0002150000537 18.39533578 21.67245261
132.281425 30.32968128 -150.0000974
101.3396 -2.498622655e-05 -19.27955539
227.439667 13.01330578 -144.0000974
48.460495 -2.498622655e-05 -27.53008739
32.160565 -2.498622655e-05 83.23979461
0.0002150000537 41.79199648 81.36413661
35.785797 -2.498622655e-05 137.2444516
86.332705 -2.498622655e-05 50.12413261
118.960967 56.18532168 149.9999026
0.0002150000537 5.659958614 -24.22175639
145.967034 31.54322858 149.9999026
109.616942 -2.498622655e-05 79.57363961
177.694806 43.71978498 -144.0000974
247.649121 -2.498622655e-05 -31.24214739
32.228324 67.08850788 -150.0000974
198.46674 56.08937968 149.9999026
0.0002150000537 3.009061664 114.9404196
158.305686 -2.498622655e-05 -120.5665434
151.832739 -2.498622655e-05 137.3712536
95.940554 -2.498622655e-05 -128.2741844
4.192599 -2.498622655e-05 -122.3245924
0.0002150000537 9.108063304 35.55575661
211.077943 33.83410188 -144.0000974
53.875333 41.34586068 -150.0000974
206.236977 33.52285008 143.9999026
123.615178 67.99997498 147.4293466
0.0002150000537 38.32104568 -129.5512614
0.0002150000537 7.534526324 93.80231761
193.190942 -2.498622655e-05 -94.62689339
130.930658 44.42694548 143.9999026
139.276312 -2.498622655e-05 27.25345161
64.741191 8.455102624 143.9999026
45.919998 -2.498622655e-05 123.3861246
80.072138 9.485085244 149.9999026
27.15642 -2.498622655e-05 64.98706061
146.718005 58.66046978 149.9999026
247.691233 40.30596168 143.9999026
0.0002150000537 19.09928638 45.33131161
136.512313 53.95796488 -144.0000974
249.083444 -2.498622655e-05 32.01955961
45.410297 64.90154678 -144.0000974
185.806843 25.12578688 143.9999026
22.855071 -2.192147376 143.9999026
232.022646 0.9408044338 149.9999026
75.842948 -2.498622655e-05 104.6932666
138.298083 25.39883308 149.9999026
33.771482 60.81818308 149.9999026
184.937958 52.68765148 -144.0000974
217.837777 -2.498622655e-05 -116.9633254
217.20969 6.970904594 149.9999026
0.0002150000537 10.2787922 -95.49605439
101.010261 -2.498622655e-05 5.996967614
177.931333 -2.498622655e-05 69.62021761
62.13625 -2.498622655e-05 41.11163561
202.574061 -2.498622655e-05 -113.0057174
90.043723 42.45308098 -144.0000974
78.678754 9.155955484 -144.0000974
-2.333377 49.99997498 125.9897766
89.896571 1.126157304 149.9999026
154.729485 66.73772608 149.9999026
108.872924 -2.498622655e-05 60.58980961
92.087547 -2.498622655e-05 -116.4226904
18.340794 -2.498622655e-05 63.52872061
109.068444 -0.6892090962 149.9999026
200.594743 -0.9753896862 143.9999026
92.988623 -2.498622655e-05 56.54199761
211.383574 -2.498622655e-05 141.0005206
90.01606 15.22184598 149.9999026
136.597593 18.59117948 -150.0000974
107.065359 20.77984938 -144.0000974
205.224696 -2.498622655e-05 128.7921936
147.990241 45.31208408 -150.0000974
242.381821 56.37984928 143.9999026
53.547481 33.57825888 143.9999026
64.888866 -2.498622655e-05 97.06922961
122.606903 28.39813888 149.9999026
52.952773 -2.498622655e-05 -133.0778124
194.912849 36.71453048 143.9999026
53.054313 -2.498622655e-05 2.319176614
118.148312 42.60560818 143.9999026
76.240374 -2.498622655e-05 -79.26900539
72.709752 42.58066498 149.9999026
57.563881 36.44387348 -144.0000974
15.821545 -2.498622655e-05 83.69469661
119.606333 20.94405958 -150.0000974
230.981745 37.46308158 149.9999026
174.687957 -2.498622655e-05 11.90524761
20.467434 -2.498622655e-05 114.7823626
117.01924 -2.498622655e-05 -21.68196939
39.763307 67.99867488 143.9999026
150.556855 -2.498622655e-05 30.61039361
122.24583 49.95990398 -150.0000974
8.093463 -2.498622655e-05 -68.40440139
211.27399 18.60473208 143.9999026
239.989501 -2.498622655e-05 98.08965361
28.068735 -2.498622655e-05 -22.33884639
223.772624 -2.498622655e-05 -13.63763939
158.467117 20.01265018 143.9999026
92.496509 -2.498622655e-05 -37.02124039
68.904603 -2.498622655e-05 82.14919061
101.298247 40.11774708 149.9999026
143.480448 36.20817768 -150.0000974
247.178226 12.23738408 149.9999026
62.160287 26.91688648 -144.0000974
250.239472 45.38564178 -150.0000974
91.767904 52.97836818 -150.0000974
118.884365 45.52658628 -144.0000974
110.429853 -2.498622655e-05 -68.88017039
0.0002150000537 24.23578658 51.68590861
33.479564 38.84802578 -150.0000974
53.99684 -2.498622655e-05 -107.8777224
3.361507 7.142389314 143.9999026
168.757415 61.76089728 143.9999026
33.735703 -2.498622655e-05 -109.0228904
154.721418 53.86081338 149.9999026
104.746434 -2.498622655e-05 -61.69798939
101.406648 -2.498622655e-05 88.25872461
69.653146 57.25259308 149.9999026
155.595552 30.89125218 -144.0000974
149.578233 -2.498622655e-05 15.92249961
209.612445 -2.498622655e-05 3.655965614
26.85972 -2.498622655e-05 -121.9195354
49.383666 -2.498622655e-05 101.9015976
48.609769 -2.498622655e-05 43.47581161
137.893469 -2.498622655e-05 -49.53204539
27.22681 -2.498622655e-05 73.95563861
107.030192 7.886271884 -144.0000974
151.257077 5.648752374 -150.0000974
244.393237 -2.498622655e-05 -105.6400834
158.389972 -2.498622655e-05 105.4625766
-1.505116 15.62651048 149.9999026
81.885078 31.95296918 -144.0000974
134.5157 -2.498622655e-05 -94.72481839
187.874134 12.82642508 149.9999026
0.0002150000537 2.312984374 -86.07808239
0.0002150000537 28.76540618 -11.65942239
0.0002150000537 17.55052598 -11.16864139
224.48697 -2.498622655e-05 70.83664561
69.543965 0.01231344377 -144.0000974
-0.07461099995 6.170012244 126.6723276
0.0002150000537 1.428082294 -39.89266139
184.49626 -2.498622655e-05 98.78281461
61.421732 -2.498622655e-05 -121.4653434
225.885241 -2.498622655e-05 -56.58815739
26.133746 -2.498622655e-05 20.28526561
136.883787 5.706987174 -144.0000974
162.250799 61.30736488 -144.0000974
122.304022 -2.498622655e-05 -30.49874239
130.849526 57.28523538 143.9999026
102.220792 49.46007008 149.9999026
62.910867 34.63020918 143.9999026
39.143094 56.17032528 143.9999026
10.064488 21.51895998 143.9999026
55.364786 -2.498622655e-05 130.6481446
103.048062 -2.498622655e-05 128.8668696
72.571749 -2.498622655e-05 35.12968361
200.915262 -2.498622655e-05 112.9344996
26.415829 8.405165194 143.9999026
24.525473 -2.498622655e-05 -36.93279839
0.0002150000537 9.334733554 -63.76893139
27.655263 35.09212408 -144.0000974
64.08346 48.77889818 143.9999026
156.246563 25.30333568 149.9999026
41.020658 -2.498622655e-05 -42.76098639
150.170378 -2.498622655e-05 -85.68720839
0.0002150000537 27.18274378 34.49970461
190.455883 -2.498622655e-05 113.2277316
19.567125 -2.498622655e-05 -6.041779386
48.330672 44.33618798 -144.0000974
57.683744 -2.498622655e-05 -49.42732439
24.566315 60.37632298 -150.0000974
49.599023 15.23545838 -144.0000974
6.999698 26.33830968 -144.0000974
6.267852 -2.498622655e-05 39.68914561
144.998223 66.63645428 -150.0000974
3.553913 55.59014008 -144.0000974
95.956432 29.05474038 -150.0000974
146.401337 -2.498622655e-05 60.13317561
173.182527 47.53839568 143.9999026
0.0002150000537 34.23715438 5.492955614
41.700111 -2.498622655e-05 68.76203361
7.103995 14.68611118 -144.0000974
156.187145 -2.498622655e-05 57.56643161
47.885524 49.75685278 143.9999026
149.019446 25.01063548 -144.0000974
139.891408 0.9318783638 -150.0000974
25.61933 26.40143558 143.9999026
175.972383 -2.498622655e-05 31.42318461
137.092524 14.98474818 143.9999026
155.129445 1.524537944 143.9999026
87.458153 -2.498622655e-05 96.56468161
243.379219 2.689661354 149.9999026
104.813409 -1.960804856 -144.0000974
12.614342 43.92370518 143.9999026
152.715006 34.63241078 -150.0000974
21.843826 8.198810884 -144.0000974
237.813148 18.53137928 -150.0000974
-0.4571409999 -2.498622655e-05 -47.71715139
40.953103 25.36235278 143.9999026
132.684667 11.79825724 149.9999026
53.294972 61.34831058 149.9999026
0.0002150000537 9.024404154 -79.99728439
228.739095 30.93067538 143.9999026
194.020133 24.45532198 -144.0000974
151.623471 -2.498622655e-05 -24.90103039
134.639961 -2.498622655e-05 46.81990461
213.33723 10.11059745 -147.5847094
230.800941 57.39074318 143.9999026
64.29993 -2.498622655e-05 -135.9311994
81.228093 17.74982908 -150.0000974
106.654867 42.03270878 -150.0000974
117.245747 -2.498622655e-05 -105.6504564
250.970136 26.99560548 143.9999026
11.787136 -0.4329032962 -150.0000974
237.257043 -2.498622655e-05 -142.6040274
229.324901 24.70268878 -144.0000974
0.0002150000537 43.27482188 -69.85814639
209.076003 60.94322698 -150.0000974
242.132788 20.33167498 149.9999026
0.0002150000537 15.10091108 -109.5761384
208.275287 -2.498622655e-05 58.96141661
241.234032 -2.498622655e-05 34.50271661
142.023189 -2.498622655e-05 133.6145456
118.162739 48.79565578 149.9999026
235.272142 -2.498622655e-05 1.961404614
135.79514 -2.498622655e-05 -14.66320939
165.733042 -2.498622655e-05 -134.2553824
181.598584 -2.498622655e-05 -23.49020839
163.714811 14.55252108 -144.0000974
182.062304 50.28960128 149.9999026
170.123942 44.24240898 -144.0000974
69.148533 -2.498622655e-05 -106.1184394
46.771652 28.49311508 -150.0000974
139.875355 -2.498622655e-05 -105.6830744
203.128545 33.35222648 -144.0000974
177.827555 15.85755628 -144.0000974
187.245115 22.31926818 -150.0000974
60.600479 51.99608298 -144.0000974
99.075575 -2.498622655e-05 142.5312906
198.673576 -2.498622655e-05 -120.5848954
55.60465 37.22979748 149.9999026
121.740526 -2.498622655e-05 64.58943761
239.472785 -2.498622655e-05 22.51627161
0.0002150000537 30.73796108 17.14071361
28.530367 30.67923728 -150.0000974
59.837604 -2.498622655e-05 -63.03019139
123.705076 21.81544498 -144.0000974
171.42664 57.40689448 -150.0000974
130.868879 50.26606938 149.9999026
71.60054 2.865542744 143.9999026
25.158811 50.26744488 -144.0000974
41.012282 37.28115898 149.9999026
234.038509 -2.498622655e-05 -29.85744339
236.714367 27.20705688 -150.0000974
17.363139 57.21768928 143.9999026
126.029689 14.40476598 143.9999026
193.009309 30.41870468 -150.0000974
201.689258 30.41643368 149.9999026
229.648293 -2.498622655e-05 -116.4588884
31.587627 -2.498622655e-05 29.25006361
195.388509 38.34531098 -144.0000974
70.349695 17.14509768 143.9999026
0.0002150000537 40.64114488 18.75864861
220.321411 41.30366608 -144.0000974
246.07416 61.99955358 149.9999026
179.450646 -2.498622655e-05 -104.8981484
191.920092 0.2499750138 -145.3608014
7.222616 -2.498622655e-05 -96.11027639
187.323632 -2.498622655e-05 124.2086876
143.359566 15.47135388 149.9999026
172.161763 -2.498622655e-05 -81.05618639
86.38975 -2.498622655e-05 -54.94182639
241.906142 66.55501528 -144.0000974
90.496257 -1.793600166 -144.0000974
41.364668 -2.498622655e-05 -120.3558034
220.118163 5.991820734 -144.0000974
0.0002150000537 23.32835978 93.62577961
92.116373 56.94220968 -144.0000974
14.611708 22.04563418 -150.0000974
61.63856 -2.498622655e-05 19.77178361
58.961299 -2.498622655e-05 31.25722361
72.414171 -2.498622655e-05 -118.6173824
130.952189 21.99744208 -144.0000974
53.637325 60.65504658 -144.0000974
56.604729 -2.498622655e-05 116.9039066
0.1398760001 58.71688148 149.9999026
181.8566 35.00743838 -144.0000974
107.357963 67.99997498 145.6203296
67.183928 -2.498622655e-05 134.8351836
172.330464 -2.498622655e-05 126.7839936
117.03723 -2.498622655e-05 127.0798286
41.153862 53.77294688 -144.0000974
175.075812 65.79114278 143.9999026
89.517262 7.755522314 -150.0000974
0.0002150000537 4.879315684 100.5531656
227.906726 39.73113258 143.9999026
157.236891 41.97883718 143.9999026
168.321797 -2.498622655e-05 15.28711961
116.977109 63.77281318 149.9999026
63.4153 67.99997498 144.0442956
100.783129 10.01900905 143.9999026
216.565203 25.67892168 -150.0000974
53.953575 -2.498622655e-05 60.51977161
137.053882 35.97705368 149.9999026
46.980701 38.38033078 143.9999026
36.290389 36.36879238 -144.0000974
47.936164 -2.498595076 143.9999026
243.4819 24.89268578 -144.0000974
219.105401 -2.498622655e-05 87.05146861
0.0002150000537 25.79304048 -45.11759739
111.533034 -2.498622655e-05 15.41369961
0.0002150000537 20.11866908 -117.6560454
-0.08326299995 49.99997498 -121.8187364
121.789666 -0.2022873262 143.9999026
190.407961 60.50704648 143.9999026
140.759065 28.11841248 143.9999026
111.228882 5.884105084 -150.0000974
234.792513 -2.498622655e-05 37.35732161
186.274902 -2.498622655e-05 34.35301461
234.056728 49.82190748 143.9999026
26.453506 -2.498622655e-05 -67.87996739
5.581194 -2.498622655e-05 81.35216961
146.681419 -2.498622655e-05 -38.50199839
-0.7471849999 34.30881168 142.9999026
0.0002150000537 20.43757398 -132.6828414
31.382564 32.20517658 143.9999026
174.544781 -2.498622655e-05 -8.203737386
79.788809 -2.498622655e-05 98.91642061
40.010649 -2.498622655e-05 40.55689161
114.295225 24.60683888 149.9999026
87.762368 -2.498622655e-05 10.52049861
172.23773 65.86170418 -150.0000974
0.0002150000537 45.54942318 93.97999361
69.77297 33.38394538 143.9999026
127.73665 1.208798224 -144.0000974
210.254648 -2.498622655e-05 -139.6508624
98.994624 -2.498622655e-05 -53.13202539
128.791566 -2.498622655e-05 -89.41218139
145.544865 9.054125404 143.9999026
245.537351 46.11820208 149.9999026
60.502994 -2.498622655e-05 -111.1455904
193.619158 -2.498622655e-05 -21.75842439
6.186775 64.13282398 -150.0000974
187.470847 65.07767518 149.9999026
223.577228 15.21680758 -150.0000974
120.350942 -2.498622655e-05 -45.84934139
69.639282 -2.498622655e-05 -4.994235386
209.069417 -2.498622655e-05 -62.84038039
182.898829 27.37677448 149.9999026
234.042265 46.17908348 149.9999026
210.470156 47.99292248 -149.6488244
153.743112 41.59859408 -144.0000974
143.093231 -2.498622655e-05 -117.4998874
184.531647 37.15017838 -150.0000974
74.468403 66.34930328 -144.0000974
170.473191 28.73243078 -150.0000974
244.819497 -1.238120236 143.9999026
249.730569 15.12155828 -144.0000974
34.086268 38.99587518 143.9999026
-1.854119 -2.498622655e-05 -70.40175939
218.757883 -2.498622655e-05 102.9592146
243.939759 13.84874668 143.9999026
14.636102 13.82426308 -144.0000974
226.034284 -2.498622655e-05 -38.26420739
153.196616 -2.498622655e-05 128.2611506
90.43719 25.23770568 -144.0000974
155.026892 21.66946958 -144.0000974
98.929228 53.98270828 143.9999026
17.956056 67.99997498 -145.5254994
96.566264 4.912044884 149.9999026
34.221449 -0.1287212962 149.9999026
61.490997 -2.498622655e-05 56.31802961
182.268335 -2.498622655e-05 -51.64477039
93.603132 -2.498622655e-05 -137.1533744
178.117556 -2.498622655e-05 101.2652126
80.148381 42.99641218 143.9999026
-0.8861489999 -2.498622655e-05 25.89554961
127.525811 35.38442668 -150.0000974
115.915739 58.64820918 143.9999026
195.881795 64.42686598 149.9999026
91.782141 15.37912498 -144.0000974
221.143394 13.01320138 149.9999026
5.958347 -2.498622655e-05 -29.43120239
21.731603 56.45435368 -144.0000974
139.493863 66.00642428 143.9999026
192.002221 -2.498622655e-05 -131.4185794
123.783107 14.34056318 -150.0000974
67.474154 14.88170948 149.9999026
144.987143 24.27097838 149.9999026
1.958578 65.38188048 143.9999026
0.0002150000537 12.34006058 99.64613561
17.963713 58.83627358 -150.0000974
34.862461 -2.498622655e-05 98.91167561
146.13571 -2.498622655e-05 35.74962461
220.761979 -2.498622655e-05 -89.27758139
236.014005 42.34389068 143.9999026
0.0002150000537 43.51935828 -88.14899939
9.836098 5.192428524 143.9999026
78.936156 -2.498622655e-05 -15.28295639
191.964495 37.72705048 149.9999026
0.0002150000537 25.81919688 -138.0720094
90.106282 34.04432868 -150.0000974
108.632312 -2.498622655e-05 -75.96447239
151.233836 -2.498622655e-05 -77.41491439
171.725278 -2.498622655e-05 -32.00080239
0.0002150000537 49.29407518 -139.0824474
189.21842 0.9887791038 143.9999026
0.0002150000537 5.138503444 -111.2395654
24.364616 67.99997498 148.0906036
224.384572 46.29951998 149.9999026
243.332843 -2.498622655e-05 65.22557361
196.418956 63.36872868 -150.0000974
159.22318 -2.498622655e-05 45.88363261
215.901945 46.47679618 149.9999026
189.857899 50.71771388 -150.0000974
0.0002150000537 9.431243054 112.9629136
210.027706 59.94158288 149.9999026
0.0002150000537 19.31020268 135.9462046
73.147757 -2.498622655e-05 128.9540546
149.786374 35.60676198 143.9999026
150.039106 19.67088428 143.9999026
167.949791 -2.498622655e-05 -2.353287386
109.256788 -2.498622655e-05 138.3712906
182.183048 -2.498622655e-05 -2.717868386
0.1891660001 -2.498622655e-05 89.75008161
138.834892 47.94696398 143.9999026
182.138057 51.28829628 -150.0000974
137.398637 62.74156548 149.9999026
196.228282 22.00183188 149.9999026
208.945648 -2.498622655e-05 73.72714661
68.871633 -2.498622655e-05 -70.58303039
117.782046 -2.498622655e-05 -140.5599594
0.0002150000537 46.08141418 53.97464761
181.235092 -2.498622655e-05 112.7807356
175.501185 22.50004168 149.9999026
16.942282 28.83344918 143.9999026
150.811215 -2.498622655e-05 0.5143086142
5.663613 -2.498622655e-05 -81.68261839
0.0002150000537 42.84220598 -124.5882424
102.827326 -2.498622655e-05 -12.26247539
137.027282 -2.498622655e-05 -33.86387239
135.053583 -2.498622655e-05 16.58815261
92.799829 23.21495568 -150.0000974
125.647288 -2.498622655e-05 -114.8056264
4.825577 67.99997498 149.3764856
98.091887 54.96847218 -150.0000974
94.966941 -2.498622655e-05 105.1697826
207.405164 0.6094045438 -150.0000974
176.843057 41.06116478 -150.0000974
219.041422 63.85307198 143.9999026
64.095704 -2.498622655e-05 63.49726161
80.548987 31.29110328 149.9999026
248.700404 61.16875858 143.9999026
200.767533 -2.498622655e-05 94.23128761
174.245199 -2.498622655e-05 113.7466396
62.747514 0.2586865238 143.9999026
134.877155 -0.5670056362 -144.0000974
219.035741 4.960033464 143.9999026
53.104479 -2.498622655e-05 51.35651261
175.181188 -2.498622655e-05 -47.27890839
199.248259 -2.498622655e-05 126.0304786
0.0002150000537 29.95499278 -125.0642224
226.838886 4.126895474 -144.0000974
176.622343 2.610914814 -144.0000974
220.753744 -2.498622655e-05 -123.3515574
99.975837 -2.498622655e-05 -46.01484639
153.434019 11.95696432 149.9999026
126.281197 49.09004838 -144.0000974
185.474676 7.804972884 143.9999026
15.513112 -2.498622655e-05 57.60375361
203.710163 -2.498622655e-05 27.36202261
78.754307 -2.131011986 -150.0000974
169.285383 55.85510298 -144.0000974
178.720593 35.88977468 143.9999026
133.511605 45.69660308 -144.0000974
120.077419 16.57899178 149.9999026
108.537651 58.82581078 -144.0000974
50.112164 6.704465174 -144.0000974
34.341991 -2.498622655e-05 52.61045761
22.344212 46.48018898 149.9999026
9.185859 40.56818948 149.9999026
209.913435 15.18873878 -144.0000974
26.183796 51.04412948 143.9999026
24.458725 40.72059088 143.9999026
167.459778 -2.498622655e-05 32.52498461
243.105883 57.72389958 -144.0000974
240.936959 -2.498622655e-05 71.60982661
8.160116 -2.498622655e-05 -111.9114404
180.588358 -2.498622655e-05 138.2350366
82.616009 -2.498622655e-05 126.9322546
110.086161 27.46945378 -144.0000974
132.890122 -2.498622655e-05 35.97802261
172.39247 -2.498622655e-05 -67.86446239
103.717781 40.73687148 143.9999026
31.266149 -2.498622655e-05 -141.8080484
136.983031 40.64040898 143.9999026
233.661141 -0.9664461262 143.9999026
194.550722 -2.498622655e-05 -35.51534839
92.720209 -2.498622655e-05 17.61722061
238.812648 34.09411638 149.9999026
0.0002150000537 31.80783538 57.64908061
20.344992 -2.498622655e-05 -112.7755374
22.063018 42.08909638 -150.0000974
20.88586 -2.498622655e-05 89.50628661
156.793962 52.98028198 -144.0000974
225.913336 -2.498622655e-05 137.5329326
0.0002150000537 38.51642048 0.6455456142
88.960055 61.60914598 143.9999026
133.111653 67.99997498 -149.4805974
78.655019 -2.498622655e-05 -71.59924639
66.293993 31.87464988 -144.0000974
201.10055 66.57714078 -144.0000974
60.15899 25.65140868 -150.0000974
170.270325 31.93291058 143.9999026
219.40037 -2.498622655e-05 123.3155756
8.024442 -2.498622655e-05 -5.349971386
82.835477 39.85967218 -144.0000974
227.69148 -2.498622655e-05 41.57442661
83.570094 -2.498622655e-05 61.49311361
31.744863 5.801786054 149.9999026
0.0002150000537 11.36830018 -12.90139339
185.28297 56.64807508 143.9999026
0.0002150000537 38.30637108 -80.79806439
31.140876 11.10115745 -150.0000974
94.855419 -2.498622655e-05 25.69755361
-1.269098 35.13186178 -143.0000974
251.193598 -2.498622655e-05 60.39979561
8.593709 4.200208074 -144.0000974
130.707908 55.32234228 -150.0000974
8.613328 59.86693088 143.9999026
17.58198 7.696628124 143.9999026
76.727239 -2.498622655e-05 138.3016766
20.714472 35.58310918 -144.0000974
164.988041 67.99997498 -145.9572044
88.970063 49.55319038 -144.0000974
6.505327 59.22036608 149.9999026
15.349081 -2.498622655e-05 29.73931461
35.986122 50.32534648 -150.0000974
128.681058 -2.498622655e-05 72.52758861
94.836977 47.31702978 -150.0000974
122.21447 -2.498622655e-05 10.14335861
57.966343 -2.498622655e-05 136.6222846
0.0002150000537 9.043172704 -38.44618239
176.811133 21.85538808 -150.0000974
51.831062 50.81921108 149.9999026
190.27988 66.42544148 -150.0000974
130.45498 -2.498622655e-05 -63.01407339
30.558291 -2.498622655e-05 127.0523796
229.084234 54.31470968 -144.0000974
152.35653 -2.498622655e-05 -14.14024339
89.521326 5.684168604 -144.0000974
125.777881 -2.498622655e-05 -25.18816039
16.685986 17.91335908 149.9999026
236.875026 7.807929034 143.9999026
170.829179 -1.411255796 143.9999026
252.372649 -0.9251426262 -144.0000974
225.847476 -2.498622655e-05 27.29718761
0.0002150000537 28.17240628 -64.83467039
86.074444 67.79177238 -144.0000974
250.589977 63.55452238 -150.0000974
196.444817 3.782289394 143.9999026
197.091891 -2.498622655e-05 -109.0013814
97.925364 29.06138028 149.9999026
165.583787 -2.498622655e-05 82.20189561
18.898675 -2.498622655e-05 78.18465361
138.290444 62.71133618 -150.0000974
170.9292 55.34767928 143.9999026
86.517494 -2.498622655e-05 -92.19357539
93.943704 16.94009748 -150.0000974
193.741438 39.28119488 -150.0000974
0.0002150000537 15.79223488 -71.73503739
186.644322 11.80279713 -144.0000974
206.788081 25.78299388 143.9999026
0.1050670001 -2.498622655e-05 -127.1045874
0.0002150000537 35.90568858 79.14973461
237.006216 -2.498622655e-05 8.542234614
0.0002150000537 28.97380368 106.9516426
179.881583 40.60776968 149.9999026
156.792103 4.780596524 -144.0000974
175.737851 -2.498622655e-05 -40.59492839
242.164854 62.54709238 -150.0000974
0.0002150000537 44.42035678 28.03612561
30.326749 19.38558038 -150.0000974
39.286881 -2.498622655e-05 -58.11023139
42.617438 -2.498622655e-05 0.07023661418
107.871594 51.04585968 143.9999026
0.0002150000537 6.551695744 -17.04369039
229.728002 67.99997498 -148.1324734
62.592605 40.36636558 -150.0000974
82.382822 -2.498622655e-05 -133.7570054
179.705999 60.99737878 -144.0000974
131.453867 67.99997498 148.0274266
112.060838 17.00407158 -144.0000974
125.092535 -2.498622655e-05 16.94436161
99.803248 -2.498622655e-05 73.14663861
0.0002150000537 3.609480304 -8.512825386
-0.6443089999 21.82105758 149.9999026
3.874629 -2.498622655e-05 96.36331561
181.336144 -2.498622655e-05 -124.8353284
0.0002150000537 28.20454288 3.879394614
179.289525 -2.498622655e-05 82.82502561
216.335882 -2.498622655e-05 73.98353561
128.341117 -2.498622655e-05 -11.71677639
30.615493 46.59253808 -144.0000974
0.0002150000537 46.80979798 19.81253461
106.69685 29.46001358 -150.0000974
12.764299 -2.498622655e-05 39.96285461
183.839702 25.16135178 -144.0000974
15.256861 54.38612018 149.9999026
101.32111 52.04229638 -144.0000974
0.0002150000537 15.86644668 8.956698614
89.367353 25.44205348 149.9999026
11.884715 21.87402248 149.9999026
176.071868 48.60296898 149.9999026
215.330795 52.93558978 -144.0000974
229.726553 -2.498622655e-05 65.20885961
90.819349 32.24047748 143.9999026
94.294513 -2.498622655e-05 128.7010526
6.058998 45.89520628 143.9999026
117.012331 -2.498622655e-05 -56.81718139
245.633145 5.696305184 -144.0000974
200.06186 3.308943724 -144.0000974
55.381739 -2.498622655e-05 -35.41910839
200.660119 27.08438188 -144.0000974
0.0002150000537 35.64107298 33.35564161
89.147907 -2.498622655e-05 69.78164461
201.151211 49.84678088 149.9999026
135.527492 -2.498622655e-05 53.01684061
222.228167 60.47107878 -144.0000974
224.32841 65.63336928 -150.0000974
117.009204 56.75229468 -150.0000974
104.800371 -2.498622655e-05 -131.3780854
215.97571 -2.498622655e-05 -110.1071964
171.540981 18.22146928 -144.0000974
-2.137056 49.99997498 -77.53932739
146.965556 49.03611558 149.9999026
104.512252 67.29473558 -150.0000974
132.258628 39.05652668 -144.0000974
11.392851 -2.498622655e-05 -53.58470539
78.751913 -2.498622655e-05 11.08309961
203.961806 43.58581308 -150.0000974
40.607894 5.877019454 143.9999026
143.07099 49.79543168 -144.0000974
218.802631 62.23644978 149.9999026
37.870845 15.09056368 149.9999026
104.764962 13.02500288 149.9999026
182.16383 -2.498622655e-05 -62.65941939
81.330362 -2.498622655e-05 -63.04467439
223.426982 17.67219808 -144.0000974
105.850523 8.859451524 -150.0000974
192.961324 -2.498622655e-05 42.52203061
118.96516 -2.498622655e-05 112.8685616
58.942557 21.68879898 -144.0000974
244.919482 67.99997498 149.4223476
114.937899 12.17300018 -150.0000974
127.577525 -2.498622655e-05 97.57265361
196.033778 -2.498622655e-05 19.18550761
148.658797 53.75723118 143.9999026
209.614218 43.33987328 143.9999026
0.0002150000537 49.87050608 140.7644496
141.283605 -2.498622655e-05 124.1914246
211.702797 -2.498622655e-05 -122.8230344
175.957158 66.18938848 -144.0000974
114.12383 -2.498622655e-05 64.80993461
140.592898 -2.498622655e-05 -55.86601539
140.827052 -2.498622655e-05 -138.7045134
197.588937 5.289760154 149.9999026
15.294038 -1.061944336 143.9999026
164.720469 15.01541728 -150.0000974
0.0002150000537 43.58873108 -136.9279504
90.372643 47.92046318 143.9999026
109.665886 36.73126128 -150.0000974
199.914345 -2.498622655e-05 77.81707961
166.796581 -2.498622655e-05 -123.1264184
20.032796 51.74673358 143.9999026
45.453746 65.91270638 -150.0000974
166.263713 -2.498622655e-05 -73.56357839
60.521445 67.64301938 -150.0000974
96.599616 36.14635118 -144.0000974
0.0002150000537 35.31116098 -54.66604939
10.836766 67.43367878 149.9999026
79.979922 47.64619028 149.9999026
23.20971 -2.498622655e-05 4.538093614
66.349302 10.59192176 -150.0000974
234.47505 -2.498622655e-05 -88.00568939
0.0002150000537 29.08468068 -110.2152264
81.888314 -2.498622655e-05 105.0221756
176.381773 -2.498622655e-05 -97.14394639
23.792642 16.11966858 -150.0000974
0.0002150000537 43.44258778 -76.59816539
44.24309 32.16636798 149.9999026
124.386103 48.55386508 149.9999026
193.124315 27.05533648 143.9999026
155.882755 -2.498622655e-05 12.70238461
45.637807 -2.498622655e-05 -14.15078039
57.959282 28.58208988 143.9999026
44.836246 -2.498622655e-05 -72.59949939
163.03623 31.79414458 149.9999026
199.540781 -2.498622655e-05 -20.60242239
0.0002150000537 30.04427218 126.5424126
56.671572 3.528915794 -144.0000974
120.273561 -2.498622655e-05 -96.09776639
204.848897 32.84058258 -150.0000974
67.341158 -2.498622655e-05 8.805916614
127.626882 15.16203788 -144.0000974
0.0002150000537 16.32326358 65.48134861
61.212246 62.17873318 143.9999026
16.056718 2.051661304 -144.0000974
0.0002150000537 32.29570238 -19.46622239
103.525309 32.44075498 -144.0000974
24.951861 -2.498622655e-05 -8.715025386
32.095582 44.77215958 143.9999026
0.0002150000537 45.96558528 7.224036614
206.98891 -2.498622655e-05 -117.9859614
-1.992179 49.99997498 67.17314161
240.399436 -2.498622655e-05 125.3196196
73.190459 -2.498622655e-05 -84.43436039
144.359264 -2.498622655e-05 -46.18327139
181.81859 5.271723924 -150.0000974
21.531887 -2.498622655e-05 128.0857626
73.301436 -2.498622655e-05 24.99384761
25.867626 41.49204968 149.9999026
94.222065 18.44335898 143.9999026
185.454847 1.564368124 -144.0000974
24.164909 -2.498622655e-05 -89.97116539
211.999727 24.72878268 -145.7391604
193.305926 10.35371257 149.9999026
0.0002150000537 39.10750738 -24.37491739
154.046667 54.68503708 -150.0000974
54.995922 -2.498622655e-05 -7.615319386
0.0002150000537 28.18251948 78.96162061
164.127871 21.86348988 143.9999026
218.738329 -2.498622655e-05 58.47962661
50.492262 -2.498622655e-05 -80.16258039
100.243911 -2.498622655e-05 58.13369561
146.656062 -2.498622655e-05 -8.443766386
70.712125 6.658782094 149.9999026
212.107695 -2.498622655e-05 -85.04390139
7.906179 -2.498622655e-05 118.6374036
17.557914 15.15976138 -150.0000974
0.0002150000537 6.950357564 69.27276861
58.802619 42.20616798 149.9999026
231.532757 -0.5094466162 -144.0000974
60.703071 -2.498622655e-05 -10.33114639
51.279029 -2.498622655e-05 16.84493461
0.0002150000537 8.985990014 -127.9463734
127.644895 26.66871568 -150.0000974
28.872387 51.87189358 149.9999026
198.217228 -2.498622655e-05 -91.53583039
188.865188 42.86643568 -150.0000974
236.296646 67.99997498 147.1595666
146.50489 62.12247188 143.9999026
211.824455 67.99997498 145.9852116
53.080479 -2.498622655e-05 -23.88215539
111.763526 1.656576164 143.9999026
48.930306 28.58420198 -144.0000974
215.499451 42.50546428 -150.0000974
25.051034 9.613288964 149.9999026
44.931431 11.65749198 -144.0000974
214.522194 -2.498622655e-05 7.255184614
0.0002150000537 3.924975694 -66.07119239
148.296329 -2.498622655e-05 47.09400561
114.650967 42.17450268 149.9999026
49.469669 -2.498622655e-05 -54.47564339
238.261092 -2.498622655e-05 -62.05569039
107.885903 53.00009628 -144.0000974
74.821533 -2.498622655e-05 117.6192496
