# .PCD v0.7 - Point Cloud Data file format
VERSION 0.7
FIELDS x y z
SIZE 4 4 4
TYPE F F F
COUNT 1 1 1
WIDTH 1193
HEIGHT 1
VIEWPOINT 0 0 0 1 0 0 0
POINTS 1193
DATA ascii
118.9997508 -28.50019098 -66.79549239
113.6507298 -2.49858852e-05 -219.6590904
102.1205698 -16.44658451 -9.738646668e-05
118.9997508 -50.43312599 -19.87947439
118.9997508 -5.314607256 -155.9324334
122.9997508 -9.561944756 -98.02602739
87.24167582 -2.49858852e-05 -19.53391339
96.83346082 -62.22298298 -9.738646668e-05
122.9997508 -30.28761352 -45.41453939
-73.37950618 -2.49858852e-05 -205.9248894
20.63676982 -2.49858852e-05 -16.00379039
118.9997508 -44.99235725 -55.11726739
122.9997508 -46.92912986 -125.0828064
118.9997508 -116.4220504 -15.78800139
-51.89653918 -2.49858852e-05 -238.8753834
51.91803382 -2.49858852e-05 -201.6210104
2.060199822 -2.49858852e-05 -126.5452114
-0.1459901775 -46.67319372 -9.738646668e-05
22.30012282 -2.49858852e-05 -144.6019724
124.7102278 -2.49858852e-05 -22.47692739
-99.31171518 -44.95983503 -9.738646668e-05
103.9517688 -2.49858852e-05 -69.17973239
-141.9775382 -55.85514388 -9.738646668e-05
122.9997508 -52.77592189 -102.0470304
137.0960288 2.416317884 -92.09535239
-48.25182718 -2.49858852e-05 -149.8719654
69.19964082 -2.49858852e-05 -214.2079724
-140.4618352 -2.49858852e-05 -15.86749539
128.4768318 -64.65997106 -9.738646668e-05
-103.3673572 -2.49858852e-05 -223.5517654
-52.51204618 -50.91378833 -9.738646668e-05
122.9997508 -9.034509056 -242.2098594
68.02304982 -2.49858852e-05 -173.8307244
29.75804682 -116.7576321 2.177844614
30.69536282 -2.49858852e-05 -118.7689384
-104.8578442 -2.49858852e-05 -11.85454039
-17.13997118 -2.49858852e-05 -45.62610939
118.9997508 -36.39871193 -9.979149386
81.12955982 -53.33001881 -9.738646668e-05
34.51379082 -2.49858852e-05 -87.93534539
95.24225182 -2.49858852e-05 -120.2649254
-17.46486218 -2.49858852e-05 -10.28903339
122.9997508 -6.239613216 -207.1780694
-39.24974018 -2.49858852e-05 -81.43809039
26.26757782 -2.49858852e-05 -193.0999524
67.48879682 -2.49858852e-05 -67.35310039
-46.85103318 -2.49858852e-05 -70.28646439
121.5338058 -130.5069603 0.7933136135
-142.4125692 -28.07437921 -9.738646668e-05
122.9997508 -21.05671454 -151.2390914
118.9997508 -72.60684231 -74.47231039
-141.1758182 -45.04623418 -9.738646668e-05
-121.9992722 2.091998164 1.854606614
127.1780148 -2.49858852e-05 -81.79814239
99.75049082 -2.49858852e-05 -52.49341939
108.4603078 -2.49858852e-05 -96.44939139
118.9997508 -23.88223562 -178.3788184
122.9997508 -15.62694103 -227.8428224
118.9997508 -29.74438192 -77.78729839
73.21977182 -2.49858852e-05 -83.52910239
118.9997508 -7.368785076 -28.71933839
17.67281082 -2.49858852e-05 -180.7762184
113.2166028 -2.49858852e-05 -237.9094224
133.6828758 -2.49858852e-05 -47.87170139
86.57494182 -89.80691069 -9.738646668e-05
117.7958278 -6.194112936 -9.738646668e-05
48.74353882 -2.49858852e-05 -56.52792139
-87.33158018 -2.49858852e-05 -7.934166386
118.9997508 -83.25509756 -87.60256839
-15.24175518 -2.49858852e-05 -187.7833314
118.9997508 -16.37205084 -116.3321904
-85.51597818 -2.49858852e-05 -32.92650339
122.9997508 -51.87226027 -112.5503214
71.56816782 2.492903194 -9.738646668e-05
122.9997508 -54.12424498 -37.12702639
122.9997508 -56.70744294 -140.8911394
122.9997508 -67.86165253 -167.2512694
-66.35023818 -31.13364876 -9.738646668e-05
42.61427182 -64.69388202 -9.738646668e-05
132.3971088 -2.49858852e-05 -36.46557139
-78.19522818 -2.49858852e-05 -239.1445954
-27.28191118 -2.49858852e-05 -93.83756539
29.27878582 -78.07695235 -9.738646668e-05
-105.2378472 -2.49858852e-05 -64.73531739
-43.20903218 -62.16233523 -9.738646668e-05
139.3964088 -104.3387171 -9.738646668e-05
-95.57938618 -2.49858852e-05 -145.1462244
37.14435482 -2.49858852e-05 -102.1388894
80.29307882 -33.43258435 -9.738646668e-05
71.18922282 -65.72604764 -9.738646668e-05
18.93753982 -49.84590432 -9.738646668e-05
118.9997508 -40.87414335 -28.38194839
-125.4854082 -2.49858852e-05 -185.0107914
-72.50008018 -2.49858852e-05 -116.8224454
-96.87206018 -2.49858852e-05 -42.71564539
122.9997508 -36.62552755 -85.19173739
118.9997508 -29.53227864 -21.28447339
55.82319382 -2.49858852e-05 -108.2654474
24.30463882 -2.49858852e-05 -35.66674839
-59.13909018 -2.49858852e-05 -42.52345039
18.06957982 -2.49858852e-05 -123.6493814
122.9997508 -27.13685215 -59.04851839
-74.67839618 -19.45705595 -9.738646668e-05
118.9997508 -32.57713912 -166.5119904
133.4327988 -2.49858852e-05 -141.2420704
-39.78133318 -19.44814495 -9.738646668e-05
-23.92662418 -2.49858852e-05 -215.2768764
-95.64085118 -2.49858852e-05 -113.5986644
127.1333158 -2.49858852e-05 -149.6719404
26.36242282 -2.49858852e-05 -207.2016744
-108.7519222 -2.49858852e-05 -129.4935174
122.9997508 -80.07249798 -68.95808339
-129.3805742 -2.49858852e-05 -166.9623434
122.9997508 -33.51823087 -144.8911124
85.50503582 -2.49858852e-05 -85.83594239
122.9997508 -59.39455334 -9.694125386
143.4282998 -2.49858852e-05 -96.78957139
-30.86011918 -2.49858852e-05 -113.0044054
-126.0831522 -2.49858852e-05 -124.1576034
62.52935582 -97.6126466 1.988340614
-23.76073918 -49.00472468 -9.738646668e-05
122.9997508 -30.81378883 -201.6622674
-21.09551518 -2.49858852e-05 -138.8113714
50.02375682 -109.2202615 -9.738646668e-05
118.9997508 -86.68976021 -97.63981639
56.81027782 -2.49858852e-05 -143.0465444
43.16894682 -2.49858852e-05 -187.7750004
-105.9987272 -2.49858852e-05 -95.57254239
122.9997508 -40.73729323 -194.8143644
-44.02629218 -2.49858852e-05 -202.3144804
143.0272068 -2.49858852e-05 -173.1956064
-72.88584218 -2.49858852e-05 -168.1576454
-28.69032918 -2.49858852e-05 -19.40059039
-54.94699318 -2.49858852e-05 -87.66637539
122.9997508 -48.9260527 -85.86693339
45.69448282 -2.49858852e-05 -86.65744539
118.9997508 -97.23496718 -45.33354839
122.9997508 -61.71476195 -82.01931239
-76.48693118 -43.80266254 -9.738646668e-05
41.40060182 -2.49858852e-05 -197.7935524
-44.97703318 -11.07473622 -9.738646668e-05
-40.43753718 -2.49858852e-05 -170.8318224
-85.43549818 -2.49858852e-05 -169.2034414
-123.3890262 -2.49858852e-05 -201.9839754
118.9997508 -49.33041489 -1.707501386
122.9997508 -22.016629 -31.81129839
88.75704082 -7.320170286 -9.738646668e-05
21.72205182 -2.49858852e-05 -241.4388284
19.38061582 -2.49858852e-05 -52.88426339
118.9997508 -13.73654457 -52.03599739
122.9997508 -41.47764923 -46.19891539
-119.0241502 -2.49858852e-05 -81.90527739
83.98465682 -2.49858852e-05 -44.61712139
56.20014782 -2.49858852e-05 -170.5851294
124.7529478 -81.55101876 -9.738646668e-05
6.317427822 -2.49858852e-05 -69.58002339
122.9997508 -64.88773531 -152.8842674
125.8118378 -2.49858852e-05 -167.9093784
-35.43549018 -2.49858852e-05 -236.9892104
-94.04556118 -62.17580215 -9.738646668e-05
122.9997508 -53.71588448 -175.2022414
123.3617768 -2.49858852e-05 -115.8705224
-35.95715618 -2.49858852e-05 -183.9517484
130.6110868 -54.50732685 -9.738646668e-05
122.9997508 -55.95940015 -187.3365454
137.9989038 -91.30306547 -9.738646668e-05
-18.72044718 -2.49858852e-05 -126.1318164
-29.98449518 -2.49858852e-05 -82.16525939
-126.3601142 -2.49858852e-05 -32.57242939
110.6231758 -2.49858852e-05 -17.10739539
122.9997508 -43.61434104 -183.7515454
122.9997508 -26.88212504 -191.4072404
122.9997508 -7.547068666 -17.74518439
118.2264478 -65.50045446 -9.738646668e-05
-50.32910518 -26.0094731 -9.738646668e-05
118.9997508 -3.225949856 -71.50847039
114.3624968 -2.49858852e-05 -103.5612594
122.9997508 -62.78214493 -98.23227039
122.9997508 -18.33678654 -72.00867039
122.9997508 -43.66017239 -37.19726139
-14.87157518 -16.70175464 -9.738646668e-05
-82.12521018 -6.607853116 -9.738646668e-05
118.9997508 -67.8874625 -41.72794939
-1.709914178 -2.49858852e-05 -99.13068639
8.474105822 -2.49858852e-05 -41.94396139
122.9997508 -70.93796816 -136.6817574
62.16309382 -2.49858852e-05 -60.76365239
-107.3140132 -2.49858852e-05 -188.4309824
5.762540822 -65.64436564 -9.738646668e-05
1.817875822 -2.49858852e-05 -191.9994864
51.40105682 -2.49858852e-05 -153.7775334
25.93049082 -2.49858852e-05 -63.67634939
-20.89425918 -2.49858852e-05 -109.0280554
122.9997508 -54.26781647 -158.1958174
122.9997508 -111.907914 -8.171081386
31.78629982 -62.23662079 -9.738646668e-05
82.74837382 -66.55998804 -9.738646668e-05
53.69841882 -2.49858852e-05 -15.36730039
-65.29511718 -2.49858852e-05 -22.38270139
-103.1495092 -2.49858852e-05 -241.4633304
60.84277882 -108.4178033 -9.738646668e-05
98.16081082 -2.49858852e-05 -249.3157754
122.9997508 -22.06719913 -20.55889539
-64.99424318 -2.49858852e-05 -205.2630964
-8.702460178 -2.49858852e-05 -6.628371386
-87.77929018 -2.49858852e-05 -117.7057854
95.59085382 -94.46027746 -9.738646668e-05
-34.82066918 -2.49858852e-05 -191.6039814
89.78725482 -2.49858852e-05 -162.6535574
122.9997508 -28.82262092 -14.70888539
143.2654088 -2.49858852e-05 -210.9481244
118.9997508 -6.796826426 -213.7842294
63.86330182 -21.3322662 -9.738646668e-05
-95.34968718 -2.49858852e-05 -11.16803039
118.9997508 -37.10132134 -239.1567824
119.7499988 -114.1461277 -26.21286539
106.1297788 -2.49858852e-05 -6.260419386
-12.44687418 -2.49858852e-05 -54.17509339
74.81546782 -4.804178486 -9.738646668e-05
116.6409138 -2.49858852e-05 -35.44911339
57.93597582 -2.49858852e-05 -185.5149714
-50.69954218 -2.49858852e-05 -19.18769739
92.59249882 -2.49858852e-05 -186.6550064
99.52769382 -2.49858852e-05 -60.47205639
118.9997508 -7.713952716 -173.9266594
69.89448282 -2.49858852e-05 -134.6227804
118.9997508 -103.190279 -39.75810139
122.9997508 -8.313454796 -135.0680084
3.355980822 -2.49858852e-05 -86.78473539
-133.5066192 -26.50723828 -9.738646668e-05
86.23952682 -21.08768023 -9.738646668e-05
100.7074788 -2.49858852e-05 -22.48609239
-134.1824712 -2.49858852e-05 -177.9069064
3.887564822 -36.41650353 -9.738646668e-05
-56.29289118 -2.49858852e-05 -72.45610239
118.9997508 -38.63397047 -107.2890934
-63.48007018 -2.49858852e-05 -51.76926439
86.86698282 -37.93067838 -9.738646668e-05
122.9997508 -88.06360886 -16.45956639
118.9997508 -69.2359181 -145.6377804
122.9997508 -32.16545877 -53.40437939
75.00779182 -2.49858852e-05 -169.7791964
-82.58932418 -2.49858852e-05 -140.2945324
122.9997508 -83.71154974 -113.7565944
96.34850482 -2.49858852e-05 -229.9050884
26.02013582 -2.49858852e-05 -22.95093339
118.9997508 -66.69733326 -67.98451339
27.67462582 -2.49858852e-05 -136.8388344
49.35272682 -2.288311066 -9.738646668e-05
-39.52768418 -36.62262332 -9.738646668e-05
-133.2107942 -2.49858852e-05 -159.4451664
139.6750648 -2.49858852e-05 -13.88599939
122.9997508 -65.33724145 -126.8831574
-100.6880052 -2.49858852e-05 -79.77651639
38.08629882 -2.49858852e-05 -27.30160139
-4.345006178 -28.42145556 -9.738646668e-05
60.88775782 -2.49858852e-05 -230.7022794
49.85046882 -2.49858852e-05 -35.41847239
-80.72877518 -2.49858852e-05 -110.3561214
121.7583698 -2.49858852e-05 -235.9387874
-9.449059178 -2.49858852e-05 -74.48607639
-89.95501718 -2.49858852e-05 -54.01292439
-17.15741418 -2.49858852e-05 -166.6855974
122.9997508 -11.14209928 -85.98441739
134.4246908 -110.8232101 -9.738646668e-05
-64.86986418 -2.49858852e-05 -74.27532939
103.2241108 -122.4491502 -9.738646668e-05
74.37544582 -2.49858852e-05 -75.21817939
128.6388048 -39.5054662 -9.738646668e-05
122.9997508 -10.54680208 -118.5566664
-119.1345052 -2.49858852e-05 -5.760031386
-15.94483018 -2.49858852e-05 -251.6080944
-40.67945118 -2.49858852e-05 -210.1534584
118.9997508 -81.18949176 -39.52801139
134.5676078 -7.008789996 -9.738646668e-05
122.9997508 -103.8200012 -51.79055639
-55.98912118 -2.49858852e-05 -7.049106386
127.7607318 -2.49858852e-05 -206.3066484
37.62137782 -2.49858852e-05 -163.5986724
122.2831518 -26.59062906 -1.500097386
43.25029382 -23.14064739 -9.738646668e-05
-55.69844718 -2.49858852e-05 -131.3776414
-28.85901218 -32.338026 -9.738646668e-05
-48.29350918 -35.94845493 -9.738646668e-05
7.679823822 -2.49858852e-05 -161.4409394
74.47241982 -2.49858852e-05 -55.05230239
11.89413482 -2.49858852e-05 -9.093996386
122.4643598 -119.6021739 -9.738646668e-05
42.64996982 -104.3063683 -9.738646668e-05
-60.32301618 -4.350784426 -9.738646668e-05
118.9997508 -74.25782656 -89.33289739
102.0799978 -2.49858852e-05 -107.4730514
-69.66857918 -2.49858852e-05 -88.36777139
-108.5853282 -60.29070771 -9.738646668e-05
118.9997508 -15.40479442 -218.8721614
-113.5097132 -2.49858852e-05 -24.73410939
72.07990682 -15.66151617 -9.738646668e-05
-73.32668118 -2.49858852e-05 -37.51106339
122.9997508 -34.94793982 -114.6016384
-36.37134518 -50.91722385 -9.738646668e-05
122.9997508 -5.062157946 -127.1327874
-87.35074418 -55.99750417 -9.738646668e-05
118.9997508 -53.37100482 -202.8371714
73.82149582 -2.49858852e-05 -187.6042344
118.9997508 -0.3123624859 -85.51428339
91.25393082 -2.49858852e-05 -64.37489939
122.9997508 -74.6160527 -13.16046839
-11.94833018 -2.49858852e-05 -205.9650604
135.3177388 -2.49858852e-05 -19.61776639
2.093372822 -2.49858852e-05 -238.1163594
-131.6702382 -2.49858852e-05 -192.3523434
51.91802882 -2.49858852e-05 -90.26086239
41.73688582 -2.49858852e-05 -5.810043386
10.62414682 -2.49858852e-05 -228.5669744
-63.20397918 -2.49858852e-05 -116.9949094
118.9997508 -24.19845258 -73.02902739
118.9997508 -15.3087877 -99.94547739
-16.58673818 -2.49858852e-05 -153.9992434
-18.92631818 -2.49858852e-05 -237.9016664
22.44067082 -2.49858852e-05 -86.91644139
103.4468708 -79.20822643 -9.738646668e-05
-120.1952242 -2.49858852e-05 -57.88107839
118.9997508 -21.15352217 -166.0652984
-63.66770418 -57.50865864 -9.738646668e-05
-117.3261792 -2.49858852e-05 -74.97360739
-90.16554218 -2.49858852e-05 -39.49949039
-128.4682712 -2.49858852e-05 -0.3080503865
118.9997508 -75.66260478 -105.1793744
18.31488582 -73.77826261 -9.738646668e-05
-66.16240318 -2.49858852e-05 -102.9480364
79.31288982 -2.49858852e-05 -155.5276234
38.87732882 -2.49858852e-05 -35.29516639
-133.7535222 -2.49858852e-05 -234.4101894
118.9997508 -64.28510298 -140.2493264
139.5848928 -2.49858852e-05 -156.6405704
-31.00094918 -2.49858852e-05 -214.9982664
118.9997508 -0.9134768159 -250.2983934
45.73743582 -8.777877846 -9.738646668e-05
-97.05531718 -2.49858852e-05 -231.7873604
-62.09662018 -2.49858852e-05 -234.1060194
-47.12063818 -55.45830218 -9.738646668e-05
122.9997508 -18.08745068 -127.5855524
99.18808582 -2.49858852e-05 -7.466089386
12.41161382 -2.49858852e-05 -190.8160684
122.9997508 -83.43025618 -25.17306039
118.9997508 -58.88290663 -196.6360274
1.156221822 -2.49858852e-05 -24.31062139
118.9997508 -17.65682529 -86.19285739
118.9997508 -45.37108756 -12.10662839
-47.48923418 -2.49858852e-05 -169.2231444
118.9997508 -52.61431858 -230.6687264
118.9997508 -49.18089833 -217.8318074
108.9200398 -2.49858852e-05 -109.3463864
-113.8005612 -0.7500249859 1.100084614
114.3978188 -2.49858852e-05 -138.1692984
31.34863182 -2.49858852e-05 -178.6747164
114.7801208 -81.42052241 -9.738646668e-05
83.40188882 -2.49858852e-05 -60.53253239
67.59607382 -2.49858852e-05 -150.8457424
52.84794082 -2.49858852e-05 -28.29000739
122.9997508 -8.813079956 -162.7935104
53.93074682 -83.93247737 -9.738646668e-05
-110.6351622 -2.49858852e-05 -242.9184464
17.00455782 -2.49858852e-05 -202.5484314
-87.68541218 -2.49858852e-05 -135.5629924
67.28696182 -73.86691114 -9.738646668e-05
118.9997508 -39.44208088 -143.5450584
-130.0933442 -2.49858852e-05 -131.1418584
91.03210982 -54.55905091 -9.738646668e-05
118.9997508 -33.86361696 -222.1644684
-47.12702718 -2.49858852e-05 -48.52522439
122.9997508 -36.19110104 -157.6946534
-47.21286518 -2.49858852e-05 -33.32505139
122.9997508 -72.86009859 -44.47614439
101.4842408 -2.49858852e-05 -191.7695964
-87.87706718 -2.49858852e-05 -222.3147194
122.9997508 -3.175445496 -58.18698539
0.2675948225 -2.49858852e-05 -185.0720624
139.5029358 -2.49858852e-05 -226.4661154
118.9997508 -19.80365656 -58.92459939
120.1721248 -59.21563149 -221.5566534
61.18074382 -2.49858852e-05 -6.649847386
122.9997508 -43.71975286 -97.03624939
-83.48332518 -2.49858852e-05 -86.19910039
122.9997508 -78.68299845 -124.6614584
122.4798238 -2.49858852e-05 -136.1916174
122.9997508 -108.5451231 -23.88016639
-125.5014952 -2.49858852e-05 -25.74487839
52.57312482 -2.49858852e-05 -76.58259039
106.5222148 -43.8392193 -9.738646668e-05
118.9997508 -12.10050462 -193.6040474
-54.91295218 -2.49858852e-05 -209.2288714
-46.34136218 -2.49858852e-05 -157.4165814
-133.6171982 -2.49858852e-05 -96.76201139
-21.34691718 -2.49858852e-05 -247.3997224
-78.98078818 -2.49858852e-05 -68.23178939
-70.61293118 -25.78675892 -9.738646668e-05
122.9997508 -15.9978931 -198.3054604
118.9997508 -44.63032206 -248.0772504
118.9997508 -65.73779905 -110.1122344
-17.99942618 -34.08628363 -9.738646668e-05
118.9997508 -36.13662924 -65.83656839
98.73557682 -2.49858852e-05 -96.99651739
118.9997508 -28.72120133 -150.6218304
118.9997508 -24.12974747 -244.0501444
-124.2643172 -55.31118516 -9.738646668e-05
7.793372822 -2.49858852e-05 -137.3609704
-143.1056572 -2.49858852e-05 -157.3154324
77.39614282 -2.49858852e-05 -212.1891694
71.81346782 -2.49858852e-05 -237.8203554
122.9997508 -18.51154448 -180.8622884
-140.5679352 -2.49858852e-05 -172.1246684
118.9997508 -26.27628328 -120.6102934
-115.4691472 -31.28057303 -9.738646668e-05
-40.36414718 -2.49858852e-05 -72.59491739
122.9997508 -29.54223558 -38.69451139
118.9997508 -22.1463089 -230.6994744
-115.3152272 -47.311302 -9.738646668e-05
33.21456182 -18.59939417 -9.738646668e-05
-57.49327518 -2.49858852e-05 -137.8699664
35.97595782 -11.18496744 -9.738646668e-05
-97.04140418 -2.49858852e-05 -208.2389594
20.22148182 -2.49858852e-05 -188.7231304
-17.42783918 -2.49858852e-05 -147.3432514
85.11927782 -2.49858852e-05 -198.8761134
118.9997508 -30.23872388 -7.329295386
118.9997508 -9.374197806 -92.64975239
-21.65144318 -5.147703766 -9.738646668e-05
-53.06668518 -2.49858852e-05 -120.6582504
-93.76821418 -2.49858852e-05 -177.1769064
107.8102648 -2.49858852e-05 -165.0794724
-105.8110882 -66.52903596 -9.738646668e-05
-123.1732272 -2.49858852e-05 -242.3320274
-128.1391762 -2.49858852e-05 -55.81983439
20.31621582 -2.49858852e-05 -133.6301594
118.9997508 -73.62708441 -6.051901386
27.97229282 -2.49858852e-05 -112.6895574
91.51627682 -2.49858852e-05 -76.05482439
39.91548682 -119.4147703 -9.738646668e-05
32.10737582 -1.695512696 -9.738646668e-05
122.9997508 -94.3858497 -61.52207239
122.9997508 -47.81664744 -205.4327334
-57.50573418 -2.49858852e-05 -198.3984354
137.8500218 -2.49858852e-05 -71.66705239
-73.65966918 1.150843244 -9.738646668e-05
12.74182082 -2.49858852e-05 -67.99001839
-28.66475518 -2.49858852e-05 -6.265839386
118.9997508 -62.102348 -103.4460214
118.9997508 -76.33830912 -57.19243439
122.9997508 -19.31562199 -42.34814039
114.4848308 -2.49858852e-05 -59.98469339
122.9997508 -25.46973747 -146.3424494
110.5084608 -2.49858852e-05 -69.81617939
20.32939682 -2.49858852e-05 -110.1277854
-69.92469018 -44.04887841 -9.738646668e-05
39.96147882 -2.49858852e-05 -205.4664764
122.9997508 -36.79892013 -31.60005839
45.23212382 -123.4503479 -9.738646668e-05
122.9997508 -76.46270351 -26.03551539
2.922584822 -7.766127046 -9.738646668e-05
122.9997508 -73.20009677 -120.9795334
118.9997508 -35.67915342 -120.8443574
-108.8544662 -2.49858852e-05 -84.01923539
-77.20143818 -57.21532072 -9.738646668e-05
4.467568822 -2.49858852e-05 -203.2336994
26.86902882 -2.49858852e-05 -199.5949544
122.9997508 -86.66890255 -80.70452639
122.9997508 -24.0265492 -85.04960439
120.9255428 -16.94169644 -5.646080386
-75.55775918 -2.49858852e-05 -144.4743054
118.9997508 -10.3058957 -224.9914384
-13.29122818 -2.49858852e-05 -81.20435539
-104.8717142 -2.49858852e-05 -204.6513304
118.9997508 -41.21353347 -73.93290939
27.74304082 -2.49858852e-05 -235.5973084
115.3607438 -54.51513863 -9.738646668e-05
-115.1513022 -2.49858852e-05 -150.6270304
-138.8376372 -2.49858852e-05 -31.96877339
131.6104458 -2.49858852e-05 -108.5545554
122.9997508 -16.37895228 -238.6972414
128.0457198 -2.49858852e-05 -51.06053839
36.63637882 -2.49858852e-05 -75.39889339
134.3855798 -24.74633785 -9.738646668e-05
32.16311782 -2.49858852e-05 -128.2260134
-27.80958418 -2.49858852e-05 -52.96764039
-40.91978018 -2.49858852e-05 -88.48275239
-9.577667178 -2.49858852e-05 -14.61632639
118.9997508 -55.93229995 -88.37981139
122.9997508 -7.032923156 -193.5780634
78.26511482 -2.49858852e-05 -200.5406624
-134.2160002 -44.36514517 -9.738646668e-05
-113.7403492 -2.49858852e-05 -188.9227344
118.9997508 -2.762193266 -149.2829104
122.9997508 -6.026702596 -44.19730339
-29.74721518 -2.49858852e-05 -106.6737884
75.67471982 -2.49858852e-05 -222.1624024
50.42812782 -44.40165252 -9.738646668e-05
118.9997508 -48.63713523 -136.0774154
66.62762082 -49.09126113 -9.738646668e-05
122.9997508 -82.12774073 -99.71560039
67.91648782 -2.771510956 -9.738646668e-05
122.9997508 -26.66913078 -226.9043094
118.9997508 -69.96939683 -128.7377934
-37.84053818 -2.49858852e-05 -131.2477014
122.9997508 -36.78927458 -203.8605204
-47.06872518 -2.49858852e-05 -110.4899164
122.9997508 -90.43110857 -69.43916739
23.05399882 -2.49858852e-05 -97.70685539
118.9997508 -27.52676071 -221.7252804
115.6544778 -2.49858852e-05 -124.1004824
128.5283838 -2.49858852e-05 -228.1359004
38.22463882 -37.67073789 -9.738646668e-05
-50.62931218 -2.49858852e-05 -143.9936074
-86.76431218 -2.49858852e-05 -153.1193944
-17.84664718 -2.49858852e-05 -226.0787154
23.32368582 -2.49858852e-05 -69.44935939
89.38543282 -2.49858852e-05 -129.9262414
122.9997508 -62.12093203 -164.5773664
118.9997508 -54.43794458 -57.68185839
40.89290682 -2.49858852e-05 -237.9007084
32.07972482 -41.42400378 -9.738646668e-05
122.9997508 -25.32527922 -136.3040504
-64.69371118 -2.49858852e-05 -218.7768994
65.89764982 -115.2979743 -9.738646668e-05
122.9997508 -49.1302435 -250.2850564
122.9997508 -96.8157652 -71.69902239
122.9997508 -66.89517372 -3.849807386
119.2653708 -2.49858852e-05 -194.2730514
23.50072782 1.264380574 -213.4118814
-124.7402392 -2.49858852e-05 -226.7368864
-50.45286918 -44.80002996 -9.738646668e-05
-2.709155178 -54.26085265 -9.738646668e-05
-73.96826818 -2.49858852e-05 -51.02710939
15.32499182 -2.49858852e-05 -241.8649614
122.9997508 -41.73610456 -139.3090844
-30.48110818 -2.49858852e-05 -246.2794314
122.9997508 -63.72754155 -120.5882944
106.3080648 -2.49858852e-05 -196.9522894
-127.5392182 -2.49858852e-05 -235.1490064
78.19573482 -19.97992457 -9.738646668e-05
-12.82780718 -64.99766779 -9.738646668e-05
63.20605282 -2.49858852e-05 -86.09407739
50.04814982 -2.49858852e-05 -62.97423439
50.83396282 -2.49858852e-05 -217.1261564
-31.76658218 -2.49858852e-05 -129.3105354
69.93059082 -2.49858852e-05 -194.1453564
68.35932482 -2.49858852e-05 -13.50792639
-125.7548882 -68.00002403 0.8056866135
122.9997508 -44.20613151 -167.7804124
118.9997508 -36.74686142 -185.7091364
-68.62842618 -2.49858852e-05 -138.5415384
122.9997508 -39.12301595 -79.07252239
118.9997508 -24.07976015 -46.62546939
57.18255682 -2.49858852e-05 -96.24000039
-128.0300982 -46.20438944 -9.738646668e-05
-4.218611178 -2.49858852e-05 -193.4278944
-103.3597542 -2.49858852e-05 -114.9374464
96.03202682 -33.72096691 -9.738646668e-05
-126.7649602 -2.49858852e-05 -216.8683944
-134.3307992 -2.49858852e-05 -171.2896084
62.81530882 -2.49858852e-05 -145.9603494
122.9997508 -4.395280716 -94.62051139
120.6741698 -2.49858852e-05 -159.9731164
118.9997508 -19.04028538 -145.4473354
-113.3079462 -2.49858852e-05 -98.76161639
11.33459782 -92.06362283 -9.738646668e-05
58.70858282 -2.49858852e-05 -161.1514754
-49.82999018 -2.49858852e-05 -104.9689384
121.1895628 -2.49858852e-05 -12.82098639
118.9997508 -62.42734716 -14.43221939
6.332486822 -2.49858852e-05 -148.0237174
102.4252658 -2.49858852e-05 -83.66816039
118.9997508 -50.8968922 -93.72171339
118.9997508 -1.715498936 -206.0061094
123.5007278 0.2843175641 -68.19479739
-31.04895118 -38.08189593 -9.738646668e-05
-120.3363112 -2.49858852e-05 -178.3031044
118.9997508 -19.47909165 -171.9740684
-39.96721118 -2.49858852e-05 -26.70828639
26.02225882 -8.618020466 -9.738646668e-05
-110.8385642 -2.49858852e-05 -72.24479039
90.74461482 -98.1952882 -9.738646668e-05
118.9997508 -27.12819806 -196.9732154
-131.7764932 -2.49858852e-05 -13.23535639
5.905791822 -2.49858852e-05 -14.54860339
118.9997508 -52.03920126 -146.0716744
-92.38360518 -2.49858852e-05 -189.7800634
-75.32196818 -2.49858852e-05 -122.6005204
118.9997508 -34.85337925 -24.27207939
118.9997508 -81.26896866 -16.60671939
-32.00015718 -2.49858852e-05 -38.30712839
122.9997508 -31.86893033 -129.2412824
122.9997508 -44.71542333 -210.6714464
-117.2449362 -2.49858852e-05 -18.35387139
2.689665822 -2.49858852e-05 -103.3202394
-68.95879818 -2.49858852e-05 -181.8123334
118.9997508 -30.32188084 -114.0986364
122.9997508 -94.46309931 -16.79264339
122.9997508 -40.47363209 -111.7509254
-3.718819178 -2.49858852e-05 -84.41175039
36.70447582 -24.99525132 -9.738646668e-05
79.22393182 -2.49858852e-05 -243.7957324
118.9997508 -88.59477596 -2.318742386
-32.46642718 -2.49858852e-05 -136.0406284
58.42650182 -2.49858852e-05 -179.2419724
66.19936582 -90.31668145 -9.738646668e-05
122.9997508 -2.199465626 -223.8276964
-101.7892102 -25.63525519 -9.738646668e-05
65.31043982 -14.36397967 -9.738646668e-05
118.9997508 -47.37539561 -112.0096554
118.9997508 -87.42563052 -47.39289139
41.52973482 -48.6840974 -9.738646668e-05
118.9997508 -58.38165355 -71.52568839
-62.59876818 -2.49858852e-05 -159.3670494
-55.76586518 -2.49858852e-05 -224.2798004
122.9997508 -5.525657006 -177.8692564
122.9997508 -12.78476049 -29.45360339
139.1398718 0.6120349341 -9.738646668e-05
122.9997508 -45.42401626 -149.8820364
-100.4886452 -62.18948642 -9.738646668e-05
134.9364908 -2.49858852e-05 -130.6719434
-65.81313118 -2.49858852e-05 -229.3704384
122.9997508 -49.55935086 -227.3667994
102.5018078 -96.11256841 -9.738646668e-05
122.9997508 -4.358819076 -102.4590364
-98.54299118 -2.49858852e-05 -192.6472594
13.81131482 -77.76065621 -9.738646668e-05
113.8444538 -2.49858852e-05 -187.5833944
-0.6840611775 -2.49858852e-05 -229.6489274
86.21527682 -2.49858852e-05 -214.6052634
118.9997508 -74.08206629 -133.4929044
-18.74876518 -2.49858852e-05 -35.95560739
104.9887398 -2.49858852e-05 -149.1333564
-39.02921618 -3.900479566 -9.738646668e-05
122.9997508 -33.87572848 -250.5971204
41.83077782 -2.49858852e-05 -69.12275639
118.9997508 -12.6030906 -64.18037939
118.9997508 -57.08636575 -210.1656444
118.9997508 -65.39066576 -183.8439404
-22.64562518 -2.49858852e-05 -13.27423039
122.9997508 -68.02946912 -62.39365239
-133.4343262 -2.49858852e-05 -215.7215884
-44.30039818 -2.49858852e-05 -195.8011544
106.0023758 -85.67111781 -9.738646668e-05
122.9997508 -70.37330626 -54.22535739
33.57409082 -31.16937702 -9.738646668e-05
122.9997508 -28.55505187 -161.5828704
122.9997508 -101.1848377 -3.342343386
122.9997508 -81.02784942 -48.93054339
132.5139708 -2.49858852e-05 -223.6934044
118.9997508 -59.20439127 -133.3523054
122.9997508 -79.71948479 -106.8762464
122.9997508 -48.21126897 -79.72118439
118.9997508 -8.968780486 -151.2521654
118.9997508 -20.35867187 -121.0676104
-41.26463118 -2.49858852e-05 -35.02215339
-48.60636218 -2.49858852e-05 -83.42859739
118.9997508 -15.7731581 -25.86740739
-130.1775492 -55.54430558 -9.738646668e-05
-24.41190118 -2.49858852e-05 -174.5164324
-100.0253642 -3.863820396 -9.738646668e-05
118.9997508 -89.45146072 -33.87667539
118.9997508 -59.30303923 -120.0385334
109.1917138 -2.49858852e-05 -242.2338084
122.9997508 -68.39645714 -73.40189739
88.07677382 -2.49858852e-05 -48.86927839
66.18883882 -58.80592655 -9.738646668e-05
-35.74437218 -2.49858852e-05 -175.3213724
122.9997508 -26.06104523 -247.9268544
116.4940128 -2.49858852e-05 -155.4569914
-35.85357918 -2.49858852e-05 -47.02449039
-7.263743178 -2.49858852e-05 -36.05616539
118.9997508 -19.87267754 -93.34087839
99.03469082 -2.49858852e-05 -42.28526639
-93.81644018 -25.38698491 -9.738646668e-05
-66.03796718 -39.63067587 -9.738646668e-05
1.954907822 -2.49858852e-05 -54.86873539
-75.77290518 -2.49858852e-05 -152.7974584
116.0898758 -2.49858852e-05 -0.8656083865
122.9997508 -78.13417904 -86.77666539
117.5241078 -2.49858852e-05 -200.1053404
-40.41116618 -2.49858852e-05 -55.06117339
32.53039582 -2.49858852e-05 -246.3360304
-71.39605518 -2.49858852e-05 -66.06978639
122.9997508 -12.10137798 -251.3646874
57.10239782 -2.49858852e-05 -125.8941974
75.62192782 -108.9779655 -9.738646668e-05
118.9997508 -46.42761327 -40.46705339
118.9997508 -6.160092266 -65.04510839
71.90133682 -2.49858852e-05 -60.30981139
130.2951088 -2.49858852e-05 -211.5807104
25.84032582 -2.49858852e-05 -13.33925039
122.9997508 -5.773939146 -232.9856914
122.9997508 -83.71338118 -91.83487039
118.9997508 -52.67640917 -49.37589139
-53.90807018 -2.49858852e-05 -114.1421914
-2.105801178 -2.49858852e-05 -152.9231244
118.9997508 -64.23400067 -93.64748139
0.4772308225 -2.49858852e-05 -207.6328794
118.9997508 -37.28145243 -46.87484239
17.59913182 -2.49858852e-05 -11.02295139
118.9997508 -28.80404818 -108.2743744
122.9997508 -104.0167394 -12.75371339
122.9997508 -105.7316424 -36.36069939
-32.20953918 -2.49858852e-05 -143.2613784
118.9997508 -48.69852611 -64.62149539
-23.23037318 -2.49858852e-05 -195.8779814
122.9997508 -50.21843998 -234.1365204
122.9997508 -70.68584755 -155.9339124
134.2856398 -64.71720039 -9.738646668e-05
-117.4623622 -2.49858852e-05 -164.6411644
122.9997508 -96.1214613 -49.38911039
36.41600682 -2.49858852e-05 -18.57494839
118.9997508 -66.18854516 -53.84991739
-130.3220882 -2.49858852e-05 -144.9315554
118.9997508 -55.1524382 -16.20034539
136.3263858 -85.75201579 -9.738646668e-05
102.4016068 -48.59488946 0.6178306135
122.9997508 -18.69729798 -203.4325084
118.9997508 -47.91480857 -200.8974654
-136.9142762 -2.49858852e-05 -75.75000739
-25.34332418 -54.79529695 -9.738646668e-05
75.90467382 -2.49858852e-05 -140.1024394
110.2663568 -115.0974228 -9.738646668e-05
-120.4454842 -62.60064335 -9.738646668e-05
122.9997508 -98.10740103 -27.00806339
122.9997508 -54.4962365 -206.8584154
122.9997508 -12.25836073 -210.0733734
118.9997508 -12.5920405 -179.8136014
122.9997508 -4.927719666 -25.34508039
118.9997508 -13.41517466 -141.0415884
35.89585982 -2.49858852e-05 -93.53878739
118.9997508 -13.97406142 -242.6537704
16.50635582 -2.49858852e-05 -115.8913374
135.3387398 -2.49858852e-05 -62.61531839
-131.7843042 -2.49858852e-05 -203.9443764
118.9997508 -5.621851246 -131.9303174
59.73065082 -63.68117576 -9.738646668e-05
118.9997508 -33.36042047 -160.7045654
122.9997508 -44.84889147 -68.64837439
48.95355782 -2.49858852e-05 -171.7412034
122.9997508 -19.74678483 -110.7520624
8.026100822 -5.130258116 -9.738646668e-05
122.9997508 -32.80413098 -63.41008539
118.9997508 -75.45415201 -30.52298439
118.9997508 -12.59928788 -112.0056784
118.9997508 -4.478984406 -219.0342494
122.9997508 -22.87447132 -213.9067744
118.9997508 -36.79852147 -227.0903314
33.49110582 -2.49858852e-05 -37.24060539
110.4353288 -38.04436656 -9.738646668e-05
2.337860822 -2.49858852e-05 -159.0496194
71.30226182 -2.49858852e-05 -125.7044674
122.9997508 -53.69494697 -216.5140164
122.9997508 -44.81472191 -242.1636044
-14.38350918 -2.49858852e-05 -182.1275114
122.9997508 -29.53001957 -235.5277344
118.9997508 -58.45843687 -63.30756039
8.584809822 -2.49858852e-05 -4.439496386
-119.2947012 -2.49858852e-05 -92.98638839
-96.06675718 -2.49858852e-05 -66.20756839
122.9997508 -62.15982018 -50.37413239
-83.43868218 -2.49858852e-05 -161.4522924
122.9997508 -41.60537589 -189.0792124
121.2097998 -2.49858852e-05 -180.7287804
15.48249882 -30.52669038 -9.738646668e-05
118.9997508 -33.79632111 -198.4897324
118.9997508 -6.713774256 -188.9984534
97.07930782 -108.4760558 -9.738646668e-05
-130.8384812 -65.08570034 -9.738646668e-05
-42.87111718 -2.49858852e-05 -239.1379894
122.0776348 -112.2746913 -9.738646668e-05
122.9997508 -38.04553898 -97.02731539
122.9997508 -22.94193601 -104.3624624
122.9997508 -62.68741849 -144.8938074
118.9997508 -24.03122094 -24.06532539
118.9997508 -20.51852239 -248.4205914
118.9997508 -65.76469918 -35.11199139
122.9997508 -30.04896371 -96.57378339
-68.56583718 -2.49858852e-05 -8.018592386
118.9997508 -64.0792965 -85.24778739
118.9997508 -61.48679692 -154.9889024
35.31690082 -2.49858852e-05 -48.55513139
118.9997508 -6.840832516 -182.1695634
87.81724082 -72.13867283 -9.738646668e-05
118.9997508 -15.37823836 -41.72791539
122.9997508 -72.98334433 -101.5191954
122.9997508 -14.42080534 -81.00467439
122.9997508 -17.16622765 -54.03245639
8.758632822 -2.49858852e-05 -234.1874814
122.9997508 -18.68693655 -156.5721064
118.9997508 -87.29966661 -24.32756939
122.9997508 -62.8692219 -31.93747439
-44.97755818 -40.48611129 -9.738646668e-05
121.5197928 -2.49858852e-05 -48.20999939
118.9997508 -45.72774879 -226.4243994
118.9997508 -37.41054299 -214.4753114
118.9997508 -63.90233289 -23.72861239
122.9997508 -47.59940769 -195.1060314
-23.31110218 -2.49858852e-05 -242.0809274
-50.00545818 -2.49858852e-05 -233.5953414
122.9997508 -2.380474686 -76.57974739
-9.120589178 -2.49858852e-05 -152.3437744
65.50831582 -123.7523681 -9.738646668e-05
-128.4595272 -10.47056331 -9.738646668e-05
-65.20944318 -2.49858852e-05 -172.1836804
112.5238238 -2.49858852e-05 -75.23301239
118.9997508 -60.68328077 -188.7391684
-109.2758012 -2.49858852e-05 -147.1763384
-42.92583018 -2.49858852e-05 -8.839855386
118.9997508 -33.56534058 -176.5306074
118.9997508 -93.66650399 -6.254642386
122.9997508 -43.69854854 -144.5287544
14.93631582 -41.98789483 -9.738646668e-05
122.9997508 -47.65559698 -26.72625439
135.6051448 -2.49858852e-05 -56.15528839
55.28656382 -2.49858852e-05 -244.5496384
118.9997508 -38.18296795 -232.4848854
47.37128182 -2.49858852e-05 -149.9447504
118.9997508 -41.5722716 -100.2417084
-87.38855518 -2.49858852e-05 -187.3438994
-114.1949322 -2.49858852e-05 -38.52024939
139.1142708 -97.02934867 -9.738646668e-05
122.9997508 -98.67188379 -54.31583839
122.9997508 -47.10711682 -17.97790039
64.84593582 -2.49858852e-05 -72.21974939
90.29358182 -2.49858852e-05 -239.8859224
118.9997508 -95.7572784 -22.55552539
-136.9185902 -14.74760939 -9.738646668e-05
122.9997508 -61.28314133 -170.5776904
-44.87567518 -2.49858852e-05 -125.8869164
-104.5724332 -2.49858852e-05 -218.1567954
118.9997508 -88.77072293 -85.04412239
118.9997508 -25.37873438 -55.66756039
118.9997508 -58.78075591 -37.88274439
118.9997508 -81.16078771 -110.9277094
88.49198982 -104.472675 -9.738646668e-05
127.5682238 -59.1115893 -9.738646668e-05
52.91219382 -2.49858852e-05 -44.50627639
-28.67079318 -61.59637549 -9.738646668e-05
122.9997508 -82.91311347 -60.35290139
122.9997508 -68.16704207 -48.86898239
-10.02634718 -2.49858852e-05 -186.0122024
122.9997508 -93.10792001 -32.90772939
118.9997508 -56.2309384 -125.2126364
122.9997508 -42.95685842 -222.2192864
118.9997508 -45.49142645 -155.3582264
118.9997508 -57.01746034 -32.67377639
-31.79672718 -2.49858852e-05 -26.71696239
122.9997508 -46.95562436 -175.7916624
68.27303082 -84.30120596 -9.738646668e-05
44.43241882 -2.49858852e-05 -36.30468139
118.9997508 -6.146522066 -144.3270654
-72.78154618 -2.49858852e-05 -192.5284614
122.9997508 -88.11804032 -37.38780339
122.9997508 -71.8204131 -115.6692634
118.9997508 -111.2881286 -4.433233386
118.9997508 -81.86467661 -45.27106739
122.9997508 -60.691618 -184.5653874
122.9997508 -16.7371856 -122.0434194
122.9997508 -77.97104281 -74.02157739
118.9997508 -99.78637959 -63.40139439
122.9997508 -61.17233009 -199.5914734
26.15684882 -29.96308758 -9.738646668e-05
-106.4939902 -2.49858852e-05 -21.72582639
-28.69242118 -2.49858852e-05 -74.87073939
-33.82565318 -16.19289152 -9.738646668e-05
-101.5220962 -2.49858852e-05 -188.0632194
46.81311482 -2.49858852e-05 -72.19357439
-47.67934218 -2.49858852e-05 -249.2666784
119.8854488 -2.49858852e-05 -39.83331039
-118.1955092 -2.49858852e-05 -63.24102739
-19.10873918 -2.49858852e-05 -160.4505374
122.9997508 -38.43296566 -127.8539304
122.9997508 -32.26421762 -206.9824384
82.98924182 -16.72250971 -9.738646668e-05
122.9997508 -34.53691753 -6.795958386
-7.348295178 -2.49858852e-05 -127.1608794
-107.1674202 -2.49858852e-05 0.4350616135
-71.69374618 -2.49858852e-05 -238.7159124
-70.02854218 -2.49858852e-05 -30.18298139
120.1541408 -70.73375254 -9.738646668e-05
118.9997508 -30.56614195 -57.72799239
122.9997508 -15.68698662 -192.8101834
113.9035328 -2.49858852e-05 -208.5129554
77.93879382 -2.49858852e-05 -30.23869139
122.9997508 -0.4567605759 -130.0070264
-54.96050018 -2.49858852e-05 -180.3936644
-104.3965372 -43.05852021 -9.738646668e-05
122.9997508 -4.605462296 -168.4785224
119.7264918 -79.19170809 -9.738646668e-05
56.18900382 -2.49858852e-05 -137.6571204
118.9997508 -51.90212668 -192.7145054
122.9997508 -38.4514587 -169.2068704
95.65529182 -2.49858852e-05 -20.52297239
118.9997508 -50.25453725 -76.70259939
118.9997508 -52.870897 -236.6347524
122.9997508 -55.53963204 -73.80467139
-56.31018318 -2.49858852e-05 -190.7908784
118.9997508 -5.753979756 -202.4064014
-90.56274518 -2.49858852e-05 -130.9819004
118.9997508 -15.94939585 -69.26871639
122.9997508 -48.16431629 -108.4642944
-136.6512272 -2.49858852e-05 -190.1034674
12.76997582 -2.49858852e-05 -94.70999239
118.9997508 -55.51610391 -161.6005744
89.85415982 -0.2673997359 -9.738646668e-05
24.30321182 -2.49858852e-05 -121.4152994
122.9997508 -44.86292849 -31.93643139
117.1009158 -2.49858852e-05 -175.5883354
118.9997508 -101.1185059 -49.07857939
118.9997508 -7.920176816 -21.33463239
118.9997508 -35.30804126 -18.90415939
122.9997508 -10.36093122 -171.4803404
122.9997508 -52.31253487 -125.1195004
118.9997508 -7.912278456 -138.6487094
118.9997508 -30.03815175 -71.95435539
45.16198682 -14.82954941 -9.738646668e-05
122.9997508 -64.75016958 -158.2621804
-36.23923318 -2.49858852e-05 -112.9579794
-118.7019942 -2.49858852e-05 -154.6662904
118.9997508 -72.23470975 -34.83028639
118.9997508 -119.4113249 -4.104913386
122.9997508 -52.78459978 -2.678997386
122.9997508 -25.51131571 -240.3973204
122.9997508 -12.70762102 -60.59955539
122.9997508 -85.90086003 -66.34570339
118.9997508 -31.41420937 -188.0478844
122.9997508 -69.94496593 -94.54779439
118.9997508 -93.26333045 -81.61784039
118.9997508 -30.82528441 -248.2632334
122.9997508 -33.44487496 -80.87730539
118.9997508 -25.18467881 -92.62700039
-58.76370518 -2.49858852e-05 -30.03746039
118.9997508 -29.95232297 -132.9690254
122.9997508 -54.90192098 -64.80478939
118.9997508 -8.389061016 -54.37257439
122.9997508 -23.34271167 -76.48278739
118.9997508 -63.09962914 -44.12246139
122.9997508 -39.11735128 -235.9150674
116.3030408 -27.64843383 -9.738646668e-05
122.9997508 -34.86130429 -189.3805554
118.9997508 -76.267926 -47.14045639
122.9997508 0.6130796341 -217.6708504
0.7952138225 -26.95430454 -9.738646668e-05
118.9997508 -59.84907315 -6.185425386
-100.2865312 -39.50132649 -9.738646668e-05
-20.32905818 -2.49858852e-05 -189.3972914
44.25661182 -2.49858852e-05 -11.28165739
118.9997508 -0.8770625359 -27.71252439
122.9997508 -80.81634402 -30.92797139
-83.86738218 -2.49858852e-05 -210.8247304
122.9997508 -26.73267786 -6.780498386
118.9997508 -59.71829286 -179.4283504
118.9997508 -33.30664215 -32.05436339
122.9997508 -84.2635935 -72.24383639
118.9997508 -12.0202036 -129.4088224
-6.492485178 -2.49858852e-05 -143.3553874
75.31465482 -2.49858852e-05 -97.48178339
9.540258822 -2.49858852e-05 -63.74068539
-122.9902462 -2.49858852e-05 -196.5164924
118.9997508 -38.76527242 -207.1628004
32.42448082 -110.81334 -9.738646668e-05
97.51516682 -74.1955786 -9.738646668e-05
64.31765782 -38.0607072 -9.738646668e-05
68.62288682 -28.55321415 -9.738646668e-05
48.89498382 -2.49858852e-05 -81.95166939
118.9997508 -33.70918539 -87.09764939
122.9997508 -63.09214793 -18.41228239
122.9997508 -3.784510346 -245.2658274
-23.23129018 -2.49858852e-05 -97.25478939
118.6720898 -21.80157076 -9.738646668e-05
41.09181682 -2.49858852e-05 -223.2978274
-135.6220392 -19.99106652 -9.738646668e-05
118.9997508 -8.545158346 -33.97065939
118.9997508 -77.25162527 -66.94229539
122.9997508 -38.27393398 -36.91586739
118.9997508 -53.78370902 -134.0721084
-51.72471318 -2.49858852e-05 -13.99840739
-52.39608218 -2.49858852e-05 -244.1372234
118.9997508 -68.75034737 -151.6403904
118.9997508 -21.33448362 -68.59213039
-51.58568118 -2.49858852e-05 -28.06617339
97.86496682 -2.49858852e-05 -186.8684224
118.9997508 -79.15050173 -128.0678634
122.9997508 -90.89262165 -8.281370386
74.47649982 -2.49858852e-05 -9.949455386
-66.60815918 -2.49858852e-05 -108.7736014
122.9997508 -22.10826824 -4.275699386
-76.50683718 -2.49858852e-05 -244.1233874
-114.7381602 -2.49858852e-05 -231.4250144
-92.43835618 -2.49858852e-05 -4.263438386
-80.91456318 -2.49858852e-05 -50.38553739
20.67304482 -2.49858852e-05 -246.9815884
122.9997508 -24.15687367 -158.7125864
122.9997508 -42.99570417 -134.2147974
-135.7353032 -2.49858852e-05 -227.3472674
57.15746482 -2.49858852e-05 -156.1383964
118.9997508 -27.74140602 -41.66326639
39.56379482 -2.49858852e-05 -168.4726004
-90.35853718 -2.49858852e-05 -166.1729744
-127.6203882 -2.49858852e-05 -135.7658554
118.9997508 -44.56310794 -49.89277339
118.9997508 -16.98930659 -184.8606314
118.9997508 -23.6898132 -125.3113294
118.9997508 -18.59574562 -161.5031924
-39.24840418 -2.49858852e-05 -205.1235334
50.42542882 -100.0725238 -9.738646668e-05
118.9997508 -63.20926115 -61.13308139
118.9997508 -10.70210027 -157.2233954
118.9997508 -23.79916845 -192.7728054
-98.35178818 -2.49858852e-05 -37.70919839
47.39435682 -2.49858852e-05 -162.3583964
122.9997508 -71.83711517 -86.76857439
49.76506882 -2.49858852e-05 -187.5562864
118.9997508 -41.78017496 -121.4256354
118.9997508 -52.69162745 -71.39236139
118.9997508 -38.83386158 -190.9557424
59.59936082 -101.9744133 2.353904614
93.42099682 -2.49858852e-05 -193.0564654
114.1636388 -11.94467335 -9.738646668e-05
122.9997508 -54.1234106 -42.97600239
-14.99153018 -9.831575856 -9.738646668e-05
118.9997508 -43.9468809 -85.34661239
50.31121782 -131.8089273 0.2675326135
118.9997508 -39.54935071 -246.9690794
118.9997508 -57.73308367 -229.7564124
30.15328382 -2.49858852e-05 -221.1212404
122.9997508 -19.98812842 -37.19277839
118.9997508 -41.11931686 -6.907719386
122.9997508 -53.2744402 -21.59060539
122.9997508 -36.23414745 -103.9532004
122.9997508 -101.2109183 -42.41407039
138.4569888 -20.60331501 -9.738646668e-05
118.9997508 -80.81957436 -72.33204439
118.9997508 -105.4343581 -25.68349339
118.9997508 -18.36450317 -49.69067439
118.9997508 -54.71915509 -152.1677004
118.9997508 -56.86191936 -25.95149939
118.9997508 -97.76176584 -17.71118939
8.921107822 -58.21219738 -9.738646668e-05
-100.5334652 -2.49858852e-05 -177.3209654
118.9997508 -53.79193672 -139.2439974
56.04654882 -121.1017035 -9.738646668e-05
122.9997508 -90.52317529 -57.61999739
122.9997508 -39.73379314 -69.97925839
122.9997508 -16.31913733 -171.1414794
122.9997508 -99.48304014 -34.21069839
122.9997508 -58.30437156 -154.2695574
-30.97239218 -68.03571881 1.961958614
95.06881082 -2.49858852e-05 -34.96968739
59.36270182 -2.49858852e-05 -133.5948004
94.22971382 -2.49858852e-05 -94.49357139
37.57920382 -2.49858852e-05 -218.4806584
-22.17573218 -69.46347151 0.7432686135
118.9997508 -114.8765724 -9.487767386
122.9997508 -17.17090002 -250.4554924
122.9997508 -38.76262888 -146.7133094
-143.1608872 -2.49858852e-05 -69.32341339
118.9997508 -45.29501017 -127.8710374
122.9997508 -56.99302199 -113.0211124
110.8976488 -2.49858852e-05 -54.50026539
118.9997508 -1.428939996 -231.8477554
76.04567082 -125.2717823 -9.738646668e-05
118.8644598 -2.49858852e-05 -140.6998304
122.9997508 -54.82664795 -106.7531394
122.9997508 -19.2728839 -24.86245839
-125.2292502 -19.12954147 -9.738646668e-05
122.9997508 -34.54628816 -68.61934339
-106.7349772 -2.49858852e-05 -124.7836154
118.9997508 -80.54844155 -27.46412639
118.9997508 -15.44921175 -210.0933624
122.9997508 -28.53329256 -252.4438784
118.9997508 -70.55190538 -21.00346439
-108.3458152 -22.65486794 -9.738646668e-05
54.83416582 -27.66948455 -9.738646668e-05
118.9997508 0.9982287641 -222.0374924
118.5007278 1.856297104 -71.48251039
-36.16041818 -2.49858852e-05 -126.4261234
118.9997508 -29.88830515 -228.5666584
-2.996027178 -2.49858852e-05 -10.98951139
122.9997508 -15.82477652 -65.52333339
118.9997508 -26.65699415 -17.01624739
118.9997508 -39.58408939 -54.08922139
61.24506882 -88.96291952 -9.738646668e-05
118.9997508 -59.4000705 -173.1543974
122.9997508 -26.99597283 -127.7514754
122.9997508 -89.6917268 -52.03904139
-62.62796318 -17.29557938 -9.738646668e-05
122.9997508 -19.98545845 -117.9344614
118.9997508 -11.22878016 -145.6409094
21.66567182 -106.5356186 -9.738646668e-05
28.07067482 -2.49858852e-05 -50.78388639
-89.81019518 -2.49858852e-05 -59.09876839
122.9997508 -71.37356562 -31.80720639
-12.71406818 -2.49858852e-05 -59.25528539
118.9997508 -72.20585997 -79.99361639
118.9997508 -70.889478 -28.10770839
74.01458682 -2.49858852e-05 -90.62984239
122.9997508 -37.83854571 -90.12899539
117.7893498 -2.49858852e-05 -80.58633539
-39.08266218 -27.98297737 -9.738646668e-05
122.9997508 -8.278140826 -79.94956039
118.9997508 -16.86329234 -176.9315144
122.9997508 -37.34423528 -224.0192974
118.9997508 -78.12112361 -22.73192739
-107.5120672 -2.49858852e-05 -151.9242024
131.3129418 -2.49858852e-05 -92.68380539
118.9997508 -28.02908343 -31.37190339
8.305785822 -2.49858852e-05 -87.83266039
-67.70973518 -2.49858852e-05 -200.9954484
142.8952778 -10.05418743 -9.738646668e-05
129.4880208 -2.49858852e-05 -144.4048474
118.9997508 -50.19548718 -54.93123039
122.9997508 -29.10895174 -173.3893204
122.9997508 -46.62183558 -120.0365404
122.9997508 -47.78315921 -180.7787644
122.9997508 -52.45892043 -163.1670104
118.9997508 -80.93933459 -78.88483539
61.54783382 -73.39052119 -9.738646668e-05
122.9997508 -51.02631472 -200.8331004
118.9997508 -89.56905644 -66.16895539
122.9997508 -5.909562186 -89.80248439
122.9997508 -52.34873761 -28.59029539
118.9997508 -33.47890598 -50.61744039
49.27735782 -2.49858852e-05 -17.79565639
121.3621298 -2.49858852e-05 -120.5011874
118.9997508 -57.97256169 -100.5521544
-10.40190918 -2.49858852e-05 -162.8797494
-98.86255018 -2.49858852e-05 -244.1136494
72.52731482 -2.49858852e-05 -250.8426674
104.8403328 -31.17855717 -9.738646668e-05
-84.74520018 -2.49858852e-05 -55.41486339
122.9997508 -41.69110913 -176.3092904
118.9997508 -71.6706609 -13.92671839
118.9997508 -50.37547181 -37.35649039
118.9997508 -66.23492358 -100.5883444
73.98262982 -84.09149145 -9.738646668e-05
118.9997508 -6.835333266 -100.6967474
118.9997508 -22.39078408 -87.86368439
141.0253148 -2.49858852e-05 -76.87273039
118.9997508 -44.33690931 -194.2213344
83.41837882 -127.4984296 -9.738646668e-05
122.9997508 -49.30623774 -212.6988584
118.9997508 -105.343652 -33.35589739
118.9997508 -53.29700908 -168.1106244
122.9997508 -47.31170215 -130.1242044
118.9997508 -7.529496926 -196.5598564
-101.7448312 -2.49858852e-05 -134.9016054
102.9944098 -2.49858852e-05 -56.30960339
122.9997508 -59.65340718 -41.61956339
-32.17312118 -2.49858852e-05 -240.7882964
122.9997508 -55.46716795 -97.82536239
122.9997508 -77.57255562 -4.398184386
118.9997508 -15.101354 -189.5976004
36.19969182 -44.26684259 -9.738646668e-05
114.7922358 -2.49858852e-05 -119.1714354
118.9997508 -43.76035769 -207.4212404
58.58028782 -2.49858852e-05 -18.94823539
-121.3742822 -2.49858852e-05 -53.02417739
118.9997508 -36.88662845 -112.3177224
122.9997508 -52.47360997 -149.0355914
122.9997508 -24.48908656 -201.6528984
122.9997508 -65.29288845 -13.56552539
122.9997508 -28.59283673 -75.02795839
122.9997508 -73.00867422 -148.1390854
118.9997508 -46.20602271 -106.0582044
122.9997508 -47.9830075 -100.6721144
118.9997508 -7.405274106 -229.0468484
57.98274882 -97.13455146 -9.738646668e-05
41.31082182 -11.06898973 -9.738646668e-05
53.21663582 -19.59418339 -9.738646668e-05
122.9997508 -57.27361003 -58.53411039
122.9997508 -51.05976178 -67.96600439
122.9997508 -33.90272044 -41.08785239
-115.4335302 -5.317257486 -9.738646668e-05
118.9997508 -27.5271123 -138.2716954
118.9997508 -44.11270581 -180.8422844
118.9997508 -36.27136279 -81.72696939
118.9997508 -79.65876214 -10.31793839
-43.02856318 -15.6476319 -9.738646668e-05
118.9997508 -47.08834451 -23.83345439
122.9997508 -64.1864317 -175.0085024
15.52076782 -2.49858852e-05 -19.61158739
118.9997508 -8.724703176 -165.7349154
122.9997508 -13.245237 -221.9389704
122.9997508 -12.44643768 -55.56874139
122.8535088 -58.50240573 -225.6721024
118.9997508 -114.7098785 -20.44651839
122.9997508 -44.97958071 -200.7716464
-31.15137118 -2.49858852e-05 -48.88422139
118.9997508 -7.142651766 -83.86953939
122.9997508 -11.10827959 -236.3949364
