# .PCD v0.7 - Point Cloud Data file format
VERSION 0.7
FIELDS x y z
SIZE 4 4 4
TYPE F F F
COUNT 1 1 1
WIDTH 1257
HEIGHT 1
VIEWPOINT 0 0 0 1 0 0 0
POINTS 1257
DATA ascii
-125.800088 11.76038463 149.9999026
-52.697424 -2.49860442e-05 103.8722256
-55.261054 19.80327758 -150.0000974
-157.265946 13.27964908 143.9999026
-174.952476 9.651455844 -144.0000974
-81.463521 -2.49860442e-05 40.64912361
-235.743683 34.23123198 -150.0000974
0.0002150000173 27.54189618 -101.8191084
0.59795 -2.49860442e-05 -74.33043239
-2.429778 21.41500988 -144.0000974
0.0002150000173 28.57066928 15.01900161
-57.608197 1.688970384 -144.0000974
-36.679197 51.64770548 149.9999026
-38.570535 -2.49860442e-05 -17.52203139
0.0002150000173 34.57522508 -18.15014639
-40.628376 21.62381798 149.9999026
0.0002150000173 13.67885328 -125.3913394
0.0002150000173 28.04758618 42.41208561
-246.864869 53.39129948 -144.0000974
-195.478581 -2.49860442e-05 94.76931861
-164.820411 28.89416868 -150.0000974
0.0002150000173 -0.07110452604 13.03109561
-109.591654 -2.49860442e-05 -20.04642639
-124.44137 30.25612818 149.9999026
-7.613676 -2.49860442e-05 134.2346146
-10.339843 -2.49860442e-05 -94.16232939
-220.546296 -2.49860442e-05 -99.31451039
-204.414429 23.59200738 149.9999026
0.0002150000173 3.420837354 -45.98078339
-24.961598 -2.49860442e-05 -47.55325439
-107.280148 9.190667714 149.9999026
-174.225858 -2.49860442e-05 -65.36775839
-33.618672 34.95827678 143.9999026
-52.066461 -2.49860442e-05 44.63769461
-196.22857 -2.49860442e-05 139.4586296
-176.733575 38.61467728 -150.0000974
-185.173495 34.59060688 143.9999026
-3.452637 -2.49860442e-05 -140.6673264
-5.178364 -2.49860442e-05 44.74333461
0.0002150000173 45.48804628 -62.73244339
-225.937032 59.50171508 149.9999026
1.899181 -2.49860442e-05 67.93199561
-201.97118 -2.49860442e-05 53.62931961
-230.464372 -2.49860442e-05 -69.84123139
-166.994084 46.88366808 149.9999026
-154.637426 1.355549274 149.9999026
-200.674702 -2.49860442e-05 37.30617561
-121.823351 -2.49860442e-05 -99.70339839
-136.292074 -2.49860442e-05 -15.51960539
-144.354054 37.68701178 149.9999026
-62.49921 -2.49860442e-05 -130.0428924
-245.731813 16.43085328 143.9999026
0.0002150000173 41.69503608 46.53111361
-9.177169 55.13497258 -144.0000974
-211.764015 11.65660229 -150.0000974
-17.030724 67.99997498 147.5317026
-40.156041 43.78388858 -150.0000974
-67.068787 67.79948178 -144.0000974
-74.606423 -2.49860442e-05 -54.94799339
-141.798649 32.00409258 -144.0000974
-49.544116 -2.49860442e-05 32.48676661
-159.412032 -2.49860442e-05 123.7842596
-70.735413 -2.49860442e-05 -13.10157939
-97.598419 -2.49860442e-05 93.93327261
-41.766242 -2.49860442e-05 -122.5360204
-170.453224 -2.49860442e-05 91.91183661
-105.849319 -2.49860442e-05 8.571125614
0.0002150000173 13.98546608 93.18867861
-157.328316 38.18393538 -144.0000974
0.0002150000173 19.17413148 -60.71045939
-60.985438 -2.49860442e-05 134.9554316
-240.483528 -2.49860442e-05 67.31718861
-99.913182 -0.858605656 -150.0000974
-248.279271 14.24912278 -144.0000974
1.159378 34.08048438 143.9999026
-47.316898 -2.49860442e-05 76.05796561
-41.718287 -2.49860442e-05 129.3181836
-233.198779 -2.49860442e-05 109.7347976
0.0002150000173 26.87645418 -117.9298424
-182.13502 -2.49860442e-05 -5.301908386
-102.617095 -2.49860442e-05 -63.19922039
-169.906556 -2.49860442e-05 106.3064846
-21.66937 -2.49860442e-05 -99.53255039
-160.268813 12.30901938 -144.0000974
-234.442632 12.40278718 143.9999026
-41.557516 67.99997498 145.9049256
-73.524451 21.88304048 -144.0000974
-108.726133 -2.49860442e-05 -75.53791539
-73.831933 -2.49860442e-05 -119.1952084
-103.550135 -2.49860442e-05 -113.5612394
-61.001742 -2.49860442e-05 61.70822961
-9.217246 -2.49860442e-05 63.00397161
-66.565997 -2.49860442e-05 122.5969186
-247.016858 -2.49860442e-05 -92.42396939
-3.028121 -2.49860442e-05 84.58173461
-13.552623 -2.49860442e-05 -56.79219639
0.0002150000173 18.89889048 -3.012932386
-150.842505 -2.49860442e-05 -121.7241744
-119.585612 -2.49860442e-05 26.65292661
-178.855611 -2.49860442e-05 63.69816661
0.0002150000173 41.17115868 -125.9081004
-211.04562 -2.49860442e-05 31.28844161
-211.901131 -2.49860442e-05 120.7871406
-104.74869 23.85686348 -144.0000974
0.0002150000173 32.98419378 -50.53433739
-118.328552 -2.49860442e-05 10.85284661
-198.010096 31.88149048 -150.0000974
-93.834463 -2.49860442e-05 -16.45040639
0.0002150000173 38.43056738 132.8925656
-88.413138 39.49188248 -144.0000974
-114.132147 -0.986488896 -150.0000974
-235.513007 -2.49860442e-05 -113.0856264
-169.346803 57.19512718 -150.0000974
-82.912861 -2.49860442e-05 68.66337161
-116.577735 0.749975014 146.1663806
-21.656688 -2.49860442e-05 108.7857536
-73.286224 -2.49860442e-05 -1.224466386
-103.090467 43.38703118 -144.0000974
-160.448907 -2.49860442e-05 -28.22875439
0.0002150000173 28.07053018 111.1826916
-167.460842 -2.49860442e-05 -140.6159484
-48.608206 -2.49860442e-05 -44.16270739
-148.613745 45.83248088 -144.0000974
-27.160175 10.92615324 143.9999026
-51.360119 -2.49860442e-05 -70.87016639
-150.551994 -2.49860442e-05 -5.361671386
-77.195638 51.87083168 -144.0000974
-5.722674 -2.49860442e-05 -18.48819039
-175.748354 -2.49860442e-05 38.65423161
-37.502378 -2.49860442e-05 -86.07992339
-228.535431 -2.49860442e-05 -37.08797639
0.0002150000173 42.84551148 -83.45363739
-159.638361 55.70565958 143.9999026
-223.13228 -2.49860442e-05 44.99493561
-16.542544 -2.49860442e-05 -1.373252386
-234.489037 24.37194468 -144.0000974
-42.367931 12.27220318 143.9999026
-193.133339 9.125169644 149.9999026
-118.456721 -2.49860442e-05 -131.0469414
-91.832115 20.68707488 -144.0000974
-53.810685 0.537912414 149.9999026
-160.569379 -2.49860442e-05 100.1329356
-210.123708 -2.49860442e-05 -34.78854539
0.0002150000173 15.61293558 131.8958036
-241.473537 -2.49860442e-05 99.68662661
-93.05842 0.749975014 149.0727246
-105.833587 -2.49860442e-05 73.62845461
-251.762155 28.96288138 143.9999026
-59.538372 -2.49860442e-05 -88.13865639
-200.518521 8.132218824 -150.0000974
-208.469618 -0.640427716 143.9999026
-143.35468 -2.49860442e-05 26.37006061
-212.364805 54.61624708 -144.0000974
-216.491812 -2.49860442e-05 56.02671461
-73.54117 -2.49860442e-05 138.6574466
-49.350532 54.50307688 -150.0000974
-39.629316 -2.49860442e-05 109.9943266
-0.275551 44.61149238 -150.0000974
-105.895556 -2.49860442e-05 -126.0597814
-49.714909 30.33794838 143.9999026
-205.155336 45.94855698 143.9999026
-97.416734 28.14622588 149.9999026
-173.649129 -2.49860442e-05 -107.0094034
-170.882363 -2.49860442e-05 8.266156614
-31.551878 24.91268338 -150.0000974
-226.060698 -2.49860442e-05 -121.9637554
-129.843709 -2.49860442e-05 35.85066161
-114.585308 -2.49860442e-05 -34.71815439
-230.659837 -2.49860442e-05 -54.56515039
-161.391809 31.09140818 143.9999026
-169.53124 -2.49860442e-05 128.3730206
-27.07455 -2.49860442e-05 1.762743614
-47.835544 -2.49860442e-05 -111.8977834
-175.517845 18.09706318 143.9999026
-89.357818 -2.49860442e-05 -71.29127339
-24.515203 30.01146148 149.9999026
-192.223856 -2.49860442e-05 -139.1469054
-29.063411 -2.49860442e-05 42.60632761
-198.480884 43.37300298 -150.0000974
-23.265655 -2.49860442e-05 -76.12353539
-114.114393 9.954836334 -144.0000974
-22.752947 59.21571048 149.9999026
-62.025596 23.17493498 149.9999026
-195.198939 19.66783398 143.9999026
-173.207724 -2.49860442e-05 142.5939006
-73.179043 16.14606948 143.9999026
-231.585182 -2.49860442e-05 74.32856261
-26.162382 -0.420575896 -144.0000974
0.0002150000173 23.78516138 121.9441296
-193.516804 -2.49860442e-05 78.57690561
-226.078428 27.77074458 -150.0000974
-142.506489 54.61220498 -150.0000974
1.847791 59.55265128 143.9999026
-224.544416 -2.49860442e-05 -15.94603739
-132.872554 11.08758108 -150.0000974
-170.671055 57.67783748 143.9999026
-105.803189 -2.49860442e-05 30.23097161
-218.441765 -2.49860442e-05 98.00024961
-232.057161 3.668114974 -150.0000974
-214.726206 20.35539418 149.9999026
-234.727253 -2.49860442e-05 140.1217296
-174.932256 -2.49860442e-05 19.22541061
-132.046152 -2.49860442e-05 -97.35787639
-147.926615 18.01105618 143.9999026
-16.603235 11.03294055 -144.0000974
-205.001706 -2.49860442e-05 -118.5981174
-231.520889 39.00825248 143.9999026
-139.982213 -2.49860442e-05 13.98035661
-227.552054 6.940072164 149.9999026
-142.288905 -2.49860442e-05 -49.20157739
-200.447025 -2.49860442e-05 106.5783256
-60.706752 44.39619818 143.9999026
-114.480662 24.21275378 -150.0000974
1.374368 49.99997498 91.01537861
-64.514692 -2.49860442e-05 -47.23716539
-106.02457 29.29417198 143.9999026
-19.858188 -2.49860442e-05 -37.74859039
0.0002150000173 27.22670398 -27.12771339
-116.456449 10.86436395 143.9999026
-158.91911 -2.49860442e-05 -40.30230339
0.0002150000173 37.28981288 -74.20598639
-38.092933 -2.440583916 -144.0000974
-99.125285 67.27910578 -150.0000974
-85.445496 -2.49860442e-05 -82.15570139
-96.9574 -2.49860442e-05 -137.0212664
-20.84403 40.11604788 149.9999026
-102.326258 55.18245238 143.9999026
-106.367165 -2.49860442e-05 -91.55238539
-240.867461 -2.49860442e-05 -6.713881386
-223.378822 -2.49860442e-05 137.7850526
-199.927544 1.432878184 149.9999026
-181.064395 18.38773618 -144.0000974
-64.662672 41.58695608 -144.0000974
-193.397043 -2.49860442e-05 -20.67939639
0.0002150000173 25.09472798 69.31925861
-61.592262 62.03233938 143.9999026
-240.415969 42.10025098 149.9999026
-78.835171 28.82287388 149.9999026
-39.598902 -2.49860442e-05 92.06293661
-214.39541 -2.49860442e-05 -140.7230734
-21.296712 -2.49860442e-05 77.43063461
-220.09053 -2.49860442e-05 109.4561496
-49.417422 58.55648718 143.9999026
-78.197173 10.33094937 -144.0000974
-188.01825 54.01698548 149.9999026
-107.961083 -2.49860442e-05 100.1672526
-63.647983 -2.49860442e-05 93.00832061
0.0002150000173 10.01259116 83.89056061
-146.766795 -2.49860442e-05 -137.7433274
0.0002150000173 49.41218898 -107.8141164
-113.827481 44.29862698 -144.0000974
-202.475443 67.99997498 148.5594106
-97.367949 11.08345558 149.9999026
-202.160244 -2.49860442e-05 -99.76598039
-219.824051 42.22098528 149.9999026
-156.755669 37.73709758 149.9999026
-119.837596 53.64390228 143.9999026
-158.055567 -2.49860442e-05 52.21655061
-193.450306 64.36569128 -144.0000974
-10.645847 33.27093858 -150.0000974
-157.980586 -2.49860442e-05 69.96072861
2.232249 15.47448168 -135.0057954
-88.11002 8.814977844 143.9999026
-14.701793 6.089724774 149.9999026
-115.224895 -2.49860442e-05 -0.3044813858
-65.885591 0.964041614 -150.0000974
0.0002150000173 9.525610284 -68.80574639
-142.812702 57.80180148 149.9999026
-5.484442 12.39488368 149.9999026
0.0002150000173 11.67229812 -20.48404439
0.0002150000173 34.64062028 -134.7378514
0.0002150000173 9.514372744 -38.15165839
-22.809683 -2.49860442e-05 -21.19427739
-171.946074 -2.49860442e-05 -48.09618039
-77.701365 5.093620584 149.9999026
-92.596557 -2.49860442e-05 -1.642269386
-137.342042 0.658275004 145.9802346
-33.116605 51.18341138 -150.0000974
-241.58952 -2.49860442e-05 21.35581861
0.0002150000173 6.918031454 104.6296916
0.837273 66.91203218 -150.0000974
-11.948652 -2.49860442e-05 -84.44023539
0.0002150000173 29.26479148 88.38445561
-228.316721 26.37989858 143.9999026
-119.242881 -2.49860442e-05 -141.6934444
-8.242343 38.63442588 143.9999026
-84.878537 50.95217548 -150.0000974
-156.733509 -2.49860442e-05 8.747345614
-68.020027 56.64957968 -150.0000974
-244.439623 -2.49860442e-05 141.6713506
-113.863622 63.44673438 -150.0000974
-127.200631 23.05371928 143.9999026
-216.606047 -2.49860442e-05 -55.51036039
0.0002150000173 26.25122168 -74.75065939
0.0002150000173 7.553166214 -81.38014339
-11.676439 -2.49860442e-05 7.142342614
-98.030725 6.732333994 -144.0000974
-31.321767 39.19873758 -150.0000974
-170.740154 -2.49860442e-05 -125.6504474
-133.456627 11.88640466 143.9999026
-56.862306 -2.49860442e-05 123.2546346
-73.515014 35.96222658 143.9999026
-143.533434 -2.49860442e-05 129.4499916
0.0002150000173 38.59840818 -102.1056424
-190.306288 -2.49860442e-05 -86.85073939
-152.453123 -2.49860442e-05 31.61650461
-104.616259 -2.49860442e-05 -52.31867539
-134.694532 37.07282108 149.9999026
-47.090955 -2.49860442e-05 52.92020161
-155.08947 21.16229858 149.9999026
-212.12003 -2.49860442e-05 73.49773461
-140.790419 22.40436918 -144.0000974
-149.200055 33.48057988 -150.0000974
-207.164572 -2.49860442e-05 -68.72915839
-86.48245 -2.49860442e-05 121.6861756
-190.337677 26.06296258 -150.0000974
-67.888926 -2.49860442e-05 -37.45419639
0.0002150000173 40.25901628 20.19540861
-37.184012 -2.49860442e-05 -36.77112239
-87.446811 -2.49860442e-05 -45.58288839
-5.943859 27.65110758 143.9999026
-185.594839 -2.49860442e-05 19.48719961
-58.833531 -2.49860442e-05 -25.22804939
0.0002150000173 23.69841168 31.13430961
-162.445221 -2.49860442e-05 -55.91680939
0.0002150000173 35.78653278 81.41354861
-33.056525 -2.49860442e-05 64.32947961
-141.422564 -2.49860442e-05 37.64532061
-143.857315 -2.49860442e-05 -92.30018039
-102.820402 -2.49860442e-05 115.9653086
0.0002150000173 41.43088768 105.0343916
-113.7705 -0.120517246 55.04575361
-4.775817 1.062627434 -150.0000974
-171.212655 26.53810718 143.9999026
-64.722627 20.24407348 -150.0000974
-74.701511 -2.49860442e-05 55.23858661
0.0002150000173 47.80114078 -119.1614154
-47.551626 -2.49860442e-05 -14.55848039
-242.210915 67.99997498 -149.0587044
-40.045791 7.122045754 -144.0000974
-72.137109 33.56898608 -144.0000974
-239.61086 -2.49860442e-05 43.58603061
-123.950011 43.83307678 -144.0000974
-162.315534 62.93024108 149.9999026
-120.896336 -2.49860442e-05 -77.79528639
-101.994833 47.96487248 149.9999026
-247.56525 34.65433648 -150.0000974
-203.307936 -2.49860442e-05 133.3091706
-34.801004 13.41358478 149.9999026
-19.748645 67.99997498 -144.3253394
-19.830979 28.91038708 -144.0000974
-37.985372 67.31704108 -144.0000974
-72.721474 -2.49860442e-05 30.69501961
-53.824094 -2.49860442e-05 -6.649133386
-95.096447 -2.49860442e-05 30.98731561
-124.479125 30.26116018 -150.0000974
2.152429 -1.800020406 -13.43609339
-104.856566 37.65889818 149.9999026
-133.092775 -2.49860442e-05 -32.23551439
-121.103424 -2.49860442e-05 -50.34400639
0.0002150000173 12.92046558 -52.43744139
-158.721434 19.23062668 -150.0000974
0.0002150000173 9.469309974 3.369429614
-202.169842 -2.49860442e-05 -12.11873839
0.0002150000173 19.68919188 52.74982961
-143.744869 24.94484318 149.9999026
-87.842791 -2.49860442e-05 110.3550886
-162.815466 -2.49860442e-05 61.59836761
-49.280767 7.854900484 -144.0000974
-251.103115 -2.49860442e-05 -103.7466664
-162.300987 57.23208148 -144.0000974
-181.628277 -2.49860442e-05 120.7653696
-229.769453 -2.49860442e-05 85.04963161
0.0002150000173 38.71251048 -43.29550339
-182.683607 -2.49860442e-05 -71.62308939
-47.522248 -2.49860442e-05 -94.26089639
-182.833706 -2.49860442e-05 102.9872156
-124.643104 56.77980778 -144.0000974
-125.741348 67.99997498 146.5147676
-7.413614 -2.49860442e-05 125.0552246
-15.332732 43.49277448 -150.0000974
-33.805409 27.75857888 149.9999026
-44.83893 47.45963978 149.9999026
-50.709595 39.15356948 -144.0000974
-78.66999 -2.49860442e-05 -141.6220614
-237.31669 -2.49860442e-05 -63.79664039
-42.175268 1.816771244 143.9999026
-240.704954 49.79152168 -150.0000974
-138.449639 -2.49860442e-05 119.5713856
-178.671723 36.72736798 149.9999026
-163.247646 -2.49860442e-05 -9.264298386
-57.660378 -2.49860442e-05 36.56986661
-169.22222 -2.49860442e-05 82.69266461
-29.10694 0.01323234396 143.9999026
-164.753414 -2.49860442e-05 -66.78557239
-189.020506 -2.49860442e-05 44.85748961
-185.677308 -2.49860442e-05 141.0675126
-86.351628 -2.49860442e-05 -132.3139434
-251.360548 -2.49860442e-05 -41.50964639
-126.475402 -0.463392836 -125.1689544
-82.439915 -2.49860442e-05 -121.9831044
-20.608419 -2.49860442e-05 86.66967661
-82.68158 -2.49860442e-05 77.70637861
0.0002150000173 9.811316344 -104.9478174
-71.508249 -2.49860442e-05 21.23965761
-197.70303 -2.49860442e-05 -32.46919139
-88.022779 -2.49860442e-05 131.0185126
-74.845717 -2.49860442e-05 -31.71425039
-132.400095 30.74796198 143.9999026
-36.117292 -2.49860442e-05 29.01279961
-203.781237 61.09182828 -144.0000974
-131.671085 -0.369348886 -150.0000974
-242.650199 -2.49860442e-05 -141.1978554
-155.061064 -2.49860442e-05 -113.7938724
-149.802252 50.91950978 149.9999026
-149.031136 18.79598788 -150.0000974
-125.488613 36.83152338 143.9999026
-212.155562 39.38241378 143.9999026
-86.615262 59.86394398 143.9999026
0.0002150000173 6.356026754 19.24281361
-8.542324 2.131404564 143.9999026
-113.231812 -2.49860442e-05 -54.58330339
-206.448 15.51905098 -144.0000974
-40.960988 -2.49860442e-05 -8.585097386
-155.506736 44.47897788 -150.0000974
-50.275363 60.98120278 -144.0000974
0.0002150000173 33.63199128 99.41054361
-39.934582 -2.49860442e-05 83.20017161
-207.341662 -2.49860442e-05 -129.3889714
-239.23957 -2.49860442e-05 121.2621206
-88.37565 30.00743328 -144.0000974
-229.868095 -2.49860442e-05 58.75739561
-145.241113 67.99997498 149.4135076
-114.0589 -2.49860442e-05 -84.56327139
-171.008602 -2.49860442e-05 -87.49274339
-184.790982 -0.341507106 -144.0000974
-12.909636 60.44839578 -150.0000974
-180.694994 -2.49860442e-05 -91.70698139
-218.35798 -2.49860442e-05 -37.92830639
-74.702941 -2.49860442e-05 46.42643861
-76.473809 -2.49860442e-05 -19.78664539
-29.899123 -2.49860442e-05 -102.6725264
-91.623144 39.63397518 149.9999026
-189.797005 12.64730748 -144.0000974
-41.305807 -2.49860442e-05 13.84216461
-4.477002 12.50186178 -144.0000974
-182.176856 -2.49860442e-05 -44.93406339
-204.283067 33.19756898 -144.0000974
-50.57798 -2.49860442e-05 -120.2306864
-63.776517 50.84730668 149.9999026
-30.24826 -2.49860442e-05 -70.82511639
-235.026288 58.54738668 149.9999026
0.0002150000173 42.82117238 11.28738661
-218.221259 10.42344021 -144.0000974
-198.767071 48.83316658 149.9999026
-165.835778 36.29259328 -144.0000974
-226.055117 -2.49860442e-05 129.1411086
-214.272046 37.26103598 -150.0000974
-126.035156 -2.49860442e-05 0.1642286142
-130.199589 44.67371348 -150.0000974
-41.114656 -2.49860442e-05 -136.2129284
-147.387647 -2.49860442e-05 -56.25215239
-135.700742 33.55699658 -150.0000974
-200.19973 34.60178318 143.9999026
0.0002150000173 39.95755478 -24.97450239
-190.116299 -2.49860442e-05 -126.7572464
0.0002150000173 3.530919884 38.72914261
-180.745962 -2.49860442e-05 -125.8480874
-198.514851 -2.49860442e-05 -3.712903386
-57.129095 28.26692118 -150.0000974
-214.204976 -2.49860442e-05 -84.92144039
-121.028917 -2.49860442e-05 -17.44055239
-62.469576 -2.49860442e-05 74.37707861
-67.010945 32.18335668 149.9999026
-115.945118 -2.49860442e-05 -25.91701239
-87.995661 -2.49860442e-05 46.30918661
-191.044757 36.62531558 149.9999026
-93.874425 42.38686988 -150.0000974
-74.416266 -2.49860442e-05 81.01598561
-218.484131 9.879413714 143.9999026
0.0002150000173 49.42202468 72.64783661
-106.126909 -2.49860442e-05 -33.15394039
-24.006832 16.21707378 149.9999026
-213.423686 -2.49860442e-05 -108.4609094
-22.440526 -2.49860442e-05 -111.7297294
-127.824841 -2.49860442e-05 -44.72963939
-117.507913 -2.49860442e-05 116.1591476
-82.112043 67.99997498 -149.5322724
-217.622638 -2.49860442e-05 -3.203191386
-28.405359 -2.49860442e-05 -55.37859339
-115.509548 57.58826068 -144.0000974
0.0002150000173 6.318454464 47.24238761
-56.42328 63.18364268 -150.0000974
-248.76726 -2.49860442e-05 69.33816461
-211.520842 29.67614878 149.9999026
-20.966456 -2.49860442e-05 -127.9296584
0.0002150000173 39.88910368 32.50833261
-229.214569 -2.49860442e-05 23.86601761
-234.978783 34.09390118 149.9999026
-1.126023 -2.49860442e-05 75.86111461
0.896093 49.99997498 125.8995136
0.372578 37.63365868 -143.0000974
-227.432543 -2.49860442e-05 -77.75196239
-97.736028 -2.49860442e-05 -107.4049894
-15.28517 -2.49860442e-05 128.1658736
-136.121354 -2.49860442e-05 -7.065570386
-52.287827 -2.49860442e-05 -60.66357139
-226.416539 13.56762358 -144.0000974
-36.303175 21.34635018 -144.0000974
-44.231451 21.59739658 -150.0000974
-30.065679 -2.49860442e-05 -92.44882339
0.0002150000173 27.23642788 -56.71254339
-190.563443 -2.49860442e-05 0.7413776142
-72.854625 -2.49860442e-05 -90.10054239
-245.918638 61.44203588 143.9999026
-248.459053 46.50968178 -150.0000974
-104.747215 62.96140958 149.9999026
-200.699629 16.03791908 149.9999026
-45.301194 46.66192518 -144.0000974
-32.166316 -2.49860442e-05 -122.6718994
-119.138923 42.99991168 149.9999026
-165.444051 -2.49860442e-05 -112.4124224
-79.873352 45.88521288 149.9999026
-74.915821 -2.49860442e-05 -73.58625039
-246.709479 23.25304198 149.9999026
-156.26426 -2.49860442e-05 107.5801546
-31.076519 5.376558784 -150.0000974
-29.175262 41.59744348 149.9999026
-186.442208 -2.49860442e-05 67.24264061
-32.477337 -2.49860442e-05 87.56739861
-23.315709 -0.710817826 149.9999026
-163.950398 -2.49860442e-05 116.7541246
-243.854934 46.81067338 143.9999026
-191.443253 -2.49860442e-05 -106.1490564
-84.428861 59.08304328 -144.0000974
-130.080813 64.91126138 -144.0000974
0.0002150000173 9.605000104 120.8123266
-151.883199 -2.49860442e-05 129.3278956
-105.988112 -2.49860442e-05 -0.5430753858
0.0002150000173 38.30318148 -56.95764239
-48.42503 -2.49860442e-05 -140.2111924
-6.401566 -2.49860442e-05 97.13036361
-31.123692 -2.49860442e-05 -21.42959139
-11.889639 -2.49860442e-05 112.4556846
1.381507 28.86883888 -143.0000974
-216.334988 47.32987808 -144.0000974
-147.926907 -2.49860442e-05 -129.5271934
-66.694155 -2.49860442e-05 -57.43332439
-8.635364 -2.49860442e-05 -3.866800386
-78.554599 63.04730878 149.9999026
-41.751435 32.60651368 143.9999026
-208.890625 50.24829468 149.9999026
-196.35895 37.32751658 -144.0000974
-148.892337 58.04185608 -144.0000974
-182.846629 40.03048488 -144.0000974
-138.10546 17.02447458 149.9999026
-247.699267 -2.49860442e-05 94.25695061
-43.173047 60.32615518 -150.0000974
-145.797963 -2.49860442e-05 54.80007161
-13.046205 -0.957145996 -144.0000974
-38.064452 -2.49860442e-05 137.1143516
-146.023227 -2.49860442e-05 65.25297461
-172.275121 23.83401808 -144.0000974
-123.515483 -2.49860442e-05 -62.37892239
-132.473748 47.29770498 143.9999026
-136.231812 -2.49860442e-05 -59.13758739
-88.678792 -2.49860442e-05 16.70398061
0.0002150000173 16.13738868 103.0276966
-214.193875 -2.49860442e-05 -24.91845939
0.0002150000173 39.45636908 63.34468261
-241.619575 -2.49860442e-05 -101.7323794
-186.030653 -2.49860442e-05 -14.66147439
-121.880845 -2.49860442e-05 125.3395526
-199.170721 40.46638688 149.9999026
-108.651087 9.199051364 -150.0000974
-56.819732 48.48637218 -144.0000974
-50.21298 6.108156974 143.9999026
-251.243598 18.86961678 -150.0000974
-157.929452 -2.49860442e-05 37.62843461
-198.233427 -2.49860442e-05 -92.33940739
-14.976636 60.97633508 143.9999026
-103.922721 17.11070398 149.9999026
-80.19995 -2.49860442e-05 -106.6440884
-90.92827 -2.49860442e-05 69.98793961
-156.033478 -2.49860442e-05 -127.9702014
-216.946812 27.85368358 -144.0000974
0.0002150000173 22.69093948 -82.03765739
-229.848979 -2.49860442e-05 40.45014761
0.0002150000173 21.60643238 142.2629086
-208.019114 67.99997498 -144.0751674
-223.328411 67.99997498 146.9069186
-11.663968 -2.49860442e-05 39.89418861
-4.373668 34.82172858 149.9999026
-28.537468 44.52036058 -144.0000974
-49.846576 -2.49860442e-05 -36.17445239
-208.201352 12.26819188 149.9999026
2.374735 -2.49860442e-05 -39.05664439
-141.385846 14.09050648 -150.0000974
-152.417501 6.833381464 143.9999026
-44.850193 55.69736288 149.9999026
-139.589361 -2.49860442e-05 -75.71743139
-146.584408 0.929331574 149.9999026
-70.920937 -0.895219306 -144.0000974
-157.75143 -2.49860442e-05 92.59333561
-92.987585 -2.49860442e-05 59.62540061
-80.894195 34.46095298 -144.0000974
-232.749429 -2.49860442e-05 -91.56482039
-209.581611 18.86114868 143.9999026
2.461028 10.56224932 149.9999026
-136.698115 -2.49860442e-05 93.22529861
-161.648669 4.017534684 143.9999026
-89.247396 6.191111344 -150.0000974
-107.247294 -2.49860442e-05 64.91054861
-3.599315 48.77318688 -144.0000974
-191.124867 27.12194108 143.9999026
-240.947736 33.19630168 -144.0000974
-29.873846 -2.49860442e-05 -83.21826139
-244.930966 35.39561998 149.9999026
-249.705728 -2.49860442e-05 77.27577261
-27.056941 55.90925388 -144.0000974
-19.723615 19.28639688 143.9999026
-30.367714 -2.49860442e-05 34.72870361
-209.818641 -2.49860442e-05 -9.831085386
-128.302871 15.96391488 -144.0000974
-171.071361 -2.49860442e-05 -10.83538239
0.0002150000173 17.33654938 -39.72676439
-108.293888 36.29528268 -150.0000974
-89.62591 29.83259798 149.9999026
0.0002150000173 7.725613074 -113.2004514
-40.932478 -2.49860442e-05 65.55659061
-13.868215 26.79763538 143.9999026
-52.901833 -2.49860442e-05 130.1692866
-81.13705 20.16233898 143.9999026
-225.713295 -2.49860442e-05 -143.7496144
-243.033242 67.78229768 149.9999026
-176.080364 58.21843298 -144.0000974
-173.373898 -2.49860442e-05 -31.62855139
-102.612103 -2.49860442e-05 41.46554961
-221.108314 57.54472858 143.9999026
-231.481003 51.45457018 143.9999026
-69.376515 47.42428978 -150.0000974
-131.999888 25.08010468 149.9999026
-197.313277 3.691605394 -144.0000974
-74.32064 44.78867048 143.9999026
-54.463281 7.891689044 -150.0000974
-119.682639 36.15396718 -144.0000974
-247.563579 61.99630538 -150.0000974
-186.972826 55.88679938 -144.0000974
-239.497929 6.537405704 -150.0000974
-158.999611 -2.49860442e-05 -15.93709739
-50.339245 21.33309318 -144.0000974
-98.017307 -2.49860442e-05 9.670042614
-58.495455 -2.49860442e-05 143.6648676
-173.796017 53.60796118 149.9999026
-184.322452 -2.49860442e-05 51.20133061
-214.844764 -2.49860442e-05 -125.5075554
-218.632831 -2.49860442e-05 29.12541061
-94.089497 -0.802886146 -35.29834639
-151.025458 -2.49860442e-05 -98.90069339
-178.055167 -2.49860442e-05 112.1089116
-21.735211 16.99361338 -144.0000974
-212.205283 -2.49860442e-05 -42.82230839
-132.483853 -2.49860442e-05 -120.1216444
-13.532146 42.99440058 149.9999026
-121.650331 12.15095068 -150.0000974
0.0002150000173 42.79531798 -91.39342939
0.0002150000173 15.78348638 -87.62404339
-124.491613 6.880758314 143.9999026
-7.746001 66.13183258 143.9999026
-174.696818 -2.49860442e-05 -2.823622386
-66.089142 -2.49860442e-05 7.321599614
-11.52801 21.52821278 -144.0000974
-63.910631 -2.49860442e-05 -16.95416139
-44.741969 6.152116314 149.9999026
-143.169099 63.88020368 -150.0000974
-239.030106 16.99496928 149.9999026
-19.469174 -2.49860442e-05 6.444524614
-117.434923 40.62346018 -150.0000974
0.0002150000173 26.30955408 -37.18548239
-150.151519 9.105575434 -150.0000974
-31.527317 -2.49860442e-05 110.6266366
-80.277592 -2.49860442e-05 104.0716456
-58.263902 -2.49860442e-05 14.22514861
-68.468724 8.398912224 149.9999026
-196.920313 58.21129728 -150.0000974
-12.713347 -2.49860442e-05 47.61865561
-155.793181 -1.705425696 -144.0000974
-15.974644 -2.49860442e-05 59.11991061
-4.572172 -2.49860442e-05 -54.55884839
-19.629731 -2.49860442e-05 24.57923161
-63.675512 -2.49860442e-05 -81.54246239
-191.410248 -2.49860442e-05 116.8198606
-237.506341 19.58773278 -150.0000974
-17.700452 37.63045688 -144.0000974
-156.233517 -2.49860442e-05 -0.03180538582
-135.421928 -2.49860442e-05 -104.4125894
-110.146864 56.39862348 149.9999026
-190.159299 39.05879668 -150.0000974
-44.554808 -2.49860442e-05 -61.27976139
-226.608302 -2.49860442e-05 13.77698561
-226.971055 40.42839838 -150.0000974
-207.473181 54.40658488 -150.0000974
0.0002150000173 12.20968638 31.76312061
-199.469874 -2.49860442e-05 73.62641861
-95.521673 57.44281098 -144.0000974
-167.365798 18.53472398 143.9999026
-107.802812 -1.507827836 147.9999026
0.0002150000173 21.36221108 -97.15831439
-5.099141 -2.49860442e-05 22.35737561
-52.01168 44.34551928 149.9999026
-181.596962 28.52760098 -144.0000974
-199.751448 -2.49860442e-05 -137.3963364
-203.056864 -2.49860442e-05 -51.13703839
-212.591358 -2.49860442e-05 -117.1732384
-28.327705 62.35789838 143.9999026
-197.750747 53.55408908 143.9999026
-223.940078 37.66742468 143.9999026
-197.190621 64.75444358 143.9999026
-245.129815 -2.49860442e-05 13.76585761
-89.515974 52.09792448 143.9999026
-25.249197 38.20549998 143.9999026
0.0002150000173 19.24921038 -23.30490939
-196.46506 -2.49860442e-05 62.11093261
-54.37616 -2.49860442e-05 73.07202661
-141.049348 47.04759008 -144.0000974
0.0002150000173 30.96196608 -11.40066339
-213.529994 61.58443978 143.9999026
2.335617 -2.49860442e-05 -22.81502739
-97.807826 -2.49860442e-05 85.84814161
-25.79317 -2.49860442e-05 17.25386461
-175.083593 -0.270950976 149.9999026
-57.642951 -2.49860442e-05 86.04511961
0.337393 49.99997498 -11.55509839
-5.637274 52.93105498 143.9999026
-239.342435 -2.49860442e-05 -131.8993104
-124.152677 -2.49860442e-05 82.61213761
-209.969929 3.820303554 149.9999026
-233.80096 19.99801628 143.9999026
-70.13132 -2.49860442e-05 131.8447356
-72.452767 -2.49860442e-05 88.36694261
-32.379291 9.847507184 -144.0000974
-136.995075 -2.49860442e-05 68.29970661
-21.501993 -2.49860442e-05 43.13287261
-164.827198 11.50758344 -150.0000974
-172.871543 32.09509028 -150.0000974
-201.058436 21.59848188 -150.0000974
-102.158817 12.31039438 143.9999026
-244.621514 55.71193838 149.9999026
-192.998111 48.74332008 -144.0000974
-95.582264 23.33534668 -150.0000974
-216.692256 -2.49860442e-05 36.42216661
-16.617935 -2.49860442e-05 71.51700761
-172.192884 6.066463414 -150.0000974
-49.772564 14.28891638 149.9999026
-187.737711 -2.49860442e-05 -60.04401939
-40.954309 29.15344458 -150.0000974
-83.672482 42.87565308 143.9999026
-237.472463 -1.494329336 -150.0000974
-244.75646 7.650419464 -144.0000974
-84.361632 21.05342158 -144.0000974
-15.013158 -2.49860442e-05 105.3776856
-29.222294 18.04704728 -144.0000974
-133.307621 -2.49860442e-05 81.41493461
-173.008255 -2.49860442e-05 76.26745461
-66.491753 37.55376428 -150.0000974
-97.987937 -2.49860442e-05 47.31595561
-74.330174 61.72656498 143.9999026
-169.604645 42.72376268 -144.0000974
-141.072561 -2.49860442e-05 -115.4670604
-235.387708 -2.49860442e-05 -40.01290239
-155.521327 -2.49860442e-05 77.18541161
-194.188872 12.46340408 -150.0000974
-23.072183 58.19957358 -150.0000974
-59.532522 9.318086664 149.9999026
-178.571046 -2.49860442e-05 85.53274161
-77.250449 55.74785468 149.9999026
-187.267261 22.43567928 -144.0000974
-45.436311 29.61152598 149.9999026
-246.005484 -2.49860442e-05 129.6663636
-224.729984 -2.49860442e-05 -58.98767139
-131.091681 58.49342528 -150.0000974
-97.290612 -2.49860442e-05 -119.6912284
-208.676709 -2.49860442e-05 112.4493216
-2.182697 -1.616300096 143.9999026
-133.452912 -2.49860442e-05 53.11041761
-11.20604 -2.49860442e-05 32.53574961
-11.572182 51.58335978 -150.0000974
-93.812244 63.42558258 143.9999026
0.0002150000173 20.34672238 89.48735061
-217.232183 54.68984248 149.9999026
-159.429055 46.10026788 -144.0000974
-88.037517 -2.49860442e-05 25.04848761
-98.436575 32.25913388 143.9999026
-81.451198 -2.49860442e-05 -88.32014739
0.0002150000173 33.00492808 -113.8838984
-233.48884 2.618057504 149.9999026
-200.621016 30.40882408 149.9999026
-28.263959 53.60461678 143.9999026
0.0002150000173 34.75314058 -122.3768574
0.0002150000173 16.47142008 17.48646961
-14.777052 -2.49860442e-05 -9.491291386
-8.447726 26.28914698 -150.0000974
-180.06984 48.06996018 -150.0000974
-243.932778 46.69278678 -144.0000974
-73.029389 20.32145008 149.9999026
-117.790345 -2.49860442e-05 34.45720661
-58.893213 29.14290188 143.9999026
-169.511252 52.35188198 -144.0000974
-119.605855 58.95095678 -150.0000974
-183.860006 6.987608454 149.9999026
-72.335114 -2.49860442e-05 -112.0671164
-40.218223 -2.49860442e-05 122.1925926
-52.741255 -2.49860442e-05 -103.7498544
-63.477461 -2.49860442e-05 -30.82537839
0.508753 44.35886538 142.9999026
-154.131625 10.64487111 149.9999026
-80.234009 -2.49860442e-05 135.8435656
-223.223012 -2.49860442e-05 2.373968614
0.0002150000173 43.10041198 -16.99086139
-146.486058 -2.49860442e-05 113.0239526
-103.355468 1.827356364 -144.0000974
-102.39264 62.92876108 -144.0000974
-24.004688 45.93947038 -150.0000974
-14.096726 -2.49860442e-05 -20.44453639
-38.162934 -2.49860442e-05 -93.27253839
-118.383484 57.91008668 149.9999026
-137.608112 37.88560488 -144.0000974
-114.673465 -2.49860442e-05 -7.503683386
0.0002150000173 33.43866808 47.21403361
0.0002150000173 2.884870444 118.1856926
-37.183759 17.28867258 143.9999026
-230.107295 -2.49860442e-05 -9.131551386
-75.365007 67.99997498 -146.9845784
-2.21382 -2.49860442e-05 103.5436456
-179.337784 63.41798858 -150.0000974
-147.199489 14.10611978 149.9999026
-33.404475 -2.49860442e-05 -1.952892386
-78.44562 27.25943218 -144.0000974
-163.111317 46.07261978 143.9999026
0.0002150000173 3.329468934 61.18658261
-142.163855 13.71897598 143.9999026
-144.982824 4.536018044 143.9999026
-127.464009 15.83658948 143.9999026
-29.664281 -2.49860442e-05 49.82607661
-136.796636 -2.49860442e-05 126.9755946
0.0002150000173 38.11333828 111.3955846
-92.962894 53.85601438 -150.0000974
-179.391756 -2.49860442e-05 -102.7210924
-207.754473 28.60255278 143.9999026
-131.498015 65.54658378 149.9999026
-164.647664 -2.49860442e-05 -94.13014039
-202.95944 -2.49860442e-05 87.82641461
-23.700571 10.09078789 -144.0000974
-240.997788 -2.49860442e-05 91.74181461
-130.676158 54.64274578 149.9999026
-243.525422 -2.49860442e-05 -20.55534239
-245.224954 -2.49860442e-05 55.44101061
-219.416776 22.84630578 -150.0000974
-228.141811 -2.49860442e-05 104.6833306
-207.235041 -2.49860442e-05 16.81468761
-45.471786 41.70944778 143.9999026
-84.163805 53.98016518 149.9999026
-69.063311 -2.49860442e-05 -96.36558139
-38.84214 36.77366228 -150.0000974
-65.8348 64.16487258 -150.0000974
-239.695663 38.33211288 143.9999026
-206.815718 -2.49860442e-05 -85.90813539
-114.827641 24.43314928 143.9999026
-143.202834 -2.49860442e-05 -7.672925386
-172.064185 -2.49860442e-05 -58.59803639
-177.535078 54.28350638 143.9999026
0.0002150000173 35.94521178 -85.13059539
-61.360608 -2.49860442e-05 52.71388961
-231.439278 10.72817898 -150.0000974
-129.123349 58.79745368 143.9999026
-191.740519 -2.49860442e-05 100.7830526
-235.159558 5.782849174 -144.0000974
-117.59837 -2.49860442e-05 -70.13139539
-102.684005 -2.49860442e-05 -18.51603339
-42.349884 12.34817108 -150.0000974
-59.794949 67.99997498 149.9759096
-53.075574 -2.49860442e-05 -18.97271839
-179.03018 -2.49860442e-05 -15.65324839
-105.505995 20.19749128 -150.0000974
-71.653022 -2.49860442e-05 115.7759766
-2.730853 65.82116538 -144.0000974
-95.085432 19.12573258 149.9999026
-152.480228 17.38037748 -144.0000974
-138.002069 2.391438384 -144.0000974
-29.278738 -2.49860442e-05 124.6572586
-125.134276 19.95912268 149.9999026
-16.280494 53.38037068 -144.0000974
-221.702421 49.91498018 143.9999026
-180.509564 23.08153518 143.9999026
-228.28885 62.35843588 143.9999026
-19.124908 47.32209558 143.9999026
-165.047949 31.60879958 149.9999026
-250.938904 46.00714158 143.9999026
-123.014221 -2.49860442e-05 47.38557861
-66.754881 0.976768834 143.9999026
-228.863129 -0.06605082604 143.9999026
-176.879908 32.17653208 143.9999026
-219.5328 42.26052478 -150.0000974
0.0002150000173 21.92857708 21.97565061
-119.303906 -2.49860442e-05 100.7162466
-71.650256 18.76450098 -150.0000974
-9.660835 -2.49860442e-05 -114.6438314
-188.591088 67.99997498 -147.5094534
-70.450662 -2.49860442e-05 -130.4576634
-186.685889 14.47068788 -150.0000974
-84.20188 7.681890984 149.9999026
-115.414467 6.604690084 -150.0000974
-171.925198 46.35629838 -150.0000974
-176.464946 -2.49860442e-05 127.4851856
-113.684089 -2.49860442e-05 139.8555146
-188.329207 47.98158728 143.9999026
-69.21367 10.36606707 -150.0000974
-156.111212 56.11386478 149.9999026
-121.898721 27.58031268 143.9999026
-215.471816 -2.49860442e-05 81.07871161
-177.253448 54.87577968 -150.0000974
-230.498965 23.60569508 149.9999026
-57.652495 39.65381608 -144.0000974
0.0002150000173 19.70675468 38.43852961
-162.55473 52.24121888 149.9999026
-199.533281 0.959647474 -150.0000974
-41.632513 24.99673448 143.9999026
-117.708874 28.51569618 -144.0000974
-241.221631 -2.49860442e-05 33.58556461
-109.411792 28.38605668 149.9999026
-186.913983 -2.49860442e-05 -118.6763364
-13.304038 57.89590388 149.9999026
-96.03947 -2.49860442e-05 132.5434296
-225.352734 49.68441108 -144.0000974
-121.77211 -2.49860442e-05 69.18670861
-101.766038 4.999828174 149.9999026
-230.513083 -2.49860442e-05 -84.56736639
-107.107722 5.757923744 143.9999026
-228.881313 -2.468804426 -150.0000974
-82.424197 7.278022284 -150.0000974
-58.017183 -2.49860442e-05 -77.57810339
-201.77932 -2.49860442e-05 -78.14239239
0.0002150000173 33.00073928 21.04923861
-100.862289 -2.49860442e-05 67.53168161
-187.793264 -2.49860442e-05 -52.76048239
-215.358122 50.84565728 -150.0000974
-59.578772 -2.49860442e-05 5.037295614
-78.352282 -2.49860442e-05 9.100551614
-3.556268 -2.49860442e-05 -82.13339539
1.886239 17.26934568 -150.0000974
-246.397073 -2.49860442e-05 -85.57758039
-208.168829 18.37841338 -150.0000974
-113.984592 -2.49860442e-05 -91.41814139
-133.071213 -2.49860442e-05 -126.9650594
-14.953217 37.28216268 143.9999026
-89.870947 -2.49860442e-05 87.11652761
-146.391293 64.50566218 -144.0000974
-147.830223 -2.49860442e-05 -39.67948639
0.0002150000173 26.28510038 -111.1177544
0.0002150000173 29.33190718 117.9551716
-153.460387 51.14596168 -144.0000974
-114.784346 46.70059898 143.9999026
-73.696393 -0.433221046 149.9999026
-117.826384 64.00698738 -144.0000974
-211.27168 24.06851538 -144.0000974
-141.073562 43.66717728 149.9999026
-230.499739 38.91206018 -144.0000974
-22.745765 13.21231138 -150.0000974
0.0002150000173 2.559798554 -107.2633764
-187.221891 17.02573788 143.9999026
-58.885334 16.05341608 143.9999026
-109.747367 12.02715388 143.9999026
-74.272379 67.99997498 146.6257016
0.0002150000173 4.472485644 -1.243048386
-56.564848 49.78163438 143.9999026
0.0002150000173 6.985756474 -126.5513374
-218.902138 -2.49860442e-05 73.14622661
0.0002150000173 20.32314638 -106.0803164
-135.542416 9.499051664 149.9999026
-99.300421 46.45624328 -150.0000974
-211.353797 12.14350658 143.9999026
-163.293892 18.37098388 -144.0000974
0.0002150000173 33.79025578 -92.84459039
-89.470669 -0.902825406 -28.17745539
-3.987732 -2.49860442e-05 -41.34611339
-33.572366 57.64710318 149.9999026
-120.57056 -2.49860442e-05 4.134652614
-120.977964 63.95445118 143.9999026
-42.995945 15.26633018 149.9999026
0.0002150000173 40.23937168 53.10636861
-216.636146 -2.49860442e-05 125.5734896
-181.508707 -2.49860442e-05 -38.23640239
-14.476654 46.41088258 -144.0000974
-227.742745 -2.49860442e-05 -136.3295634
-149.99152 64.04560948 143.9999026
-164.738853 -1.742799556 149.9999026
-68.465235 65.87082918 143.9999026
-179.390419 3.656302334 -144.0000974
-98.134915 15.14738838 -144.0000974
-189.631602 -0.399348896 -150.0000974
-38.05143 36.05124688 149.9999026
-73.074238 -2.49860442e-05 61.74330261
-32.098255 67.99997498 -147.1253964
-189.786005 8.036483064 143.9999026
-29.265357 -2.49860442e-05 94.62807161
-97.374655 -2.49860442e-05 -56.80934639
1.718433 56.59718678 149.9999026
-24.47585 39.20793328 -144.0000974
0.0002150000173 42.58809798 -32.15823139
-90.971557 8.581772974 -144.0000974
-201.507243 10.90655581 -144.0000974
-232.529694 -2.49860442e-05 125.5761596
-66.080057 -2.49860442e-05 14.87807061
-97.005463 -0.600598496 -144.0000974
-6.278642 -2.49860442e-05 -26.65759839
-54.209292 -2.49860442e-05 -113.8630424
0.0002150000173 49.75255108 -28.39940439
-132.89156 5.197702144 143.9999026
-56.045685 58.02477118 143.9999026
-150.479529 0.475349854 143.9999026
-162.037523 28.30151798 -144.0000974
-138.716137 -2.49860442e-05 6.591437614
-222.872557 -2.49860442e-05 -105.8136964
-56.717479 9.241940084 143.9999026
-161.827831 22.50524278 143.9999026
-232.693383 -2.49860442e-05 18.22812661
-140.95452 29.32780518 -150.0000974
-144.612172 -2.49860442e-05 43.44776461
-28.196491 -2.49860442e-05 28.48012561
-182.628458 46.97594518 -144.0000974
-167.238014 56.90721458 149.9999026
-79.395142 -2.49860442e-05 -36.67465339
-164.178967 -2.49860442e-05 46.09747361
-24.175919 -2.49860442e-05 -5.154014386
-38.874144 -2.49860442e-05 -107.4513864
-155.964174 -2.49860442e-05 -23.40362339
-83.488134 -2.49860442e-05 -3.827693386
-85.115535 40.58123618 149.9999026
0.0002150000173 34.13715728 127.9114816
-249.12729 59.81150948 -144.0000974
-184.077766 36.57328038 -150.0000974
0.0002150000173 42.71579288 40.04153361
0.0002150000173 12.63374648 -61.30012339
-239.095483 -1.590698016 149.9999026
-227.865391 44.54603238 143.9999026
-89.127599 67.99997498 144.3526356
-95.010682 11.98431131 -150.0000974
-132.619624 8.468851014 -144.0000974
-128.223301 -2.49860442e-05 42.19784761
-2.534876 -2.49860442e-05 130.0357686
-92.847994 -2.49860442e-05 -65.75050939
-149.499785 -2.250407656 -27.09047439
-126.50551 53.82753938 -150.0000974
-246.538091 12.32223938 -150.0000974
-229.107666 -2.49860442e-05 7.292058614
-81.27413 35.08088268 149.9999026
-66.22502 54.79911828 -144.0000974
-122.119392 6.158266074 -144.0000974
-25.335726 23.53413578 149.9999026
-111.996902 -2.49860442e-05 112.6666336
-235.525564 -2.49860442e-05 -2.241344386
-210.804029 33.31835548 -144.0000974
-70.34212 56.59254198 149.9999026
-249.916479 -2.49860442e-05 -1.550475386
-204.972141 -2.49860442e-05 42.20135361
-235.05488 -2.247868566 -144.0000974
-63.299946 6.938772654 -150.0000974
0.0002150000173 15.96003108 -12.04801039
-222.17557 1.513345254 143.9999026
-94.625044 -2.49860442e-05 103.6549246
-193.448881 37.34489328 143.9999026
-239.299128 4.705571044 143.9999026
-162.24663 -2.491561856 -144.0000974
2.028124 52.02718868 -144.0000974
-102.52155 -2.49860442e-05 81.37735261
-76.386296 -2.359941066 143.9999026
-2.673402 -2.49860442e-05 50.77126861
-50.929097 52.59517558 -144.0000974
-171.317985 33.28585668 149.9999026
0.0002150000173 34.10664388 40.09666661
-242.039255 -2.49860442e-05 -13.09230539
-108.260904 38.75401868 -144.0000974
-56.648323 8.985297724 -144.0000974
-24.74125 1.555099714 -150.0000974
-79.887641 -2.49860442e-05 -100.0388034
0.0002150000173 10.25978203 37.93540161
1.673219 1.576632534 -150.0000974
-63.657393 20.42082948 143.9999026
-64.288216 2.753977824 -144.0000974
-217.379066 16.71630498 -150.0000974
0.261927 49.99997498 -67.33244839
-81.740014 7.820864094 143.9999026
-89.257147 63.73479858 -150.0000974
-70.768787 -2.49860442e-05 -49.78094839
-181.277067 62.46627948 143.9999026
-84.490929 48.66228198 -144.0000974
-32.824783 26.85443558 -144.0000974
-19.332833 -2.49860442e-05 -143.0365544
-92.341323 0.554948124 -150.0000974
-211.777423 -2.49860442e-05 6.251872614
-155.802471 48.62205698 149.9999026
-72.225438 63.26006858 -144.0000974
-25.557822 -2.49860442e-05 72.62899761
-73.735366 52.13622578 -150.0000974
-128.470109 -2.49860442e-05 -7.644950386
-48.061505 65.99336508 143.9999026
-148.28812 -2.49860442e-05 -65.83641639
-220.981217 -2.49860442e-05 -139.4187724
-105.562676 -2.49860442e-05 -26.77163739
-208.117683 -2.49860442e-05 129.0805696
-56.995323 -2.49860442e-05 -42.94153339
-186.174125 -2.49860442e-05 -109.7863494
-130.103126 -2.49860442e-05 135.2178006
-41.356152 -2.49860442e-05 32.68392261
-145.478165 -0.325451426 -144.0000974
0.0002150000173 14.80584518 -119.0990514
-200.54155 42.59045718 -144.0000974
-209.042806 65.83088948 -150.0000974
0.0002150000173 21.45588658 2.842248614
-8.163722 64.72253138 -150.0000974
-166.670607 5.355796744 -144.0000974
-5.680782 -2.49860442e-05 90.38808161
-233.686483 -2.49860442e-05 -106.9702814
-85.384717 -2.49860442e-05 -56.73548039
-104.783623 30.23757578 -144.0000974
-125.042304 23.90648998 -150.0000974
-170.446804 -2.49860442e-05 42.20271461
-44.400479 -2.49860442e-05 8.266017614
-59.12396 55.78102488 -150.0000974
-118.138904 15.07438668 149.9999026
-203.132964 62.45689168 143.9999026
-105.976903 52.44752038 -150.0000974
-25.695378 48.67589828 149.9999026
-96.847595 36.00079298 149.9999026
-156.884482 -2.49860442e-05 -9.317994386
-113.750335 -2.49860442e-05 -15.23081039
-148.631292 -2.49860442e-05 -105.8104004
0.0002150000173 34.78654468 13.70347261
-252.050074 39.16801848 -150.0000974
-181.322802 49.18417908 143.9999026
-43.200321 -2.49860442e-05 -38.80309939
-195.967958 30.99232528 -144.0000974
-89.482119 31.89330328 143.9999026
-62.748702 43.92049798 -150.0000974
-60.875683 42.34333468 149.9999026
-5.405439 -2.49860442e-05 8.086698614
-51.931866 -2.49860442e-05 13.93195761
-124.071674 41.79862868 -150.0000974
-158.431938 4.055637164 -144.0000974
-72.102286 8.626883634 -144.0000974
-208.958104 -2.49860442e-05 -137.4863064
-17.498814 -2.49860442e-05 -106.2589204
-162.89694 39.19092848 149.9999026
-38.681587 42.49869008 -144.0000974
-145.114 41.73834568 -150.0000974
-110.785994 54.56252098 143.9999026
-133.226736 19.90466138 -144.0000974
-150.478058 -2.49860442e-05 7.960016614
-240.370474 -2.49860442e-05 -118.2485834
-103.542139 -2.49860442e-05 -71.95162039
-176.273555 -2.49860442e-05 133.7858656
-143.880656 23.02637338 143.9999026
-148.990163 52.65997108 143.9999026
-129.54024 -2.49860442e-05 17.19044561
-244.270341 -2.49860442e-05 -56.55807739
-111.821071 -2.49860442e-05 10.55564861
-178.07475 -2.49860442e-05 57.45469561
-7.308542 57.59199798 -150.0000974
-44.424493 39.26425538 -144.0000974
1.316011 -2.49860442e-05 89.12136161
-113.234345 -2.49860442e-05 48.78886161
-125.822004 -2.49860442e-05 -94.86557739
-45.965164 41.41145348 -150.0000974
-115.758825 34.59247408 149.9999026
-241.222157 67.95883958 143.9999026
-12.457151 33.14184528 -144.0000974
-53.66966 19.22385878 149.9999026
-100.068082 48.87303268 -144.0000974
-64.02089 13.86273398 -150.0000974
-18.901306 -2.49860442e-05 -29.30315839
0.0002150000173 30.77541098 -5.145019386
-197.295901 -2.49860442e-05 32.03872761
-197.505636 -2.49860442e-05 130.9741536
0.0002150000173 41.64488618 26.51131361
0.0002150000173 18.58982148 125.4154766
-75.311551 11.72741903 -150.0000974
-250.082997 1.319146844 143.9999026
-206.242657 25.76523098 -150.0000974
-173.569177 -1.753367906 -144.0000974
-117.959247 -2.49860442e-05 -112.6002494
-174.882758 11.89284221 143.9999026
-85.351844 11.77877313 -144.0000974
-85.718452 14.57057108 143.9999026
0.0002150000173 39.95449108 -65.59895239
-23.469698 -2.49860442e-05 122.4173366
-204.87933 52.31542988 -144.0000974
-213.783162 39.59346718 149.9999026
-210.974991 -2.49860442e-05 -63.81913739
-51.34552 -2.49860442e-05 81.71569161
-174.160767 67.86810308 143.9999026
-94.833887 44.95360168 149.9999026
-155.559994 24.57824938 -150.0000974
-154.520229 27.34808858 149.9999026
-216.793352 43.50841668 143.9999026
-46.474897 53.09330498 143.9999026
-54.628399 -2.49860442e-05 66.31872961
-191.925501 30.48493818 149.9999026
-39.307091 -1.466532926 -150.0000974
-223.363659 -2.49860442e-05 -93.79926939
-59.27797 24.82658418 -144.0000974
-148.33317 -2.49860442e-05 -47.85247339
-138.623945 58.72241548 -144.0000974
-92.733181 -2.49860442e-05 -132.4617354
-182.69704 19.19874938 -150.0000974
-187.345682 -2.49860442e-05 29.89993761
-4.216042 -2.49860442e-05 -12.49818839
-201.220337 -2.49860442e-05 6.194016614
0.0002150000173 24.92381698 -8.937549386
-129.527899 -2.49860442e-05 -60.98641139
-135.7576 61.38258878 143.9999026
-103.953816 36.54972158 143.9999026
-159.871454 37.06610998 143.9999026
-106.974196 -2.49860442e-05 58.19729461
0.0002150000173 38.54953968 86.93902861
-17.642464 4.485215814 143.9999026
-165.744429 -0.816690566 143.9999026
-94.998335 3.643394384 143.9999026
-127.364625 29.88599198 -144.0000974
-62.828539 34.99268238 -144.0000974
0.0002150000173 20.34596168 46.62734461
-244.387144 47.99469708 149.9999026
0.0002150000173 48.82650108 -43.46352139
0.0002150000173 47.59835448 -87.32863539
-205.503222 2.360967254 -150.0000974
-219.322222 41.01930678 -144.0000974
-13.156449 -2.49860442e-05 -121.3094444
-70.878292 -2.49860442e-05 -6.855054386
-247.684587 -2.49860442e-05 -51.45628139
-4.33842 61.04419308 143.9999026
-214.415431 -2.49860442e-05 67.82194861
-141.433201 -2.49860442e-05 -18.84361339
-222.774679 10.7631739 149.9999026
-87.254874 -2.49860442e-05 -21.75708439
-229.396082 -2.49860442e-05 -113.0309294
-139.033338 -2.49860442e-05 30.69869861
-11.325899 -2.49860442e-05 -14.54054839
0.0002150000173 33.04447968 135.7873536
0.0002150000173 44.06330418 4.823061614
-68.835907 24.76564868 149.9999026
-54.890512 24.52903028 143.9999026
-231.86723 -2.49860442e-05 -123.8486854
-31.993495 51.21549478 -144.0000974
0.0002150000173 30.83696898 77.84957661
0.0002150000173 7.618667214 53.20090461
-192.111845 -2.49860442e-05 39.10396361
-14.832432 7.998962004 -150.0000974
0.0002150000173 16.19428888 -66.24863239
