# .PCD v0.7 - Point Cloud Data file format
VERSION 0.7
FIELDS x y z
SIZE 4 4 4
TYPE F F F
COUNT 1 1 1
WIDTH 1172
HEIGHT 1
VIEWPOINT 0 0 0 1 0 0 0
POINTS 1172
DATA ascii
-258.56546 -2.498577345e-05 -92.46622139
-117.479917 -2.498577345e-05 -44.26292239
-192.296047 -2.498577345e-05 -89.40313539
57.907077 -2.498577345e-05 -37.05635839
226.169831 -2.498577345e-05 -80.75775839
71.01881 -2.498577345e-05 -204.6174754
122.892161 -2.498577345e-05 -94.39105239
-115.813366 -2.498577345e-05 -111.2269064
-190.063614 -40.68461831 -9.738640483e-05
-77.345612 -2.498577345e-05 -31.21995839
-298.620002 -24.97974737 -9.738640483e-05
-72.248455 -31.53848053 -9.738640483e-05
302.584111 -2.498577345e-05 -187.2730754
172.999321 -2.498577345e-05 -58.16727939
-261.88429 -46.62564187 -9.738640483e-05
-149.501872 -19.9107776 -9.738640483e-05
16.819416 -2.498577345e-05 -145.8968764
-264.517771 -2.498577345e-05 -46.40874239
-284.999785 -5.620563826 -179.1389784
-4.602110999 -2.498577345e-05 -0.7853603864
-218.074114 -2.498577345e-05 -21.65047239
122.374742 -2.498577345e-05 -6.490967386
-230.123612 -2.498577345e-05 -159.1780054
94.946295 -34.4091206 -9.738640483e-05
-65.753236 -2.498577345e-05 -251.6105864
169.001976 -43.11632442 -9.738640483e-05
208.054244 -2.498577345e-05 -160.9526074
261.743007 -2.498577345e-05 -133.1901424
169.129933 -2.498577345e-05 -142.1989294
264.19542 -2.498577345e-05 -213.7003324
-16.313148 -2.498577345e-05 -187.0228524
-278.999785 -29.34326409 -216.7741074
98.769705 -2.498577345e-05 -34.91673139
-34.890925 -2.498577345e-05 -42.84306939
240.688378 -2.498577345e-05 -9.821150386
-284.999785 -22.4019727 -110.7407184
303.25077 -2.498577345e-05 -91.89686639
-190.469807 -2.498577345e-05 -141.9130674
101.076731 -2.498577345e-05 -226.4434294
-210.217279 -2.498577345e-05 -212.6411064
65.368313 -2.498577345e-05 -114.9313224
23.202057 -67.48333767 -9.738640483e-05
-296.59341 -2.498577345e-05 -251.7703694
-225.26935 -32.15189502 -9.738640483e-05
-109.87318 -2.498577345e-05 -197.6413664
39.091143 -2.498577345e-05 -65.72840339
141.959739 -2.498577345e-05 -207.6667454
-38.620718 -33.66553953 -9.738640483e-05
34.813115 -35.87135745 -9.738640483e-05
97.083121 -68.00002403 0.4326886136
-151.111667 -2.498577345e-05 -26.74722339
-239.869937 -2.498577345e-05 -227.1946504
-284.999785 -23.18104061 -61.54502139
-49.102627 -2.498577345e-05 -100.8815934
103.44687 -2.498577345e-05 -66.97654739
44.418453 -2.498577345e-05 -222.5520714
136.862511 -2.498577345e-05 -171.8949504
101.035451 -2.498577345e-05 -117.7486974
51.947848 -2.498577345e-05 -174.4536034
-251.963849 -2.498577345e-05 -134.8581334
-284.999785 -27.39625073 -156.5014284
-80.021365 0.1421899142 -9.738640483e-05
-115.809985 -2.498577345e-05 -79.92753239
277.620915 -2.498577345e-05 -167.5194874
102.658731 -2.498577345e-05 -162.2214224
154.076524 -2.498577345e-05 -86.05394939
-74.057547 -2.498577345e-05 -153.3692114
-164.109756 -2.498577345e-05 -168.1780194
-281.780688 -2.498577345e-05 -6.865389386
-165.674812 -2.498577345e-05 -106.7671814
281.000215 1.573579944 -30.29716939
0.5336560014 -2.498577345e-05 -212.3784564
198.538111 2.477025434 -9.738640483e-05
285.298912 -69.96521273 -9.738640483e-05
7.702853001 -2.498577345e-05 -81.67773239
-104.609053 -28.99517172 -9.738640483e-05
177.13533 -2.498577345e-05 -26.30930339
-83.887171 -2.498577345e-05 -182.7416014
62.885938 -25.56654875 -9.738640483e-05
238.802261 -2.498577345e-05 -231.1098484
275.549024 -29.53478152 -9.738640483e-05
-259.051549 -2.498577345e-05 -163.7576464
-269.299197 -2.498577345e-05 -223.8322214
-25.703762 -2.498577345e-05 -157.9022714
198.45049 -2.498577345e-05 -71.89101139
-178.631024 -2.498577345e-05 -202.9880884
225.608737 -61.02679132 -9.738640483e-05
41.956624 -2.498577345e-05 -132.2598324
142.925352 -19.20306648 -9.738640483e-05
-22.58055 -60.57053932 -9.738640483e-05
-230.06073 -2.498577345e-05 -92.61830639
-134.507136 -2.498577345e-05 -161.5824744
-89.911179 -2.498577345e-05 -98.21717139
292.02887 -2.498577345e-05 -120.3477164
-135.298142 -2.498577345e-05 -217.9954224
148.06267 -2.498577345e-05 -23.40859239
-186.473046 -68.00002403 0.8026526136
-11.018129 -2.498577345e-05 -105.8712134
-245.30857 -2.498577345e-05 -26.73097539
302.585734 -2.498577345e-05 -1.688648386
-20.445856 -2.498577345e-05 -250.6517304
-96.961385 -2.498577345e-05 -250.3632144
245.832081 -24.99133256 -9.738640483e-05
149.279841 -68.00002403 2.261742614
280.000215 1.193901074 -66.69734539
194.276613 -2.498577345e-05 -132.7138844
-148.559618 -2.498577345e-05 -53.62166139
185.068899 -2.498577345e-05 -202.8508594
-276.220062 -2.498577345e-05 -72.62130639
-278.999785 -20.23305639 -243.4084754
-278.999785 -21.46546928 -23.17531039
144.42162 -2.498577345e-05 -114.2910804
-148.974914 -2.498577345e-05 -250.3127574
-62.647166 -2.498577345e-05 -198.5859394
47.492477 -2.498577345e-05 -93.99001339
236.8903 -2.498577345e-05 -151.5747784
-50.48554 -2.498577345e-05 -142.3815644
-203.384569 -17.91940302 -9.738640483e-05
-125.051054 -44.72263701 -9.738640483e-05
-21.638395 -2.498577345e-05 -20.83347539
-106.875917 -2.498577345e-05 -224.0854094
239.961011 -2.498577345e-05 -205.3051094
200.463677 -2.498577345e-05 -228.2589704
-75.456053 -64.04424266 -9.738640483e-05
252.455548 -2.498577345e-05 -75.13512139
185.202126 -2.498577345e-05 -249.1063894
76.199745 -2.498577345e-05 -55.26495839
183.322755 -22.08562533 -9.738640483e-05
155.02558 -2.498577345e-05 -249.2784194
-202.448938 -2.498577345e-05 -65.11086139
287.355836 -2.498577345e-05 -250.5790434
14.695068 -16.47295885 -9.738640483e-05
-298.06617 -2.498577345e-05 -57.93885439
-300.769827 -2.498577345e-05 -119.9549164
247.112123 -2.498577345e-05 -111.2852494
-192.722811 -2.498577345e-05 -114.5212714
2.579643001 -2.498577345e-05 -170.0157144
-284.183734 -50.00002499 -13.13612839
-59.643723 -2.498577345e-05 -53.99138139
-278.999785 -25.15138697 -86.61855239
79.767602 -2.498577345e-05 -181.2958624
-161.293521 2.103014774 -9.738640483e-05
-103.311486 -2.498577345e-05 -22.68782739
74.616572 -2.498577345e-05 -229.0729274
-175.46273 -20.80064519 -9.738640483e-05
36.862376 -2.498577345e-05 -24.58479239
-96.831256 -2.498577345e-05 -57.35815639
210.704715 -2.498577345e-05 -99.67880639
-284.999785 -47.56431789 -60.26553439
-139.506994 -2.498577345e-05 -105.4408004
-217.655016 -2.498577345e-05 -180.3702304
-282.238973 -50.00002499 -108.4147984
-6.793602999 -2.498577345e-05 -62.19949739
94.782857 -2.498577345e-05 -94.36193539
-283.519725 -2.498577345e-05 -101.0354124
-38.454001 -2.498577345e-05 -198.6491654
-125.744958 -2.498577345e-05 -139.0777654
-172.493185 -2.498577345e-05 -68.36942139
77.319637 -2.498577345e-05 -22.93274539
-136.747025 1.314023044 -9.738640483e-05
-100.286693 -2.498577345e-05 -129.2405934
194.333858 -44.54641755 -9.738640483e-05
-273.603552 -26.05748121 -9.738640483e-05
4.378685001 -2.498577345e-05 -125.8116924
-194.555577 -2.498577345e-05 -27.18468739
-53.990862 -2.498577345e-05 -220.6269394
-194.882741 -2.498577345e-05 -231.7123524
-279.784913 -2.498577345e-05 -201.3959764
278.825962 -2.498577345e-05 -195.3893884
-17.77992 -22.97805798 -9.738640483e-05
-125.204146 -68.00002403 0.5545316136
226.039558 -2.498577345e-05 -54.94796539
61.749574 -2.498577345e-05 -4.721913386
-251.790696 -67.51417903 -9.738640483e-05
225.094822 -2.498577345e-05 -181.4486374
233.863118 -2.498577345e-05 -31.85568139
-284.999785 -23.48984801 -133.7239744
120.66101 -24.60513219 -9.738640483e-05
-279.752007 -50.00002499 -226.6048174
-269.294433 -2.498577345e-05 -118.9571304
193.057882 -2.498577345e-05 -181.4456434
-244.899537 -2.498577345e-05 -74.18627739
-43.129677 -2.498577345e-05 -248.5516554
-244.058467 -2.498577345e-05 -110.5214944
11.456957 -2.498577345e-05 -16.75490439
-224.161609 2.304967464 -9.738640483e-05
-211.281204 -2.498577345e-05 -43.20934639
44.256293 -2.498577345e-05 -200.0186464
-284.999785 -10.15484193 -42.36208539
39.748881 -2.498577345e-05 -249.7439764
-278.999785 -48.60701121 -160.5978364
-284.999785 -24.69017424 -190.9256824
96.875364 -2.498577345e-05 -140.6307044
-125.357591 -21.05824641 -9.738640483e-05
220.201461 -2.352196996 -9.738640483e-05
-275.697297 -67.13197997 -9.738640483e-05
-55.162456 -2.498577345e-05 -31.63512439
-173.409546 -2.498577345e-05 -252.3606534
171.060788 -65.17838039 -9.738640483e-05
122.515401 -2.498577345e-05 -217.8272094
-158.444927 -2.498577345e-05 -211.8793614
75.499691 -44.45633778 -9.738640483e-05
149.578352 -2.498577345e-05 -64.72941639
280.000215 0.1900606642 -145.9213884
-44.959596 -2.498577345e-05 -70.38851639
-298.145272 -2.498577345e-05 -162.9671274
142.900971 -2.498577345e-05 -231.4778394
48.467622 -2.498577345e-05 -153.2069334
281.000215 0.9823439642 -227.0579494
299.220602 -2.498577345e-05 -210.0311674
-284.999785 -48.2176325 -205.8879454
-301.871602 2.376038494 -9.738640483e-05
-206.159272 -57.25673263 -9.738640483e-05
-6.686925999 -2.498577345e-05 -234.3461504
-228.349559 -2.498577345e-05 -199.1635824
24.73056 -2.498577345e-05 -208.2239054
28.692544 -2.498577345e-05 -166.2260414
-124.335743 -2.498577345e-05 -20.21139739
257.564487 -2.498577345e-05 -156.0602104
125.141297 -2.498577345e-05 -73.47935839
-209.723068 -2.498577345e-05 -154.1104014
-3.982089999 -2.498577345e-05 -150.3421964
-300.650117 -46.88934275 -9.738640483e-05
-289.774328 -2.498577345e-05 -230.8514714
-57.344402 -17.48016143 -9.738640483e-05
40.103882 -55.65740177 -9.738640483e-05
273.777274 -50.9485803 -9.738640483e-05
91.408545 -2.498577345e-05 -205.6598324
33.12425 -2.498577345e-05 -46.24678639
108.268123 -50.99482348 -9.738640483e-05
-247.131041 -27.65579007 -9.738640483e-05
147.955397 -2.498577345e-05 -145.9026634
-269.812784 -2.498577345e-05 -23.20526539
-235.915223 -49.36972261 -9.738640483e-05
-131.837623 -2.498577345e-05 -67.56459439
118.983689 -2.498577345e-05 -34.53788339
253.286594 -2.498577345e-05 -25.59135039
198.416049 -2.498577345e-05 -20.02783739
-150.521971 -40.44613679 -9.738640483e-05
-171.274672 -2.498577345e-05 -147.6329724
292.359468 -17.11593364 -9.738640483e-05
-24.399385 2.181931274 -9.738640483e-05
-278.999785 -8.456130426 -157.3744344
-44.762865 -2.498577345e-05 -122.2012954
151.863849 -2.498577345e-05 -187.6969434
174.693396 -2.498577345e-05 -77.81783739
-3.514451999 -65.56437068 -9.738640483e-05
105.791778 -2.498577345e-05 -245.5706784
-244.894614 -2.498577345e-05 -51.26928039
177.211244 -2.498577345e-05 -160.0943024
228.845634 -34.83899756 -9.738640483e-05
192.669859 -2.498577345e-05 -92.02287439
103.950511 0.5075213142 -9.738640483e-05
-68.626683 -2.498577345e-05 -101.5159994
157.255038 -2.498577345e-05 -46.62834439
300.129444 -2.498577345e-05 -26.91721739
-124.995417 -2.498577345e-05 -178.5864944
163.801318 -2.498577345e-05 -209.5816684
-96.632732 -2.498577345e-05 -77.23457339
-4.600869999 -2.498577345e-05 -29.88172939
-172.280107 -48.04338018 -9.738640483e-05
190.866054 -2.498577345e-05 -41.31354439
257.723257 -2.498577345e-05 -195.6738314
231.523404 -2.498577345e-05 -100.2537924
156.158975 -2.498577345e-05 -167.4990344
-55.153795 -43.11516593 -9.738640483e-05
54.764231 -42.75614419 -9.738640483e-05
-232.77517 -2.498577345e-05 -137.6992674
255.345394 -6.934411426 -9.738640483e-05
-91.927174 -14.92891144 -9.738640483e-05
-267.096035 -2.498577345e-05 -181.3098014
-196.503207 -2.498577345e-05 -196.9835514
-208.693705 -2.498577345e-05 -104.5036554
-169.863919 -2.498577345e-05 -28.13064539
-93.261687 -43.90820882 -9.738640483e-05
159.411542 -2.498577345e-05 -125.4789084
271.912868 -2.498577345e-05 -117.5251764
47.459234 -14.25295356 -9.738640483e-05
126.016823 -68.00002403 2.298217614
215.59365 -2.498577345e-05 -144.0075494
232.212914 -2.498577345e-05 -248.3582474
-218.086986 -2.498577345e-05 -231.0655104
55.776553 -2.498577345e-05 -73.53739039
123.902397 -2.498577345e-05 -158.8809504
-177.883941 -2.498577345e-05 -125.3430204
285.843687 -2.498577345e-05 -103.0708714
220.517185 -2.498577345e-05 -230.4057674
-206.958636 -2.498577345e-05 -5.707823386
13.765863 -2.498577345e-05 -60.82082039
-16.789197 -42.37586198 -9.738640483e-05
-138.813702 -2.498577345e-05 -123.6167574
243.625385 -2.498577345e-05 -132.0641964
-148.769539 -2.498577345e-05 -230.1222894
-278.999785 -2.378704206 -247.2670804
7.480481001 -2.498577345e-05 -99.76606139
-182.784291 -2.498577345e-05 -163.3492274
-300.485282 -2.498577345e-05 -145.0826064
-245.522794 -2.498577345e-05 -175.6851684
60.676459 -2.498577345e-05 -132.3460854
82.889412 -2.498577345e-05 -129.2803744
-161.90077 -2.498577345e-05 -191.7514254
94.296878 -2.498577345e-05 -17.10376039
301.835852 -2.498577345e-05 -74.07816339
151.438316 -45.7546654 -9.738640483e-05
301.932658 -76.17146683 -9.738640483e-05
18.880164 -43.66971854 -9.738640483e-05
158.664073 -27.38472482 -9.738640483e-05
180.290738 1.089673854 -9.738640483e-05
259.824763 -2.498577345e-05 -230.8631424
-84.387096 -2.498577345e-05 -139.0209024
204.619405 -2.498577345e-05 -55.24785339
-207.145876 -36.17590492 -9.738640483e-05
-58.174079 -2.498577345e-05 -85.76180739
-61.997674 -2.498577345e-05 -7.415081386
-137.643744 -2.498577345e-05 -38.06840839
-80.443806 -2.498577345e-05 -50.97028939
30.936514 -2.498577345e-05 -88.20454939
-284.999785 -37.36662038 -120.2028074
144.428898 -2.498577345e-05 -6.365443386
124.213869 -2.498577345e-05 -111.7346624
27.300263 -2.498577345e-05 -225.6269484
54.267351 -2.498577345e-05 -54.05139339
-176.562429 -2.498577345e-05 -182.4421854
273.019156 -2.498577345e-05 -14.97246039
80.278959 -25.21327387 -9.738640483e-05
63.684432 -2.498577345e-05 -187.5559714
114.12305 -2.498577345e-05 -143.1573284
-103.37644 -2.498577345e-05 -176.3245204
-31.595249 -2.498577345e-05 -179.1383294
-284.999785 -27.2257365 -173.6863254
-57.705108 -2.498577345e-05 -158.6106844
-278.999785 -14.09137865 -224.8283574
90.962489 -51.79672314 -9.738640483e-05
298.814093 -2.498577345e-05 -170.5849234
-16.51632 -2.498577345e-05 -213.7636924
211.384985 -45.83316776 -9.738640483e-05
94.173913 -2.498577345e-05 -51.38666439
158.349973 -2.498577345e-05 -104.4237374
264.194228 -2.498577345e-05 -179.8979754
-65.255292 -2.498577345e-05 -234.5757404
7.727206001 -2.498577345e-05 -195.9285854
-278.999785 -27.04838789 -39.27340639
-245.975372 -2.498577345e-05 -211.3723684
-289.855241 -2.498577345e-05 -22.39087639
-213.278203 -2.498577345e-05 -88.19424239
82.879094 -2.498577345e-05 -162.5579394
273.513276 -2.498577345e-05 -45.39365439
-278.999785 -36.90629773 -237.2913864
-3.538167999 -2.498577345e-05 -251.1277134
243.861912 -2.498577345e-05 -59.09336239
-228.332771 -2.498577345e-05 -250.8465684
-126.237675 -2.498577345e-05 -203.7739234
-33.281042 -16.36440418 -9.738640483e-05
122.081831 -2.498577345e-05 -235.5250664
196.934105 -2.498577345e-05 -116.0908934
-28.587513 -2.498577345e-05 -94.76128139
-37.767374 -2.498577345e-05 -26.30917839
220.559581 -2.498577345e-05 -21.63692739
-237.559351 -2.498577345e-05 -9.747429386
-284.999785 -38.87282441 -95.35965339
-280.446784 -2.498577345e-05 -54.81781039
208.890418 -2.498577345e-05 -186.7630714
-26.005092 -2.498577345e-05 -61.69526739
-150.349781 -2.498577345e-05 -156.4830004
60.306517 -2.498577345e-05 -217.9092044
289.814537 -2.498577345e-05 -14.02696339
-214.852818 -2.498577345e-05 -138.4279774
-245.300526 -2.498577345e-05 -250.0610644
-284.999785 -31.95209326 -11.96048339
-28.635919 -2.498577345e-05 -112.5998454
-284.999785 -15.9565018 -209.2768694
-230.116638 -13.03389537 -9.738640483e-05
-173.587065 -2.498577345e-05 -12.10426239
-284.999785 -7.558057816 -124.8574474
139.200049 -2.498577345e-05 -96.44434939
-284.999785 -37.53872893 -75.31036839
-12.042778 -2.498577345e-05 -89.49680939
78.587426 -2.498577345e-05 -250.2060444
26.087556 -2.498577345e-05 -128.3948164
-159.514279 -2.498577345e-05 -41.52901239
104.008881 -20.84932474 -9.738640483e-05
86.883708 -2.498577345e-05 -71.95864639
-284.999785 -13.5656913 -74.74455539
87.191573 -2.498577345e-05 -109.2190354
198.232536 -15.55874794 -9.738640483e-05
-135.573256 -2.498577345e-05 -89.67607639
-101.851832 -2.498577345e-05 -39.83078439
24.051137 -2.498577345e-05 -73.49730339
-91.528238 -2.498577345e-05 -114.3436734
80.884694 -68.00002403 0.1861296136
162.59553 -2.498577345e-05 -16.25301339
-232.864602 -2.498577345e-05 -37.08160839
296.656369 -58.43757424 -9.738640483e-05
32.333205 -2.498577345e-05 -150.3707394
30.696589 -18.50749814 -9.738640483e-05
-0.8892139986 -24.27751846 -9.738640483e-05
107.546932 -2.498577345e-05 -207.4431114
95.451228 -2.498577345e-05 -190.0947984
-136.124491 -32.93732586 -9.738640483e-05
88.849769 -2.498577345e-05 -236.7525814
262.493574 -2.498577345e-05 -62.70230739
120.702367 -2.498577345e-05 -178.7592634
-176.044291 -2.498577345e-05 -94.75150239
-301.810268 -2.498577345e-05 -102.0999154
210.594163 -2.498577345e-05 -83.56353239
262.050341 -21.2971149 -9.738640483e-05
-109.500145 -47.57142745 -9.738640483e-05
-297.076106 -2.498577345e-05 -199.5228594
138.829105 -36.26281964 -9.738640483e-05
-116.7576 -2.498577345e-05 -62.91093739
-90.418554 -2.498577345e-05 -167.3747154
46.350974 -2.498577345e-05 -10.28848239
-259.317239 -2.498577345e-05 -67.90682139
268.081878 -2.498577345e-05 -77.33925639
-290.194524 -11.24236514 -9.738640483e-05
-41.153405 -2.498577345e-05 -163.0450494
65.764689 -2.498577345e-05 -94.36354439
72.689251 -11.57729462 -9.738640483e-05
18.947516 -2.498577345e-05 -1.357816386
-284.999785 -42.39069238 -147.6300844
-71.925724 -2.498577345e-05 -168.7889744
-228.94536 -2.498577345e-05 -75.31972139
-256.179873 -2.498577345e-05 -15.68689239
-264.627413 -2.498577345e-05 -198.1740754
292.661435 -2.498577345e-05 -40.48873639
280.000215 1.640952384 -87.59783639
-10.578249 -2.498577345e-05 -121.8130674
236.964016 -11.37099952 -9.738640483e-05
-41.192867 -49.70317723 -9.738640483e-05
52.07641 -2.498577345e-05 -235.9119914
24.287818 -2.498577345e-05 -33.44335639
-63.093806 -2.498577345e-05 -131.9932024
188.355907 -2.498577345e-05 -57.55840239
-94.099404 -2.498577345e-05 -6.048779386
246.90585 -2.498577345e-05 -244.0837354
-206.622458 -2.498577345e-05 -169.7774714
240.866159 -2.498577345e-05 -85.09589839
249.10141 -2.498577345e-05 -219.8354924
226.916649 -2.498577345e-05 -197.3670714
12.416881 -2.498577345e-05 -221.9313184
175.561652 -2.498577345e-05 -41.42488639
-261.112619 -2.498577345e-05 -236.8026384
158.729501 -2.498577345e-05 -231.5072064
-91.974638 -2.498577345e-05 -206.4871074
-280.547733 -40.03872947 -9.738640483e-05
43.857862 -2.498577345e-05 -108.6532134
198.338816 -2.498577345e-05 -149.3935204
256.341386 -35.8196052 -9.738640483e-05
-230.784146 -2.498577345e-05 -215.1643154
-20.935856 -2.498577345e-05 -143.6772274
-145.198699 -2.498577345e-05 -12.31897639
229.01202 -2.498577345e-05 -166.9774724
-262.223423 0.5905313342 -9.738640483e-05
225.541683 -2.498577345e-05 -214.6913244
144.783305 -2.498577345e-05 -38.40176639
261.012534 -67.33080921 -9.738640483e-05
80.940804 -2.498577345e-05 -41.13653639
-104.784691 -2.498577345e-05 -97.71043739
108.957246 -2.498577345e-05 -14.55838339
-152.526458 -2.498577345e-05 -117.8535104
-71.659188 -12.1482534 -9.738640483e-05
-180.539633 -2.498577345e-05 -220.1091724
-254.116891 -2.498577345e-05 -149.7421034
-36.605618 -2.498577345e-05 -147.4842574
114.916373 -2.498577345e-05 -57.67290239
-94.667212 -2.498577345e-05 -232.3336114
105.988205 -2.498577345e-05 -178.0438274
168.843146 -2.498577345e-05 -195.0850904
184.808822 -2.498577345e-05 -217.5708144
-1.576583999 -2.498577345e-05 -184.1278604
-170.809284 -62.66556618 -9.738640483e-05
209.584602 -2.498577345e-05 -9.863195386
240.209189 -62.42528679 -9.738640483e-05
-63.885722 -2.498577345e-05 -182.6049734
-284.999785 -34.42133844 -52.17752039
-284.999785 -36.6206008 -25.78076839
36.571947 -2.498577345e-05 -187.6417134
-76.979355 -2.498577345e-05 -201.1935794
170.950593 -2.498577345e-05 -251.9964114
289.464932 -2.498577345e-05 -156.9553764
-283.325334 -2.498577345e-05 -217.8512224
-137.586449 -2.498577345e-05 -239.3465614
110.864562 -36.78402417 -9.738640483e-05
-207.193673 -2.498577345e-05 -126.2123124
-112.661264 -2.498577345e-05 -145.1319104
172.689893 -2.498577345e-05 -92.44064639
172.132461 -13.01297409 -9.738640483e-05
281.14544 -2.498577345e-05 -212.6862484
-12.314701 -2.498577345e-05 -163.1914084
-279.05699 -2.498577345e-05 -87.35624239
-302.829386 -2.498577345e-05 -176.5403094
199.250106 -2.498577345e-05 -242.5637464
-301.728913 -2.498577345e-05 -71.81963139
-183.379239 -2.498577345e-05 -78.16783839
-155.827637 -2.498577345e-05 -65.97908239
-145.374139 -2.498577345e-05 -177.3872884
-278.999785 -17.43607358 -145.2347774
-180.851184 -2.498577345e-05 -240.1319554
207.72107 -2.498577345e-05 -127.8063454
-119.055423 -2.498577345e-05 -96.76248039
105.522335 -2.498577345e-05 -84.92949439
211.326185 -60.72499556 -9.738640483e-05
233.324774 -2.498577345e-05 -116.2146434
181.563567 -2.498577345e-05 -126.2395484
-60.872538 -2.498577345e-05 -113.4538704
87.025539 -2.498577345e-05 -222.1613584
-278.999785 -12.75744558 -96.77163939
134.519121 -2.498577345e-05 -28.61958839
-284.999785 -38.53642731 -193.9607624
-49.878453 -2.498577345e-05 -188.7743354
-231.786779 -2.498577345e-05 -180.4227774
-138.371188 -59.30725216 -9.738640483e-05
212.612546 -2.498577345e-05 -69.58365039
-79.840922 -2.498577345e-05 -252.4839124
-6.194978999 -2.498577345e-05 -43.90480939
-265.1474 -14.76419216 -9.738640483e-05
144.066881 -2.498577345e-05 -159.7731574
179.548147 -52.38878023 -9.738640483e-05
162.967926 -2.498577345e-05 -68.95053039
-121.276404 -2.498577345e-05 -218.2985464
-195.543605 -2.498577345e-05 -210.9681754
-64.028446 -55.95985546 -9.738640483e-05
237.488113 -2.498577345e-05 -187.8866484
-262.226745 -2.498577345e-05 -105.9394944
-244.615369 -2.498577345e-05 -91.97979939
-61.522922 -2.498577345e-05 -71.56422639
-265.102629 -2.498577345e-05 -141.1836974
-7.021348999 -2.498577345e-05 -14.49366039
-34.340189 -68.00002403 0.1429516136
301.282438 -2.498577345e-05 -130.7246254
-186.414579 -54.12495748 -9.738640483e-05
-216.366283 -47.82402527 -9.738640483e-05
240.524787 -2.498577345e-05 -45.65148439
-108.784492 -2.498577345e-05 -237.7810094
-118.293976 -2.498577345e-05 -127.4673774
190.954161 -2.498577345e-05 -161.2110434
182.667802 -2.498577345e-05 -147.4648104
-136.197209 -12.59597749 -9.738640483e-05
-86.524787 -31.96145508 -9.738640483e-05
184.154366 -2.498577345e-05 -234.7169344
-174.318777 -6.348894066 -9.738640483e-05
-284.999785 -28.58345311 -204.0452484
-281.256814 -2.498577345e-05 -34.08853039
288.785861 -2.498577345e-05 -53.50922139
-21.492377 -2.498577345e-05 -237.1075474
-74.503623 -44.93016323 -9.738640483e-05
302.207019 -27.62752445 -9.738640483e-05
-279.486474 -50.00002499 -240.8747604
288.174512 -83.17451736 0.3547866136
-40.906464 -2.498577345e-05 -83.26957439
-288.635233 -2.498577345e-05 -77.82610539
-142.140896 -2.498577345e-05 -206.4038794
8.485571001 -59.4731438 -9.738640483e-05
-279.405319 -11.70785427 -13.92131939
-278.999785 -36.07351879 -165.4874554
-213.037008 -2.498577345e-05 -56.81502839
-195.523229 -2.498577345e-05 -53.58237039
-189.482471 -2.498577345e-05 -12.90279239
24.329712 -2.498577345e-05 -249.7160404
157.635504 -10.91188538 -9.738640483e-05
-217.050581 -10.09824945 -9.738640483e-05
12.556449 -29.68828472 -9.738640483e-05
50.720233 -2.498577345e-05 -120.1365304
25.052258 -2.498577345e-05 -18.30870539
-47.58168 -2.498577345e-05 -48.29870839
-282.909757 1.868364764 -164.8490654
-6.694849999 -2.498577345e-05 -196.4319824
-5.874529999 -2.498577345e-05 -75.47176939
284.237322 -2.498577345e-05 -179.0570974
263.008239 -2.498577345e-05 -34.66662639
232.494544 -49.65277036 -9.738640483e-05
-209.411619 -2.498577345e-05 -193.8154284
170.691938 -2.498577345e-05 -118.4691694
-169.725129 -2.498577345e-05 -81.33872939
-12.408637 -10.6875223 -9.738640483e-05
-278.999785 -9.541111516 -190.2734904
-123.205523 -2.498577345e-05 -153.1065704
-255.339481 -2.498577345e-05 -36.90295339
-283.604945 -56.54855637 -9.738640483e-05
-183.026621 -2.498577345e-05 -60.40208239
-88.710556 -2.498577345e-05 -151.4908694
-52.784095 -2.498577345e-05 -238.8658644
-264.67129 -59.51139161 -9.738640483e-05
159.80962 -2.498577345e-05 -151.6109174
109.47766 -2.498577345e-05 -45.70220139
-230.960854 -2.498577345e-05 -109.5940114
2.547441001 -2.498577345e-05 -111.9342884
-106.198276 -2.498577345e-05 -210.2347424
141.390403 -55.39774265 -9.738640483e-05
-52.229872 -29.53774437 -9.738640483e-05
-166.048995 -29.90301028 -9.738640483e-05
-198.734488 -2.498577345e-05 -245.9740704
-264.203777 -2.498577345e-05 -211.7762934
71.91286 -57.19052832 -9.738640483e-05
-249.346894 -42.92233111 -9.738640483e-05
70.078165 -2.498577345e-05 -165.0942704
64.285704 -2.498577345e-05 -22.57519439
-37.546411 -2.498577345e-05 -236.7879574
302.132052 -2.498577345e-05 -244.0064674
199.67866 -2.498577345e-05 -195.8513504
292.580218 -2.498577345e-05 -83.11750239
-181.973225 -2.498577345e-05 -23.58253239
47.107769 -31.85729385 -9.738640483e-05
-237.228173 -67.93373496 -9.738640483e-05
-89.648544 -68.00002403 2.109456614
215.104493 -2.498577345e-05 -111.8127254
-278.999785 -37.24571332 -135.8632434
-261.552121 -30.63203659 -9.738640483e-05
-278.999785 -33.82383066 -183.6105364
112.569629 -9.030802956 -9.738640483e-05
275.849839 -2.498577345e-05 -129.7628994
185.641016 -2.498577345e-05 -70.85765139
-160.356704 -2.498577345e-05 -239.0907514
136.076323 -2.498577345e-05 -184.7108004
284.610326 -44.11532792 -9.738640483e-05
135.461901 -2.498577345e-05 -81.05486739
-83.228819 -2.498577345e-05 -12.80513339
-284.999785 -27.13562904 -231.6089804
-263.084178 -2.498577345e-05 -80.49891139
-287.092258 -2.498577345e-05 -113.3123304
-224.628036 -2.498577345e-05 -47.33416639
-114.575835 -14.19426884 -9.738640483e-05
132.987285 -2.498577345e-05 -121.0243704
159.327973 -60.17661501 -9.738640483e-05
-134.368973 -2.498577345e-05 -50.38772839
-278.999785 -34.4731542 -109.3625814
-70.762133 -2.498577345e-05 -87.52318239
-185.083205 -2.498577345e-05 -104.3666824
-206.982515 -2.498577345e-05 -31.28634839
232.062331 2.105234054 -9.738640483e-05
-140.755845 -2.498577345e-05 -148.2163074
298.063743 -2.498577345e-05 -106.3817024
94.291245 -7.669216666 -9.738640483e-05
-119.788375 -2.498577345e-05 -231.5529324
-278.999785 -26.05445063 -74.01663739
268.599332 -10.49482888 -9.738640483e-05
28.219077 -2.498577345e-05 -57.88725439
195.115077 -27.79714869 -9.738640483e-05
165.864451 -2.498577345e-05 -32.00118139
-292.457096 -2.498577345e-05 -43.00722139
256.713464 -2.498577345e-05 -87.00663239
-162.255335 -2.498577345e-05 -17.60181139
294.968772 -2.498577345e-05 -198.1780484
41.569782 -2.498577345e-05 -167.3509714
110.105306 -2.498577345e-05 -109.0374784
-152.393216 -6.779718476 -9.738640483e-05
134.105927 -2.498577345e-05 -13.52529239
-65.854527 -2.498577345e-05 -43.09876739
122.592989 -2.498577345e-05 -18.97883239
-278.999785 -12.27851877 -114.8923054
-26.031114 -2.498577345e-05 -197.5368824
248.963306 -2.498577345e-05 -147.0380404
-198.372154 -2.498577345e-05 -41.45525139
222.730391 -2.498577345e-05 -37.41184839
-290.836619 -2.498577345e-05 -188.5547414
-252.368331 -55.1085109 -9.738640483e-05
-199.951197 -68.00002403 0.3847476136
105.175826 -2.498577345e-05 -131.4040824
132.523338 -2.498577345e-05 -149.9553794
75.691187 -2.498577345e-05 -10.63632539
45.397193 -2.498577345e-05 -44.46690739
-278.999785 -15.54894911 -167.5319724
-39.007705 -2.498577345e-05 -215.9406734
-89.699309 -2.498577345e-05 -32.00459139
-37.435195 -2.498577345e-05 -55.37149939
-204.04638 -2.498577345e-05 -17.71591339
292.232167 -2.498577345e-05 -65.45430739
-220.88836 -2.498577345e-05 -167.3661304
-276.22956 -2.498577345e-05 -147.8186334
212.012364 -11.56867329 -9.738640483e-05
269.057627 -2.498577345e-05 -151.5847984
145.36124 -2.498577345e-05 -126.5756444
231.856848 -2.498577345e-05 -65.80569839
-284.999785 -48.77771478 -48.03378739
-201.907229 -2.498577345e-05 -81.75935939
133.126216 -2.498577345e-05 -0.5814403864
-98.298145 -2.498577345e-05 -187.4910384
-284.999785 -49.55932966 -72.89698639
193.49579 -2.498577345e-05 -104.3712684
58.889239 -2.498577345e-05 -203.2363164
1.760395001 -2.498577345e-05 -53.49177239
-238.06509 -2.498577345e-05 -149.9101334
-139.207945 -2.498577345e-05 -24.08869339
-38.103359 -2.498577345e-05 -132.4153744
-87.546303 -2.498577345e-05 -86.26500139
88.355908 -2.498577345e-05 -28.03249239
17.930464 -2.498577345e-05 -160.5787564
117.576245 -2.498577345e-05 -251.6605174
-278.999785 -30.04138942 -145.6307704
-147.652698 -2.498577345e-05 -96.44905439
-192.364717 -28.7761165 -9.738640483e-05
-256.334906 -2.498577345e-05 -123.5522924
73.978175 -2.498577345e-05 -106.4081774
202.893549 -2.498577345e-05 -174.3869444
-271.468244 -2.498577345e-05 -130.8578164
-220.887355 -2.498577345e-05 -149.4611744
-296.82846 -2.498577345e-05 -133.5679614
-214.494824 -2.498577345e-05 -76.17511239
-278.999785 -9.852952336 -26.50092439
-278.999785 -6.702884886 -234.3630724
132.194778 -2.498577345e-05 -225.0144864
83.957259 -2.498577345e-05 -148.6076684
272.61388 -70.4435937 -9.738640483e-05
-123.96031 -2.498577345e-05 -8.206904386
-12.168108 -2.498577345e-05 -175.7525994
-128.314101 -2.498577345e-05 -109.7410094
-45.540668 -15.58052303 -9.738640483e-05
8.948607001 -2.498577345e-05 -28.43736739
19.158397 -2.498577345e-05 -117.3765964
245.382275 -2.498577345e-05 -99.50397939
-278.999785 -21.44694663 -51.41223739
82.766558 -2.498577345e-05 -192.8105434
38.654708 -2.498577345e-05 -119.3487564
256.362905 -2.498577345e-05 -14.10930839
122.218786 -2.498577345e-05 -197.7336474
-284.999785 -39.40645239 -225.4027244
-214.576389 -26.91451078 -9.738640483e-05
-192.70008 -2.498577345e-05 -126.3868934
185.581444 -2.498577345e-05 -190.6500264
95.713811 -2.498577345e-05 -171.8327654
-126.973322 -2.498577345e-05 -32.89698339
-167.224937 -2.498577345e-05 -130.5361844
26.505461 -2.498577345e-05 -237.9667994
77.565651 -2.498577345e-05 -94.95692439
-204.589696 -2.498577345e-05 -181.8263034
-278.999785 -33.78554764 -65.10512539
202.519978 -2.498577345e-05 -208.8480474
290.67889 -2.498577345e-05 -233.7112434
62.626023 -2.498577345e-05 -62.32297239
92.055912 -2.498577345e-05 -82.93017739
-13.716844 -2.498577345e-05 -133.1309054
-253.875522 -2.498577345e-05 -220.0614914
-13.005651 -53.49119545 -9.738640483e-05
-83.252212 -2.498577345e-05 -229.6400204
16.876926 -2.498577345e-05 -88.97466639
-44.721001 -2.498577345e-05 -16.87243039
-31.194838 -2.498577345e-05 -14.05498739
-205.589266 -2.498577345e-05 -236.4753534
7.331181001 -2.498577345e-05 -2.822860386
173.541223 -2.498577345e-05 -9.502582386
202.104434 -53.29224527 -9.738640483e-05
233.933151 -2.498577345e-05 -138.5772384
-152.229476 -2.498577345e-05 -200.5426694
-287.126522 -30.40979708 -9.738640483e-05
155.613166 -2.498577345e-05 -201.3066644
11.446329 -2.498577345e-05 -208.3419444
-130.076676 -2.498577345e-05 -189.0522624
-278.999785 -11.54387856 -135.2136304
-269.6388 -2.498577345e-05 -34.81856439
-70.240264 -2.498577345e-05 -15.59009339
286.793082 1.224124304 -9.738640483e-05
289.175305 -28.26738467 -9.738640483e-05
197.181001 -2.498577345e-05 -31.54138339
155.566261 -2.498577345e-05 -220.3689624
27.813166 -56.87114092 -9.738640483e-05
-231.591667 -2.498577345e-05 -239.7546894
-52.486818 -56.50651874 -9.738640483e-05
-278.999785 -23.35956228 -120.5610794
-270.454983 -2.498577345e-05 -95.05387739
-10.846187 -32.19917553 -9.738640483e-05
-153.950643 -2.498577345e-05 -106.4233364
-170.690076 -2.498577345e-05 -214.1413644
19.472906 -2.498577345e-05 -49.33071939
80.854808 -2.498577345e-05 -212.4478614
0.1386220014 -12.81662322 -9.738640483e-05
-86.725522 -2.498577345e-05 -195.0898744
-278.999785 -17.06246587 -181.5921004
-278.999785 -47.12195357 -119.8613364
-284.999785 -23.06404685 -99.30234739
-213.590135 -2.498577345e-05 -114.8370024
133.619714 -11.39047743 -9.738640483e-05
66.030719 -2.498577345e-05 -50.08636439
-268.790879 -2.498577345e-05 -11.86485839
-103.240795 -16.19400457 -9.738640483e-05
-279.500208 -50.00002499 -27.11253039
224.72603 -2.498577345e-05 -11.04984439
-284.999785 -38.25062838 -213.0191214
118.747114 -2.498577345e-05 -132.7629314
-283.049351 -50.00002499 -97.08953039
41.141178 -2.498577345e-05 -83.28002639
108.918391 -62.29861056 -9.738640483e-05
-284.999785 -31.56398715 -245.2668364
54.183148 -2.498577345e-05 -162.9757384
-43.371852 -2.498577345e-05 -227.0907404
-78.953532 -2.498577345e-05 -62.66156539
-39.681166 -2.498577345e-05 -110.4944394
297.946079 -2.498577345e-05 -221.2466454
-28.866807 -51.26166285 -9.738640483e-05
-126.19842 -7.327127696 -9.738640483e-05
-31.143739 -2.498577345e-05 -247.2477154
-257.533964 -2.498577345e-05 -56.82361439
-92.979642 -2.498577345e-05 -46.82802139
-189.862001 -9.162827456 -9.738640483e-05
-278.999785 -10.79966156 -57.38132939
-278.999785 -44.06981254 -173.3100254
226.074054 -2.498577345e-05 -147.9127144
137.21815 -2.498577345e-05 -70.01022439
7.655318001 -2.498577345e-05 -136.4944684
-272.221928 -2.498577345e-05 -162.1907974
-175.401689 -37.32314688 -9.738640483e-05
267.38927 -2.498577345e-05 -107.2108234
154.272545 -2.498577345e-05 -135.3565704
-172.923888 -2.498577345e-05 -193.3224374
263.857632 -2.498577345e-05 1.833561614
-237.32509 -22.3912612 -9.738640483e-05
169.421924 -24.54815352 -9.738640483e-05
-87.932349 -2.498577345e-05 -70.31329439
-144.949237 -2.498577345e-05 -70.09142739
-164.163682 -10.84367996 -9.738640483e-05
-284.999785 -11.47386142 -249.3396924
-136.377222 -2.498577345e-05 -135.9819324
-89.837603 -2.498577345e-05 -125.6101424
-9.743899999 -2.498577345e-05 -223.7178814
261.367236 -2.498577345e-05 -166.4352274
150.215453 -34.47077588 -9.738640483e-05
-228.506028 -2.498577345e-05 -16.04051839
175.406651 -2.498577345e-05 -241.4267324
-45.27104 -2.498577345e-05 -36.47827539
-95.521165 -2.498577345e-05 -221.3542724
-240.196513 -36.19086692 -9.738640483e-05
132.614611 -2.498577345e-05 -201.3076144
-218.59235 -2.498577345e-05 -219.7583574
-291.223468 -2.498577345e-05 -242.1861694
51.068822 -56.03190921 -9.738640483e-05
170.340125 -2.498577345e-05 -129.4320974
-239.059902 -2.498577345e-05 -64.92240139
8.637785001 -2.498577345e-05 -154.8016014
-299.461449 -2.498577345e-05 -10.39854239
179.802828 -41.43076262 -9.738640483e-05
66.423964 -2.498577345e-05 -176.9890544
208.230431 -2.498577345e-05 -27.55798639
-165.656728 -2.498577345e-05 -203.7089684
120.825818 -56.46688334 -9.738640483e-05
-23.293733 -10.44847384 -9.738640483e-05
72.302481 -2.498577345e-05 -131.7746904
-273.884863 -2.498577345e-05 -191.3266114
-236.81556 -2.498577345e-05 -169.1707184
167.002068 -2.498577345e-05 -166.7646014
217.683706 -2.498577345e-05 -48.00227739
83.503795 -12.58061755 -9.738640483e-05
221.251909 -50.36493396 -9.738640483e-05
251.726907 -2.498577345e-05 -186.6310754
249.612916 -2.498577345e-05 -123.0158384
-228.761814 -2.498577345e-05 -229.1235564
-273.402565 0.1567128942 -9.738640483e-05
-165.218395 -2.498577345e-05 -94.75953339
107.368138 -2.498577345e-05 -152.4746314
44.199422 -45.0975764 -9.738640483e-05
51.047353 -2.498577345e-05 -142.7037164
-278.999785 -17.49647222 -34.13179539
-284.999785 -12.97745631 -87.79704839
247.115805 -2.498577345e-05 -37.10598739
49.301186 -2.498577345e-05 -209.5541954
-181.86644 -2.498577345e-05 -135.3654754
-287.169526 -2.498577345e-05 -63.25013139
219.583336 -2.498577345e-05 -241.1456444
235.302345 -22.68343395 -9.738640483e-05
47.940002 -3.513632206 -9.738640483e-05
35.954874 -65.56404044 -9.738640483e-05
-193.23808 -2.498577345e-05 -152.2833984
34.164533 -2.498577345e-05 -102.0757384
47.383999 -2.498577345e-05 -22.61898839
-33.289033 -2.498577345e-05 -71.72367339
-84.738023 -58.72412819 -9.738640483e-05
101.42218 -2.498577345e-05 -102.7259674
69.80699 -2.498577345e-05 -40.10837539
-111.319345 -2.498577345e-05 -248.1425924
-257.706816 -2.498577345e-05 -186.3564994
302.0715 -2.498577345e-05 -116.7743924
-110.013707 -2.498577345e-05 -120.1587974
-217.977616 -2.498577345e-05 -201.5713874
-257.426637 -2.498577345e-05 -26.46374939
267.222589 -2.498577345e-05 -200.4669354
134.392644 -25.55598836 -9.738640483e-05
-52.513921 -2.498577345e-05 -130.8861844
-13.960615 -2.498577345e-05 -51.17174739
260.098039 -2.498577345e-05 -143.6868314
-35.324905 -2.899343346 -9.738640483e-05
-278.999785 -40.65090014 -12.97226439
243.047512 -2.498577345e-05 -20.17053939
-240.783742 -2.498577345e-05 -202.1161474
281.305532 -2.498577345e-05 -238.6861624
-217.348959 -2.498577345e-05 -98.36713339
61.461054 -2.498577345e-05 -230.9718034
8.208383001 -48.2592399 -9.738640483e-05
69.794428 -2.498577345e-05 -70.12313639
143.210653 -2.498577345e-05 -220.8938414
-22.101025 -2.498577345e-05 -172.0873574
-24.325204 -2.498577345e-05 -42.89721239
-37.883061 -2.498577345e-05 -99.77943239
-65.917772 -68.00002403 2.219712614
-105.053712 -2.498577345e-05 -50.74663239
-290.089259 -44.53006242 -9.738640483e-05
-219.809532 -2.498577345e-05 -37.00988239
-70.165645 -2.498577345e-05 -53.24167139
93.247259 -2.498577345e-05 -127.4600704
-264.521979 -2.498577345e-05 -154.7954664
186.653227 -2.498577345e-05 -114.0447584
-179.902972 -2.498577345e-05 -115.0764504
-284.999785 -20.24136673 -1.218616386
220.482147 -17.70536595 -9.738640483e-05
-74.569098 -2.498577345e-05 -243.4525524
59.217473 -2.498577345e-05 -153.8117424
-216.757099 -2.498577345e-05 -9.326175386
-234.834237 -3.719276916 -9.738640483e-05
284.571209 -10.16321228 -9.738640483e-05
18.660212 -2.498577345e-05 -196.2001754
-102.754052 -39.58303239 -9.738640483e-05
-41.323114 -60.25934821 -9.738640483e-05
-59.583133 -2.498577345e-05 -148.3691394
8.434406001 -2.498577345e-05 -232.0164864
4.413766001 -2.498577345e-05 -65.37773739
99.146903 -45.38315015 -9.738640483e-05
39.498992 -2.498577345e-05 -239.3512244
-136.724735 -2.498577345e-05 -228.2812234
-151.973124 -2.498577345e-05 -145.5699214
154.347405 -2.498577345e-05 -9.975392386
26.020281 -2.498577345e-05 -176.2342864
-278.999785 -36.69538768 -155.1487554
-130.846799 -2.498577345e-05 -77.85271439
-69.060453 -1.362399466 -9.738640483e-05
-103.733776 -2.498577345e-05 -65.04103539
91.060259 -2.498577345e-05 -62.51461039
264.528633 -57.6303945 -9.738640483e-05
286.553897 -56.34106086 -9.738640483e-05
-117.404659 -2.498577345e-05 -29.05345139
135.797913 -2.498577345e-05 -108.6435884
-127.456985 -2.498577345e-05 -122.7484304
-253.552116 -16.98486261 -9.738640483e-05
-279.605247 -2.498577345e-05 -20.01662339
-197.175663 -2.498577345e-05 -105.2525114
127.455396 -2.498577345e-05 -59.09641039
-284.999785 -10.73678326 -198.5086264
267.255943 -2.498577345e-05 -237.9058914
-97.246323 -2.498577345e-05 -89.53849139
-60.042898 -6.780041616 -9.738640483e-05
53.451108 -2.498577345e-05 -187.5547524
-284.781617 -50.00002499 -192.4358164
-16.718039 -2.498577345e-05 -11.23469139
-278.999785 -9.490691526 -215.6971284
-64.473264 -24.91722215 -9.738640483e-05
165.213529 -2.498577345e-05 -85.48929839
-117.616315 -2.498577345e-05 -171.5496484
-300.035625 -2.498577345e-05 -21.89123339
282.810473 -2.498577345e-05 -116.0615394
214.053284 -2.498577345e-05 -59.02913939
-104.442695 -2.498577345e-05 -138.5059964
-111.959437 -57.42355514 -9.738640483e-05
-114.751286 -28.903702 -9.738640483e-05
117.393166 -2.498577345e-05 -169.1730214
124.625023 -2.498577345e-05 -42.96082939
-109.289674 -68.00002403 0.8476766136
-296.408617 -57.41752373 -9.738640483e-05
-57.676983 -2.498577345e-05 -21.82858439
-276.47495 -2.498577345e-05 -42.99771439
66.752981 -34.8970189 -9.738640483e-05
-209.961803 -2.498577345e-05 -224.9949584
268.350743 -2.498577345e-05 -225.4581604
-195.903312 -50.68506036 -9.738640483e-05
-278.999785 -39.63774483 -83.13653539
224.850698 -2.498577345e-05 -109.3048424
138.973055 -2.498577345e-05 -141.3896384
276.933094 -61.36812462 -9.738640483e-05
154.36604 -2.498577345e-05 -74.13613639
115.285292 -2.498577345e-05 -75.40811239
295.377218 -2.498577345e-05 -139.1843974
-94.740149 -26.24046994 -9.738640483e-05
-199.935595 -2.498577345e-05 -133.2918134
-65.107357 -2.498577345e-05 -32.68175039
-278.999785 -22.60923119 -198.6484684
-190.122302 -2.498577345e-05 -222.9304634
147.165529 -2.498577345e-05 -102.4714014
155.480807 -2.498577345e-05 -36.79912339
-284.812231 -50.00002499 -218.0386164
192.384591 -2.498577345e-05 -211.1317244
-3.791928999 -2.498577345e-05 -133.3571754
239.911819 -2.498577345e-05 -169.1697004
-284.999785 -21.41186305 -251.2222454
-279.082668 -2.498577345e-05 -122.3501444
255.710412 -2.498577345e-05 -205.3876644
258.238184 -2.498577345e-05 -100.4313454
299.367281 -2.498577345e-05 -156.5164084
241.980391 0.2404126442 -9.738640483e-05
-107.708311 -2.498577345e-05 -31.55909839
-137.969169 -22.33634109 -9.738640483e-05
-5.561404999 -2.498577345e-05 -96.97286139
65.370875 -2.498577345e-05 -142.2318044
-135.57323 -2.498577345e-05 -14.58204139
184.153978 -2.498577345e-05 -33.27300039
-108.214548 -2.498577345e-05 -8.678697386
280.155882 -20.79178809 -9.738640483e-05
-284.999785 -36.57100914 -38.93751139
-284.999785 -42.5877543 -130.0714774
-87.992385 -5.626350296 -9.738640483e-05
-24.774277 -2.498577345e-05 -208.4200044
150.176778 -2.498577345e-05 -178.0086684
120.95742 -14.16103098 -9.738640483e-05
166.193748 -52.53883117 -9.738640483e-05
-243.201626 -2.498577345e-05 -130.4211954
-217.339156 -57.59536465 -9.738640483e-05
-299.503261 -2.498577345e-05 -232.1652694
145.538863 -2.498577345e-05 -195.1995284
-293.007942 -2.498577345e-05 -97.76801639
249.37558 -65.90998083 -9.738640483e-05
219.027834 -31.22974364 -9.738640483e-05
11.106362 -2.498577345e-05 -72.50911339
-183.772932 -2.498577345e-05 -189.0494324
-284.999785 -19.36485894 -11.53139339
172.968469 -2.498577345e-05 -151.1816404
-273.302492 -2.498577345e-05 -63.29963939
-171.812 -2.498577345e-05 -58.63244539
-284.999785 0.03314468423 -152.1019084
-270.719281 -2.498577345e-05 -235.0796684
285.569418 -2.498577345e-05 -130.4896004
-275.161986 -2.498577345e-05 -175.8418084
-234.023339 -2.498577345e-05 -52.93122439
-199.995145 -2.498577345e-05 -95.92895639
272.867104 -2.498577345e-05 -187.6883554
-83.840388 -2.498577345e-05 -39.77044739
134.918907 -64.83504992 -9.738640483e-05
280.000215 2.086679904 -157.6368024
188.750947 -2.498577345e-05 -172.7378124
153.007002 -19.49301635 -9.738640483e-05
-222.62195 -19.20359698 -9.738640483e-05
-264.004788 -2.498577345e-05 -172.1049444
228.512549 -2.498577345e-05 -224.9070774
-231.006559 -2.498577345e-05 -126.8525504
-201.991706 -2.498577345e-05 -148.1040394
-279.134549 -2.498577345e-05 -227.3538214
188.815707 -2.498577345e-05 -21.38860039
-78.45836 -19.04772059 -9.738640483e-05
203.220199 -6.002777776 -9.738640483e-05
-146.061177 -2.498577345e-05 -130.0408144
72.433158 -2.498577345e-05 -238.5062354
-239.819213 -2.498577345e-05 -190.6201244
81.388246 -2.498577345e-05 -86.06692539
179.541705 -2.498577345e-05 -138.3078784
210.935291 0.4315594442 -9.738640483e-05
302.224236 -2.498577345e-05 -63.20628439
6.584215001 -2.498577345e-05 -245.1795194
-284.999785 -27.65054766 -29.36500939
-292.813153 -2.498577345e-05 -33.36727739
34.776991 -2.498577345e-05 -198.2573734
273.28151 -2.498577345e-05 -55.01358439
-278.999785 -40.47704234 -57.74254639
-300.988317 -37.27851061 -9.738640483e-05
-284.999785 -14.88628715 -238.1310114
-43.293869 -2.498577345e-05 -207.3373144
36.44046 -2.498577345e-05 -178.0345464
281.381383 -2.498577345e-05 -39.76378539
165.958715 -2.498577345e-05 -243.0680804
-159.610449 -2.498577345e-05 -31.94182339
-197.409315 -2.498577345e-05 -6.502173386
223.184632 -2.498577345e-05 -95.53559839
-82.284222 -2.498577345e-05 -22.33820239
-139.573141 -2.498577345e-05 -169.7996974
232.746295 -2.498577345e-05 -22.38059839
-284.999785 -23.35082665 -221.1207414
29.81757 -2.498577345e-05 -115.7956764
-115.917366 -2.498577345e-05 -159.2225914
-35.12346 -2.498577345e-05 -119.5570584
-53.813042 -2.498577345e-05 -66.01477539
55.654494 -9.463837526 -9.738640483e-05
-17.200065 -2.498577345e-05 -65.21433339
-278.999785 -8.551770166 -80.10347139
250.279169 -2.498577345e-05 -229.2378204
166.977024 -2.498577345e-05 -108.3433194
-111.035515 -2.498577345e-05 -188.2381624
293.822608 -46.29674073 -9.738640483e-05
-10.857087 -2.498577345e-05 -142.1519414
-177.530839 -2.498577345e-05 -33.66487139
-114.087376 -2.498577345e-05 -53.53846939
14.288905 -2.498577345e-05 -169.3022174
-301.924461 -2.498577345e-05 -49.31686839
185.545172 -2.498577345e-05 -98.22167739
-284.999785 -6.787267986 -140.7339524
172.106355 -2.498577345e-05 -214.0618644
-253.793306 -2.498577345e-05 -110.1703834
-288.751973 -65.10869707 -9.738640483e-05
262.962911 -2.498577345e-05 -50.66617839
-171.162578 -2.498577345e-05 -243.2132164
-155.033205 -2.498577345e-05 -170.6856464
-284.999785 -9.050506536 -64.67203039
-279.899098 -50.00002499 -145.4673114
-278.999785 -35.53259548 -206.1054174
-229.026998 -2.498577345e-05 -28.49975239
179.58662 -2.498577345e-05 -16.67392039
189.056114 -52.29990083 -9.738640483e-05
261.284608 -2.498577345e-05 -123.8253254
-153.84068 -2.498577345e-05 -181.3966314
-287.45346 -2.498577345e-05 -129.8561954
145.290529 -2.498577345e-05 -47.75429139
-246.683995 -2.498577345e-05 -42.07737939
217.398686 -2.498577345e-05 -160.4148824
-162.804187 -2.498577345e-05 -115.6758264
-248.160319 -2.498577345e-05 -231.5270464
-174.655038 -2.498577345e-05 -167.9721344
201.449896 -2.498577345e-05 -81.63541239
-11.776979 -2.498577345e-05 -22.53607439
-278.999785 -43.4550674 -69.15366939
-127.091729 -35.31930368 -9.738640483e-05
-32.45474 -2.498577345e-05 -188.4312584
254.599238 -2.498577345e-05 -57.73831739
95.896046 -2.498577345e-05 -213.8314634
83.647487 -2.498577345e-05 -16.09068539
64.626279 -43.96951211 -9.738640483e-05
84.782995 -2.498577345e-05 -51.64741439
274.597601 -38.79745059 -9.738640483e-05
-257.543035 -2.498577345e-05 -205.2701084
-108.708334 -2.498577345e-05 -85.94796239
-118.587821 -2.498577345e-05 -194.3836124
270.423948 -2.498577345e-05 -137.3089484
-290.31957 -2.498577345e-05 -3.203603386
-202.828472 -2.498577345e-05 -112.6093194
-162.190696 -2.498577345e-05 -149.5165724
-181.462229 -2.498577345e-05 -87.23286039
-270.317079 -2.498577345e-05 -53.63000239
103.278429 -2.498577345e-05 -235.4382634
129.609479 -36.90997959 -9.738640483e-05
75.905213 -33.63424082 -9.738640483e-05
266.581796 -2.498577345e-05 -8.347619386
-164.313133 -2.498577345e-05 -49.41916139
-44.69792 -2.498577345e-05 -181.1298424
-216.139798 -38.26627097 -9.738640483e-05
29.406477 -2.498577345e-05 -141.6207804
155.752604 -2.498577345e-05 -57.87494439
235.138776 -2.498577345e-05 -178.9747734
-293.936026 -2.498577345e-05 -174.1267684
255.438002 -2.498577345e-05 -238.9633904
82.75088 -2.498577345e-05 -138.4727614
86.543834 -2.498577345e-05 -172.2135284
163.014945 -2.498577345e-05 -94.39579539
-246.598376 -2.498577345e-05 -101.7147184
-270.844382 -2.498577345e-05 -251.9421894
272.93868 -2.498577345e-05 -217.5272854
-157.140523 -2.498577345e-05 -56.83301139
-92.535929 -2.498577345e-05 -179.7258324
-284.999785 -20.55762734 -44.55424939
240.702841 -2.498577345e-05 -68.16128139
-31.063672 -2.498577345e-05 -170.0051194
272.070932 -2.498577345e-05 -36.36469939
-189.319343 -2.498577345e-05 -40.23191839
-149.966807 -51.67223591 -9.738640483e-05
281.000215 2.404983184 -6.958651386
-100.794564 -2.498577345e-05 -198.3576564
-278.999785 -29.9126338 -99.18209139
153.381674 -2.498577345e-05 -238.8697594
-15.030084 -2.498577345e-05 -80.91718739
-72.676517 -2.498577345e-05 -229.3376994
289.345496 -2.498577345e-05 -218.3439344
293.377225 -5.022930626 -9.738640483e-05
214.527548 -2.498577345e-05 -121.8331364
-93.350297 -2.498577345e-05 -140.3090944
-18.400363 -2.498577345e-05 -100.6361454
-47.128224 -37.01140109 -9.738640483e-05
198.181916 -2.498577345e-05 -48.88996939
-243.021266 -15.36441679 -9.738640483e-05
35.787313 -2.498577345e-05 -228.7547324
-4.561549999 -2.498577345e-05 -84.41836739
-194.783835 -2.498577345e-05 -186.9044844
-253.497368 -34.73109195 -9.738640483e-05
-271.588737 -2.498577345e-05 -206.5664804
-34.316178 -43.85311824 -9.738640483e-05
76.250074 -2.079046656 -9.738640483e-05
-278.999785 -25.56325514 -7.219850386
160.815144 -2.498577345e-05 -188.8448194
-278.999785 -43.69505144 -198.2742784
-0.6687629986 -2.498577345e-05 -141.9633524
-173.07947 -2.498577345e-05 -137.3809824
-8.777122999 -2.498577345e-05 -243.8014254
37.31814 -24.6048025 -9.738640483e-05
110.020675 -2.498577345e-05 -227.4236064
