# .PCD v0.7 - Point Cloud Data file format
VERSION 0.7
FIELDS x y z
SIZE 4 4 4
TYPE F F F
COUNT 1 1 1
WIDTH 1171
HEIGHT 1
VIEWPOINT 0 0 0 1 0 0 0
POINTS 1171
DATA ascii
-312.5000029 67.51167189 145.3668936
62.85103209 67.99997499 -0.8007113856
-30.18779191 -2.498421945e-05 199.0739776
-332.0328239 67.99997499 -0.3051713856
-307.3454559 -2.498421945e-05 192.2641276
-102.6588879 -1.576835424 -9.738555218e-05
-197.2321809 -2.498421945e-05 24.22167361
-198.4026049 -2.365105604 199.9999026
158.0717777 -2.498421945e-05 39.13389361
-228.9989779 65.73558159 -9.738555218e-05
-80.87133991 67.47232429 -9.738555218e-05
30.74668409 -2.498421945e-05 107.8241206
241.7192823 57.41720449 -9.738555218e-05
315.5000578 -1.842993794 2.335162614
-252.1389759 -2.498421945e-05 68.80960261
107.2157971 -0.3917274142 118.1354926
246.5471251 -2.498421945e-05 109.3214286
37.44383509 -0.4280933942 -9.738555218e-05
-61.21547491 -2.498421945e-05 50.23329861
-158.6441239 -2.498421945e-05 147.8488946
117.1522517 28.62095369 -9.738555218e-05
-333.4043979 -2.498421945e-05 24.49609161
-101.2941209 -2.498421945e-05 131.2859606
308.1656943 -2.498421945e-05 61.36335261
206.3526248 -2.498421945e-05 0.2277396144
6.019543093 -2.498421945e-05 56.59854961
-301.1172389 -2.498421945e-05 133.8669946
-202.1894479 -2.498421945e-05 93.82871461
6.245478093 67.99997499 -0.4783953856
-252.8384759 -2.498421945e-05 190.9141596
3.536069093 -2.498421945e-05 157.8570196
204.4230192 -2.498421945e-05 63.69962561
-145.1046299 -2.498421945e-05 29.59852861
-279.8495019 67.22482359 -9.738555218e-05
-332.5577059 11.40589526 233.9999026
-59.76248891 -2.498421945e-05 158.9734056
-312.5000029 52.26867119 192.5145816
-312.5000029 42.95754629 103.2545696
123.2795485 -2.498421945e-05 72.09794161
270.9128402 14.15619189 -9.738555218e-05
-296.6796239 -2.498421945e-05 51.36331161
-98.62428891 -2.498421945e-05 82.31506961
83.90638209 -2.498421945e-05 5.520165614
-67.99829891 24.81697939 -9.738555218e-05
14.24307609 -0.7336184942 199.9999026
-231.3035979 11.51327803 -9.738555218e-05
-205.3358259 -2.498421945e-05 155.0030236
-313.1067959 28.93990469 -9.738555218e-05
-36.44823891 62.61491969 -9.738555218e-05
-72.27513791 -2.498421945e-05 199.1710796
-291.2473049 -2.498421945e-05 93.10257461
170.9951836 21.71821289 -9.738555218e-05
-191.3871609 43.69831809 -9.738555218e-05
-125.6431019 31.82902809 -9.738555218e-05
-175.8417289 -2.498421945e-05 60.51247361
-336.4120859 -2.498421945e-05 164.2407286
125.0464338 67.99997499 -1.561674386
65.33894209 -2.498421945e-05 128.2487606
-105.1284959 -2.498421945e-05 39.95908161
162.6688176 -2.498421945e-05 79.07555261
113.2975723 -2.498421945e-05 33.87669661
206.4193147 39.45464289 -9.738555218e-05
285.0276604 -2.498421945e-05 92.83360961
35.79851109 40.08492889 -9.738555218e-05
-157.5773089 -2.498421945e-05 186.6889216
-168.6336179 10.00688678 -9.738555218e-05
-27.54999491 -2.498421945e-05 31.71690961
-312.5000029 31.82777239 159.3616436
-9.695772907 -2.498421945e-05 93.03644761
143.1873557 -2.498421945e-05 129.6623446
279.4723716 53.26437799 -9.738555218e-05
40.47901709 -2.498421945e-05 43.52715461
72.70921509 -2.498421945e-05 91.26040261
-279.8025839 -2.498421945e-05 166.6385976
138.9495033 -2.498421945e-05 4.654905614
-167.5938649 -2.498421945e-05 112.1918526
-232.8296759 -2.498421945e-05 38.21068761
6.326173093 -2.498421945e-05 20.23495761
212.4683391 -2.498421945e-05 98.63679161
-102.3416869 -2.498421945e-05 167.7594066
289.2698352 -2.498421945e-05 31.25900261
310.9019754 33.40089019 -9.738555218e-05
-241.8933429 -2.498421945e-05 101.8097526
-259.4201999 35.24964349 -9.738555218e-05
-134.7024319 -2.498421945e-05 122.2400786
-314.8897969 26.46201899 35.54572561
-317.5853409 25.49997499 71.52981961
-27.35351091 -2.498421945e-05 143.6155276
236.7500578 -0.07646480422 74.25715461
-38.93621791 -2.498421945e-05 75.88502161
92.14563109 51.19662509 -9.738555218e-05
239.3066208 -2.498421945e-05 4.896795614
-121.4849099 67.99997499 -2.210579386
36.60289709 -2.498421945e-05 143.8817666
-313.2891509 36.47402679 226.0657396
-266.6584539 -2.498421945e-05 31.33564861
-73.19007591 -2.498421945e-05 20.27903561
-210.2653809 -2.498421945e-05 62.62219261
-302.8646749 -2.498421945e-05 14.55560661
210.9408122 -2.086538024 31.88630361
-213.3428999 -2.498421945e-05 123.7729686
66.27379809 30.76354359 -9.738555218e-05
-68.00086391 -2.498421945e-05 90.90837861
270.0280076 -2.498421945e-05 64.82769761
-330.2390449 -2.498421945e-05 121.4011756
31.04142409 -2.498421945e-05 75.08648361
-133.6511949 -1.900632044 -9.738555218e-05
-328.8027499 -2.498421945e-05 57.20245061
147.778118 43.88027389 -9.738555218e-05
277.54159 -2.498421945e-05 122.4092316
-225.0327539 -2.498421945e-05 178.0946926
0.6202760934 -2.498421945e-05 127.7367346
6.710337093 31.74204639 -9.738555218e-05
207.5806429 -1.653320614 128.4311196
-318.5000029 26.59097989 130.9217466
-126.4283329 -2.498421945e-05 61.13755461
199.7927107 67.99997499 -0.6110643856
-131.4399889 -2.498421945e-05 169.3292466
27.91932209 -2.498421945e-05 173.3610416
134.3052121 -2.498421945e-05 102.3955416
-72.93917291 -2.498421945e-05 127.5353346
234.3236501 29.98195789 -9.738555218e-05
-200.2858849 16.91129279 -9.738555218e-05
-97.95887091 26.21600249 -9.738555218e-05
-222.5879349 38.30310259 -9.738555218e-05
-312.5000029 65.12043759 219.2534816
-267.5335589 -2.498421945e-05 113.3504836
62.67308209 -2.498421945e-05 23.72861561
-318.5000029 23.99870899 200.9436266
184.43431 -2.498421945e-05 23.74761861
-40.95003291 -2.498421945e-05 2.838374614
-309.0463669 -2.498421945e-05 161.2003436
-28.28677691 -2.498421945e-05 170.9348606
96.37061409 -2.498421945e-05 76.70266861
-318.5000029 65.98583569 116.5655296
-286.0991029 40.35035249 -9.738555218e-05
35.02383109 67.19430599 -9.738555218e-05
-312.5000029 -0.3802810342 218.6387946
-180.8763979 -2.498421945e-05 165.6496246
315.5000578 -0.5380621542 86.86745661
179.3488786 -2.498421945e-05 55.13037461
-154.3706649 34.56111859 -9.738555218e-05
315.5000578 -0.2902357842 28.86934861
-90.68073491 -2.498421945e-05 107.2459966
-333.2697699 -2.498421945e-05 190.4320136
-44.30364491 37.86572149 -9.738555218e-05
-325.0141089 0.1480912758 -9.738555218e-05
-312.5000029 17.35780099 106.2867276
-183.7547299 -2.498421945e-05 140.0782466
-13.98946291 46.95692869 -9.738555218e-05
-318.5000029 49.03057299 14.60686361
114.0400166 0.4914040358 -9.738555218e-05
-318.5000029 64.89191879 169.8456906
-14.57932191 -1.890487114 -9.738555218e-05
44.92795709 -2.498421945e-05 194.8698276
-276.2701909 -1.392138154 199.9999026
-51.21735291 -2.498421945e-05 182.6023126
-21.96502091 -2.498421945e-05 56.19614261
-255.1284719 -2.498421945e-05 162.2360916
-115.1325369 -2.498421945e-05 101.7626786
-83.54919991 -2.498421945e-05 61.09729161
-276.8771959 -2.498421945e-05 69.66114361
290.9824178 -2.498421945e-05 5.047868614
178.0841442 -2.097283624 -9.738555218e-05
-168.1955019 -2.498421945e-05 84.82320461
-151.5981929 -2.498421945e-05 56.44446361
-120.9546329 -2.498421945e-05 147.2960066
-186.3451069 67.52912549 -9.738555218e-05
55.29368109 -2.498421945e-05 72.85351061
87.81236809 -2.498421945e-05 32.81496361
-252.8372469 -2.498421945e-05 10.21147361
-307.6444049 -2.498421945e-05 75.45718461
143.9382039 -2.498421945e-05 59.73121161
-95.64749491 -2.498421945e-05 190.7746586
256.8115688 -2.498421945e-05 87.91657561
-106.2306539 48.41141029 -9.738555218e-05
262.3707959 -2.498421945e-05 16.88119061
-223.1618469 -2.498421945e-05 82.94736461
-50.18815691 -2.498421945e-05 25.46433661
-117.9424559 -2.498421945e-05 20.46809361
54.09970709 -2.498421945e-05 105.2986926
-220.8748499 -2.498421945e-05 17.37723661
-318.5000029 17.61923029 178.5641346
14.24289909 -2.498421945e-05 91.14315061
14.44547009 7.921360296 -9.738555218e-05
-176.2863789 -2.498421945e-05 34.05090661
-268.1561179 -2.498421945e-05 140.1207466
230.5514964 -2.287923744 126.6365186
-335.2901589 34.22436219 233.9999026
-20.93831791 -2.498421945e-05 120.5539876
61.97564909 -2.190954654 -9.738555218e-05
146.0357345 21.03676399 -9.738555218e-05
-333.6193959 38.25466929 -9.738555218e-05
-66.96022591 49.88199989 -9.738555218e-05
226.0278037 -2.498421945e-05 54.58793061
-301.2186149 56.87341569 -9.738555218e-05
106.6965301 -2.498421945e-05 55.20866661
178.0400096 43.97351049 -9.738555218e-05
191.8971037 -2.498421945e-05 89.98178261
0.03990109339 -2.498421945e-05 182.8892326
-264.7293269 -2.498421945e-05 91.30592461
147.1782325 67.99997499 -2.098382386
290.7740731 23.91137469 -9.738555218e-05
222.410692 67.99997499 -1.374948386
-51.86567191 -2.498421945e-05 134.0366826
96.75895609 -2.498421945e-05 98.74108261
-231.5160509 -2.498421945e-05 155.1682576
157.3815673 -2.498421945e-05 112.0400856
28.23512209 -2.498421945e-05 21.28913661
-312.5000029 47.45593219 128.0268816
135.1088845 -1.022986294 33.16759861
-78.75426091 5.859560576 -9.738555218e-05
255.7772228 40.82148909 -9.738555218e-05
-312.5000029 1.818702556 33.81437661
-140.5537679 -2.498421945e-05 199.9262876
-80.40175991 -2.498421945e-05 152.8291676
122.389583 -1.072958644 135.0866806
-220.8894149 -2.498421945e-05 199.0942716
-83.67047491 -2.498421945e-05 39.70249961
98.65091709 15.15693579 -9.738555218e-05
-293.3798389 13.29795709 -9.738555218e-05
86.41130809 -2.498421945e-05 130.2848626
-178.5516279 -2.498421945e-05 189.0535866
-208.4387419 61.33748629 -9.738555218e-05
-288.9197129 -2.498421945e-05 30.26564961
-170.8073199 47.43788539 -9.738555218e-05
-232.3997199 -2.498421945e-05 59.07286261
-79.64117091 -2.498421945e-05 177.4782016
-312.5000029 16.14968039 53.45346361
260.0509666 67.23918349 -9.738555218e-05
163.5860119 -2.498421945e-05 19.08466761
-260.6563709 55.99252119 -9.738555218e-05
48.29899309 20.36193899 -9.738555218e-05
-195.4918239 -2.498421945e-05 48.07341361
-57.01795691 67.99997499 -0.06191438555
-188.2475339 -2.498421945e-05 111.5407866
-318.5000029 14.61358739 149.6727486
-162.1560139 -2.498421945e-05 17.96177461
-185.4812589 -1.709448904 -9.738555218e-05
288.1641787 -2.498421945e-05 51.74527361
-204.5404239 -2.498421945e-05 178.8256016
-6.568028907 -2.498421945e-05 36.04612761
167.0798522 -0.5406849242 131.5952486
-133.7313289 50.45810729 -9.738555218e-05
56.51018909 -2.498421945e-05 154.2310936
-304.4947149 -2.498421945e-05 112.7517956
100.6218691 -2.498421945e-05 16.76082461
-333.5370459 -2.498421945e-05 210.5541876
-29.55589291 -2.498421945e-05 96.74071361
-318.5000029 12.52540599 14.46286761
140.760695 -2.498421945e-05 81.85973261
19.15348709 52.86775039 -9.738555218e-05
215.450548 21.75593859 -9.738555218e-05
20.48124309 -2.498421945e-05 39.56259461
-93.01610991 -2.498421945e-05 19.32576961
158.1087559 -1.509457494 -9.738555218e-05
191.7941971 26.20482629 -9.738555218e-05
-318.5000029 49.62287259 153.3512156
-11.05166591 -2.498421945e-05 73.38196061
-140.9765769 16.38576469 -9.738555218e-05
-318.5000029 44.60318979 175.3986206
-42.08042091 -2.498421945e-05 56.45436161
299.9093479 54.54030039 -9.738555218e-05
-86.65185091 42.29942829 -9.738555218e-05
-312.5000029 1.439959706 94.75734261
-221.2767359 -2.498421945e-05 105.8184356
270.0724666 -2.498421945e-05 40.95388461
-289.0103809 -2.498421945e-05 183.8718346
-209.6675429 -0.1761924142 -9.738555218e-05
-124.2613169 -2.498421945e-05 83.25731661
-289.8049449 -2.498421945e-05 149.5086296
-151.9621019 -2.498421945e-05 168.2971126
22.73856909 -2.498421945e-05 125.2909946
-334.6307249 -2.498421945e-05 145.1265776
46.48092709 -2.498421945e-05 124.7656256
293.4793677 -2.498421945e-05 73.44742261
56.06859909 50.25298509 -9.738555218e-05
-318.5000029 17.49658789 220.8119606
251.1602184 21.22979959 -9.738555218e-05
-13.18042191 65.89544479 -9.738555218e-05
104.9373241 65.13278099 -9.738555218e-05
76.65294009 -2.498421945e-05 113.1274766
-257.6554789 15.08175279 -9.738555218e-05
-242.4381509 43.35877739 -9.738555218e-05
225.3638002 48.12561199 -9.738555218e-05
-140.7088779 -2.498421945e-05 142.3948636
266.6719918 -2.498421945e-05 103.8595256
-318.2889249 25.77269909 90.56994561
81.54418909 67.39609649 -9.738555218e-05
172.2880597 -2.498421945e-05 95.10389161
296.1263798 -2.498421945e-05 111.6126866
-144.4549639 -2.498421945e-05 106.3948826
-215.2852839 -2.498421945e-05 44.39552461
-318.5000029 47.88798569 209.4334936
212.7723418 -2.498421945e-05 80.17633461
85.73125709 28.33484869 -9.738555218e-05
3.993087093 -2.498421945e-05 109.6531466
-46.74775291 19.63459649 -9.738555218e-05
-59.10585691 -0.1450625842 -9.738555218e-05
-40.76271991 -2.498421945e-05 157.5090866
-264.6549999 -2.498421945e-05 55.42579161
13.66239509 -2.498421945e-05 142.6284706
-99.12830691 67.81907339 -9.738555218e-05
60.99195009 -2.498421945e-05 52.54989461
-60.37898591 -2.498421945e-05 109.9829106
-159.3069759 -2.498421945e-05 129.6601496
232.9117238 -0.04979158422 34.67230161
-108.9276759 -2.498421945e-05 65.85532761
-274.6935719 22.14320079 -9.738555218e-05
-8.375001907 -2.498421945e-05 144.3082926
-326.8354829 50.04851769 227.9999026
122.3755595 -2.498421945e-05 15.89298061
255.4252368 -2.152303254 124.6932556
124.4064058 -2.498421945e-05 52.98669661
-48.42125691 -2.498421945e-05 90.99276861
-225.7857329 -2.498421945e-05 138.2871686
234.6521618 -2.498421945e-05 91.94828561
117.1240986 -2.498421945e-05 97.75068161
-318.5000029 8.152179066 131.9915936
161.3626063 -2.498421945e-05 56.58988261
256.2762049 0.6114427058 -9.738555218e-05
-285.1077709 -2.498421945e-05 111.9884786
-53.16708591 -1.754205414 199.9999026
23.59917209 26.81179379 -9.738555218e-05
43.58161909 -2.498421945e-05 87.39069761
124.5068756 -2.094816834 117.1528906
184.8950807 -2.498421945e-05 71.55794461
-235.5817689 -2.498421945e-05 117.9515966
-185.4477269 -2.498421945e-05 89.40943961
-247.0186179 66.63644999 -9.738555218e-05
-62.67446491 -2.498421945e-05 67.45763061
-81.70485291 -2.498421945e-05 78.92313661
-249.0246339 -2.498421945e-05 27.02041361
126.1188685 43.31551709 -9.738555218e-05
-173.1790969 30.40544449 -9.738555218e-05
44.64723309 -2.498421945e-05 16.21932661
-150.6262639 -2.498421945e-05 1.522917614
-113.1311679 18.22933339 -9.738555218e-05
-318.5000029 29.46796479 17.03653561
195.1743955 -2.498421945e-05 109.3507526
108.9066762 47.93423599 -9.738555218e-05
102.3769621 -2.498421945e-05 136.2293356
-19.23841191 -2.498421945e-05 185.3429186
72.90684109 52.31062389 -9.738555218e-05
200.3744689 -2.498421945e-05 16.08203661
-322.8745079 -2.498421945e-05 177.1199096
-118.2174129 -2.498421945e-05 179.8159906
226.7209252 -0.1531780942 16.13619761
-244.9717149 -2.498421945e-05 175.9930626
-336.0417399 -2.498421945e-05 104.3198956
-312.5000029 33.91004599 186.9565226
-244.5414629 -2.498421945e-05 85.17129961
39.39336209 -2.498421945e-05 161.0606166
-162.2577179 -2.498421945e-05 43.16597361
-169.6378609 67.69700519 -9.738555218e-05
288.772047 67.13382949 -9.738555218e-05
-316.0933509 67.99997499 203.2296506
223.8429309 3.616807866 -9.738555218e-05
-129.6509069 -2.498421945e-05 44.84347561
-16.28898691 -2.498421945e-05 16.27219461
-317.8000139 67.99997499 185.9890076
-197.7412079 -2.498421945e-05 131.5140366
315.5000578 50.08458459 -2.388208386
22.41156509 -2.498421945e-05 55.81193961
-198.4962699 -2.498421945e-05 77.92813361
-315.7868389 66.50175529 -9.738555218e-05
-11.86146991 -2.498421945e-05 170.7910376
3.394361093 48.77988999 -9.738555218e-05
-265.9239989 -2.498421945e-05 174.8934906
-117.6458689 -2.498421945e-05 131.4907096
-326.0520819 52.49556069 -9.738555218e-05
-277.7133179 -2.498421945e-05 43.06318761
249.5237977 -2.498421945e-05 55.30036761
64.14540109 14.79323799 -9.738555218e-05
280.1240732 -2.498421945e-05 18.01295561
174.1386159 -2.498421945e-05 39.10730661
-318.5000029 8.200156506 203.4609776
-276.1972049 -2.498421945e-05 15.33272761
-336.7028129 -2.498421945e-05 72.04804261
159.0012786 32.21996729 -9.738555218e-05
-176.2465219 -2.498421945e-05 126.0269006
315.5000578 13.52890489 -1.821166386
-183.2446179 16.32638679 -9.738555218e-05
191.9175352 -2.498421945e-05 126.1434406
271.6006639 39.15441339 -9.738555218e-05
0.7744010934 16.98081839 -9.738555218e-05
8.830590093 -2.498421945e-05 72.24410661
-207.2126699 44.03586009 -9.738555218e-05
271.7153655 -2.498421945e-05 80.47619661
194.1418306 -2.498421945e-05 49.81855361
129.9765579 19.60677849 -9.738555218e-05
-318.5000029 30.74495629 111.6340216
-327.6197829 23.18701609 -9.738555218e-05
43.36220109 -2.498421945e-05 179.3589696
-85.37399591 -2.498421945e-05 136.8781406
23.63344809 -2.498421945e-05 154.5553966
92.85790709 -2.498421945e-05 48.12716461
-306.0805369 4.392670946 -9.738555218e-05
-236.1826199 -2.223161434 199.9999026
78.72030509 -2.498421945e-05 70.95827761
-306.7352419 -2.498421945e-05 176.4631876
-313.6647929 0.9999750158 50.74431261
-312.4949159 44.35409879 -9.738555218e-05
187.0102318 11.54685551 -9.738555218e-05
-65.80744191 -2.498421945e-05 144.8022586
-237.8663229 -2.424406544 -9.738555218e-05
224.7947436 -2.498421945e-05 112.5382866
-335.2820829 -2.498421945e-05 39.77911261
-312.5000029 17.14525769 163.9790836
-103.4077879 -2.498421945e-05 115.8967616
-169.0345009 -2.498421945e-05 176.4876316
193.9388199 53.85887619 -9.738555218e-05
300.024625 -2.498421945e-05 89.78765961
-41.04757891 -2.498421945e-05 38.82328261
-289.3545539 -1.405419054 -9.738555218e-05
-292.0962669 -2.498421945e-05 69.92117261
-244.3153119 -2.498421945e-05 48.19583161
-180.9337809 -2.498421945e-05 14.39494261
-321.9033889 67.99997499 232.2379466
-276.8789099 52.39999519 -9.738555218e-05
-312.5000029 40.37645289 141.3723136
-190.3669719 -2.498421945e-05 65.23134461
-68.48073691 -2.498421945e-05 37.06316361
275.5082403 -2.498421945e-05 2.035939614
-318.5000029 8.099851576 68.96638761
-129.2743649 -2.498421945e-05 106.7396566
-141.2034849 -2.498421945e-05 157.8569456
-139.7021779 65.74133229 -9.738555218e-05
-312.5000029 63.39123769 130.0259776
-242.9975069 28.42029249 -9.738555218e-05
147.6061748 -2.498421945e-05 25.08495761
297.5583731 -2.498421945e-05 18.87366361
-118.8734529 -2.498421945e-05 0.2628576144
-140.6808209 -2.498421945e-05 70.42134361
-76.51802291 -2.498421945e-05 113.1056396
-326.1725509 -2.498421945e-05 226.9177606
-297.8192839 31.21301939 -9.738555218e-05
-317.5347509 -2.498421945e-05 147.2408506
52.23955609 35.46150789 -9.738555218e-05
3.388175093 -1.897273644 -9.738555218e-05
-321.9560949 -2.498421945e-05 109.2355896
-129.3491759 -2.498421945e-05 29.68175061
54.62583209 -2.498421945e-05 138.2485556
-205.4051309 -2.498421945e-05 108.0991996
-254.3924599 -2.498421945e-05 126.5722216
-85.38678791 18.88054269 -9.738555218e-05
-23.61618591 -2.498421945e-05 83.49261761
-65.71228891 -2.498421945e-05 182.0119596
-270.2339609 -2.498421945e-05 154.4461946
-180.0911489 -2.498421945e-05 75.37062761
-214.7101609 17.36207199 -9.738555218e-05
-46.68512391 52.07352169 -9.738555218e-05
-294.4059419 -2.498421945e-05 198.5526366
-318.5000029 15.73801229 119.2295106
-312.5000029 14.70197479 27.48147861
-140.3305289 -2.498421945e-05 12.56396461
80.34318509 -2.498421945e-05 20.58797861
-190.2724169 -2.498421945e-05 180.8311296
59.57416709 -2.498421945e-05 38.30401761
-164.5177599 -2.498421945e-05 199.2045936
74.91470709 -2.498421945e-05 39.01111561
-100.3145329 -2.498421945e-05 53.41969861
203.2725514 13.93446409 -9.738555218e-05
14.39075709 -2.498421945e-05 168.9374796
-155.1535389 15.17123839 -9.738555218e-05
-175.5061819 -2.498421945e-05 99.58854861
-164.2639579 -2.498421945e-05 161.1598966
-293.6844359 -2.498421945e-05 169.6506956
-97.65318091 11.74777316 -9.738555218e-05
-89.06485991 -2.498421945e-05 92.76791961
215.1779238 -2.498421945e-05 45.22801661
-277.6762829 -2.498421945e-05 97.11764061
-8.102835907 -2.498421945e-05 53.52939761
-14.96213391 -2.498421945e-05 198.7953166
93.92623409 -2.498421945e-05 62.19832361
115.2239384 -2.498421945e-05 83.77601261
-160.5764219 -2.498421945e-05 72.96517361
96.86667209 -0.3654674342 -9.738555218e-05
-27.18862791 35.36265179 -9.738555218e-05
144.7061612 -2.498421945e-05 45.68998161
222.7411209 -2.498421945e-05 68.24269561
315.1029336 -2.498421945e-05 42.85535761
161.6077132 46.01814109 -9.738555218e-05
240.4174136 -2.498421945e-05 18.98973061
-140.5909449 32.19281049 -9.738555218e-05
-234.8641949 -2.498421945e-05 75.14071361
-312.5000029 33.58439239 209.0591476
-318.5000029 12.56918009 86.31558061
-59.63015091 -2.498421945e-05 13.84990761
298.2806068 40.77724579 -9.738555218e-05
-102.9422669 -2.498421945e-05 145.0445666
82.62253409 14.85059049 -9.738555218e-05
-24.18839491 -2.498421945e-05 157.0841306
58.91395309 -2.498421945e-05 92.26806161
138.4131199 54.04956149 -9.738555218e-05
-318.5000029 40.78777209 197.3245096
-213.2931529 -2.351086034 28.62719061
-33.71735891 -2.498421945e-05 19.40744961
-219.4882979 53.13290519 -9.738555218e-05
-131.3611629 -2.498421945e-05 189.6977766
-214.0008389 -2.498421945e-05 168.8489536
1.154603093 -2.498421945e-05 84.59776461
-110.8940039 -2.498421945e-05 156.6527896
-312.5000029 51.58225619 221.4095136
-212.3841219 -2.498421945e-05 141.1575036
-319.8833369 23.55658649 233.0181046
83.21379709 -2.498421945e-05 100.4159236
128.9306904 -2.498421945e-05 89.88273961
-37.67353091 -2.498421945e-05 181.3462746
32.45015209 -2.498421945e-05 189.4738176
263.1749129 28.54627039 -9.738555218e-05
-93.92460291 -2.498421945e-05 157.1840536
147.7301996 -2.498421945e-05 101.0073596
41.57859909 -2.498421945e-05 30.10406761
17.52058109 -2.498421945e-05 112.8760436
17.71761709 -2.498421945e-05 182.1508156
58.34846009 -2.498421945e-05 194.3433526
-318.5000029 48.11685349 116.0577816
5.334636093 -2.498421945e-05 42.19772361
176.1923031 -2.498421945e-05 13.07564661
229.893035 17.36895129 -9.738555218e-05
-205.7217739 30.75398949 -9.738555218e-05
-247.6699929 -2.498421945e-05 151.1466146
-187.4392889 29.00915709 -9.738555218e-05
-116.6591679 -2.498421945e-05 47.81267561
-54.36091591 -2.498421945e-05 38.30614661
-55.25850591 29.87193969 -9.738555218e-05
-188.7608389 -2.498421945e-05 152.4140886
-222.4158119 -2.498421945e-05 4.167567614
-312.5000029 39.36004319 23.55825861
-26.76767491 -2.498421945e-05 8.107977614
-289.6069349 -2.498421945e-05 14.80126161
-318.5000029 30.51211799 171.1120136
1.049101093 -2.498421945e-05 198.9571136
193.1684502 40.63360629 -9.738555218e-05
-146.8230009 45.44292329 -9.738555218e-05
-180.2163239 -2.498421945e-05 46.68439461
32.25356309 11.69717858 -9.738555218e-05
-40.29562791 -2.498421945e-05 141.0764836
-294.5260789 67.99997499 -2.179896386
-168.6839989 -2.498421945e-05 139.3620076
-107.8528199 -2.498421945e-05 11.96661361
284.3806176 36.34648019 -9.738555218e-05
50.56540009 63.73424639 -9.738555218e-05
-253.9820109 -2.498421945e-05 106.6684816
16.83697609 -2.498421945e-05 12.55657261
-30.43868891 10.47849205 -9.738555218e-05
304.2862193 -2.498421945e-05 35.40739161
-318.5000029 8.333151316 190.4842936
-318.5000029 51.62972599 139.0779526
49.75849209 3.601197636 -9.738555218e-05
266.5501106 52.60258239 -9.738555218e-05
98.41912109 30.71921679 -9.738555218e-05
-119.0887889 49.37349059 -9.738555218e-05
-312.5000029 63.62144349 157.6534446
-262.6805489 -1.498497064 -9.738555218e-05
-102.6943889 -2.498421945e-05 94.52480661
-211.6902559 -2.498421945e-05 189.5221506
154.1098306 57.37081129 -9.738555218e-05
126.7133065 2.661947196 -9.738555218e-05
-71.96128291 -2.498421945e-05 163.0153146
-317.3980369 -2.498421945e-05 121.5883386
-51.72552691 -2.498421945e-05 77.00404761
-317.7219319 -2.498421945e-05 17.13180761
62.63261409 -2.498421945e-05 115.7144336
-312.5000029 25.33700729 146.0362486
86.84553309 -2.498421945e-05 85.24689461
-234.4479959 -2.498421945e-05 187.5286806
214.689079 -2.498421945e-05 11.84073161
285.3631097 10.25221268 -9.738555218e-05
306.6387486 -2.498421945e-05 77.74339961
-142.2412189 -2.498421945e-05 46.62751661
-89.97107091 -0.7673750442 -9.738555218e-05
-212.7191499 -2.498421945e-05 75.06664361
-318.5000029 13.32759749 42.68271961
303.3127166 22.37088259 -9.738555218e-05
183.2033529 -2.498421945e-05 103.2648656
75.86798509 -2.498421945e-05 137.1800246
-9.524228907 9.743163896 -9.738555218e-05
283.5677805 -2.498421945e-05 111.2909916
-258.2164419 -2.498421945e-05 40.62065361
196.2310457 -2.498421945e-05 28.00892761
-61.46173291 -2.498421945e-05 122.4928986
67.52503209 -2.498421945e-05 65.33830461
149.9623089 -2.498421945e-05 70.70950761
-169.3930389 -2.498421945e-05 7.382866614
-275.0271929 -2.498421945e-05 81.97528261
-160.9471489 -2.498421945e-05 101.6658516
-26.61620391 -2.498421945e-05 44.12828461
-335.4877519 6.858402056 -9.738555218e-05
-312.5000029 58.55192989 179.8996936
22.62840709 67.99997499 -0.3666823856
-24.57428191 -2.498421945e-05 71.11487461
-200.6242579 -2.498421945e-05 8.495831614
-191.3995349 56.20741479 -9.738555218e-05
-310.2659859 16.90607629 -9.738555218e-05
-318.5000029 52.54959859 165.9864016
218.9704662 33.53552489 -9.738555218e-05
-14.05712291 -2.498421945e-05 130.7289766
35.35399809 -2.498421945e-05 54.68831561
43.89401309 51.77330589 -9.738555218e-05
102.4255671 -2.498421945e-05 87.37335561
-13.42746991 -2.498421945e-05 110.8627736
304.1949914 -2.498421945e-05 48.44682361
-41.70484991 -2.498421945e-05 194.9022366
-9.933297907 -2.498421945e-05 156.4531576
25.30953809 -1.974589244 -9.738555218e-05
260.7470813 -2.498421945e-05 50.44809861
-91.49973891 -2.498421945e-05 123.9888526
-199.8789859 -2.498421945e-05 144.0882266
-78.54672591 53.69894269 -9.738555218e-05
-264.0900709 -2.012070574 199.9999026
-310.5782499 -2.498421945e-05 63.63332061
-256.9333259 -2.498421945e-05 80.00052561
124.2472461 55.33122309 -9.738555218e-05
236.5384202 43.34866859 -9.738555218e-05
-162.0874539 25.17693389 -9.738555218e-05
93.44246709 -2.498421945e-05 110.4227846
-56.44851891 -2.498421945e-05 170.6376276
-75.84697491 -2.498421945e-05 51.74423261
-322.5917949 37.23150809 233.7849626
-163.6090909 -2.498421945e-05 57.87566961
199.5663582 -1.679554644 80.79392861
-312.5000029 16.95216819 209.2200526
-101.7555079 -2.498421945e-05 179.8180406
72.76070609 -2.498421945e-05 11.21569361
-275.2376259 35.15603259 -9.738555218e-05
-236.5088999 -2.498421945e-05 166.1048906
246.3278035 -2.498421945e-05 97.30467761
137.7821952 -2.498421945e-05 18.18551061
49.30618609 -2.498421945e-05 55.27525361
-115.3551009 -2.498421945e-05 114.7891546
-127.2493309 -2.498421945e-05 9.899125614
-278.9665439 -2.498421945e-05 57.91587261
69.76198009 -2.498421945e-05 79.70301661
-30.83880891 -2.498421945e-05 109.0084516
236.6846214 67.99997499 -2.096240386
57.75390109 -2.498421945e-05 12.91791461
-203.6215919 -2.498421945e-05 35.06174861
180.3457195 29.18487439 -9.738555218e-05
218.5291447 -2.498421945e-05 122.5640766
51.74019709 -2.498421945e-05 165.4523286
-316.0701509 25.49997499 59.72303861
259.1717083 -2.498421945e-05 69.46946061
-318.5000029 7.085024116 165.3956996
-230.0555859 -2.498421945e-05 97.94876261
-315.4004929 10.4903302 229.7642836
45.27972209 -2.498421945e-05 66.68388961
-70.11576191 -2.498421945e-05 5.403051614
-328.0358289 -2.498421945e-05 154.8466066
-289.2314529 -2.498421945e-05 81.29150461
181.6178367 67.85676569 -9.738555218e-05
-318.5000029 10.98106558 97.90867961
-69.44159691 65.02517639 -9.738555218e-05
-215.3405679 -2.498421945e-05 91.62244861
-177.1206669 57.26261689 -9.738555218e-05
205.0357324 -2.498421945e-05 115.5832226
11.76479409 -2.498421945e-05 31.82249261
-75.84844491 37.92674429 -9.738555218e-05
192.629057 -2.498421945e-05 7.374948614
-318.4700549 0.9999750158 84.79648161
245.0424607 11.35822349 -9.738555218e-05
-221.6664609 -2.498421945e-05 64.80478761
315.5000578 -1.587109894 98.42361661
281.6252084 -2.498421945e-05 64.89203261
-111.9627319 -2.498421945e-05 190.0577686
247.3234891 -2.498421945e-05 81.26103861
-185.5353029 -2.498421945e-05 198.3024566
-129.5079689 -2.498421945e-05 93.56924461
-113.0461709 -2.498421945e-05 80.43150261
-297.4508679 -2.498421945e-05 122.8995056
-287.9695239 55.66519359 -9.738555218e-05
-226.9010359 -2.498421945e-05 28.28816061
-61.78627691 -2.498421945e-05 27.64357361
-325.3541339 -2.498421945e-05 74.12669861
274.4266811 25.14354089 -9.738555218e-05
252.8696003 54.54504079 -9.738555218e-05
-150.7588649 -2.498421945e-05 96.33711561
172.2133918 -2.498421945e-05 26.68437561
-312.5000029 -1.383998954 205.4994576
-298.0666699 -2.498421945e-05 102.3336896
139.0619569 36.41608549 -9.738555218e-05
-115.4552469 -2.498421945e-05 31.67009661
-239.3456959 -2.498421945e-05 20.87854661
-275.9468019 -2.498421945e-05 180.4520716
18.75256109 -2.498421945e-05 77.96446461
227.0775507 -2.498421945e-05 100.4921636
30.97123409 56.52064539 -9.738555218e-05
-332.3341349 21.09316999 227.9999026
-137.5370619 -2.498421945e-05 178.9514026
-198.5891949 -2.498421945e-05 188.5788106
93.18734109 62.51285459 -9.738555218e-05
41.41134609 -2.498421945e-05 114.5975156
150.8091583 -2.498421945e-05 87.15803161
-150.8844319 -2.498421945e-05 17.02318361
133.1611358 -2.498421945e-05 63.16209861
-73.85841591 -2.498421945e-05 70.78043361
-265.7551959 -2.498421945e-05 67.70713561
32.36287709 -2.498421945e-05 88.49627961
162.1500676 -2.498421945e-05 100.0096746
-312.5000029 24.99365499 121.4218766
-312.5000029 6.044677196 107.6819386
-50.11038591 -2.498421945e-05 146.5493606
-122.9013819 10.47896369 -9.738555218e-05
-298.1955659 -2.498421945e-05 158.3124706
271.2557892 66.77785769 -9.738555218e-05
115.6930371 -2.498421945e-05 126.1674176
-94.41689391 50.37025139 -9.738555218e-05
-336.9009069 57.91854409 -9.738555218e-05
-101.9855279 -0.3659929942 199.9999026
257.7975361 -2.498421945e-05 30.69626661
-312.5000029 37.88580769 12.46140461
274.7655643 -2.498421945e-05 30.79200661
8.777413093 -2.498421945e-05 119.8559026
-97.84284591 -2.498421945e-05 64.38215961
-312.5000029 8.985710586 142.1008106
-8.903340907 -2.498421945e-05 24.66509861
-312.5000029 22.90023109 9.372771614
315.5000578 -0.7392203842 69.75076761
-186.0925739 -2.498421945e-05 28.76204661
-323.8399579 -2.498421945e-05 46.31718861
308.2835699 -2.498421945e-05 15.86269061
-288.7547739 -2.498421945e-05 138.4185896
-299.1242949 -2.498421945e-05 34.69687161
199.8395227 -2.498421945e-05 97.73430661
-312.5000029 17.74155679 133.8529756
-318.5000029 40.01618399 163.8018756
-74.98983991 -2.498421945e-05 188.4498706
-0.8139779066 -2.498421945e-05 171.2990086
-179.1384089 39.71809499 -9.738555218e-05
-326.6323329 -2.498421945e-05 98.52988861
226.3325818 -2.498421945e-05 43.52041961
-6.003837907 -2.498421945e-05 6.656249614
211.9220719 48.99467639 -9.738555218e-05
-313.0676949 53.64976209 108.2468356
-312.5000029 23.41916709 191.7575726
-115.4209989 35.80346469 -9.738555218e-05
0.3701040934 -2.498421945e-05 97.31996761
-194.0997079 -2.498421945e-05 120.7780156
297.2421716 -2.498421945e-05 57.81024461
-335.5683819 -2.498421945e-05 221.3683006
-279.8258019 -2.498421945e-05 121.5168836
-312.5000029 37.07441649 118.1502836
215.6940331 59.55854269 -9.738555218e-05
133.3452848 -2.498421945e-05 123.1287746
-72.16734391 14.77595469 -9.738555218e-05
135.2321811 10.12269049 -9.738555218e-05
2.259329093 -2.498421945e-05 146.4225296
98.45434009 -2.498421945e-05 34.88998161
-224.1442469 -2.498421945e-05 124.5944886
-149.2685959 -2.498421945e-05 179.7678676
-336.9850459 -2.498421945e-05 175.0236276
-334.2952989 -0.1783820642 233.9999026
-252.7269099 -2.498421945e-05 54.93149761
-312.5000029 23.56816629 81.76088661
149.8514729 -2.498421945e-05 119.7382126
-227.6375419 -2.498421945e-05 49.43169961
174.1439593 -2.498421945e-05 71.67051961
-306.8803279 -2.498421945e-05 148.6725906
-296.4856679 43.09197239 -9.738555218e-05
76.23870109 5.105514676 -9.738555218e-05
281.9199104 -2.498421945e-05 39.08470561
-3.000699907 27.17785709 -9.738555218e-05
161.5648086 -2.498421945e-05 121.9162426
-88.25174891 -2.498421945e-05 49.39498261
-88.00050891 58.95163479 -9.738555218e-05
-151.9660599 -2.498421945e-05 114.0275776
245.2146938 -2.498421945e-05 67.70251161
-50.06901991 -2.498421945e-05 9.037236614
256.2813689 -2.498421945e-05 101.2990786
241.757867 -2.498421945e-05 47.94241661
-149.5792279 -2.498421945e-05 134.0755856
110.0108754 -2.498421945e-05 11.67963961
114.8767176 -2.498421945e-05 44.42937661
-148.1464609 -2.498421945e-05 191.6670616
-31.58748691 -2.498421945e-05 120.6639836
-82.75705091 -2.498421945e-05 24.90964961
-243.1361699 6.799716686 -9.738555218e-05
-130.3446319 -2.498421945e-05 72.83012761
12.40651609 -2.498421945e-05 103.1983606
-323.2312999 42.27829939 -9.738555218e-05
-318.5000029 39.12870629 150.0070916
-312.5000029 59.86405129 208.9717386
-258.4435829 -2.498421945e-05 19.17006961
108.1271761 -2.367247154 65.40608361
68.02750909 42.94100259 -9.738555218e-05
-105.1502549 59.15127059 -9.738555218e-05
-266.3972749 -2.498421945e-05 164.3554226
170.7027817 51.53501269 -9.738555218e-05
-265.9516989 43.51194489 -9.738555218e-05
70.84749709 -2.498421945e-05 48.72301661
40.61748809 -2.498421945e-05 133.5088196
-58.83437291 -2.498421945e-05 189.9739406
111.855337 -2.498421945e-05 23.47575461
-82.54621191 28.97953159 -9.738555218e-05
10.57505609 -2.498421945e-05 190.2021286
33.09315709 -2.498421945e-05 120.9819876
-117.8437709 -2.498421945e-05 169.3413736
-91.34696391 -2.498421945e-05 178.5905106
167.450568 -2.498421945e-05 47.16764261
87.53495509 -2.498421945e-05 119.8818296
-109.3343519 -2.498421945e-05 124.5951666
271.159873 -2.498421945e-05 51.38144461
52.20808009 -2.498421945e-05 23.43579061
-312.5000029 35.01263639 132.3934986
-153.8113509 -2.498421945e-05 83.06488761
-313.3866319 25.49997499 45.81347761
-312.5000029 29.02133629 98.59500961
298.953298 64.90170439 -9.738555218e-05
35.66730609 -2.498421945e-05 199.6054866
-230.2146169 31.23694629 -9.738555218e-05
99.85521409 42.82797719 -9.738555218e-05
-318.5000029 60.35254249 195.0463356
-236.2764459 -2.498421945e-05 143.2457766
-325.9473739 -2.498421945e-05 166.7022976
6.764374093 -2.498421945e-05 9.597804614
-310.6624979 -2.498421945e-05 129.4423626
-198.6152049 -2.498421945e-05 57.93537661
-319.5379449 58.06557659 225.3149136
33.90025609 27.15105179 -9.738555218e-05
-34.12442291 20.97669459 -9.738555218e-05
124.2500578 -1.395242754 25.91284061
-242.0923429 -2.498421945e-05 62.51578661
152.9550334 -0.8815046342 132.6987516
30.12073909 -2.498421945e-05 43.01848361
-312.5000029 7.100956126 154.6844886
155.1055001 -2.498421945e-05 9.669482614
-202.0145559 6.622580716 -9.738555218e-05
-210.3041119 -2.498421945e-05 11.81500461
-191.7849609 -2.498421945e-05 97.44050761
-334.5953419 -2.498421945e-05 7.533879614
28.82626409 -2.498421945e-05 63.77345061
-329.5849869 -2.498421945e-05 136.2383246
-102.6277059 -2.498421945e-05 30.05310161
-206.6211909 -2.498421945e-05 84.12161361
-299.2886609 -2.498421945e-05 185.9845856
-312.5000029 21.38960699 19.76263761
-238.8948789 52.92322549 -9.738555218e-05
-64.04449291 -2.498421945e-05 100.4652946
-177.7503989 -2.498421945e-05 111.2941116
290.8965687 -2.498421945e-05 83.30130761
-255.9932889 -2.498421945e-05 172.6296456
-316.0105839 -2.498421945e-05 4.746394614
-325.4672279 -2.498421945e-05 36.27128161
127.0588446 33.18905199 -9.738555218e-05
-167.6076109 -2.498421945e-05 188.3542446
156.7466348 8.558063486 -9.738555218e-05
-266.9371369 -2.498421945e-05 101.2187726
-49.08820791 -2.498421945e-05 104.7012296
-139.4223609 -2.498421945e-05 56.37338261
-168.3865119 -2.498421945e-05 150.6737156
-312.5000029 14.96250059 64.58434961
-286.9566969 21.10509709 -9.738555218e-05
306.9674658 8.480053456 -9.738555218e-05
-51.76550491 -2.498421945e-05 59.23966161
-125.4729419 -2.498421945e-05 118.2344856
-253.4867739 43.36510309 -9.738555218e-05
214.7545255 -2.498421945e-05 112.8566856
116.4602174 40.58933279 -9.738555218e-05
275.1757282 -2.498421945e-05 94.68882761
-36.47552891 44.12751569 -9.738555218e-05
-159.2662929 -2.498421945e-05 33.60477161
-142.3568149 55.55106569 -9.738555218e-05
-318.5000029 26.36405529 212.5435076
-278.8398099 -2.498421945e-05 33.11585561
26.66638309 44.18347919 -9.738555218e-05
90.67065309 -2.498421945e-05 15.71219661
-51.30283491 10.7288753 -9.738555218e-05
-7.762400907 39.13895069 -9.738555218e-05
223.0221338 -2.498421945e-05 25.41965161
-299.1749079 -2.498421945e-05 82.22421261
15.28610309 -2.498421945e-05 64.62511861
26.84527609 -2.498421945e-05 134.3815036
-85.94718391 -2.498421945e-05 193.0063836
115.0948606 67.99997499 -1.669049386
-301.2807439 21.17985699 -9.738555218e-05
-329.9406789 -2.498421945e-05 201.2776736
5.073108093 -2.498421945e-05 136.8847706
-77.51234591 -2.498421945e-05 88.02119361
-92.68940591 -2.498421945e-05 74.34504961
222.5502588 -2.498421945e-05 78.17551261
235.8233057 -2.498421945e-05 56.18281361
-131.3916229 -2.498421945e-05 156.3717886
-307.3063439 -2.498421945e-05 23.42764561
75.16927209 -2.498421945e-05 127.0254876
176.6978305 7.693417606 -9.738555218e-05
-57.24496391 51.67841879 -9.738555218e-05
153.3728755 -2.498421945e-05 50.78019561
-263.7911939 -2.498421945e-05 131.2794746
71.10675109 61.99918309 -9.738555218e-05
289.2916812 54.07048359 -9.738555218e-05
102.2055941 55.15657089 -9.738555218e-05
-318.5000029 16.37427449 75.12805661
-318.5000029 6.988589006 56.88977761
-131.8413659 -2.498421945e-05 131.6619516
59.75117909 -2.498421945e-05 82.46243461
-290.4446559 -2.498421945e-05 60.22407961
-222.3622579 -2.498421945e-05 37.57168461
206.1755638 -2.498421945e-05 49.17126661
-241.7044129 -2.498421945e-05 8.706914614
15.84826209 35.32784769 -9.738555218e-05
-190.8987659 -2.498421945e-05 9.772612614
-330.8350059 41.10353679 227.9999026
-92.62932091 -2.498421945e-05 143.4609916
-205.0994469 -2.498421945e-05 50.59412661
-92.90172791 -2.498421945e-05 9.311812614
22.92150209 -2.498421945e-05 30.08009361
-326.7537099 57.78390769 233.9999026
182.729933 -2.498421945e-05 81.10144361
45.00852409 -2.498421945e-05 148.8687346
256.0529949 -1.962970204 110.8472256
50.21087609 -2.498421945e-05 43.10179361
202.8018668 23.65872929 -9.738555218e-05
-334.4844809 49.84132069 233.9999026
258.2578474 14.58615739 -9.738555218e-05
-33.44660791 -2.498421945e-05 51.03410861
-316.3309789 0.8672000558 230.6947706
106.4669631 -2.498421945e-05 98.57305461
-160.2023699 0.3916141558 -9.738555218e-05
158.9402138 65.76277099 -9.738555218e-05
-318.5000029 23.58804099 27.02167761
295.6283219 -2.498421945e-05 43.96489661
-150.4868039 -2.498421945e-05 153.0198496
-167.5387799 -2.498421945e-05 121.8659196
161.7526902 -2.498421945e-05 88.67984761
-318.5000029 6.275218586 215.0946796
-318.5000029 24.46057929 157.7752946
-146.2587879 24.42424589 -9.738555218e-05
-312.5000029 45.53556729 182.8443126
176.474503 -2.371888974 130.8612906
94.67043709 -2.498421945e-05 24.43545261
250.0081965 -2.498421945e-05 18.71423761
-30.49930491 -2.498421945e-05 60.57372161
246.0769694 67.99997499 -0.1521203856
-170.5490309 -2.498421945e-05 68.50729661
170.9878087 -2.498421945e-05 104.5962336
-61.72651491 -2.498421945e-05 76.98640261
57.77202909 21.91644659 -9.738555218e-05
229.5668523 61.81610869 -9.738555218e-05
-243.2053549 -2.498421945e-05 193.9213656
-261.6057239 -2.498421945e-05 187.1306016
-312.5000029 11.68438975 125.4466696
-312.5000029 8.046132656 77.11042761
-318.5000029 67.93940129 137.9814056
-261.3969889 -2.498421945e-05 146.8210946
106.2364691 -2.498421945e-05 40.44112861
-312.5000029 12.60073659 172.3339616
-219.5740879 -2.498421945e-05 54.47351761
-173.6163639 -2.498421945e-05 158.6105076
131.5520517 -2.498421945e-05 132.8160466
167.2651295 12.98757389 -9.738555218e-05
-33.42901091 53.11507639 -9.738555218e-05
-242.7390329 -2.498421945e-05 111.2613286
-199.6253559 -2.498421945e-05 68.50722561
-312.5000029 24.59673709 176.3629046
167.470527 -0.1392686642 -9.738555218e-05
-312.5000029 9.561569716 183.2787426
121.4374329 15.54572189 -9.738555218e-05
-267.5701209 62.43725059 -9.738555218e-05
206.4767384 -2.498421945e-05 106.2428956
-319.0676089 29.19249619 224.3917586
-9.014053907 -2.498421945e-05 180.2345836
238.6965479 20.75398299 -9.738555218e-05
-42.11631791 -2.498421945e-05 173.0319276
-203.5025709 -2.498421945e-05 121.4040246
275.118043 -2.142464164 107.7376756
188.8126276 -2.498421945e-05 33.77572361
-267.5549939 -2.498421945e-05 41.56197061
-38.91533591 -2.498421945e-05 66.50292961
161.148707 -2.498421945e-05 65.96953161
187.8343293 -2.498421945e-05 59.12697261
-112.1233669 -2.498421945e-05 56.01403261
-318.5000029 50.28033169 199.4291846
233.2417092 8.625815556 -9.738555218e-05
-66.60101891 39.38297309 -9.738555218e-05
147.7089874 -2.498421945e-05 15.40039661
-153.2469819 -2.498421945e-05 45.66030361
99.22620509 -2.498421945e-05 127.4281586
-22.88564691 -2.498421945e-05 104.1004016
190.532534 65.05936229 -9.738555218e-05
-207.0795129 -2.498421945e-05 131.5955516
-108.6674299 -2.498421945e-05 21.53544461
-318.5000029 32.85501379 6.538193614
290.7188424 -2.498421945e-05 119.2205976
-145.9037819 8.459717406 -9.738555218e-05
39.47688609 -2.498421945e-05 104.5331506
-143.6434559 -2.498421945e-05 124.8849006
-240.8290159 -2.498421945e-05 129.6713326
-312.5000029 58.48123399 143.0659426
-318.6153529 43.35203279 222.7281516
233.5348482 -2.498421945e-05 115.7519026
-19.08247691 -2.498421945e-05 138.5580586
-191.2466219 -2.498421945e-05 39.80845761
-313.3957009 50.49997499 6.904278614
138.7623202 -2.498421945e-05 94.25101161
-318.5000029 35.33177249 101.8086616
23.19096009 -2.498421945e-05 190.0020286
-127.7846769 -2.498421945e-05 181.1651206
64.84770909 -2.498421945e-05 99.36386261
-138.9615699 -2.498421945e-05 22.68444261
-283.1751509 -2.498421945e-05 8.157103614
-157.5602969 -2.498421945e-05 175.6478816
279.8716985 17.68871949 -9.738555218e-05
-222.9075079 -2.498421945e-05 115.4498946
237.6648673 -2.498421945e-05 106.8451266
68.55507909 -2.498421945e-05 30.82189361
-19.43552591 -2.498421945e-05 91.69931061
-318.7510559 -2.498421945e-05 26.28271561
105.8954611 25.35173489 -9.738555218e-05
138.3496646 66.48196889 -9.738555218e-05
-318.5000029 57.43973579 126.3974286
173.3365211 -2.498421945e-05 62.52093661
-217.2315179 63.98343529 -9.738555218e-05
257.286837 -2.498421945e-05 60.48403361
1.899255093 59.93415679 -9.738555218e-05
113.5351701 -2.498421945e-05 72.42811961
313.3632676 58.66878159 -9.738555218e-05
91.11517109 9.959975816 -9.738555218e-05
32.49388709 -2.498421945e-05 7.671524614
-219.8513089 24.91714429 -9.738555218e-05
-312.5000029 11.33670231 35.97217161
292.7728816 -2.498421945e-05 97.66310061
-285.3524749 -2.193107164 199.9999026
-181.5875069 6.534783096 -9.738555218e-05
-132.3768809 37.97094179 -9.738555218e-05
-312.5000029 39.61253699 215.8931166
173.6372798 35.30781369 -9.738555218e-05
-247.8615799 51.48172069 -9.738555218e-05
246.7021221 -1.933992414 -9.738555218e-05
307.765588 -2.498421945e-05 6.708175614
-19.14457891 29.42665639 -9.738555218e-05
264.4193868 -2.498421945e-05 92.85191561
-109.7402709 4.087384426 -9.738555218e-05
211.7500578 -1.789180814 22.86111561
194.2573957 6.128318566 -9.738555218e-05
148.2304466 29.81367029 -9.738555218e-05
-318.5000029 40.74541409 187.6265326
-266.2723429 18.86346999 -9.738555218e-05
-323.8999319 12.90643199 227.9048496
225.6530952 -2.498421945e-05 91.24479161
149.462738 -2.498421945e-05 2.100677614
188.0643166 -2.486168684 -9.738555218e-05
179.5916891 59.06608159 -9.738555218e-05
-318.5000029 41.87204289 131.7951696
55.94771209 11.02906534 -9.738555218e-05
-80.94522091 -2.498421945e-05 162.2057146
144.4061607 -2.498421945e-05 109.3778346
208.2707858 64.65587739 -9.738555218e-05
21.97086509 -2.498421945e-05 164.0984006
-7.570721907 -2.498421945e-05 82.43783061
-319.5604389 -2.498421945e-05 63.95579761
227.7896953 -2.498421945e-05 7.220322614
-319.2550289 49.59135759 232.7875966
-69.13256691 -2.498421945e-05 107.8575406
-22.26387491 42.86285549 -9.738555218e-05
-117.3259159 -2.498421945e-05 72.54817061
-140.8935289 -1.937724444 114.3960056
-71.35771991 -2.498421945e-05 174.0399436
-2.580282907 -2.498421945e-05 18.30930161
-299.2651839 -2.498421945e-05 3.813175614
-296.5883119 -2.498421945e-05 142.7682996
-318.5000029 33.75166219 141.9764866
-244.1386429 -2.498421945e-05 34.51450761
-72.33190991 -2.498421945e-05 61.97273961
193.456017 -2.498421945e-05 68.98654361
-171.3300419 -2.498421945e-05 47.45458461
109.40458 8.111567586 -9.738555218e-05
247.2736156 38.13415079 -9.738555218e-05
-282.8491959 -2.498421945e-05 158.2652936
-314.4303299 0.9999750158 186.9577156
-312.5000029 30.50435399 200.0432776
-128.4693609 -2.498421945e-05 198.1028606
-71.07672791 -2.498421945e-05 136.2223226
-51.10483491 44.37403799 -9.738555218e-05
-31.26406291 -2.498421945e-05 87.99503961
3.153749093 -2.498421945e-05 29.69843561
-40.30733391 -2.498421945e-05 13.49582261
179.6241365 -2.498421945e-05 31.52325961
303.1641474 -2.498421945e-05 69.62478361
47.74699109 43.82990359 -9.738555218e-05
280.4546354 -2.498421945e-05 81.72513561
279.1384046 43.74397639 -9.738555218e-05
-236.2580889 -2.498421945e-05 177.3662156
-321.6574499 -2.498421945e-05 130.8189496
295.6772033 5.495713496 -9.738555218e-05
-312.5000029 58.46754269 169.2851926
22.32241109 11.8571385 -9.738555218e-05
-313.9225839 67.60252529 227.5794286
41.26042909 -2.498421945e-05 95.91358961
-312.5000029 61.53770269 121.4283626
-109.6938169 -2.498421945e-05 139.4291726
-151.7094639 -2.498421945e-05 65.22290261
-175.8862089 -2.498421945e-05 21.57352661
-299.9967179 -2.498421945e-05 90.95757861
206.2646685 -2.498421945e-05 8.994313614
214.8640319 -2.498421945e-05 3.078860614
-175.0417819 19.40719139 -9.738555218e-05
-43.41932691 -2.498421945e-05 131.7754946
312.039433 22.90323619 -9.738555218e-05
85.81293609 57.20430479 -9.738555218e-05
-315.0928999 -2.498421945e-05 42.19316061
50.30594609 -2.498421945e-05 116.9263686
-318.5000029 22.38480179 2.002933614
-213.3278839 7.728122976 -9.738555218e-05
-255.3282869 -2.498421945e-05 98.06417561
-45.10631991 -2.498421945e-05 48.29417761
-318.5000029 32.56612259 124.6232396
-97.48540791 -2.498421945e-05 45.21483561
-5.007124907 50.94214239 -9.738555218e-05
99.87653309 -0.9882873242 68.43015161
-6.592869907 -2.498421945e-05 44.98955561
-312.5000029 41.79129359 206.2617246
129.8293928 -2.498421945e-05 110.6432766
-17.11811391 -2.498421945e-05 27.39694061
-74.98523291 -2.498421945e-05 43.13097761
-44.29836791 -2.498421945e-05 120.6741976
-281.2633869 14.60887039 -9.738555218e-05
-223.1684889 15.62618319 -9.738555218e-05
224.4395493 24.06198289 -9.738555218e-05
187.6634026 -2.498421945e-05 14.43379561
146.4497706 12.42220829 -9.738555218e-05
21.10721609 -2.498421945e-05 96.35752861
271.5930323 -2.498421945e-05 19.22943861
-295.8997839 -2.498421945e-05 112.2286746
-312.5000029 18.23018499 97.72118761
-296.0893399 -2.498421945e-05 25.51867061
-318.5000029 27.77820979 186.4910546
-312.5000029 34.34861339 178.3788146
71.84930109 -2.498421945e-05 21.85742661
-312.5000029 5.783987176 197.8171686
-91.63545691 -2.498421945e-05 36.51620161
-317.5503699 0.9999750158 138.7362996
-130.5303259 14.35475819 -9.738555218e-05
-312.5000029 11.85475698 217.5508416
-314.4743249 0.9999750158 169.8298756
-78.47981491 -2.498421945e-05 7.108500614
-108.8245079 -2.498421945e-05 88.59853061
-185.6374849 -2.498421945e-05 119.6573596
-162.1204979 58.76666199 -9.738555218e-05
-222.5165109 -2.498421945e-05 168.6487606
-163.8224589 42.56813889 -9.738555218e-05
-312.5000029 23.52876939 220.5060236
-220.9628209 -2.498421945e-05 145.3026426
-31.75358391 2.083800146 -9.738555218e-05
209.5105812 -2.498421945e-05 90.67256961
-276.6968859 -2.498421945e-05 113.1644906
-232.1047619 -2.498421945e-05 5.738720614
15.44705309 -2.498421945e-05 129.6250146
-229.3334359 -2.498421945e-05 16.78133961
-189.2875169 -2.498421945e-05 166.6942876
-61.56978191 -0.6516503842 199.9999026
-330.8895639 29.44204829 227.9999026
131.4408192 -2.498421945e-05 40.72226561
-102.3635659 -2.498421945e-05 156.5901606
2.264773093 6.482743466 -9.738555218e-05
-281.7115899 -2.498421945e-05 76.59581161
-95.11746391 -2.498421945e-05 100.0569376
-318.5000029 1.303345246 155.9999766
211.5417276 -2.498421945e-05 59.16314961
169.9885269 -2.498421945e-05 122.4441826
-226.6068609 -2.498421945e-05 73.40827261
144.7288056 -2.498421945e-05 37.26327961
-318.5000029 56.35630019 114.2961666
-32.57671291 -2.498421945e-05 155.5330026
-121.8083359 41.41153459 -9.738555218e-05
-328.5658869 -2.498421945e-05 66.35044561
-256.9796189 -2.498421945e-05 114.5213896
-318.5000029 7.068404786 175.8814196
-334.1670509 55.67047679 227.9999026
-318.5000029 7.610037256 117.2345176
-312.5000029 54.99245939 151.0730056
