# .PCD v0.7 - Point Cloud Data file format
VERSION 0.7
FIELDS x y z
SIZE 4 4 4
TYPE F F F
COUNT 1 1 1
WIDTH 1172
HEIGHT 1
VIEWPOINT 0 0 0 1 0 0 0
POINTS 1172
DATA ascii
-25.321253 -2.498431138e-05 56.45507635
-140.199809 -2.498431138e-05 -54.29218165
-12.723834 -2.498431138e-05 -39.32350365
-2.899942547e-05 -181.8725763 -52.18456265
-2.899942547e-05 -98.60114789 44.35773835
-128.602305 -2.498431138e-05 68.67547735
-78.68248 -2.498431138e-05 17.33251435
-116.461066 -2.498431138e-05 37.81104835
-236.891338 -2.498431138e-05 72.95690635
-82.980398 -2.498431138e-05 -20.04366565
-173.531656 -2.498431138e-05 53.88925135
-195.549599 -2.498431138e-05 -53.81280065
-231.296099 -2.498431138e-05 -56.35546565
-2.899942547e-05 -64.48775221 29.17105235
-4.000028999 -15.97836003 -62.76988565
-2.899942547e-05 -228.7054405 69.81135435
-3.596802999 -25.50002498 -12.83604365
-169.602552 -2.498431138e-05 -20.80918365
-15.034819 -2.498431138e-05 -57.98771165
-2.899942547e-05 -122.656409 67.47714935
-4.000028999 -160.1554443 -32.33612165
-43.136844 -2.498431138e-05 -5.95163465
-107.213323 -2.498431138e-05 -58.97364665
-223.027907 -2.498431138e-05 -9.29305465
-2.899942547e-05 -228.3022633 -10.90161565
-73.138751 -2.498431138e-05 -69.45573765
-169.19763 -2.498431138e-05 -1.94780565
-2.899942547e-05 -73.31061046 -1.18114565
-194.18941 -2.498431138e-05 30.03349335
-49.759944 -2.498431138e-05 -25.24357265
-2.899942547e-05 -15.31015686 0.7462893504
-4.000028999 -95.44114714 -74.10451765
-54.129791 -2.498431138e-05 47.58120335
-51.415615 -2.498431138e-05 -43.11777965
-2.899942547e-05 -141.5690785 55.01978535
-2.899942547e-05 -201.6473964 37.31363435
-2.899942547e-05 -119.7762477 -67.09689865
-235.732161 -2.498431138e-05 54.17254835
-2.899942547e-05 -144.9396688 -41.32963165
-230.885886 -2.498431138e-05 -27.73397065
-2.899942547e-05 -76.76924301 16.47945035
-2.899942547e-05 -102.4959262 -11.96434565
-197.177543 -2.498431138e-05 13.32932735
-156.070434 -2.498431138e-05 15.00161035
-168.320685 -2.498431138e-05 -70.65799365
-2.899942547e-05 -104.544054 11.50848435
-250.047 -2.498431138e-05 10.20647435
-2.899942547e-05 -201.1185903 -64.27028765
-2.899942547e-05 -129.1908594 33.42818835
-42.755677 -2.498431138e-05 -58.22874265
-30.944088 -2.498431138e-05 73.59666535
-78.423156 -2.498431138e-05 -46.44225265
-2.899942547e-05 -154.0441413 24.78808435
-2.899942547e-05 -49.66544108 -73.97860965
-2.899942547e-05 -250.2484782 -44.85097765
-2.899942547e-05 -212.148879 16.23675035
-210.593166 -2.498431138e-05 46.75225935
-2.899942547e-05 -204.1746603 55.02701735
-2.899942547e-05 -53.18729892 -43.07279665
-4.000028999 -81.73429129 -13.66090265
-4.000028999 -55.89772055 69.92446535
-4.000028999 -14.91623148 46.21500235
-58.149011 -2.498431138e-05 71.16790035
-2.899942547e-05 -143.5711506 -58.02392765
-2.899942547e-05 -170.5695712 -3.76153165
-203.644864 -2.498431138e-05 73.05602035
-82.290977 -2.498431138e-05 1.16017435
-4.000028999 -103.3442419 -43.92383465
2.157752001 -0.5000249843 -34.38424065
-201.248631 -2.498431138e-05 -68.10667165
-4.000028999 -174.4568278 20.11373735
-2.797737999 -0.5000249843 62.15602635
-210.867298 -2.498431138e-05 -54.04454165
-43.670229 -2.498431138e-05 -73.51264565
-153.966782 -2.498431138e-05 53.64701035
-177.837907 -2.498431138e-05 -34.57437465
-16.716007 -2.498431138e-05 -24.64831465
-2.899942547e-05 -73.48769028 -29.52232465
-4.000028999 -29.54984909 31.39525035
-173.291881 -2.498431138e-05 70.70855835
-2.899942547e-05 -116.2581605 -50.52006865
-115.3173 -2.498431138e-05 -1.82386465
-3.972152999 -24.55176825 -31.51616765
-2.899942547e-05 -121.8099434 9.69023735
-89.49521 -2.498431138e-05 65.49062735
-4.000028999 -68.80901194 49.58122835
-2.899942547e-05 -174.9360271 52.52925735
-4.000028999 -41.80484215 57.80694435
-4.000028999 -47.55358089 5.06057535
-60.066148 -2.498431138e-05 -14.91428965
-35.791955 -2.498431138e-05 20.58465935
2.039980001 -232.7957375 25.89526135
-132.053594 -2.498431138e-05 28.00411835
-246.299582 -2.498431138e-05 44.30602735
-100.611304 -2.498431138e-05 13.27528335
-65.468069 -2.498431138e-05 58.76384935
-219.465425 -2.498431138e-05 15.33953535
-2.899942547e-05 -58.51223671 -29.79212765
-2.899942547e-05 -31.47276808 -55.80618565
-116.995335 -2.498431138e-05 58.25863535
-2.899942547e-05 -127.558352 -15.98424965
-4.000028999 -46.97718188 43.27838635
-4.000028999 -61.11545392 -55.25824265
-156.366907 -2.498431138e-05 -25.70117065
-137.895114 -2.498431138e-05 -71.65336165
-2.899942547e-05 -157.7702253 69.94118535
-105.677071 -2.498431138e-05 46.63852035
-2.899942547e-05 -196.8510556 -51.02084965
-202.985657 -2.498431138e-05 58.39073135
-2.899942547e-05 -235.8377961 -23.55746565
1.832567001 -0.5000249843 -10.98697965
-2.899942547e-05 -75.54686081 -56.38809465
-2.899942547e-05 -234.4494604 55.61946935
-19.74108 -2.498431138e-05 39.94935935
-2.899942547e-05 -114.2816151 -19.46194065
-126.89601 -2.498431138e-05 -57.48843465
-2.899942547e-05 -190.8498738 -17.22052665
-2.899942547e-05 -238.5871541 4.53431335
-52.770157 -2.498431138e-05 3.57539535
-2.899942547e-05 -57.51871955 -3.14119765
-2.899942547e-05 -87.01488103 -64.33905065
-123.463668 -2.498431138e-05 -28.92894065
-217.010754 -2.498431138e-05 74.22272035
-196.852759 -2.498431138e-05 -2.55476065
-163.320226 -2.498431138e-05 43.29797835
-2.899942547e-05 -49.13919462 -19.83541565
-2.899942547e-05 -126.5880083 -36.28109265
-2.899942547e-05 -189.9661667 64.58480035
-11.410732 -2.498431138e-05 50.79634635
-2.899942547e-05 -172.1055814 -71.24671965
-4.000028999 -33.7644108 -43.40765565
-4.000028999 -172.1223127 -18.04570665
-2.899942547e-05 -182.2336418 38.83128335
-85.003861 -2.498431138e-05 -57.67123765
-149.697723 -2.498431138e-05 2.39777635
-2.899942547e-05 -34.4259738 -21.63238065
-105.623288 -2.498431138e-05 -36.47523465
-158.177211 -2.498431138e-05 28.14219235
-2.899942547e-05 -81.10207815 -39.90580565
-2.899942547e-05 -177.1388109 8.17263535
-4.000028999 -134.7062188 44.94358335
-2.899942547e-05 -152.2376819 -1.67916065
-2.899942547e-05 -108.9479317 51.68013435
-87.063531 -2.498431138e-05 -32.34393765
-138.325214 -2.498431138e-05 -6.84538765
-244.526487 -2.498431138e-05 -26.18553565
-72.443714 -2.498431138e-05 -12.76219665
-167.362112 -2.498431138e-05 -58.13810265
-2.899942547e-05 -212.8764494 -35.67965965
-127.665559 -2.498431138e-05 0.3276573504
-4.000028999 -157.3791907 38.10115935
-79.45976 -2.498431138e-05 38.25129935
-205.877438 -2.498431138e-05 -33.40804165
-2.899942547e-05 -72.56543877 60.68468335
-237.251278 -2.498431138e-05 27.39345235
-2.899942547e-05 -202.6456245 -13.51433265
-2.899942547e-05 -30.88225769 61.99634335
-2.899942547e-05 -113.4705587 37.54612735
-2.899942547e-05 -60.16325938 -67.55953265
-234.033194 -2.498431138e-05 1.31272235
-229.69841 -2.498431138e-05 -72.04154265
-108.255125 -2.498431138e-05 25.27004235
-2.899942547e-05 -35.38499232 18.58629235
-2.899942547e-05 -237.9130766 -35.63370365
-29.203498 -2.498431138e-05 -11.36314365
-2.899942547e-05 -49.09148645 16.95524535
-2.899942547e-05 -248.5778266 -56.88897765
-2.899942547e-05 -201.5147309 10.38399635
-29.792296 -2.498431138e-05 -35.33114365
-2.899942547e-05 -231.2692819 -62.38942565
-4.000028999 -139.7712076 26.68444035
-2.899942547e-05 -184.9876916 -40.53496865
-148.1868 -2.498431138e-05 -44.13846965
-140.615021 -2.498431138e-05 69.39551035
-2.899942547e-05 -13.09941097 -34.61929065
-191.714375 -2.498431138e-05 -21.25243265
-38.911955 -2.498431138e-05 48.37811635
-2.899942547e-05 -10.20566993 -72.68819065
-14.990171 -2.498431138e-05 10.94144535
-4.000028999 -92.34352357 -39.17513765
-2.899942547e-05 -129.8244076 57.98301735
-2.899942547e-05 -224.1261436 -39.48204065
-152.283563 -2.498431138e-05 -58.33936865
-127.832866 -2.498431138e-05 16.39907935
-2.899942547e-05 -153.0988574 -23.63056465
-2.899942547e-05 -101.4475035 30.07948135
-187.870271 -2.498431138e-05 60.78354035
0.1883620006 -207.9636626 -73.73838965
-242.084018 -2.498431138e-05 -51.92974765
-2.899942547e-05 -151.8300302 11.99786235
-4.000028999 -22.01430774 73.72312935
-2.899942547e-05 -56.99847607 39.25797635
-2.899942547e-05 -219.0645486 4.80403035
-161.695308 -2.498431138e-05 -12.31517965
-4.000028999 -0.9854594643 -62.81965565
-2.899942547e-05 -109.0493243 -70.88551665
-2.899942547e-05 -7.024312214 53.34167335
-115.235307 -2.498431138e-05 -50.10843065
-2.899942547e-05 -45.58990596 72.30667535
-2.899942547e-05 -81.07427417 71.37338335
-2.899942547e-05 -218.7432106 -60.44740965
-2.899942547e-05 -9.593261434 71.38661035
-2.899942547e-05 -12.33280321 -52.16755765
-78.988044 -2.498431138e-05 60.63728635
-219.92687 -2.498431138e-05 40.22771135
-234.258471 -2.498431138e-05 -38.44209765
-2.899942547e-05 -169.8054345 -60.29820665
-2.899942547e-05 -29.73347904 -2.28273565
-2.899942547e-05 -150.8410062 48.30921935
-2.899942547e-05 -102.5944361 0.5596833504
-208.118112 -2.498431138e-05 20.41806235
-2.899942547e-05 -165.1250441 24.70633035
-2.899942547e-05 -215.2732538 62.09453935
1.011636001 -248.9331438 34.89297635
-4.000028999 -83.60128045 29.61716235
-132.041979 -2.498431138e-05 -22.02246765
-71.376857 -2.498431138e-05 26.24070235
-2.899942547e-05 -165.3460202 -41.15237165
-2.899942547e-05 -91.86186412 -15.10610865
-4.000028999 -88.07953856 45.42323835
-2.899942547e-05 -104.5127612 -27.41967765
-2.899942547e-05 -129.847958 -4.21007365
-182.992646 -2.498431138e-05 22.36823035
-2.899942547e-05 -218.6287792 -17.62778965
-2.899942547e-05 -130.8701008 -66.52432665
-201.562412 -2.498431138e-05 40.80958535
-65.738111 -2.498431138e-05 -50.04682565
-2.899942547e-05 -155.3668673 -61.53193265
-2.899942547e-05 -15.61788655 -10.58959065
-146.807948 -2.498431138e-05 -20.71663465
-2.899942547e-05 -208.2815481 26.25444035
-40.726485 -2.498431138e-05 -42.20244665
-2.899942547e-05 -191.8743868 31.31770635
-2.899942547e-05 -98.1931052 56.78382735
-2.899942547e-05 -181.9950897 26.46254235
-142.339425 -2.498431138e-05 47.41161735
-118.806975 -2.498431138e-05 23.96658535
-2.899942547e-05 -202.4974169 -40.41133065
-188.106199 -2.498431138e-05 4.95799335
-56.854064 -2.498431138e-05 -33.04532265
0.06161900057 -233.5731832 -72.67818865
-227.226387 -2.498431138e-05 -46.28157965
-219.925691 -2.498431138e-05 4.82801535
-2.899942547e-05 -123.9926069 23.72797935
-2.899942547e-05 -21.43147773 54.95808535
-2.899942547e-05 -196.0348187 -1.32374065
-2.899942547e-05 -122.6000804 -26.61761665
-2.899942547e-05 -163.7158604 46.59939935
-252.301749 -2.498431138e-05 -54.08908565
-2.899942547e-05 -97.31796021 -54.56780165
-55.295987 -2.498431138e-05 61.04126535
-4.000028999 -55.2097061 26.67655935
-170.343686 -2.498431138e-05 -42.11246065
-55.899947 2.032790946 29.96213135
-2.899942547e-05 -222.6422276 -49.90655465
-15.264945 -2.498431138e-05 -68.35156565
-121.608847 -2.498431138e-05 48.34044935
-4.000028999 -40.54935678 -52.06396265
-90.419215 -2.498431138e-05 14.85880635
0.2258370006 -199.6397966 73.37220935
-4.000028999 -149.920616 -32.61076565
-221.56113 -2.498431138e-05 -59.43597365
-107.027348 -2.498431138e-05 4.08804535
-241.445777 -2.498431138e-05 -71.58755265
-2.899942547e-05 -16.42260664 15.55245935
-53.616871 -2.498431138e-05 -71.51031265
-45.103226 -2.498431138e-05 24.60875135
-2.899942547e-05 -24.10767654 -67.24150665
-2.899942547e-05 -125.3456926 -58.07380665
-40.983693 -2.498431138e-05 11.94017735
-4.000028999 -178.7043678 -10.05693465
-4.000028999 -81.75164921 -71.92737465
-4.000028999 -26.1727341 18.91387735
-4.000028999 -63.35426593 61.01162135
-2.899942547e-05 -37.44651591 38.31985735
-2.899942547e-05 -90.82682946 13.35627335
-165.963487 -2.498431138e-05 21.84216835
-231.210712 -2.498431138e-05 -17.72382365
-2.899942547e-05 -179.7114275 -63.93337365
-2.899942547e-05 -0.9806978743 -1.22345965
-68.472724 -2.498431138e-05 -38.76726965
-175.126301 -2.498431138e-05 44.07267935
-100.808891 -2.498431138e-05 -14.00377265
-2.899942547e-05 -250.5459552 -18.39888765
1.975395001 -42.65612247 49.94485635
-206.996265 -2.498431138e-05 -44.92342965
-2.899942547e-05 -5.027565134 -42.91961265
-4.000028999 -66.54080424 37.96450335
-2.899942547e-05 -83.07016437 -2.68986765
-2.899942547e-05 -43.31230401 -42.99420465
0.3400430006 -219.8154545 74.09318835
-129.128191 -2.498431138e-05 -67.16458265
-2.899942547e-05 -74.88446206 -19.49645765
-2.899942547e-05 -180.0548292 60.91841135
-86.948127 -2.498431138e-05 28.75061735
-2.899942547e-05 -239.7826094 -14.59730165
-2.899942547e-05 -242.444541 25.14181535
-41.139782 -2.498431138e-05 -19.38822965
-4.000028999 -83.02171057 -23.95850765
-136.443276 -2.498431138e-05 60.63668535
-2.899942547e-05 -20.21229855 -23.04570965
-4.000028999 -62.20679788 19.96775135
-4.000028999 -93.89815513 36.90205235
-102.607877 -2.498431138e-05 74.07284735
-2.899942547e-05 -212.1605488 46.33750635
-2.899942547e-05 -40.68261737 -70.47908365
-110.618781 -2.498431138e-05 -70.23420265
-2.899942547e-05 -244.5648923 47.37252735
-146.060924 -2.498431138e-05 26.06893435
-115.518939 -2.498431138e-05 -12.91445365
-2.899942547e-05 -150.9238015 60.91972935
-2.899942547e-05 -22.7085088 36.80768835
-2.899942547e-05 -75.08217598 27.81784435
-175.666615 -2.498431138e-05 -12.49487965
-4.000028999 -38.95107804 -0.4248516496
-12.356007 -2.498431138e-05 61.76122935
-94.477578 -2.498431138e-05 57.31313035
-2.899942547e-05 -1.022955754 -20.32796065
-130.465336 -2.498431138e-05 40.01899335
-46.209465 -2.498431138e-05 39.46103535
-2.899942547e-05 -225.4161985 44.35577735
-4.000028999 -72.90043258 8.86125035
-2.899942547e-05 -161.1907405 1.10215435
-211.024207 -2.498431138e-05 -12.27513565
-4.000028999 -50.33741529 61.60657435
-4.730152999 -2.498431138e-05 73.89604635
-27.118231 -2.498431138e-05 23.94343835
-106.676963 -2.498431138e-05 -46.48360165
-179.426435 -2.498431138e-05 1.72118135
-56.909931 -2.498431138e-05 -6.20675465
-2.899942547e-05 -239.9464555 -65.98723765
-154.087694 -2.498431138e-05 43.11780535
-4.000028999 -134.3013251 -39.40695965
-2.899942547e-05 -145.3472789 20.52163235
-40.149944 -2.498431138e-05 73.93735635
-6.441940999 -2.498431138e-05 36.90213835
-2.899942547e-05 -77.03981559 50.55860135
-2.899942547e-05 -164.2327137 -20.67179365
-114.462175 -2.498431138e-05 -27.09254465
-35.287263 -2.498431138e-05 60.05048035
-4.000028999 -100.683766 -19.99566865
-75.495974 -2.498431138e-05 -30.73590965
-235.321497 -2.498431138e-05 63.31581135
-4.000028999 -102.3230516 19.43001835
-29.249919 -2.498431138e-05 -62.97207165
-2.899942547e-05 -8.041871334 6.46394035
-4.000028999 -153.1160283 -41.48410265
-2.899942547e-05 -182.1096511 -21.41376065
-152.981389 -2.498431138e-05 -34.11063165
-182.512524 -2.498431138e-05 53.05222635
-246.708558 -2.498431138e-05 68.36255835
-177.840341 -2.498431138e-05 -73.69706365
-82.005845 -2.498431138e-05 -71.00248365
-127.424389 -2.498431138e-05 59.78960835
-239.391675 -2.498431138e-05 -60.46538365
-2.899942547e-05 -100.643655 -67.82330465
-2.899942547e-05 -139.7980066 -48.61664165
-39.444131 -2.498431138e-05 2.16473535
-170.313801 -2.498431138e-05 62.18693935
-161.214557 -2.498431138e-05 58.73353735
-2.899942547e-05 -33.64269714 -64.36901765
-91.325305 -2.498431138e-05 -51.21618065
-2.899942547e-05 -173.6708354 -37.18819265
-137.945192 -2.498431138e-05 35.33107635
-4.000028999 -33.31339835 -30.47767565
-4.000028999 -57.79312558 -21.60081465
-226.631267 -2.498431138e-05 45.88751835
-2.899942547e-05 -183.2685745 16.63609635
-2.899942547e-05 -72.89824026 -10.99436465
-4.000028999 -121.8477413 35.91727235
-189.340136 -2.498431138e-05 -59.93310665
-250.314197 -2.498431138e-05 -10.74354165
0.02896800057 -133.0037979 72.12937935
-85.984574 -2.498431138e-05 73.45226935
-210.757073 -2.498431138e-05 64.13984335
-2.899942547e-05 -125.1508929 -44.82949065
-4.000028999 -48.63518651 -65.74208765
-2.899942547e-05 -66.63933944 -61.84958365
-139.446671 -2.498431138e-05 -16.23872565
-4.000028999 -66.74801462 -36.59560665
-2.899942547e-05 -115.4504443 62.81168435
-21.596361 -2.498431138e-05 17.38441535
-229.016282 -2.498431138e-05 69.58495835
-149.966176 -2.498431138e-05 70.34390635
-2.899942547e-05 -37.90582129 10.41138035
-2.899942547e-05 -115.8154177 -41.98948965
-179.285534 -2.498431138e-05 -26.16353465
-120.048571 -2.498431138e-05 -20.14552865
-4.000028999 -53.95847807 -13.97911465
-180.311213 -2.498431138e-05 65.87872135
-201.437043 -2.498431138e-05 5.42474535
-209.064107 -2.498431138e-05 -73.79433065
-26.194093 -2.498431138e-05 -0.2005646496
-4.000028999 -81.98438598 11.11509635
-61.630037 -2.498431138e-05 14.53982035
-2.899942547e-05 -237.0579492 71.15981435
-115.292259 -2.498431138e-05 -40.63107065
-88.835793 -2.498431138e-05 6.47548135
-2.899942547e-05 -229.519683 -33.02951065
-2.899942547e-05 -94.81050057 -2.61555565
-157.916098 -2.498431138e-05 3.99896735
-4.000028999 -7.813646584 -57.98483065
-28.06007 -2.498431138e-05 40.80676135
-2.899942547e-05 -60.74439428 -47.92329465
-2.899942547e-05 -165.5790433 -11.01175565
-2.899942547e-05 -61.5701477 46.23730035
-65.009182 -2.498431138e-05 50.43501735
-2.899942547e-05 -110.6945645 2.53058835
-2.899942547e-05 -7.903072744 14.79228935
-2.899942547e-05 -224.7523385 -1.27464965
-4.000028999 -36.70518376 27.14097735
-2.899942547e-05 -68.35099685 -52.21156165
-228.341615 -2.498431138e-05 58.81526335
-4.000028999 -17.70214196 -70.88679165
-4.000028999 -147.0627626 -48.65611565
-98.520223 -2.498431138e-05 2.88310735
-4.000028999 -178.8332232 -1.79993765
-4.000028999 -91.36177275 64.59908335
-2.899942547e-05 -234.5476448 47.36274835
-210.277857 -2.498431138e-05 -62.26614765
-2.899942547e-05 -207.2842496 64.04286335
-173.875712 -2.498431138e-05 19.61091835
-71.232144 -2.498431138e-05 -22.50394165
-4.000028999 -161.8440506 17.27226635
-24.604038 -2.498431138e-05 -41.66321565
-60.316803 -2.498431138e-05 -66.53511465
-4.000028999 -63.34925115 -7.23568165
-8.071670999 -2.498431138e-05 -0.5189226496
-249.575433 -2.498431138e-05 51.77848835
-4.000028999 -40.10554877 65.78486535
-121.769083 -2.498431138e-05 8.72169735
-4.677221999 -2.498431138e-05 -29.97892965
-2.899942547e-05 -140.7765312 10.26339035
-2.899942547e-05 -135.7988441 1.34776535
-2.899942547e-05 -64.78638191 -24.62437765
-4.000028999 -160.1304073 -5.87871365
-2.899942547e-05 -192.1652201 -44.41551165
-136.488509 -2.498431138e-05 -61.47653865
-2.899942547e-05 -194.2822493 -68.58746165
-80.634088 -2.498431138e-05 -12.30837265
-114.704279 -2.498431138e-05 66.00299535
-229.578511 -2.498431138e-05 24.87672535
-72.155123 -2.498431138e-05 -3.10545365
-2.899942547e-05 -198.0075325 63.97966635
-182.11289 -2.498431138e-05 -56.36156965
-4.000028999 -169.5749401 -25.68306665
-225.39626 -2.498431138e-05 -33.62163665
-2.899942547e-05 -89.85175398 53.71361235
-210.320405 -2.498431138e-05 10.15627135
-2.899942547e-05 -174.0383538 28.86355135
-2.899942547e-05 -127.4829103 3.46163635
-4.000028999 -48.31912342 -26.73904865
-2.899942547e-05 -165.5628897 68.06593835
-2.899942547e-05 -78.27525 -48.86395165
-246.056645 -2.498431138e-05 33.69272335
-4.000028999 -107.5114465 -52.27966465
-2.899942547e-05 -168.623888 57.41704635
-2.899942547e-05 -224.3979329 36.07193435
-4.000028999 -36.00315098 50.39464435
-2.899942547e-05 -212.2870093 -11.89235865
-117.734716 -2.498431138e-05 -57.66765465
-240.996153 -2.498431138e-05 10.46976835
-2.899942547e-05 -191.4185614 12.73560435
-4.000028999 -139.0058177 36.79801135
-238.857625 -2.498431138e-05 38.43456935
-107.311665 -2.498431138e-05 17.44445435
-37.115665 -2.498431138e-05 -29.31184765
-2.899942547e-05 -99.75516784 -38.17234665
0.2191330006 -191.775531 73.32988535
-4.000028999 -116.994059 -57.24830065
-139.91578 -2.498431138e-05 -39.13531165
-4.000028999 -24.84022617 -54.48914065
-3.408955999 -157.1008379 6.86532535
-51.605693 -2.498431138e-05 -55.83723265
-4.000028999 -65.53043606 6.19307435
-4.000028999 -33.66048557 -14.95095065
-247.350761 -2.498431138e-05 -17.98229165
-193.924756 -2.498431138e-05 -70.85267565
-2.899942547e-05 -222.9818303 59.24331235
-220.858996 -2.498431138e-05 52.96830235
-2.899942547e-05 -107.0892849 44.09263035
-4.000028999 -55.96875508 5.76301135
-2.899942547e-05 -170.0251851 5.00805835
-2.899942547e-05 -244.1945859 9.92749535
-214.607931 -2.498431138e-05 -5.37516865
-2.899942547e-05 -139.192782 -34.01070065
-42.725562 -2.498431138e-05 -50.47010165
-2.899942547e-05 -219.032071 24.05852635
-2.899942547e-05 -26.85803168 -37.75713665
-248.56314 -2.498431138e-05 -47.34240165
-4.995628999 -2.498431138e-05 -37.68317865
-2.899942547e-05 -47.46626101 -1.52140565
-2.899942547e-05 -69.44375517 18.85013435
-237.91644 -2.498431138e-05 -21.50454365
-45.809566 -2.498431138e-05 -13.17053465
-46.801928 -2.498431138e-05 -66.48163465
-251.33175 -2.498431138e-05 -31.02292465
-224.595843 -2.498431138e-05 -23.31521765
-2.899942547e-05 -126.8675519 42.10070035
-2.899942547e-05 -83.23013399 -56.57185165
-182.686909 -2.498431138e-05 -18.48057465
-2.899942547e-05 -145.4894112 29.88841535
-2.899942547e-05 -217.346755 40.67490335
-123.384068 -2.498431138e-05 30.12493735
-105.932018 -2.498431138e-05 -3.50175065
-2.899942547e-05 -171.1817543 12.98821935
-2.899942547e-05 -194.8061306 -8.87922865
-2.899942547e-05 -63.55521301 67.53198135
-188.694239 -2.498431138e-05 35.34993935
-2.899942547e-05 -23.50356948 12.73489835
-146.639806 -2.498431138e-05 -63.44764365
-2.899942547e-05 -114.2453148 10.48619835
-2.899942547e-05 -83.10979712 20.66629935
-22.100732 -2.498431138e-05 -19.28929365
-69.028996 -2.498431138e-05 19.02365135
-4.000028999 -108.8504619 29.56929135
-2.899942547e-05 -91.49344871 30.91910535
-99.388259 -2.498431138e-05 -48.51151965
-244.148516 -2.498431138e-05 21.33213435
-154.991458 -2.498431138e-05 -47.43688265
-4.000028999 -8.417936624 64.42956535
-86.910708 -2.498431138e-05 37.06139535
-145.520518 -2.498431138e-05 54.24822135
-2.899942547e-05 -76.37605966 -67.87082965
-198.493941 -2.498431138e-05 67.55727535
-2.899942547e-05 -247.7271919 -37.75932165
-2.899942547e-05 -142.3606145 65.52639335
-23.8819 -2.498431138e-05 -30.70389365
-2.899942547e-05 -198.3053579 -22.83529665
-2.899942547e-05 -195.9432647 -36.79667265
-2.899942547e-05 -54.0951325 46.51900135
-4.000028999 -24.56515027 62.08710535
-4.000028999 -75.03641694 66.49076735
-4.000028999 -108.0386864 -35.92689165
-2.899942547e-05 -41.71065419 -23.22113165
-2.899942547e-05 -232.4100338 18.74593835
-2.899942547e-05 -60.21128041 -40.50016965
-2.899942547e-05 -98.25347885 6.59046835
-2.899942547e-05 -85.41233399 -33.85436165
-3.443864999 -1.599531644 -49.95746465
-131.689857 -2.498431138e-05 6.54912835
-84.766383 -2.498431138e-05 54.72416235
-2.899942547e-05 -42.57089874 -15.57985065
-89.398029 -2.498431138e-05 -23.72485565
-99.27697 0.5353083457 -32.71448465
-4.000028999 -55.87857574 -73.75659165
-2.899942547e-05 -126.0410078 15.75013135
-2.899942547e-05 -46.34947515 -49.83612765
-88.631601 -2.498431138e-05 -2.56825065
-2.899942547e-05 -138.7207981 -19.41163065
-68.810267 -2.498431138e-05 43.53749035
-2.899942547e-05 -117.9500276 31.18827735
-104.328297 -2.498431138e-05 53.82204935
-4.000028999 -54.95747727 13.37800435
-134.423754 -2.498431138e-05 -33.29062665
-29.935233 -2.498431138e-05 16.23900135
0.02649900057 -215.6068357 -72.32241565
-4.000028999 -72.34449597 33.56438235
-2.899942547e-05 -194.6036025 54.79898835
-220.061054 -2.498431138e-05 22.58891535
-2.899942547e-05 -144.4944714 -29.04285565
-2.899942547e-05 -55.3813957 -62.09385665
-4.000028999 -98.00909838 -26.74656065
-251.184855 -2.498431138e-05 17.37791635
-2.899942547e-05 -175.3269986 -55.31791165
-2.899942547e-05 -238.288896 -42.87491265
-2.899942547e-05 -92.01738931 -46.55486565
-4.000028999 -80.77777046 3.97256935
-4.000028999 -22.1457457 46.06681335
-4.000028999 -101.9409083 39.34464535
-4.000028999 -116.3151298 50.34194835
-2.899942547e-05 -30.77592364 25.51715235
-197.12503 -2.498431138e-05 -40.49991865
-21.409948 -2.498431138e-05 62.49001135
-2.899942547e-05 -226.6836505 -17.90723265
-2.899942547e-05 -208.1219574 2.58659135
-4.000028999 -93.3038191 -58.97689565
-173.005146 -2.498431138e-05 4.92751635
-10.572242 -2.498431138e-05 -16.31728165
-2.899942547e-05 -110.397503 18.79572535
-0.8357289994 -132.3866095 -57.08170465
-3.525349999 -132.6460283 52.44016435
-4.000028999 -108.9135765 -21.92392065
-132.806856 -2.498431138e-05 -13.63788765
-2.899942547e-05 -27.91397418 68.46183335
-2.899942547e-05 -19.05312526 6.79579035
-161.994687 -2.498431138e-05 -5.21003365
-194.557953 -2.498431138e-05 39.60568235
-4.000028999 -151.3796321 -18.01427465
-2.899942547e-05 -9.765864704 -3.69817465
-114.678765 -2.498431138e-05 51.55318135
-148.293981 -2.498431138e-05 -52.47511265
-4.000028999 -167.1407058 -33.54817165
-65.234486 -2.498431138e-05 71.15840435
-2.899942547e-05 -22.45874572 -74.27739965
-2.899942547e-05 -156.8899764 32.28835735
-4.000028999 -164.7039518 30.52438835
-4.000028999 -25.68539133 -21.03283265
-2.899942547e-05 -182.5417491 54.30184335
-143.876086 -2.498431138e-05 6.40383135
-35.277877 -2.498431138e-05 -14.91773165
-220.923798 -2.498431138e-05 33.26134235
-2.899942547e-05 -49.429082 33.97419435
-2.899942547e-05 -19.33506804 -52.61953765
-4.000028999 -31.06693745 -7.88584265
-120.558434 -2.498431138e-05 -6.46095765
-169.868476 -2.498431138e-05 -35.14471365
0.01552600057 -126.8582499 -72.21125165
-204.019764 -2.498431138e-05 14.59584935
-211.219683 -2.498431138e-05 -28.96064865
-2.899942547e-05 -33.71815114 -36.66544165
-2.899942547e-05 -239.4826064 60.85832535
-159.914754 -2.498431138e-05 -19.01865265
-2.899942547e-05 -7.229105884 -63.62039665
-2.899942547e-05 -118.3456197 16.06775535
-2.899942547e-05 -34.18249569 3.88740635
-223.58104 -2.498431138e-05 65.30168335
-2.899942547e-05 -34.30832296 -49.52575565
-3.858016999 -144.8713543 50.37850435
-2.899942547e-05 -228.0880918 50.68465835
-191.616841 -2.498431138e-05 23.67785535
-4.000028999 -161.6436694 -25.59732365
-2.899942547e-05 -40.35760896 -63.01423765
-191.873097 -2.498431138e-05 -9.84371765
-2.899942547e-05 -11.67357654 59.11244835
-4.000028999 -62.3145167 -0.3494456496
-181.731874 -2.498431138e-05 45.83998435
-4.000028999 -118.5253374 41.89088835
-4.000028999 -28.60003973 40.78559735
-236.302732 -2.498431138e-05 47.37594535
-4.000028999 -95.63653915 -65.49493565
-2.899942547e-05 -52.22431803 -32.41597665
-207.270463 -2.498431138e-05 -6.58974165
2.038359001 -97.71067304 63.26307935
-4.000028999 -94.94454464 18.84519335
-2.899942547e-05 -154.1155962 -54.69731065
-2.899942547e-05 -1.484413604 35.35762735
-2.899942547e-05 -86.57479016 -19.35737765
-81.245841 -2.498431138e-05 -40.27559665
-2.899942547e-05 -157.7055645 -44.46795865
-142.212661 -2.498431138e-05 -47.82022965
-10.910341 -2.498431138e-05 28.20492935
-2.899942547e-05 -210.7772208 56.45053835
-29.42689 -2.498431138e-05 63.40633435
-2.899942547e-05 -113.1943631 -12.80010665
-4.000028999 -53.80351952 -48.44874165
-2.899942547e-05 -133.0984715 22.60639635
-190.699536 -2.498431138e-05 11.15628335
-4.000028999 -56.87209429 33.86354135
-155.776762 -2.498431138e-05 21.70714235
-201.092206 -2.498431138e-05 -61.40071165
-2.899942547e-05 -16.00641752 68.20761435
-2.899942547e-05 -29.54546914 52.43691635
-234.867607 -2.498431138e-05 20.76189535
-94.307018 -2.498431138e-05 20.31103635
-4.000028999 -68.74595976 24.16728235
-47.706975 -2.498431138e-05 69.06838935
-164.931676 -2.498431138e-05 15.24473035
-2.899942547e-05 -56.82901727 64.66272435
-0.5046839994 -0.5000249843 -70.46531565
-2.899942547e-05 -122.9000967 -51.15337965
-0.4590669994 -0.5000249843 54.65208035
-2.899942547e-05 -155.0614196 43.15612235
-156.81885 -2.498431138e-05 34.65335135
1.270847001 -13.33782579 49.94485635
-4.000028999 -56.84055839 -35.01830965
-4.000028999 -51.73688452 -7.73674965
-2.899942547e-05 -69.51868916 42.31963535
-94.28528 -2.498431138e-05 34.91856235
-4.000028999 -27.10791941 2.39073735
-2.899942547e-05 -64.03950888 -72.89518965
-2.899942547e-05 -87.52559656 -41.35735065
-2.899942547e-05 -145.7462276 -2.82600265
-4.000028999 -43.009042 11.48155335
-4.000028999 -93.77194783 48.69530335
-4.000028999 -63.91172572 -30.67430265
-3.450316999 -138.3484551 -54.00955065
-3.427335999 -182.4980733 6.55574435
-2.899942547e-05 -139.8953929 44.60163835
-36.913669 -2.498431138e-05 -7.96284965
-2.899942547e-05 -242.3799629 -59.91935465
-225.666619 -2.498431138e-05 13.27537635
-4.000028999 -159.2185128 -39.15974665
-2.899942547e-05 -22.75314655 30.28709035
-4.000028999 -114.8380226 -65.63669565
-81.278646 -2.498431138e-05 -27.72373365
-175.173582 -2.498431138e-05 -4.55487265
-4.000028999 -121.1286064 -41.61622865
-2.899942547e-05 -100.2911758 -48.06827465
-94.297052 -2.498431138e-05 -13.71376965
-2.899942547e-05 -2.770127514 -56.99127165
-2.899942547e-05 -241.1871532 15.70116335
-2.899942547e-05 -135.5965297 29.66401135
-4.000028999 -163.3316475 40.69601935
-175.624789 -2.498431138e-05 -56.54342165
-2.899942547e-05 -107.7004107 -16.25206365
-172.164565 -2.498431138e-05 13.35708635
-2.899942547e-05 -73.48756454 -39.45310065
-49.697341 -2.498431138e-05 9.28041635
-2.899942547e-05 -190.9201945 -53.63067065
-222.613128 -2.498431138e-05 -1.05713065
-2.899942547e-05 -24.27694504 -7.59922665
-4.000028999 -13.77053062 -47.29141265
-2.899942547e-05 -134.4382527 -9.09733665
-2.899942547e-05 -90.80996009 -54.56058065
-2.899942547e-05 -178.5369236 -71.75736365
-239.431865 -2.498431138e-05 -30.13423265
-2.899942547e-05 -168.7399929 19.36996035
-162.533071 -2.498431138e-05 -67.82133365
-4.000028999 -88.51037057 -11.33352365
-165.690632 -2.498431138e-05 -46.56276965
-2.899942547e-05 -27.94248338 -45.83098665
-2.899942547e-05 -130.2297832 47.62994535
-33.117719 -2.498431138e-05 31.51248935
-4.000028999 -6.908991714 -68.63470265
-109.207451 -2.498431138e-05 10.65111435
-2.899942547e-05 -90.96097651 40.97618435
-43.660374 -2.498431138e-05 57.30667735
-2.899942547e-05 -173.8249167 -11.16449565
-8.953662999 -2.498431138e-05 13.06765835
-2.899942547e-05 -187.0993317 58.79182935
-2.899942547e-05 -161.6720645 -60.49604365
-2.899942547e-05 -201.7467442 1.53204435
-4.000028999 -123.9659569 29.89418435
-4.000028999 -149.0746443 24.65850735
-2.899942547e-05 -93.24437511 -8.87931565
-149.940292 -2.498431138e-05 -3.97374765
-2.899942547e-05 -115.9318935 56.45525735
-2.899942547e-05 -151.79182 18.36566735
-220.594588 -2.498431138e-05 -53.14189865
-2.899942547e-05 -189.6304695 -64.24447265
-71.647583 -2.498431138e-05 60.27481135
-64.716937 -2.498431138e-05 -10.58871965
-72.669644 -2.498431138e-05 -43.52811865
-4.000028999 -176.0917311 -22.99255765
-2.899942547e-05 -52.923802 -54.27532565
-4.000028999 -99.15558533 -8.35703165
-4.000028999 -88.01744116 34.38999135
-95.825262 -2.498431138e-05 65.61121535
-79.516322 -2.498431138e-05 72.94938735
-64.956166 0.7641496857 -22.65967865
-17.360422 -2.498431138e-05 -35.03318965
-2.899942547e-05 -206.3358203 -50.63865965
-5.524699999 -2.498431138e-05 48.51138535
-21.592342 -2.498431138e-05 11.07343335
-2.899942547e-05 -39.35915016 73.30391035
-2.899942547e-05 -110.0788677 -44.61293965
-2.899942547e-05 -132.4815435 10.56202835
-231.674532 -2.498431138e-05 7.15813135
-4.000028999 -70.12539311 -20.52281765
-2.899942547e-05 -223.4907429 17.28718735
-2.899942547e-05 -226.9352922 26.93005835
-1.414298999 -0.5000249843 68.29302435
-2.899942547e-05 -176.8721831 -17.21979465
-2.899942547e-05 -98.53031103 -61.64502965
-4.000028999 -117.3305799 -30.03703465
-2.899942547e-05 -195.5125786 -61.49788665
-2.899942547e-05 -188.4754354 38.44049635
-0.7534719994 -124.8977086 53.25024935
-2.899942547e-05 -92.557099 59.94928835
-124.419187 -2.498431138e-05 41.58764935
-223.787468 -2.498431138e-05 -74.05643465
-163.640881 -2.498431138e-05 -35.50445765
-2.899942547e-05 -230.5544801 -54.27142665
-4.000028999 -132.3233129 37.02525035
-4.000028999 -59.13787477 51.17459035
-2.899942547e-05 -6.062028364 42.40740835
-4.000028999 -87.87408283 -1.80872665
-2.899942547e-05 -83.15562656 34.86424435
-4.000028999 -80.65328027 54.87980035
-4.000028999 -51.6486853 21.60126235
-111.791805 -2.498431138e-05 -63.15250665
-2.899942547e-05 -139.7260499 -67.33386465
-65.528886 -2.498431138e-05 9.73863435
-4.000028999 -43.16977876 -58.29205165
-231.655758 -2.498431138e-05 -4.39374465
-201.609467 -2.498431138e-05 34.63044335
-2.899942547e-05 -175.1281707 1.53856435
-2.899942547e-05 -50.54347384 10.95850635
-87.994686 -2.498431138e-05 -43.57522365
-3.924466999 -172.867681 -30.89092865
-2.899942547e-05 -116.7152721 1.22479535
-2.899942547e-05 -81.82023357 45.62426135
-4.000028999 -159.9277283 23.12131835
-2.899942547e-05 -3.894407444 -29.16588965
-2.899942547e-05 -6.951624914 -17.89559165
-173.650375 -2.498431138e-05 25.73939535
-2.899942547e-05 -8.636438354 20.87731035
-222.068866 -2.498431138e-05 -68.18514865
-77.426094 -2.498431138e-05 -7.09978465
-4.000028999 -104.435536 -70.54201265
-4.000028999 -96.03956987 12.83249935
-2.899942547e-05 -183.0163223 -58.18129065
-2.899942547e-05 -149.9081807 54.32548135
-2.899942547e-05 -68.20496085 -67.72754465
-2.899942547e-05 -29.52116563 -27.90882365
-4.000028999 -74.09058443 56.37377435
-13.857808 -2.498431138e-05 38.45491835
-55.681575 1.051475056 -24.44754465
-2.899942547e-05 1.065278286 -45.74190165
-2.899942547e-05 -245.8115635 -2.37221465
-130.893572 -2.498431138e-05 -28.37214765
-4.000028999 -88.11544071 20.66433035
-4.000028999 -97.84883013 -34.05594765
-132.685154 -2.498431138e-05 12.79204735
-2.899942547e-05 -42.93615983 40.85038835
-2.899942547e-05 -38.04462051 -55.83855965
-2.899942547e-05 -103.9205891 -55.65937765
-2.899942547e-05 -79.25006298 -9.89029265
-2.899942547e-05 -137.885813 -42.15036665
-2.899942547e-05 -85.28381398 67.05978535
-4.000028999 -25.77509071 56.14131935
-150.891774 -2.498431138e-05 18.07242335
-2.899942547e-05 -230.1256805 -25.45590465
-92.392633 -2.498431138e-05 -63.74023665
-4.000028999 -20.26122636 -41.32150565
-4.000028999 -132.4346203 -28.22990265
-4.000028999 -104.5674823 47.76667135
-2.899942547e-05 -95.34938936 -19.97156365
-48.685601 -2.498431138e-05 -49.92565265
-4.000028999 -75.06800529 -45.79243465
-176.634714 -2.498431138e-05 -20.80888065
0.1890520006 -244.1602884 -73.74303365
-2.899942547e-05 -87.12521249 7.35814635
-151.933173 -2.498431138e-05 59.24272235
-2.899942547e-05 -150.1525416 -45.51772965
-2.899942547e-05 -67.13658897 -9.51345765
-2.899942547e-05 -77.28782058 8.70275935
-236.740086 -2.498431138e-05 -67.96467665
-83.409092 -2.498431138e-05 -49.66218565
-24.516705 -2.498431138e-05 -66.54568165
-4.000028999 -82.87268091 -29.87734265
-75.29202 -2.498431138e-05 34.04679435
-4.000028999 -78.42279811 -59.66368865
-178.656244 -2.498431138e-05 73.20067035
-4.000028999 -46.04798885 -33.69658665
-2.899942547e-05 -69.75433838 5.14449835
-4.000028999 -69.17578467 67.25039135
-4.000028999 -26.44094845 25.55873835
-2.899942547e-05 -112.9474441 44.77979735
0.5178180006 -15.07997292 -66.45381665
-2.899942547e-05 -181.8518443 1.79963035
-231.163764 -2.498431138e-05 50.44677635
-2.899942547e-05 -58.43064424 -11.95661065
-2.899942547e-05 -59.0110881 16.44515235
-4.000028999 -49.0953091 -44.45666465
-2.899942547e-05 -180.0309988 44.28917235
-4.000028999 -11.25773332 54.18318335
-2.899942547e-05 -114.8940512 -71.53706165
-0.3932079994 -6.568980594 -49.21082365
-4.000028999 -79.25886347 -4.68947765
-2.899942547e-05 -120.2523773 -21.23493865
-0.7251079994 -147.684665 -21.48437165
-2.899942547e-05 -29.96534159 36.71941635
-4.000028999 -65.63939764 55.61825135
-196.751364 -2.498431138e-05 46.77047835
-4.000028999 -76.06852866 46.39697835
-42.722882 -2.498431138e-05 -27.63525165
-2.899942547e-05 -43.2317173 61.81908935
-2.899942547e-05 -37.28028451 -9.77613665
-212.749571 -2.498431138e-05 36.53137235
-2.899942547e-05 -151.9382729 6.16134535
-226.750811 -2.498431138e-05 32.92119435
-4.000028999 -78.99255034 -53.85723865
-4.000028999 -77.3458416 20.68605435
-2.899942547e-05 -219.3492703 -42.82437565
-4.000028999 -63.86540127 -45.05508265
-194.1213 -2.498431138e-05 18.29040735
-37.718726 -2.498431138e-05 54.08128935
-4.000028999 -103.3025092 26.27432335
-4.000028999 -113.5006898 33.31787235
-2.899942547e-05 -152.3491185 38.00694935
-2.899942547e-05 -112.3337168 -3.52660265
-4.000028999 -39.33812932 32.32117735
-236.445592 -2.498431138e-05 -53.33078465
-4.000028999 -6.928610164 49.13073135
-2.899942547e-05 -53.73708442 -23.38147465
-4.000028999 -52.53957259 37.72092435
-2.899942547e-05 -62.61303141 -34.66572065
-104.030553 -2.498431138e-05 -51.98338365
-2.899942547e-05 -150.9478375 66.71491635
-2.899942547e-05 -65.72090581 13.17091135
-4.000028999 -41.36138702 -39.29619965
-213.822238 -2.498431138e-05 -19.35270165
-4.000028999 -67.48574642 -2.92612565
-3.553355999 -2.498431138e-05 -13.01573765
-2.899942547e-05 -118.8416975 -35.95610865
-2.899942547e-05 -153.3984046 -14.37580765
-7.845235999 -2.498431138e-05 5.24788035
-4.000028999 -181.2055317 12.14987335
-4.000028999 -35.2408329 41.84230735
-137.137926 -2.498431138e-05 54.91378335
-2.899942547e-05 -156.4523753 -28.31304465
-4.000028999 -123.9802112 -30.50502065
-2.899942547e-05 -220.487733 -35.03589065
-4.000028999 -42.26989595 46.56304235
-146.30964 -2.498431138e-05 -71.52624765
-4.000028999 -86.18580057 39.82534035
-4.000028999 -70.64481679 -14.41798065
-2.899942547e-05 -208.2046713 -39.94711265
-2.899942547e-05 -199.3112416 -71.31687565
-2.899942547e-05 -28.57668113 -16.05127765
-2.899942547e-05 -131.7097014 -45.70352565
-71.5633 -2.498431138e-05 -49.13503365
-2.899942547e-05 -83.66197085 -46.99526265
-4.000028999 -20.27989643 -59.03648565
-126.831177 -2.498431138e-05 -24.32087465
-144.889872 -2.498431138e-05 -9.01180465
-212.141528 -2.498431138e-05 -47.33200065
-215.379927 -2.498431138e-05 67.43423935
-4.000028999 -87.36168561 -68.34905365
-84.034883 -2.498431138e-05 68.13645535
-2.899942547e-05 -186.3826875 71.63722135
-4.000028999 -150.6706682 -26.79968665
-13.467254 -2.498431138e-05 22.30308035
-4.000028999 -62.67248587 -62.11465165
-2.899942547e-05 -136.0251943 40.50537435
-4.000028999 -34.07738829 34.75009935
-4.000028999 -99.09313143 -13.98353765
-2.899942547e-05 -40.89368648 -48.12354765
-2.899942547e-05 -46.10622787 66.65427235
-4.000028999 -83.9992167 -7.70774465
-59.263574 -2.498431138e-05 -38.11759565
-242.355424 -2.498431138e-05 -15.43888865
-4.000028999 -112.4597838 -49.53960265
-4.000028999 -121.4198394 -60.68001765
-2.899942547e-05 -103.379088 -33.90689665
-2.899942547e-05 -108.641246 -61.99986165
-2.899942547e-05 -62.47462022 3.76425135
-4.000028999 -50.8547867 30.36217935
-4.000028999 -142.2813018 32.29664935
-2.899942547e-05 -166.0894733 51.63307235
-2.899942547e-05 -230.3514035 -67.87766965
-2.899942547e-05 -162.8718924 -29.26132265
-2.899942547e-05 -163.757036 -68.86577665
-4.000028999 -62.43402267 32.43149735
0.3057590006 -153.9907509 -74.12242665
0.2488090006 -192.8193735 -73.93695465
-168.285451 -2.498431138e-05 45.78020535
-2.899942547e-05 -219.3158892 -23.13346465
-2.899942547e-05 -93.71847961 3.00217735
-2.899942547e-05 -52.01000532 1.65664735
-9.746312999 -2.498431138e-05 -67.85416965
-90.39492 -2.498431138e-05 43.16544935
-149.39147 -2.498431138e-05 30.48234635
-248.592406 -2.498431138e-05 -58.17744865
-2.899942547e-05 -193.5498834 3.60488835
-38.92138 -2.498431138e-05 66.47991835
-4.000028999 -59.83735473 56.76500535
-2.899942547e-05 -176.5837318 -4.85429565
-2.899942547e-05 -138.6011463 23.07665635
-124.316431 -2.498431138e-05 36.07642135
-2.899942547e-05 -55.38910734 22.21414635
-4.000028999 -102.0205073 8.68522835
-4.000028999 -70.23348881 -64.53005065
-2.899942547e-05 -48.89713608 40.01713035
-2.899942547e-05 -13.3950289 -15.62068665
-2.899942547e-05 -94.42472231 -36.03088765
-193.029449 -2.498431138e-05 58.88828735
-2.899942547e-05 -35.73975467 59.43434135
-2.899942547e-05 -38.9012049 -4.41669265
-112.395915 -2.498431138e-05 5.23955635
-2.899942547e-05 -243.6414511 33.83681035
-4.000028999 -170.1346982 23.49503735
-101.143897 -2.498431138e-05 -7.85839565
-2.899942547e-05 -24.9738644 -58.23024665
-2.899942547e-05 -163.8719075 34.67895235
-0.3976269994 -177.8619339 22.41508935
-2.899942547e-05 -43.82448262 18.39743535
-4.000028999 -57.73234699 45.75640135
-4.000028999 -93.37416522 -51.89041665
-132.615485 -2.498431138e-05 -72.99931765
-4.000028999 -51.40214022 -39.52223365
-4.000028999 -129.8728523 -34.59892465
-4.000028999 -38.11023312 16.11920335
-4.000028999 -42.80242425 -26.72176265
-4.000028999 -77.45444798 -29.63018365
-2.899942547e-05 -70.18091536 -57.75070565
-4.000028999 -31.1963711 66.86267735
-4.000028999 -112.8946088 -38.32342565
-2.899942547e-05 -17.95321791 -32.22106465
-4.000028999 -22.11883759 40.39694635
-4.000028999 -30.08143318 -39.40979265
-2.899942547e-05 -39.43063696 5.12900435
-36.37342 -2.498431138e-05 -2.59777365
-164.924919 -2.498431138e-05 54.82219135
-4.000028999 -33.52352151 -67.97959865
-2.899942547e-05 -116.3113969 -60.79542265
-2.899942547e-05 -105.4843751 6.20433335
-2.899942547e-05 -75.25098251 -62.60575265
-6.716291999 -2.498431138e-05 -5.72851765
-2.899942547e-05 -108.0949285 37.80024935
-2.899942547e-05 -197.5692576 14.04209035
-4.000028999 -56.118567 -27.11198865
-2.899942547e-05 -78.59335334 65.99685235
-104.155443 -2.498431138e-05 8.81767035
-2.899942547e-05 -48.54559058 -9.36584865
-2.899942547e-05 -148.8470285 -58.99334265
-2.899942547e-05 -96.03100619 -70.56144465
-4.000028999 -153.5964498 33.65586535
-2.899942547e-05 -73.44044491 22.41982035
-4.000028999 -92.32785896 -30.85008665
-2.899942547e-05 -108.5523136 -31.92972665
-2.899942547e-05 -29.96829266 -70.30289065
-2.899942547e-05 -10.41882324 -28.22726365
-2.899942547e-05 -195.3654252 -27.46955565
-2.899942547e-05 -140.2032358 60.17443935
-4.000028999 -83.16393656 48.87894535
-2.899942547e-05 -85.41963325 25.46555935
-4.000028999 -67.75526582 30.45219735
-4.000028999 -55.25888143 0.3302213504
-4.000028999 -77.39706009 -21.94422665
-4.000028999 -165.2046269 7.27947635
-4.000028999 -37.99701733 -32.99380565
-2.899942547e-05 -214.0849926 27.82456435
-2.899942547e-05 -97.22254738 39.22922835
-82.729435 -2.498431138e-05 6.45013035
-166.964969 -2.498431138e-05 -11.69641965
-2.899942547e-05 -68.91355633 71.28291435
-4.000028999 -35.61471607 -24.90896165
-0.03823999943 -157.7438322 -3.29668165
-4.000028999 -89.45875288 -24.46336365
-4.000028999 -126.790163 -39.74434565
-84.522521 -2.498431138e-05 60.00659135
-4.000028999 -111.5271765 48.10084235
-185.436963 -2.498431138e-05 68.04998535
-2.899942547e-05 -24.71342216 50.30011835
-4.000028999 -52.98419711 -19.41334965
-50.556858 -2.498431138e-05 -1.22143365
-4.000028999 -45.14182407 53.71818435
-2.899942547e-05 -234.0800319 41.60929935
-230.641727 -2.498431138e-05 -33.07225665
-157.260945 -2.498431138e-05 -67.91141265
-215.675311 -2.498431138e-05 19.00244735
-4.000028999 -39.59087677 -13.87699865
-141.056486 -2.498431138e-05 27.72107335
-215.110175 -2.498431138e-05 49.46467235
-2.899942547e-05 -170.7613021 -22.46586665
-4.000028999 -35.66833397 7.60061735
-4.000028999 -106.3849354 53.94387735
-4.000028999 -32.42518606 58.61956035
-128.98859 -2.498431138e-05 23.73490535
-2.899942547e-05 -118.7552721 38.48986135
-4.000028999 -142.3157644 -31.65164965
-2.899942547e-05 -155.9185418 51.91094535
-2.899942547e-05 -29.50640181 19.53463635
-4.000028999 -158.5551402 28.17849635
-187.981256 -2.498431138e-05 -33.63597065
-2.899942547e-05 -78.48648355 -72.80562565
-4.000028999 -132.0413979 31.61096235
-2.899942547e-05 -72.59967702 47.78154935
-52.644306 -2.498431138e-05 70.79645035
-4.000028999 -98.51783205 -50.94862765
-2.899942547e-05 -220.8287303 46.86220335
-4.000028999 -71.60338035 -34.66146965
-2.899942547e-05 -158.2667246 11.43923735
-2.899942547e-05 -160.3583929 -10.77916865
-2.899942547e-05 -214.1344793 21.06327035
-2.899942547e-05 -5.488069624 58.32698035
-4.000028999 -141.1883904 -41.60143465
-2.899942547e-05 -250.1969188 -10.89932465
-195.563943 -2.498431138e-05 2.49672935
-2.899942547e-05 -158.6790663 61.19981735
-4.000028999 -26.49896421 -48.84452765
-4.000028999 -122.5516917 -46.92834965
-133.322135 -2.498431138e-05 66.47673035
-4.000028999 -84.8727017 -61.78960265
-2.899942547e-05 -127.8182987 -31.22472665
-2.899942547e-05 -5.061597674 -37.72026665
-2.899942547e-05 -203.3610224 27.93230235
-2.899942547e-05 -189.3797832 26.76029335
-2.899942547e-05 -65.43597481 24.00172135
-19.385812 -2.498431138e-05 -39.81112065
-2.899942547e-05 -5.440184164 65.86544635
-115.438105 -2.498431138e-05 -7.30233065
-2.899942547e-05 -105.0696126 17.59717435
-246.48751 -2.498431138e-05 55.94480535
-4.000028999 -6.471176474 -52.93528565
-2.899942547e-05 -87.85962679 62.56356435
-2.899942547e-05 -73.08496023 12.83620335
-2.899942547e-05 -99.81660666 13.62808435
-4.000028999 -34.01327949 -1.98745765
-4.000028999 -41.33115838 24.81461335
-2.899942547e-05 -18.98257307 45.16940535
-2.899942547e-05 -169.1210127 -55.16598165
-2.899942547e-05 -204.1793563 -8.57607165
-2.899942547e-05 -102.42205 -17.13315765
-4.000028999 -88.87635297 -17.04103965
-2.899942547e-05 -159.8793183 40.19504535
-2.899942547e-05 -50.88407572 -68.10238165
-2.899942547e-05 -140.2443443 49.74937435
-2.899942547e-05 -29.6463658 -33.05868865
-2.899942547e-05 -15.61740165 54.38593535
-111.376074 -2.498431138e-05 -22.96998765
-4.000028999 -164.2638004 2.13734235
-2.899942547e-05 -205.3927557 -44.66644665
-2.899942547e-05 -129.7275016 -11.31748165
-2.899942547e-05 -71.90858269 -24.62556665
-2.899942547e-05 -64.46077654 50.49265435
-2.899942547e-05 -137.5959709 69.81236135
-4.000028999 -60.91968194 71.03176835
-4.000028999 -67.42120547 15.91286635
-2.899942547e-05 -50.51799849 52.24202235
-192.27544 -2.498431138e-05 -65.99244865
-37.634648 -2.498431138e-05 -49.82243465
-160.68364 -2.498431138e-05 20.20412735
-3.382837999 -179.6781779 18.04072135
-216.02657 -2.498431138e-05 -50.81015165
-4.000028999 -36.61526404 70.28038135
-2.899942547e-05 -160.5631711 -17.04226165
-2.899942547e-05 -50.95277282 24.77402535
-91.185105 -2.498431138e-05 70.32319135
-73.579921 -2.498431138e-05 -38.42396765
-2.899942547e-05 -25.12334342 72.75204635
-178.965642 -2.498431138e-05 56.73747235
-2.899942547e-05 -77.65831876 60.21711635
-2.899942547e-05 -81.47116472 -19.10282165
-2.899942547e-05 -84.52619116 -70.37497965
-4.000028999 -149.3004948 45.52819035
-2.899942547e-05 -73.8634836 72.54774335
-2.899942547e-05 -66.44143979 60.27129835
-2.899942547e-05 -79.62626545 30.14356335
-2.899942547e-05 -167.9902517 -17.22003065
-4.000028999 -48.00649531 70.25952635
-2.899942547e-05 -69.9273691 28.15216335
-4.000028999 -12.46412431 72.71058035
-4.000028999 -76.64852589 -39.41824265
-170.226498 -2.498431138e-05 -65.93049665
-22.506717 -2.498431138e-05 26.46773735
-142.285134 -2.498431138e-05 -66.09029765
-4.000028999 -66.1570983 -70.12126765
-4.000028999 -113.2681854 54.78397335
-4.000028999 -99.03284922 53.76102735
-137.577931 -2.498431138e-05 49.19089335
-4.000028999 -167.3429639 -21.06756165
-119.756587 -2.498431138e-05 -52.42617565
-4.000028999 -81.32791284 23.84121035
-4.000028999 -86.5851768 54.08552935
-2.899942547e-05 -37.94060105 43.41147235
-4.000028999 -39.55057088 -7.46981865
-4.000028999 -55.58052189 -55.91324665
-4.000028999 -15.08508766 57.80773935
-4.000028999 -85.77182994 -44.69997665
-87.677932 -2.498431138e-05 -65.60857965
-4.000028999 -37.67033986 21.16963435
-2.899942547e-05 -149.154895 42.07748735
-4.000028999 -36.49449511 -73.09241465
-4.000028999 -95.29494468 7.49196835
-4.000028999 -20.13601147 69.03009935
-2.972588999 -103.9373477 -7.08353465
-4.000028999 -79.61508432 -43.50701465
-3.465674999 -115.4364033 -22.94877165
-4.000028999 -110.3976426 -56.42290065
-224.296773 -2.498431138e-05 8.41655735
-69.754998 -2.498431138e-05 6.97905035
-2.899942547e-05 -147.2771406 -34.18770665
-35.255787 -2.498431138e-05 -45.29822365
-132.932836 -2.498431138e-05 34.78163135
-4.000028999 -171.0699855 9.92887835
-2.899942547e-05 -146.2114618 68.77089635
-2.899942547e-05 -122.819482 -14.28693265
-4.000028999 -94.15301615 -17.12313965
-2.899942547e-05 -60.41590642 -58.22884465
-183.134594 -2.498431138e-05 5.72993235
-2.899942547e-05 -228.2328769 -5.87317465
-105.448066 1.936462886 28.96531635
-4.000028999 -171.3261922 -12.87284665
-89.99545 -2.498431138e-05 -58.16085065
-92.887784 -2.498431138e-05 0.08041635041
-4.000028999 -15.6530264 51.17254635
-4.000028999 -23.63497071 -71.49756465
-2.899942547e-05 -151.5245624 -29.69381865
