# .PCD v0.7 - Point Cloud Data file format
VERSION 0.7
FIELDS x y z
SIZE 4 4 4
TYPE F F F
COUNT 1 1 1
WIDTH 1202
HEIGHT 1
VIEWPOINT 0 0 0 1 0 0 0
POINTS 1202
DATA ascii
236.0498886 -3.551834694 -145.2500974
205.6381176 -2.498441438e-05 -39.10543839
31.68171064 -2.498441438e-05 -68.56057939
100.8410626 -85.56295519 148.7499026
181.3433456 -2.498441438e-05 122.1211306
225.0802726 -2.498441438e-05 -68.66436339
51.63416764 -54.38006453 -145.2500974
210.5427336 -66.46554197 -139.2500974
0.0002636412501 -64.17879895 121.8616366
119.1561476 -2.498441438e-05 94.98342961
0.0002636412501 -54.97139478 -98.36479039
9.673594641 -114.861588 148.7499026
116.4984036 -2.498441438e-05 -138.7494084
212.6631666 -2.498441438e-05 33.90884661
245.4540496 -6.385732854 -139.2500974
0.0002636412501 -42.07958577 -109.7847614
121.2583916 -53.21529965 148.7499026
107.1248806 -2.498441438e-05 134.9219236
153.8424766 -61.93822656 148.7499026
59.47913064 -32.83977232 -145.2500974
130.6851096 -55.3001067 -139.2500974
0.0002636412501 -41.25723828 -24.82064639
133.2141116 -2.498441438e-05 1.522173614
0.0002636412501 -58.69381071 15.26339361
31.75498464 -2.498441438e-05 46.45742361
189.1531886 -2.498441438e-05 89.85929861
233.0604986 -2.498441438e-05 100.8307206
203.0603446 -2.498441438e-05 139.6294816
226.2679156 -56.14404636 -145.2500974
228.5345756 -2.498441438e-05 -34.18350239
176.6972096 -63.61199521 148.7499026
0.0002636412501 -10.74517121 -13.91758439
105.7485456 -2.498441438e-05 -84.97128039
117.8368776 -2.498441438e-05 80.61309761
56.78118364 -2.498441438e-05 112.0191236
153.9422476 -36.2330238 -145.2500974
159.3959916 -2.498441438e-05 -122.3849114
138.6960416 -22.83182707 -139.2500974
100.7869686 -2.498441438e-05 -24.14535839
0.0002636412501 -47.3066952 -81.48593139
90.94982464 -2.498441438e-05 100.1410736
188.2446646 -2.498441438e-05 -83.60388639
141.9751696 -63.18574806 -139.2500974
0.0002636412501 -6.656099214 1.376181614
249.1709346 -2.498441438e-05 14.57222761
11.43409064 -2.498441438e-05 93.32935261
210.4441256 -2.498441438e-05 -106.3173784
98.51012264 -30.5749679 148.7499026
0.8089066413 -2.498441438e-05 61.64970261
0.0002636412501 -76.29717901 59.63904461
145.0236776 -2.498441438e-05 -126.8004494
-1.525776359 -38.53271295 -139.2500974
0.0002636412501 -12.72592271 -62.10192639
165.2038516 -11.41528969 148.7499026
184.2475796 1.959377546 148.7499026
175.9603226 -56.55270214 -139.2500974
92.09894464 -100.7611181 148.7499026
132.1246856 -2.498441438e-05 117.5266286
121.7780906 -2.498441438e-05 69.07525861
0.0002636412501 -51.02478784 -48.33644239
55.98136064 -2.498441438e-05 31.28788161
116.2713686 -68.00002402 -140.0756764
17.36637364 -2.498441438e-05 -51.69359339
82.47856364 -106.7419947 148.7499026
100.7130336 -2.498441438e-05 -44.64617439
89.90279564 -56.65118924 -139.2500974
90.07678164 -88.35044006 148.7499026
149.9104166 -2.498441438e-05 -59.21639639
90.85574264 -34.16876438 -145.2500974
0.0002636412501 -22.46332327 5.565146614
209.7385006 -46.46650665 148.7499026
105.1120826 -2.498441438e-05 4.623349614
129.2694476 -2.498441438e-05 -63.62858539
0.0002636412501 -24.01391402 73.27097061
108.2863536 -2.498441438e-05 98.94591761
18.07426064 -2.498441438e-05 0.6268266141
75.02703764 -65.29698355 -139.2500974
26.13274264 1.347341516 148.7499026
0.0002636412501 -22.0183116 -36.46007539
161.8323216 -2.498441438e-05 138.2360376
70.53354464 -43.72320687 -145.2500974
210.5908476 -5.698607694 -139.2500974
8.108823641 -2.498441438e-05 -121.3898844
83.59396064 -72.10269785 148.7499026
160.2004686 -2.498441438e-05 -133.7602834
67.77366564 -2.498441438e-05 36.13019961
235.0110566 -27.05991805 -139.2500974
45.11491564 -2.498441438e-05 -113.1653714
134.4297886 -2.498441438e-05 69.42273261
188.8857616 -2.498441438e-05 105.1297656
190.5749236 -7.247555244 -139.2500974
77.16869164 -2.498441438e-05 115.1684176
153.9458486 -2.498441438e-05 -25.46433539
169.7949226 -2.498441438e-05 112.5839826
0.0002636412501 -31.65184875 -59.59274939
215.6505526 -59.32368152 -145.2500974
74.44341364 -14.11885549 148.7499026
238.7898716 -2.498441438e-05 -4.016120386
0.0002636412501 -19.88190332 91.24203161
131.2500606 -2.498441438e-05 -86.77772439
121.4764356 -21.34256921 148.7499026
151.9160426 -2.498441438e-05 -76.40810239
191.6519916 -2.498441438e-05 -24.98556439
119.9540366 -9.271012164 148.7499026
92.09109164 -16.62440567 148.7499026
151.2662116 -35.46385918 148.7499026
32.45475964 -101.138206 148.7499026
193.1047186 -2.498441438e-05 78.73786261
55.51537664 -30.38925153 148.7499026
76.07461764 -24.19493248 -139.2500974
164.4745466 -2.498441438e-05 -58.07754939
225.3564376 -2.498441438e-05 84.59344461
34.19252864 -20.66960712 -139.2500974
251.7064476 0.9199492756 148.7499026
68.78913364 -34.42860009 -139.2500974
10.90934664 -66.47845295 148.7499026
50.31536964 -2.498441438e-05 7.173031614
92.66285164 -2.834714024 -145.2500974
76.21486764 -86.67190247 148.7499026
77.46969264 -2.498441438e-05 -15.90005139
71.63982064 -105.6674682 148.7499026
186.0697936 -2.498441438e-05 -102.2237434
52.04183064 -2.498441438e-05 64.48450361
133.5262596 -32.41956686 -139.2500974
103.2607716 -2.498441438e-05 58.44473461
151.1560696 -2.498441438e-05 7.815012614
106.0963446 -2.498441438e-05 -105.3634604
169.2563786 -2.498441438e-05 -117.7513654
93.52476464 -2.498441438e-05 89.16796161
119.7907116 -2.498441438e-05 -123.1050604
39.77408664 -34.27861381 148.7499026
137.0393936 -2.498441438e-05 102.8688856
225.5713186 -2.498441438e-05 -120.5940634
149.7147336 -57.99419876 -145.2500974
106.4607826 -44.77246923 -145.2500974
0.0002636412501 -5.299954304 119.7023316
225.5854556 -41.79331649 -145.2500974
20.37627964 -32.44159213 148.7499026
73.49045764 -2.498441438e-05 136.8649526
229.7246736 -2.498441438e-05 -22.13968839
133.1504716 -2.498441438e-05 59.26955161
0.0002636412501 -9.683802024 -40.80779239
31.44586564 -2.498441438e-05 -18.31672139
178.7542896 -22.36626492 148.7499026
38.71432764 -39.72419273 -145.2500974
0.0002636412501 -52.25292619 113.5481886
164.5004456 -2.498441438e-05 66.83124461
0.0002636412501 -5.175488264 100.8004286
35.63327164 -2.498441438e-05 -99.15573039
0.0002636412501 -48.44971597 72.52757561
234.1615336 -37.38248518 148.7499026
120.4940146 -85.50696412 151.7837556
73.53601464 -2.498441438e-05 -121.9284414
114.7802676 -26.62519514 -139.2500974
51.63378564 -73.20893869 148.7499026
42.39540064 -2.498441438e-05 22.92530761
100.4382386 -11.39482208 148.7499026
133.5966186 -2.498441438e-05 -102.0665004
133.5072996 -70.84940644 148.7499026
188.4366786 -2.498441438e-05 -14.66984139
190.3856036 -34.02795258 -139.2500974
32.54686264 -2.498441438e-05 -130.0568344
142.2833656 -2.498441438e-05 -45.97875139
51.00763664 -2.498441438e-05 -50.78008839
58.20566264 -23.19091287 -139.2500974
211.0483426 -2.498441438e-05 52.61330961
0.0002636412501 -6.189681324 43.11102261
191.2047166 -8.398280194 148.7499026
172.7905686 -39.81027619 -145.2500974
5.141602641 -2.498441438e-05 -54.80093239
240.8454256 -2.498441438e-05 -27.43560439
0.0002636412501 -31.46750515 100.5830106
106.3621226 -31.10891453 -145.2500974
5.689567641 -55.61263933 -145.2500974
211.7825986 -2.498441438e-05 10.82822661
243.9863756 -2.498441438e-05 110.9418136
209.9329546 -2.498441438e-05 95.99400161
102.4769996 -59.64790545 -145.2500974
0.0002636412501 -11.41595514 9.794917614
0.0002636412501 -21.02691035 -16.53904039
0.0002636412501 -97.38173009 138.7770456
41.72667364 -83.22620273 148.7499026
7.691669641 0.9146682856 148.7499026
0.0002636412501 -56.40852802 54.77894961
5.946068641 -43.05564835 -145.2500974
54.13733864 -114.7139465 148.7499026
37.69247664 -2.498441438e-05 117.9613506
52.62081164 -16.60832153 148.7499026
8.728788641 -45.35873566 148.7499026
143.6686476 -2.498441438e-05 124.0460806
44.84728864 0.7995189256 -145.2500974
104.7996896 -53.62139333 148.7499026
6.079844641 -2.498441438e-05 19.11466361
171.5706566 -2.498441438e-05 77.62231361
82.67953864 -2.498441438e-05 -132.0566844
0.0002636412501 -53.82095704 -72.96063839
97.55039864 -27.16280908 -139.2500974
8.411050641 -2.498441438e-05 70.46153661
213.3949316 -2.498441438e-05 76.74966261
218.6599346 -67.09631834 148.7499026
84.35614364 -2.498441438e-05 44.00570661
175.2291136 -6.124065284 148.7499026
-0.5039173587 -14.57562917 137.5740896
241.8563866 -2.498441438e-05 139.5023246
15.17398464 -8.579716044 -139.2500974
242.6283636 -14.43299314 148.7499026
0.0002636412501 -28.71541836 -134.1843064
13.34087964 -2.498441438e-05 133.9879536
9.038999641 -67.51675382 -139.2500974
173.1947046 -2.498441438e-05 -136.3555974
198.8640536 -2.498441438e-05 23.94519261
193.0297116 -48.40769244 148.7499026
174.4300326 -2.498441438e-05 103.1899106
31.65297664 -39.08469298 148.7499026
214.8543826 -2.498441438e-05 66.09236661
59.75874764 -8.287955224 -139.2500974
64.20075164 -2.498441438e-05 -86.86404839
236.3703886 -59.90102584 -139.2500974
144.0912776 -2.498441438e-05 22.43380761
186.3031726 -25.77940066 -145.2500974
16.30207464 -2.498441438e-05 -98.65049539
74.02227464 -2.498441438e-05 43.09163461
16.29062764 -23.16305209 148.7499026
203.1197276 -2.498441438e-05 -124.1579474
157.3706706 -0.7159395244 -145.2500974
0.0002636412501 -5.127630754 -86.48841839
209.4056296 -6.882193214 148.7499026
212.5237156 -2.498441438e-05 -31.16062439
85.87926864 -66.92754874 -139.2500974
0.0002636412501 -60.69779291 -41.66807339
152.5920166 -17.90528097 -145.2500974
170.9734186 -2.498441438e-05 -64.69162639
161.4058786 -48.84910238 -139.2500974
0.0002636412501 -9.026096014 59.70880161
121.9955326 -58.5109214 -139.2500974
57.27021964 -64.48974748 -139.2500974
55.00544064 -42.28865419 148.7499026
0.0002636412501 -31.34464131 12.14790061
0.0002636412501 -76.93258429 124.5510336
21.68402964 -36.9362912 -139.2500974
109.9281756 -2.498441438e-05 -64.47736139
0.0002636412501 -29.54587993 -91.51310339
108.4772476 -9.951480774 -139.2500974
0.0002636412501 -8.592762984 -134.7241774
173.7102866 -2.498441438e-05 55.18233861
102.4893106 -2.498441438e-05 34.44324661
40.22693564 -124.3940968 148.7499026
0.0002636412501 -46.39101014 38.40954861
0.0002636412501 -44.35053289 -119.1832914
0.0002636412501 -35.41519379 120.9835306
249.4233076 -45.83614037 148.7499026
16.34582064 -2.498441438e-05 -131.8843804
94.38573864 -21.007898 -145.2500974
0.0002636412501 -67.6371918 95.98338561
115.9051246 -2.498441438e-05 -88.89721539
0.0002636412501 -39.92413473 -3.979466386
189.2970716 -57.04127338 148.7499026
58.07878964 -47.76066456 -145.2500974
206.0855666 -2.498441438e-05 -58.65851039
239.9186196 -19.02025739 -139.2500974
230.1997306 -2.498441438e-05 49.11670861
218.1874146 -2.498441438e-05 -51.31425939
54.31067864 -2.498441438e-05 -130.3414384
191.0362916 -2.498441438e-05 33.10832761
121.4227866 -2.498441438e-05 114.2544986
216.5117786 -2.498441438e-05 86.50329161
19.60057664 -2.498441438e-05 31.41590861
108.6609906 -97.34002067 153.9353816
83.32695264 -2.498441438e-05 -91.01633639
0.0002636412501 -64.80617051 45.66850161
174.2237156 1.126027646 -145.2500974
215.9162586 -2.498441438e-05 129.1289316
46.92084164 -2.498441438e-05 83.32402761
0.0002636412501 -8.817483354 -104.7712814
0.0002636412501 -2.706527014 -9.848515386
228.4289386 -25.70781344 -145.2500974
172.6074196 -2.498441438e-05 -99.94957839
23.85514364 -2.498441438e-05 -111.2953164
250.6003426 -2.498441438e-05 -108.4383084
182.0324026 -2.498441438e-05 -138.0288914
243.9725116 -54.39044853 148.7499026
24.68601664 -2.498441438e-05 -46.47622939
142.6070236 -60.75278847 148.7499026
201.5066806 -20.20761353 -139.2500974
45.96856464 -2.498441438e-05 -80.00269939
100.0864776 -3.507696884 -139.2500974
-0.3650023587 -109.1678263 109.7690756
64.36394864 -2.498441438e-05 -32.60557039
0.0002636412501 -80.16685402 23.53239061
0.0002636412501 -90.13257237 68.26074061
117.0481716 -2.498441438e-05 -7.675551386
0.0002636412501 -71.69944747 17.66509861
82.75569064 -40.79412276 -139.2500974
238.4911136 -2.498441438e-05 -51.37690239
65.65806164 -16.51368159 -139.2500974
239.1763536 -2.498441438e-05 -86.40113039
57.00274164 -97.91898094 149.6632166
246.5553226 -2.498441438e-05 -42.73954839
61.32323464 1.954366916 -139.2500974
156.9447726 -68.00002402 154.4046776
66.41664764 -126.9365119 148.7499026
10.42458264 -2.498441438e-05 6.605393614
0.0002636412501 -29.57590992 -42.63878239
0.0002636412501 -61.88838868 139.3503206
252.1598746 -33.07815525 -139.2500974
55.76053764 -2.498441438e-05 -74.77281339
144.1124686 -2.498441438e-05 -37.06092939
120.8714246 -21.57306924 -145.2500974
179.7892006 -2.498441438e-05 -81.14902839
149.4639866 -44.97558005 148.7499026
149.8238466 -2.498441438e-05 50.56624961
48.79942264 1.771261476 -35.07805039
102.1779096 -2.498441438e-05 -60.33191139
0.0002636412501 -106.1663265 138.6630506
0.0002636412501 -5.400906714 81.87101761
232.4245956 -8.770371624 -139.2500974
170.9637866 -2.498441438e-05 -28.67994639
166.4241796 -59.32462752 148.7499026
49.66502964 1.798943486 -23.74231939
2.744287641 1.766020826 -139.2500974
16.53730164 -2.498441438e-05 21.72276761
200.5568456 -2.498441438e-05 -5.149998386
249.8556096 -22.96580983 -139.2500974
87.90593564 -14.28641866 -139.2500974
53.91686764 -2.498441438e-05 -110.5925994
0.0002636412501 -24.51067961 -83.99386639
0.0002636412501 -92.34357771 108.2057006
84.78574364 -121.2153343 149.8551066
131.1426736 -21.35597627 -145.2500974
99.01729764 -21.93386432 148.7499026
6.372398641 -2.498441438e-05 -40.77204739
165.1148886 -27.27125367 -139.2500974
0.0002636412501 -12.1527618 23.95149461
82.26650164 -52.75507149 -145.2500974
114.4574006 -2.498441438e-05 56.01232061
199.3562706 -59.71153708 -139.2500974
73.39110064 -2.498441438e-05 -75.18068939
198.9358906 -25.82250425 -145.2500974
249.5946616 -2.498441438e-05 42.29267961
203.6982956 -43.03727218 -139.2500974
179.1993346 -2.498441438e-05 133.4431366
206.3641766 -59.34693534 148.7499026
157.8373366 -2.498441438e-05 -96.09136839
141.6380956 -2.498441438e-05 41.29807961
48.90226664 -2.498441438e-05 -89.17846139
100.6147286 -2.498441438e-05 -2.651017386
133.9091906 -2.498441438e-05 -8.045694386
195.5291666 -2.498441438e-05 -128.9095564
239.5917416 -2.498441438e-05 94.08311461
173.1324976 -2.498441438e-05 -5.293865386
76.79891764 -78.14633941 148.7499026
0.0002636412501 -10.09241677 74.05107961
40.54359164 -2.498441438e-05 42.92653161
45.27773164 -31.72284616 -145.2500974
34.58830564 -2.498441438e-05 17.76924261
63.91669964 -2.498441438e-05 12.49313861
151.4620346 -9.753830814 -139.2500974
0.0002636412501 -83.84522867 108.6935046
119.1589206 -34.91769218 -145.2500974
67.09309564 -2.498441438e-05 -114.8167054
49.46195764 -108.3481951 154.1558876
38.27571564 -18.97951171 148.7499026
0.0002636412501 -26.55525231 130.0771966
0.0002636412501 -64.95389898 9.521759614
151.6206286 -2.498441438e-05 16.29633061
0.0002636412501 -25.5914076 -116.4381284
90.75448864 -2.498441438e-05 -45.27588339
51.70241664 -2.498441438e-05 48.22208061
177.9666856 -68.00002402 -139.8099954
230.6837336 -2.498441438e-05 70.49202761
152.6594926 -2.498441438e-05 -16.40030539
75.13147864 -2.498441438e-05 60.25469361
41.15268764 -2.498441438e-05 91.26445761
50.65374064 2.174654596 148.7499026
65.82348364 -2.498441438e-05 87.55929061
0.0002636412501 -16.8209596 -120.8797194
155.8135776 -2.498441438e-05 -114.7219224
173.2906476 -25.23256422 -139.2500974
150.9933726 -2.905905774 148.7499026
-1.980694359 -2.498441438e-05 -127.3008974
79.93727164 -2.498441438e-05 98.34668861
71.79193364 -2.498441438e-05 -66.16800539
126.2047566 -46.66470414 -139.2500974
0.0002636412501 -10.52040484 50.30562161
161.4444336 -68.00002402 -142.7060494
16.09625564 -75.15399161 148.7499026
126.9256706 -7.980226044 -145.2500974
0.0002636412501 -57.23495443 71.58122861
189.1732806 -2.498441438e-05 139.8909666
190.8802786 -2.498441438e-05 -119.8729704
24.43670364 -124.0631457 148.7499026
0.0002636412501 -51.55376814 100.7767696
23.92478464 -2.498441438e-05 83.31491761
144.8272426 -46.75458527 -145.2500974
22.86264064 -50.64755414 -145.2500974
179.8194696 -2.498441438e-05 -48.68893339
0.0002636412501 -63.62538551 24.68698761
0.0002636412501 -94.44532158 121.7543966
52.18840164 -2.498441438e-05 105.0548316
0.0002636412501 -36.2593039 107.9606326
0.0002636412501 -51.15217326 -125.7617864
27.18824164 -6.911009074 148.7499026
224.3858576 -2.498441438e-05 65.06154961
76.48948564 -2.498441438e-05 -48.63885939
241.5988926 -2.498441438e-05 85.58054161
54.56025764 -2.498441438e-05 -11.07600039
31.99204564 -4.982865154 -139.2500974
0.0002636412501 -70.6778782 142.4820746
161.1349706 -2.498441438e-05 4.141617614
43.03815664 -22.37123113 -145.2500974
25.72929264 -2.498441438e-05 -36.59224639
252.1279846 -11.5831346 -139.2500974
185.7014406 -13.91826108 -139.2500974
33.51699664 -2.498441438e-05 73.96494761
228.7503376 -2.498441438e-05 92.11767261
22.25147864 -2.498441438e-05 49.00856761
241.0867076 -2.498441438e-05 16.21027361
66.79658864 -56.75403898 -145.2500974
231.9999266 -2.498441438e-05 -9.165368386
170.6393666 -59.31144475 -145.2500974
129.5386906 -2.498441438e-05 136.3214606
0.9188386413 -60.22040312 -139.2500974
192.9773986 -2.498441438e-05 12.39191261
241.8027466 -61.32371519 -145.2500974
64.94826464 -2.498441438e-05 28.42031761
69.96444664 -2.498441438e-05 145.8776346
0.0002636412501 -86.90996673 45.16643561
-0.1820963587 -21.13331263 -145.2500974
114.7780106 -2.498441438e-05 145.8642216
75.91401564 -2.498441438e-05 -114.0860584
0.0002636412501 -41.52482876 -42.32986239
140.5694946 -36.96700988 -145.2500974
78.44335564 -2.498441438e-05 77.18720661
96.36292964 1.686697856 148.7499026
39.18085164 -2.498441438e-05 61.87207161
76.02365964 -44.70548356 148.7499026
250.4188516 -2.498441438e-05 -132.5516704
134.4056526 -55.0942482 148.7499026
21.43244864 -2.498441438e-05 67.19035961
0.0002636412501 -48.98458276 -4.412453386
134.1019236 -2.498441438e-05 23.24114661
70.04676264 2.324870386 -139.2500974
237.8600976 -31.90456205 -145.2500974
5.690335641 -2.498441438e-05 -74.95106839
252.1970976 -39.18002263 -145.2500974
211.1821006 -2.498441438e-05 -98.22914539
0.0002636412501 -47.19974251 -55.92065639
116.2647966 -69.59704929 148.7499026
136.1425056 -2.498441438e-05 85.40570661
121.7875006 -2.498441438e-05 -28.71450639
0.0002636412501 -74.04327361 34.37488161
0.0002636412501 -39.89263365 48.18371461
225.7337806 -2.498441438e-05 136.2998826
165.5245806 -2.645328604 -139.2500974
48.19862864 -2.498441438e-05 29.08884361
144.6042006 -20.69826008 -145.2500974
65.11862464 -56.70945671 148.7499026
211.4240266 -2.498441438e-05 -122.9547804
79.37049364 -2.498441438e-05 -34.59729139
27.20339964 -62.33379188 -145.2500974
74.98034664 -2.498441438e-05 -91.43412839
250.2760856 -58.50637278 -145.2500974
0.0002636412501 -44.64905562 19.70526561
218.3774276 -2.498441438e-05 -137.1570474
5.806201641 -2.498441438e-05 -32.71894739
124.4646406 -68.00002402 -142.0637644
50.69222464 -2.498441438e-05 117.2646926
136.1448306 -7.555366594 -139.2500974
251.0317766 -2.498441438e-05 107.0997986
50.21400364 -17.42063365 -145.2500974
110.4741156 -55.18909722 -139.2500974
184.0877666 -2.498441438e-05 -4.412526386
62.82872564 -47.21899359 148.7499026
49.61253364 -2.498441438e-05 131.7710636
0.0002636412501 -25.14392562 -73.26830939
86.23128064 -19.32206825 -145.2500974
128.6982946 -2.498441438e-05 -95.74156039
191.5436896 -13.57621303 -145.2500974
92.16839164 -53.51944846 148.7499026
130.7606736 0.8945961056 -139.2500974
0.0002636412501 -32.42189843 -18.69324339
98.88662564 -2.498441438e-05 100.8749356
88.07271764 -2.498441438e-05 107.5714126
0.0002636412501 -46.69434339 58.45368161
21.16931564 -2.498441438e-05 -81.32876339
40.02066464 -2.498441438e-05 131.0938966
60.49483864 -2.498441438e-05 69.60301961
96.33633064 -107.9979603 148.7499026
107.9959576 -70.52415663 148.7499026
187.6192556 -2.498441438e-05 115.2025976
30.30260764 -2.498441438e-05 128.9511336
35.61365264 -52.09115824 -145.2500974
87.36998964 -61.21124273 -145.2500974
27.91642964 -2.498441438e-05 32.18757961
5.797974641 -2.498441438e-05 86.00105061
160.0695276 -2.498441438e-05 22.42877061
200.0241696 -47.01291712 -145.2500974
1.914126641 -108.7599084 148.7499026
85.63304264 -6.483510834 -145.2500974
160.5331806 -17.80938356 148.7499026
13.99135164 -2.498441438e-05 -86.01901839
198.1698756 -12.15969146 148.7499026
87.11253464 -2.498441438e-05 62.66965261
62.64398664 -3.010765274 -145.2500974
211.9996876 -2.498441438e-05 104.5530086
218.1304406 -2.498441438e-05 -104.5982034
0.0002636412501 -45.32012187 139.8992706
114.7266216 -2.498441438e-05 -108.2440194
83.19957464 -2.498441438e-05 -43.09962039
201.6995866 -49.06151398 148.7499026
15.43219964 -2.498441438e-05 124.2959566
67.18256264 -2.498441438e-05 -5.544554386
21.73729264 -2.498441438e-05 141.1687576
159.9364136 -42.0723225 148.7499026
15.91199864 -32.78509532 -145.2500974
90.89123364 -50.87684876 -145.2500974
0.0002636412501 -12.94847377 101.6960276
131.5157366 -2.498441438e-05 33.40427861
0.0002636412501 -22.31994874 111.5238506
86.52608864 -2.498441438e-05 -30.17629339
0.0002636412501 -27.13813664 -52.97212239
191.2018676 -44.47043844 -145.2500974
227.7106466 -6.878936504 148.7499026
177.3211226 -2.498441438e-05 39.57696161
231.2765266 -20.24585877 -139.2500974
0.0002636412501 -100.082747 96.04142361
0.0002636412501 -23.46049293 43.85517961
241.0828166 -2.498441438e-05 -76.61936539
157.5234726 -2.498441438e-05 -103.8423034
141.9822436 -1.542790524 -145.2500974
53.12612364 -2.498441438e-05 -98.90113639
165.6234036 -2.498441438e-05 -96.58970939
0.0002636412501 -7.377616694 -115.6213874
124.7011566 -33.15670262 -139.2500974
33.59470664 -2.498441438e-05 -48.20622139
52.30084564 -44.71175519 -139.2500974
199.5234206 -2.498441438e-05 -91.53994739
153.5044616 -2.498441438e-05 82.08080161
221.1741776 -28.77876846 -139.2500974
220.4898396 -17.81741533 -139.2500974
0.0002636412501 -27.13324231 20.63100761
0.0002636412501 -32.98870238 93.01583761
19.07935764 -53.12731375 152.1801836
10.13678664 -107.1592944 148.7499026
122.6118976 -4.663159774 -139.2500974
173.5704746 -2.498441438e-05 -39.77429139
156.1351296 -2.498441438e-05 90.76109561
192.7478306 -40.71701289 148.7499026
129.3411256 -27.62834319 148.7499026
204.4253026 -2.498441438e-05 132.0622386
211.1836536 -24.70577636 -145.2500974
62.62262964 -2.498441438e-05 77.50781661
213.6768726 -2.498441438e-05 115.8987736
0.0002636412501 -68.31288883 1.498031614
0.0002636412501 -38.14153991 -101.2972774
232.4542446 -2.498441438e-05 108.4696716
0.0002636412501 -71.9042944 77.70212561
200.7692416 -2.498441438e-05 72.41275461
60.44350564 -2.498441438e-05 53.57179661
90.55881064 -68.92807434 148.7499026
183.9656926 -47.17717108 148.7499026
18.58870064 0.2859653856 -139.2500974
246.5982456 -42.88031759 -139.2500974
169.1733746 -5.651799184 -145.2500974
107.3998526 -2.498441438e-05 123.9112016
239.3566256 -2.498441438e-05 47.11391361
231.4739076 -2.498441438e-05 -125.4359164
25.69289064 -88.83726531 154.3767606
3.499710641 -57.37152103 148.7499026
0.0002636412501 -2.730441594 -26.68402739
187.6907906 -56.04649067 -139.2500974
178.2722846 -32.2092546 -145.2500974
245.4667686 -2.498441438e-05 -64.31225339
120.3454196 -39.46839715 -139.2500974
218.4574556 -39.09444458 -145.2500974
85.86676964 -2.498441438e-05 55.03815861
165.4874486 -2.498441438e-05 31.83849061
197.0925346 -30.1215773 -139.2500974
0.0002636412501 -65.59973415 -7.874074386
52.30299664 -28.81305553 -145.2500974
0.0002636412501 -51.08436763 82.33845361
20.80775264 -2.498441438e-05 -22.98142339
76.95145564 -6.779912814 -145.2500974
73.96046464 -57.43980195 148.7499026
0.0002636412501 -84.17875673 99.18511361
152.9779406 -18.51225372 148.7499026
144.9753956 -9.050872704 148.7499026
56.19321064 0.1218155756 -34.65944839
29.15943364 -113.0637119 148.7499026
188.5711326 -2.498441438e-05 -65.12051739
80.62177964 -18.13786377 -139.2500974
8.829255641 -2.498441438e-05 -97.42344839
173.5924966 -2.498441438e-05 -16.89894139
91.20009664 -7.213773554 -139.2500974
40.69145064 -2.498441438e-05 -131.2582414
223.5927656 -55.88752959 148.7499026
68.33419564 -86.2521403 148.7499026
91.66501964 -2.498441438e-05 124.7437896
7.648221641 -12.06616038 -139.2500974
0.0002636412501 -0.1618448444 -44.81024739
225.8752186 -2.498441438e-05 24.11205061
17.71249564 -62.29706157 -139.2500974
187.0011206 -2.498441438e-05 97.84910461
136.9446186 -2.498441438e-05 -40.68488039
0.0002636412501 -36.33603917 -131.3277484
0.0002636412501 -73.31195024 104.9107236
187.2726626 -68.00002402 152.3165296
78.21101164 -2.498441438e-05 -101.2433114
162.8906836 -32.77813294 -145.2500974
140.1283886 -13.90442529 -139.2500974
15.80767064 -2.498441438e-05 -8.441826386
140.1616326 -2.498441438e-05 -114.6937424
0.0002636412501 -16.88819815 123.0058856
103.6214266 -2.498441438e-05 70.43397161
3.382235641 -124.9225987 148.7499026
61.58062664 -115.4426061 148.7499026
154.4402946 -28.22114004 -145.2500974
84.19663564 -2.498441438e-05 145.3141766
43.03189064 -40.80987219 -139.2500974
83.87449564 -64.63816946 148.7499026
176.8591606 -2.498441438e-05 -119.0742824
78.89093664 -27.63776546 -145.2500974
38.68002364 -2.498441438e-05 -76.63028239
29.09334264 -60.17189472 148.7499026
46.08920964 -133.000025 149.3518346
130.3806626 -2.498441438e-05 145.5775476
248.7449566 -2.498441438e-05 -12.39755839
28.46859964 -2.498441438e-05 104.9388226
43.51379264 -10.89241389 -145.2500974
180.9566156 -2.498441438e-05 17.67472361
206.8469336 -35.57949855 -139.2500974
0.0002636412501 -54.85027545 -54.72445339
59.21212064 -125.0656308 148.7499026
42.01458964 -2.498441438e-05 100.6300436
58.73664864 -60.35260237 -145.2500974
4.555548641 -2.498441438e-05 97.00691361
180.5607416 -2.498441438e-05 83.56539461
124.5716486 -67.16106295 148.7499026
145.2007866 -2.498441438e-05 -64.94294139
99.46401764 -2.498441438e-05 117.2237026
189.4435646 -2.498441438e-05 55.84121261
0.0002636412501 -61.13064887 -1.965788386
172.4701666 -2.498441438e-05 119.6152376
25.45859364 -2.498441438e-05 25.20110761
146.9331776 -24.4779132 -139.2500974
211.6169326 -49.29319034 -145.2500974
-1.772591359 -35.27231766 147.2499026
75.64105164 -31.67182122 -139.2500974
179.0996896 -2.498441438e-05 -104.6364714
6.833279641 -4.367574504 -139.2500974
235.2508506 -40.85078252 -145.2500974
113.5535786 -2.498441438e-05 -99.97862239
31.48741664 -132.4930021 148.7499026
108.0174826 -2.498441438e-05 -32.99582739
172.7267756 -2.498441438e-05 -91.10468439
0.0002636412501 -41.00347556 -33.19056439
123.9877136 -2.498441438e-05 -87.96678039
112.8012026 -6.804190414 148.7499026
3.542256641 -2.498441438e-05 41.32608761
107.1118626 -2.498441438e-05 111.1449206
251.3698856 -29.14123824 148.7499026
28.10241464 -41.67933383 -139.2500974
125.0222456 -2.498441438e-05 -4.653404386
113.5401646 -2.498441438e-05 4.046714614
-0.3078263587 -58.16739463 -78.85518039
55.61764364 -5.094045214 -145.2500974
0.0002636412501 -9.822991454 -5.223101386
217.9687216 -2.498441438e-05 18.73852561
15.72013664 -95.56049667 148.7499026
7.325733641 -26.0993283 -139.2500974
214.5883636 -44.59679532 -139.2500974
228.0597196 -65.60952506 -145.2500974
72.65360164 -19.72500934 -145.2500974
236.9979366 -19.08081048 148.7499026
57.86509164 -2.498441438e-05 -53.26926539
124.9597766 -2.498441438e-05 47.88451261
106.9532466 -24.18327225 -139.2500974
223.7326966 -14.42361677 -145.2500974
0.0002636412501 -82.46091147 68.71113461
59.47218564 -2.498441438e-05 105.2382376
85.45566164 -43.92158408 -145.2500974
35.25937364 -57.59763913 -139.2500974
180.2678666 -44.28152003 -139.2500974
216.2771656 -2.498441438e-05 3.536442614
0.0002636412501 -44.26522882 1.858211614
0.0002636412501 -42.81681744 -87.20490739
66.91275864 -2.498441438e-05 -126.6599374
0.0002636412501 -64.1613172 -22.79604939
96.09861464 -2.498441438e-05 60.14999861
168.4618956 -12.98809955 -145.2500974
0.0002636412501 -85.16633298 53.63876261
135.4020686 -35.23402607 148.7499026
77.21007064 -2.498441438e-05 124.5275316
152.2691606 -2.498441438e-05 115.9799406
14.12060064 -59.68868343 -145.2500974
174.0990066 -2.498441438e-05 -58.15338639
107.9170686 -13.97022643 -145.2500974
196.3126246 -62.37656278 -145.2500974
100.1363456 -2.498441438e-05 86.22732761
85.57836664 -1.147476274 -139.2500974
0.0002636412501 -30.53734621 113.1874346
116.3477286 -2.498441438e-05 -14.86585739
227.0052756 -2.498441438e-05 -98.53022639
31.74895864 -23.980468 -145.2500974
252.4475776 -3.440512674 -139.2500974
86.97771464 -2.498441438e-05 -70.96093039
25.74345664 -97.61875305 148.7499026
143.5808916 -2.498441438e-05 -88.29507139
73.42047464 -40.99384577 -139.2500974
137.6999096 -2.498441438e-05 -19.85980639
9.035656641 -2.498441438e-05 -23.40596039
46.53023464 -31.16713817 148.7499026
230.7270866 -2.498441438e-05 56.97285361
0.0002636412501 -64.26323375 85.25415161
105.7371486 -2.498441438e-05 -18.97436039
98.22967764 -2.498441438e-05 -83.48169239
163.2615126 -56.26059258 -145.2500974
59.69265464 -2.498441438e-05 -124.7659404
0.0002636412501 -46.14290799 -74.43712039
0.0002636412501 -5.849896484 -60.17498439
40.15968064 -2.498441438e-05 139.1152686
0.0002636412501 -111.8246227 125.1071606
156.4037546 -2.498441438e-05 55.86375361
171.6748016 -54.09718109 148.7499026
155.4988296 -2.498441438e-05 64.24780361
147.8760546 -2.498441438e-05 -109.0571854
227.9919436 -2.498441438e-05 -15.03879039
16.27927664 -2.498441438e-05 98.52214361
0.0002636412501 -41.47841162 -60.47340539
80.44377264 -2.498441438e-05 138.2644736
52.72217364 -2.498441438e-05 -120.8021554
154.8846396 -2.498441438e-05 33.45998161
88.60252064 -2.498441438e-05 -128.1664444
40.43085864 -2.498441438e-05 -1.011009386
76.44403864 -57.16139706 -145.2500974
198.7338646 -55.72163283 -145.2500974
107.5028636 0.5044154556 -139.2500974
92.29197164 -41.09537719 -145.2500974
214.9148196 -24.80421245 -139.2500974
219.0849596 -66.91046561 -145.2500974
122.3657026 -2.498441438e-05 -19.60306639
0.0002636412501 -50.47853785 -90.37053239
28.68113564 -38.03608441 -145.2500974
130.9072936 -50.58729408 -145.2500974
0.0002636412501 -21.90915156 -102.4895364
0.0002636412501 -42.33079358 26.34621461
145.7714416 -2.498441438e-05 30.23163161
0.0002636412501 -7.005477714 -95.73734739
0.0002636412501 -34.97297167 -111.4335864
155.6016536 -39.48037584 -139.2500974
0.0002636412501 -14.68227071 -45.73345739
0.0002636412501 -115.8773578 140.6233296
110.8960236 -2.498441438e-05 79.65766761
6.895287641 -22.2522861 -145.2500974
57.98630564 -2.498441438e-05 -90.08877439
64.28068264 -39.31899771 -145.2500974
80.25906164 -114.7336212 148.7499026
40.35977964 -17.38345345 -139.2500974
166.9509916 -2.498441438e-05 8.981166614
116.0173006 -2.505119464 -145.2500974
15.07199864 -2.498441438e-05 39.00480561
48.18946464 -57.34336294 148.7499026
11.28743764 -9.802206814 -145.2500974
92.88652164 -2.498441438e-05 20.01001561
143.5149586 -2.498441438e-05 136.1762576
17.18592264 -2.498441438e-05 -70.21246539
224.3330636 -62.80620932 148.7499026
154.7090786 -67.28806712 -139.2500974
108.2716136 -2.498441438e-05 -46.86097139
207.9629456 -2.498441438e-05 17.27137861
162.2336936 -2.498441438e-05 -88.36794739
145.4264906 -2.498441438e-05 -78.85679239
142.1038206 -50.83418245 -139.2500974
0.0002636412501 -55.87526213 119.4513326
0.0002636412501 -49.53551459 134.4052526
195.0709126 -2.498441438e-05 -110.4650394
4.910700641 -49.05166369 -139.2500974
73.67571564 -2.498441438e-05 7.706349614
43.95501464 -2.498441438e-05 147.9547406
96.79464764 -2.498441438e-05 -98.85709139
4.642654641 -1.097507704 -145.2500974
245.1581316 -2.966947974 -145.2500974
6.740665641 -37.48974056 -139.2500974
246.7454496 -8.893151284 148.7499026
232.5338196 -59.03787994 -145.2500974
165.8753596 -35.46573186 148.7499026
236.0518736 -0.1423722944 -139.2500974
54.46028264 -2.498441438e-05 136.6777276
68.86107864 -2.498441438e-05 101.5179646
73.98326364 -50.72037057 -145.2500974
113.3159496 -31.25810043 -145.2500974
151.1455616 -6.376781704 -145.2500974
-0.5286393587 -73.49210656 148.7499026
188.1901626 -63.89481526 -145.2500974
40.03335564 -2.498441438e-05 -38.31821639
24.38015164 -64.16124361 -139.2500974
138.5276676 -26.1802352 -145.2500974
108.5037696 -2.498441438e-05 21.49622761
231.7508856 -2.498441438e-05 28.96716661
76.70467364 -24.20160402 148.7499026
108.3786306 -47.48983176 -139.2500974
208.5152676 -12.94020748 -139.2500974
158.0246256 -56.51569036 148.7499026
170.7886206 -2.498441438e-05 -71.82997939
135.4312306 -61.19291952 -139.2500974
3.847976641 -2.498441438e-05 121.6765256
120.7903466 -42.24791304 148.7499026
120.5040076 -2.498441438e-05 104.9774596
203.7998696 -26.00712573 148.7499026
141.2999976 -2.498441438e-05 61.78149261
213.1154386 -32.61637042 -139.2500974
236.3821246 -2.498441438e-05 144.8204086
40.70653564 -62.06399914 -139.2500974
0.0002636412501 -62.90933214 67.46177861
209.4418586 -31.74150827 148.7499026
110.2903226 -20.57786374 -145.2500974
118.3035086 -2.498441438e-05 50.37544161
100.2538396 -66.82816877 148.7499026
108.6333066 -2.498441438e-05 -91.13872839
226.4373286 -2.498441438e-05 -77.84985339
241.2354696 -2.498441438e-05 35.28399361
22.25637064 -14.20087274 -145.2500974
167.8741206 -44.50352716 -145.2500974
35.52116164 -39.75464998 -139.2500974
203.4515456 -3.611796714 148.7499026
250.1346766 -61.68847861 -139.2500974
138.1494436 -2.498441438e-05 7.982651614
0.0002636412501 -16.44657483 -75.25204039
106.3070476 -36.77591128 -139.2500974
0.0002636412501 -53.74369521 45.30965761
0.0002636412501 -32.68397385 -77.97724639
205.6711086 -2.498441438e-05 7.898940614
144.4201666 -2.498441438e-05 -13.00763139
175.8274786 -41.635155 148.7499026
91.26901864 -2.498441438e-05 -38.12197839
9.905377641 -29.18035683 -145.2500974
33.24948564 -11.83736306 -139.2500974
84.28870464 -2.498441438e-05 123.7901276
181.9753566 -5.780958424 148.7499026
111.8149956 -2.498441438e-05 130.0615776
188.7428966 -34.97743787 148.7499026
189.5343726 -2.498441438e-05 -31.39624239
137.5151746 -70.97684725 154.1782786
159.2174566 -2.498441438e-05 -12.19576139
174.3975436 0.5702660656 148.7499026
166.2614926 -2.498441438e-05 73.47047661
13.38107664 -43.41302617 -145.2500974
20.84561264 -2.498441438e-05 120.2828006
79.87089464 -125.8504914 154.0921856
98.04576564 -2.498441438e-05 47.21653861
42.98158864 -2.498441438e-05 16.22165161
0.0002636412501 -54.06480633 -17.62139639
185.6423236 -28.75113697 -139.2500974
14.58722964 -2.498441438e-05 -125.3904414
28.37594664 -2.498441438e-05 -96.59149339
0.0002636412501 -37.49772037 55.12002061
0.0002636412501 -50.30687958 -24.75051039
196.5370666 -2.498441438e-05 142.0514296
91.92535164 -2.498441438e-05 -93.87934839
209.5493376 -2.498441438e-05 -25.13985939
126.5739766 -2.498441438e-05 -81.77173839
29.55388064 -47.2208993 148.7499026
4.414691641 -67.10151437 -145.2500974
102.8581556 -16.26501816 -139.2500974
39.10469864 -2.498441438e-05 83.04820561
160.1110376 -15.52924523 -145.2500974
39.38568364 -24.90625076 -139.2500974
171.9171846 -64.22004015 -139.2500974
38.19290564 -2.498441438e-05 -83.47358639
186.2708816 -2.498441438e-05 45.56022161
46.59987364 -102.3211043 154.4604426
38.38310664 -64.43381145 148.7499026
0.0002636412501 -15.48042711 -104.2914694
250.8696296 -2.498441438e-05 -115.1746954
0.0002636412501 -55.83089018 -34.36104939
218.3272336 -50.21492706 -145.2500974
205.8724766 -60.76905905 -145.2500974
26.45276864 -42.60147205 154.1778176
5.298414641 -2.498441438e-05 -12.85263839
13.10471564 -33.50493351 -139.2500974
238.3389906 -48.49482693 -139.2500974
225.2915706 -48.44655696 -145.2500974
195.7314726 -4.266010554 -145.2500974
248.5423846 -2.498441438e-05 27.28130761
116.1081586 -16.50269059 -139.2500974
246.7210656 -17.0394735 -139.2500974
145.1289616 -1.918753574 -139.2500974
103.5712406 -2.498441438e-05 17.04738561
71.17283764 -48.95946313 -139.2500974
69.27298464 -2.663199524 -145.2500974
193.4530926 -66.57433782 -139.2500974
40.26206664 -2.498441438e-05 49.54948961
81.31085064 -29.80797862 148.7499026
136.0358706 -68.00002402 -144.4895314
199.6282056 -6.332854744 -139.2500974
135.3478106 -2.498441438e-05 111.7561386
0.0002636412501 -63.46908278 115.2926496
174.9396816 -2.498441438e-05 31.91546861
14.00082564 -2.498441438e-05 106.0273956
46.73036864 -2.498441438e-05 1.629909614
25.11151364 1.296505196 -139.2500974
248.8557226 2.091835256 -139.2500974
248.4587866 -2.498441438e-05 -93.57153339
21.01042464 -60.10183354 -145.2500974
82.16480864 -2.498441438e-05 104.5330486
0.0002636412501 -78.27094888 139.9604546
8.332242641 -2.498441438e-05 -82.67728139
15.69351664 -2.498441438e-05 -105.7329624
105.2693996 -2.498441438e-05 -132.7975854
11.08203664 -51.27078289 -139.2500974
162.4135426 -18.47506407 -139.2500974
106.5122736 -19.15277985 148.7499026
0.0002636412501 -76.37583564 66.26920161
84.89492964 -45.4252324 148.7499026
78.76302764 -2.498441438e-05 36.62411361
66.67999964 -32.84664867 -145.2500974
0.0002636412501 -6.020070764 29.51344561
100.3002426 -58.19576279 -139.2500974
29.76572564 -2.498441438e-05 122.1343126
95.67625264 -2.498441438e-05 -19.00399739
87.55795364 -96.05147064 148.7499026
99.41393464 -65.42460607 -145.2500974
132.6561106 -2.498441438e-05 -108.7689444
95.47347364 -2.498441438e-05 -130.1890694
0.0002636412501 -38.60715772 98.41314461
16.59987364 -47.20634447 153.3288026
172.5669366 -2.498441438e-05 136.2026026
108.5426736 -2.498441438e-05 -79.08287539
0.0002636412501 -28.13556236 -4.967662386
164.6156316 -27.65593827 148.7499026
66.22928164 -28.4495588 -139.2500974
233.9441216 -22.26237936 -145.2500974
119.3203646 -2.498441438e-05 -132.8916794
216.3374096 -11.76971638 -139.2500974
62.29508464 -34.20177028 -139.2500974
163.3915186 -2.498441438e-05 111.4971356
212.9009226 -2.498441438e-05 -71.61598039
0.0002636412501 -61.02341742 -59.19658739
112.2798636 -2.498441438e-05 47.97864661
212.4826066 -2.498441438e-05 123.6319316
180.8909086 -2.498441438e-05 102.6876006
236.1145866 -2.498441438e-05 -130.6151484
101.9637326 -36.34191152 -145.2500974
0.0002636412501 -15.45017583 58.57430961
170.2771226 -2.498441438e-05 91.29050761
107.0839166 -60.70412448 -139.2500974
0.0002636412501 -4.116414434 -76.94676139
93.39081264 -2.498441438e-05 -71.82063039
86.15841464 -79.24075513 148.7499026
0.0002636412501 -87.11771154 78.93811861
183.3146706 -36.25091875 -145.2500974
207.0913056 -2.498441438e-05 75.34602961
0.3608146413 -2.668763484 148.7499026
12.37450864 -22.08039952 -139.2500974
0.0002636412501 -78.71714779 92.05370761
115.9534726 -2.498441438e-05 17.28165761
167.1841806 -2.498441438e-05 -78.85371139
243.7024816 -2.498441438e-05 -70.65764739
199.8107116 -36.17430027 -139.2500974
209.7573256 -2.498441438e-05 -136.3725544
15.00302064 -2.498441438e-05 67.47461461
171.5742456 -16.50045422 -139.2500974
59.23574964 -5.927053014 148.7499026
0.0002636412501 -6.496939424 108.3379916
205.6587206 -17.05593993 -145.2500974
156.3748446 -2.785751954 -139.2500974
-0.3609393587 -5.815161914 130.8146926
138.3356936 -19.33870433 -145.2500974
221.6522856 -18.27997698 148.7499026
15.54807064 -38.894906 148.7499026
0.0002636412501 -106.5219269 120.3906826
143.3447826 -2.498441438e-05 0.4047766141
151.8796456 -2.498441438e-05 70.16634161
120.3527216 -2.498441438e-05 22.00977161
86.71376864 -2.498441438e-05 32.81835761
46.07478064 -76.36485985 148.7499026
215.3691446 -12.29977034 148.7499026
47.18737664 -2.498441438e-05 -8.032126386
-0.6920133588 -85.52857066 147.2499026
203.9445146 -67.16694068 148.7499026
0.0002636412501 -16.19018111 30.17213561
39.81837264 -89.31522079 148.7499026
-2.355764359 -52.77656513 148.7499026
84.71952864 -36.87225598 -145.2500974
238.6329316 -2.498441438e-05 106.9226066
231.3732036 -2.498441438e-05 -109.3547044
137.5138776 -2.498441438e-05 145.4553536
166.5359996 -2.498441438e-05 -22.59307839
59.70361864 -49.10279554 -139.2500974
148.5240216 -2.498441438e-05 -28.78388439
34.70176564 -46.05123886 -139.2500974
91.95013864 -30.14419926 -139.2500974
0.0002636412501 -37.87613857 82.41556061
183.0510476 -68.00002402 -143.6020264
112.4697466 -46.80015449 -145.2500974
0.0002636412501 -79.54306748 85.55067061
214.7082866 -2.498441438e-05 -6.416647386
225.6662466 -43.83631896 -139.2500974
57.75829164 1.025399856 -145.2500974
40.15203164 -65.49627569 -145.2500974
155.9260776 -56.74627229 -145.2500974
29.30091264 -51.60807947 -145.2500974
-0.5193973587 -2.498441438e-05 32.83230661
31.24349164 -2.498441438e-05 -103.7034424
0.0002636412501 -5.943958674 22.79817161
203.8735036 -37.72464465 -145.2500974
2.501145641 -14.74983384 -145.2500974
117.5177616 -63.04689486 148.7499026
0.3896886413 -2.498441438e-05 -4.170190386
165.1880926 -2.498441438e-05 -48.49169039
242.2840586 -0.9549870944 -139.2500974
96.79751264 -52.02176048 -139.2500974
163.5923776 -2.498441438e-05 105.2187816
0.0002636412501 -47.01381805 96.43648861
20.67956964 -2.498441438e-05 -59.08935939
153.7589586 -49.33317295 -145.2500974
0.0002636412501 -45.25867713 120.6175816
40.27388564 -5.005081004 148.7499026
0.0002636412501 -49.65934425 -105.4946184
102.2439016 -2.498441438e-05 138.8309566
83.48631764 -2.498441438e-05 -57.14397839
123.8889686 2.191528346 -139.2500974
82.24160564 -2.498441438e-05 84.57472461
29.40211964 -82.20391523 153.4386456
115.9809346 -2.498441438e-05 86.56425461
246.7451666 -2.498441438e-05 -29.44746339
72.50774764 -38.07583195 148.7499026
0.0002636412501 -12.40740437 42.70693861
0.0002636412501 -75.27452474 3.411433614
76.64884464 -2.498441438e-05 14.64482261
228.6859996 -36.39104394 -145.2500974
150.4912226 -2.498441438e-05 101.1074956
35.55316064 -83.97845023 148.7499026
249.6840176 -2.498441438e-05 -87.48083339
112.1096086 -50.64685315 148.7499026
186.1904506 -2.498441438e-05 36.97203061
0.0002636412501 -4.874582934 55.10899061
51.95497264 -64.50100269 -145.2500974
67.77180664 -2.498441438e-05 52.59174161
89.81591664 -2.498441438e-05 -81.40303139
204.9846306 -2.498441438e-05 92.27837261
248.3896706 -2.498441438e-05 -126.7060004
50.12501064 -54.43326316 -139.2500974
0.0002636412501 -91.52922394 140.7620766
64.95188864 -2.498441438e-05 142.2695126
224.0603636 1.206053446 -139.2500974
163.4967106 -2.498441438e-05 38.21355761
30.58164864 -52.265611 -139.2500974
167.0701386 -45.68012962 -139.2500974
156.0492246 -2.498441438e-05 140.3720986
60.99645964 -12.04795575 -145.2500974
0.0002636412501 -58.95073766 -48.23396839
0.0002636412501 -79.40852825 115.5704246
209.1634476 -66.39016263 -145.2500974
0.0002636412501 -62.51220393 59.65164861
229.6695846 -2.498441438e-05 19.27149061
-1.991245359 -44.47755708 -137.7500974
31.66441964 -2.498441438e-05 112.3075066
83.52523564 -2.498441438e-05 23.50348661
66.63632764 -2.498441438e-05 72.86417161
18.63555564 -8.876616774 148.7499026
-2.289425359 -39.56386191 -145.2500974
38.88287764 -2.498441438e-05 -56.81176439
229.2410626 -66.04222517 -139.2500974
177.5461966 -50.63179109 -139.2500974
96.48009364 -58.38746185 -145.2500974
34.20075164 -35.37625114 -145.2500974
132.1641886 -2.498441438e-05 17.42973961
0.0002636412501 -23.61532966 56.33924261
213.1387656 -64.45725355 148.7499026
56.24241464 -2.498441438e-05 14.79165461
188.0123376 0.4005456856 -139.2500974
66.48708864 -2.498441438e-05 22.50348461
25.92022564 2.257799176 -116.9863504
121.3908896 -2.498441438e-05 -113.9549714
0.0002636412501 -21.50365523 85.35189261
0.0002636412501 -61.20267188 34.80969661
142.6925186 -64.07360004 -145.2500974
10.74603564 -83.86066099 148.7499026
0.0002636412501 -81.57067678 133.1941216
71.93051164 -60.04584643 -139.2500974
0.0002636412501 -56.53732224 86.66980061
114.2387946 -65.5019002 -145.2500974
0.0002636412501 -32.47769937 131.9333496
158.4500876 -40.32982328 -145.2500974
57.59502564 -20.12125953 148.7499026
207.2347986 -2.498441438e-05 44.76030561
222.4485706 -2.498441438e-05 -63.17982139
5.398390641 -2.498441438e-05 53.53944261
178.2960936 -2.498441438e-05 -31.65440239
0.0002636412501 -2.841266424 15.02441861
100.8741106 -79.49277538 148.7499026
26.91291464 -31.06978927 -139.2500974
176.7781236 -16.6283481 148.7499026
58.67212364 -22.43730796 -145.2500974
32.39331464 -2.498441438e-05 -85.24610739
98.61197064 2.373987936 -139.2500974
83.98036364 -55.3544169 -139.2500974
161.0247566 -31.97799105 -139.2500974
66.45992564 -2.498441438e-05 -26.91961839
104.5660166 -30.79052538 148.7499026
0.0002636412501 -66.43398606 130.4418896
0.0002636412501 -81.12454712 47.95148361
84.57441164 -66.57763289 -145.2500974
46.50185664 -2.498441438e-05 -121.7823104
0.0002636412501 -26.85320581 -32.82219339
0.0002636412501 -32.48210137 24.45830061
-1.753578359 -121.7327679 148.7499026
67.03448964 -101.7513034 148.7499026
205.0543076 -57.70217468 -139.2500974
228.6194286 -34.9777543 148.7499026
163.6410716 -2.498441438e-05 132.4724536
131.8560876 -43.37670778 -139.2500974
177.6934286 -2.498441438e-05 47.51816761
5.378598641 -49.3264382 -145.2500974
54.40219064 -36.08209177 -145.2500974
235.7414486 -2.498441438e-05 -41.77080439
0.0002636412501 -60.67879932 -17.88457939
33.03800564 -2.498441438e-05 79.96592061
125.9041036 -2.498441438e-05 -118.4221074
6.541118641 -2.498441438e-05 1.583211614
149.6727246 -50.98735519 148.7499026
3.481042641 -2.498441438e-05 -94.67272439
237.2669746 -2.498441438e-05 11.56495761
245.2541476 -2.498441438e-05 -0.8821313859
249.5970086 -23.17010297 -145.2500974
97.22637864 -18.3600237 -139.2500974
176.1726086 -56.57702698 -145.2500974
160.4822146 2.411550776 -139.2500974
159.9041806 -2.498441438e-05 -109.3522774
66.48798864 -2.498441438e-05 -63.36104739
44.85864964 0.8602349256 -139.2500974
0.0002636412501 -82.33988104 62.71532961
4.890213641 -2.498441438e-05 143.5279066
159.3948736 -2.498441438e-05 29.50936761
51.71926364 -2.498441438e-05 91.50964761
0.0002636412501 -26.36347298 143.6405226
120.9538526 -78.46349439 148.7499026
13.54642064 2.152889356 148.7499026
206.5794736 -2.498441438e-05 -91.52267439
126.1084406 -2.498441438e-05 17.12936961
127.0679906 -34.44051393 -145.2500974
177.7739466 -2.498441438e-05 -96.95602639
25.37378664 -108.4597954 148.7499026
156.7177466 -2.498441438e-05 -41.02563039
88.81050064 -2.498441438e-05 -121.8598704
205.9694876 -47.32222213 -145.2500974
0.0002636412501 -39.0336696 -77.46941639
245.5631926 -35.10223669 148.7499026
28.26203564 -2.498441438e-05 19.95237961
15.06330964 -2.498441438e-05 112.9051216
241.1952946 -40.81635813 -145.2500974
73.32639664 -62.22040608 -145.2500974
146.7392626 -2.498441438e-05 141.1638656
23.04035864 -2.498441438e-05 -53.44720239
154.3110266 -2.498441438e-05 -7.766909386
94.77217464 -41.73438 -139.2500974
120.5456756 -2.498441438e-05 120.5060076
0.0002636412501 -46.6746196 78.37661161
19.52224264 -88.38299809 151.5921666
17.19662264 -130.0282732 148.7499026
4.166741641 -55.27818626 -139.2500974
194.3593096 -2.498441438e-05 -134.9444484
114.7003656 -2.498441438e-05 -78.82010039
44.03058964 -2.498441438e-05 -85.57688739
187.8210316 -2.498441438e-05 -57.98576939
70.06615764 -18.07608818 148.7499026
0.0002636412501 -28.22178569 105.5084436
185.3093506 -47.33983828 -139.2500974
185.7600256 -2.498441438e-05 27.18105761
170.5928646 -2.498441438e-05 142.9032616
87.21754964 -2.498441438e-05 -105.4235794
207.6294886 -2.498441438e-05 -82.35899839
159.9930036 -67.5952633 148.7499026
133.2903216 -44.53853278 148.7499026
133.2430796 -23.22815984 148.7499026
175.2486166 -68.00002402 152.3793716
88.77564064 -61.40254626 148.7499026
25.53839064 -2.498441438e-05 0.5571226141
22.89560364 -2.498441438e-05 -75.71796839
-0.2173313588 -50.73932336 -131.6100024
97.78899764 -2.498441438e-05 69.51980061
0.0002636412501 -40.53905706 67.83174661
46.06539964 -37.0025387 148.7499026
77.11594564 -41.47677585 -145.2500974
137.3149896 -2.498441438e-05 120.2189976
0.0002636412501 -1.609353514 70.13260361
192.3057966 -42.530704 -139.2500974
97.63911964 -5.901046084 -145.2500974
163.1085696 -54.4390727 -139.2500974
-0.3109783587 -20.94733027 -137.7500974
215.3965816 -2.498441438e-05 28.74824561
31.79345564 -2.498441438e-05 2.079498614
245.4301436 -2.132311204 148.7499026
-0.3637053587 -2.498441438e-05 -89.21193539
134.7054366 -2.498441438e-05 125.4313546
35.07325264 -68.00002402 -143.9489204
125.5778906 -2.498441438e-05 93.33123461
8.957198641 -44.88366468 -139.2500974
57.53523264 -13.52054371 148.7499026
214.3211376 -44.09090721 -145.2500974
0.0002636412501 -26.06847634 -110.6655974
