# .PCD v0.7 - Point Cloud Data file format
VERSION 0.7
FIELDS x y z
SIZE 4 4 4
TYPE F F F
COUNT 1 1 1
WIDTH 1211
HEIGHT 1
VIEWPOINT 0 0 0 1 0 0 0
POINTS 1211
DATA ascii
121.103761 -2.498419505e-05 -66.17397389
80.462893 1.496912136 -96.07956389
172.476717 -2.498419505e-05 -138.0824339
416.144566 -105.1310797 -204.8430579
-29.47505 -2.498419505e-05 -219.1752329
147.079093 -2.498419505e-05 -166.9357589
233.060638 -68.00002402 -18.90266789
-339.286002 -2.498419505e-05 -147.5542389
278.263991 -43.34146446 -22.86903989
-411.977092 -2.498419505e-05 -180.3179609
399.504595 -128.0762336 -127.1038149
284.471172 1.269121556 -17.33884589
91.010591 -2.498419505e-05 -62.20393189
267.839065 -2.498419505e-05 -128.4617219
-384.939258 -2.498419505e-05 -100.9901389
-347.271744 -2.498419505e-05 -57.07868989
97.589838 -2.498419505e-05 -163.7201069
-398.37078 -2.498419505e-05 -32.34758989
391.504595 -27.41384979 -222.1033549
-183.377244 -2.498419505e-05 -48.08996989
33.400315 -2.498419505e-05 -65.98345389
-240.438791 -2.498419505e-05 -30.14768489
-117.135597 -2.498419505e-05 -84.04275489
-343.285542 -2.498419505e-05 -115.3403789
-118.400106 -2.498419505e-05 -26.06633689
399.504595 -251.1029333 -178.3206789
25.95719 -2.498419505e-05 -220.9000559
-300.298281 -2.498419505e-05 -37.58178889
-297.227298 -2.498419505e-05 -93.05928889
367.444554 -2.498419505e-05 -87.98261789
380.520112 -2.498419505e-05 -250.9508819
391.88803 -129.2410619 -187.5258079
67.485068 -2.498419505e-05 -225.1221689
-14.281298 0.2697831158 -101.4809949
166.43305 -44.75658008 -8.049068889
-208.621364 -2.498419505e-05 -81.12559589
-218.644868 -2.498419505e-05 -224.1112009
280.269317 -2.498419505e-05 -178.8978099
-154.237481 -2.498419505e-05 -223.9059369
-125.778629 -2.498419505e-05 -116.7719949
218.241654 -12.40901957 -12.12648389
399.504595 -249.559212 -121.2624719
395.504595 -56.36070857 -93.35234189
364.560536 -2.498419505e-05 -55.19271389
417.141197 -162.0206163 -204.8430579
-255.685565 -2.498419505e-05 -60.02636789
396.826789 -233.2314466 -205.2354179
263.857199 -2.498419505e-05 -84.98578289
-382.923167 -2.498419505e-05 -223.4010159
391.504595 -49.63912209 -128.7540389
165.335 -2.498419505e-05 -31.58889889
413.940749 -2.498419505e-05 -46.98739789
-331.521655 -2.498419505e-05 -248.3161539
395.504595 -194.5510672 -142.2594579
-316.338244 -2.498419505e-05 -162.7845109
252.556281 -44.1952072 -14.82709589
149.205042 -2.498419505e-05 -84.48335189
-295.322075 -2.498419505e-05 -225.8657719
-152.283281 -2.498419505e-05 0.313098111
395.081021 -66.14903757 -246.6612829
39.860552 -2.498419505e-05 -91.46617189
261.791488 -2.498419505e-05 -33.97847389
352.779062 -2.498419505e-05 -179.2594809
-349.873768 -2.498419505e-05 -6.886897889
-200.94479 -2.498419505e-05 -106.1299399
154.639119 -2.498419505e-05 -221.7490589
412.65109 -184.6491391 -48.84305789
-74.098798 -2.498419505e-05 -102.8419099
332.420235 -2.498419505e-05 -226.6160969
376.154998 -19.32382529 -29.84305789
132.499471 -2.498419505e-05 -31.62460889
-377.652872 -2.498419505e-05 -251.4100669
395.504595 -154.3274694 -63.63808689
264.611052 -2.498419505e-05 -157.1615269
71.890783 -25.64128151 -0.608451889
395.504595 -207.2842496 -64.74651589
10.891204 -2.498419505e-05 -113.3039729
-398.491154 -2.498419505e-05 -132.5890649
194.412418 -2.498419505e-05 -190.1900909
366.761104 -68.00002402 -28.30129189
53.772566 -2.498419505e-05 -142.9058329
-261.210337 -2.498419505e-05 0.109183111
-136.119175 -2.498419505e-05 -248.2980479
318.244166 -2.498419505e-05 -55.73108889
296.984401 -2.498419505e-05 -125.9062719
176.039199 -2.498419505e-05 -113.4498439
395.504595 -196.618455 -115.7137079
200.079041 -2.498419505e-05 -98.65000689
-39.172576 -2.498419505e-05 -192.9622879
-193.904935 -2.498419505e-05 -251.4363849
-101.337239 -2.498419505e-05 -7.655652889
18.128374 -2.498419505e-05 -182.0123719
212.817715 -2.498419505e-05 -147.2699539
343.148935 -2.498419505e-05 -129.5619689
-19.645713 -43.32219899 0.576987111
-178.814706 -2.498419505e-05 -136.7827779
395.504595 -160.4446412 -146.9740969
-45.820959 -2.498419505e-05 -78.12669789
5.660797 -2.498419505e-05 -64.23308889
120.282891 -2.498419505e-05 -173.4159699
240.643479 -3.229304104 -13.88954089
-140.119806 -2.498419505e-05 -70.77937089
-279.754174 -2.498419505e-05 -57.54362689
391.504595 -81.75164921 -200.7167539
395.504595 -113.7427884 -162.0385469
395.504595 -50.84315122 -42.97027389
-245.296091 -2.498419505e-05 -85.79773989
126.654185 -65.75166067 -10.93707689
-282.113707 -2.498419505e-05 -178.9855499
-52.347284 -2.498419505e-05 -236.0782279
399.504595 -223.8032988 -153.0387879
399.504595 -24.6177568 -80.64487789
-334.931022 -2.498419505e-05 -32.10828889
-196.631292 -2.498419505e-05 -4.906008889
336.954486 -2.498419505e-05 -39.73113089
-160.721187 -2.498419505e-05 -158.3878409
399.504595 -150.4666426 -119.2498459
225.723695 -2.498419505e-05 -124.9536169
299.862393 -2.498419505e-05 -219.1135999
16.307856 -2.498419505e-05 -137.8335809
247.313136 -2.498419505e-05 -251.6334389
-2.253861 -2.498419505e-05 -228.4800689
242.937105 -2.498419505e-05 -204.5411919
39.882777 -2.498419505e-05 -28.57070089
-266.625125 -2.498419505e-05 -204.3424429
-119.276105 -2.498419505e-05 -160.1622379
-361.030806 -2.498419505e-05 -169.3162249
-77.221744 -2.498419505e-05 -197.5694579
240.841839 -2.498419505e-05 -83.53500689
327.678919 -47.98016938 -20.73935989
416.879821 -2.498419505e-05 -71.04924689
391.504595 -83.05787719 -163.9988469
352.177785 -51.00739505 -22.66745789
385.848528 -2.498419505e-05 -131.3990219
-405.700789 -2.498419505e-05 -87.31638789
395.504595 -81.10950673 -93.79540789
399.504595 -202.8845095 -189.6659889
395.504595 -8.636438354 -107.9120689
226.540662 -2.498419505e-05 -59.81016789
-155.210008 -2.498419505e-05 -26.42466489
145.959503 -2.498419505e-05 -139.6955759
404.739966 -2.498419505e-05 -226.8026879
-224.926445 -2.498419505e-05 -130.7189969
-16.246827 0.1567554358 0.309489111
-191.252084 -2.498419505e-05 -201.7630059
-258.55593 -2.498419505e-05 -108.5686799
391.504595 -12.22923342 -205.4323579
391.504595 -54.32333774 -227.9097049
397.638914 -24.04909434 -23.84305789
289.935151 -2.498419505e-05 -76.28300989
170.187829 -2.498419505e-05 -188.5211099
171.923584 -2.498419505e-05 -63.48769589
221.854249 -2.498419505e-05 -103.0499839
-42.965058 -2.498419505e-05 -54.01859889
-142.715726 -2.498419505e-05 -196.0645159
127.097934 -2.498419505e-05 -119.2412209
-12.597746 -2.498419505e-05 -188.8526729
-92.670645 -2.498419505e-05 -61.16161189
-271.201543 -2.498419505e-05 -144.4694499
-367.0519 -2.498419505e-05 -113.7948019
94.713315 -47.3177906 -2.404618889
-244.474511 -2.498419505e-05 -237.4060879
395.504595 -17.07458358 -251.9565469
111.196432 -2.498419505e-05 -248.3919129
-43.556062 -51.61792494 2.458774111
391.504595 -45.14182407 -75.07119489
350.401398 -2.498419505e-05 -104.1806279
395.504595 -85.28381398 -61.72959389
395.504595 -187.1210921 -91.12321789
-283.32636 -2.498419505e-05 -247.8208759
395.504595 -10.59633385 -51.13279889
-111.350019 -2.498419505e-05 -229.7329259
395.504595 -109.0493243 -199.6748959
399.504595 -73.87048234 -182.2278879
-232.906321 -2.498419505e-05 -182.6697769
206.716598 -48.96917583 -17.23813189
-312.914026 -2.498419505e-05 -187.9979319
329.758764 -17.73709846 -20.90304689
40.360737 -2.498419505e-05 -182.6038619
399.504595 -50.67813886 -152.0558079
-203.502426 -2.498419505e-05 -171.7062669
195.262893 -2.498419505e-05 -236.0228499
402.240503 -226.8779037 -49.04316989
332.606637 -2.498419505e-05 -186.1533559
-114.785489 -2.498419505e-05 -197.0803839
391.504595 -159.2185128 -167.9491259
69.121933 -2.498419505e-05 -198.2162039
-55.943372 -2.498419505e-05 -153.8057349
81.229165 -68.00002402 -7.061864889
-247.588725 -2.498419505e-05 -156.3609669
395.504595 -226.9352922 -101.8593209
59.872475 -2.498419505e-05 -99.40354489
395.504595 -13.09941097 -163.4086699
202.087548 -2.498419505e-05 -32.62134489
395.504595 -28.02346032 -123.9827599
395.504595 -202.4974169 -169.2007099
292.650068 -16.71552258 -24.00124989
-91.773998 -2.498419505e-05 -82.10803889
-34.95876 -2.498419505e-05 -18.16764389
391.504595 -149.3004948 -83.26118889
-97.088164 -2.498419505e-05 -158.6199129
84.154224 -2.498419505e-05 -29.94023889
22.727452 -18.98254301 -2.757856889
-55.246692 -2.498419505e-05 -12.96135389
395.504595 -33.71815114 -165.4548209
306.885232 -2.498419505e-05 -100.5280829
-160.244722 -2.498419505e-05 -67.33558489
118.796362 -22.32090654 -4.299990889
177.025672 -18.10499196 -14.90140289
113.874603 -2.498419505e-05 -192.7168479
-412.782866 -2.498419505e-05 -47.04037289
58.307888 -65.611477 0.460542111
-298.321064 -2.498419505e-05 -65.77304589
102.865354 -2.498419505e-05 -144.1385479
-72.432371 -2.498419505e-05 -227.1554759
354.267202 -2.498419505e-05 -224.9893949
233.744714 -2.498419505e-05 -165.2846759
-302.018314 -2.498419505e-05 -10.25461089
399.504595 -181.3261079 -185.1577159
-23.494004 -2.498419505e-05 -150.5277959
178.509445 -59.24792297 -15.01817889
395.504595 -35.31864349 -204.0819459
75.98288 -2.498419505e-05 -146.9908019
8.229457 -2.498419505e-05 -23.08807089
-26.042641 -2.498419505e-05 -123.4179359
-212.234949 -2.498419505e-05 -48.54663189
415.614979 -191.6309331 -204.8430579
103.643833 -1.228455134 -3.107463889
-84.221764 -2.498419505e-05 -121.0923029
71.452163 -2.498419505e-05 -248.7708539
-274.539765 -2.498419505e-05 -17.24324689
85.647745 -2.498419505e-05 -217.1915349
-388.28992 -2.498419505e-05 -15.30553989
44.424741 -2.498419505e-05 -227.9156539
415.498415 -131.8904112 -48.84305789
-94.557837 -2.498419505e-05 -240.0101679
237.375084 -23.60172384 -13.63231389
-173.074395 -2.498419505e-05 -217.5009749
-126.462831 -2.498419505e-05 -140.3079279
173.138902 -2.498419505e-05 -231.7998859
-23.785223 -19.55945455 0.902774111
395.504595 -113.4705587 -91.24325189
373.58458 -2.498419505e-05 -31.36693989
293.653507 -2.498419505e-05 -249.6565879
69.942394 -2.498419505e-05 -56.35292789
268.634356 -2.498419505e-05 -224.7624549
391.504595 -90.01351543 -124.7657949
-11.653397 -2.498419505e-05 -51.64746089
192.518967 -2.498419505e-05 -70.39864789
-62.540897 -2.498419505e-05 -118.4462009
114.78292 -52.06999954 -3.984126889
266.516034 -2.498419505e-05 -105.0544739
415.01053 -55.36622561 -29.84305789
149.669597 -2.498419505e-05 -16.90832389
389.062683 -2.498419505e-05 -91.88724089
44.035448 -2.498419505e-05 -49.87898589
399.504595 -251.0795299 -68.70174089
399.504595 -108.0894943 -65.06677389
200.588568 -2.498419505e-05 -163.0610579
402.934588 -165.552786 -48.93329289
393.585354 -49.57409332 -23.84305789
-338.958623 -2.498419505e-05 -74.45299289
16.91582 -39.29723956 -2.300470889
-322.344155 -2.498419505e-05 -229.6639289
131.981153 -2.498419505e-05 -230.9235749
391.504595 -43.16977876 -187.0814309
306.780535 -50.72444546 -19.09462589
159.947848 -2.498419505e-05 -100.3218739
367.839928 -2.498419505e-05 -200.7407589
-384.281852 -2.498419505e-05 -45.22297489
201.57516 -2.498419505e-05 -218.0227119
-155.041593 -2.498419505e-05 -111.7168569
415.637451 -2.498419505e-05 -184.2565459
398.546277 -165.2840311 -207.0928639
416.80322 -2.498419505e-05 -146.7180649
127.482896 -2.498419505e-05 -85.81662889
242.83687 -2.498419505e-05 -33.22191189
147.15717 -33.69488676 -6.532028889
410.245982 -54.59724986 -204.8430579
-61.375553 -2.498419505e-05 -47.69967389
-261.835711 -2.498419505e-05 -249.4668079
-77.867824 -2.498419505e-05 -20.62042589
-410.189825 -2.498419505e-05 -200.6071879
-366.020154 -2.498419505e-05 -58.09097789
370.900586 -2.498419505e-05 -170.4525949
-31.616199 -2.498419505e-05 -38.91720589
187.152538 -2.498419505e-05 -150.0277029
-301.940244 -2.498419505e-05 -111.9093689
299.996134 -2.498419505e-05 -31.26697689
-417.172245 -2.498419505e-05 -132.5414839
-195.202367 -2.498419505e-05 -64.56799189
-170.874229 -2.498419505e-05 1.779844111
227.084866 -2.498419505e-05 -189.7730459
66.411532 -2.498419505e-05 -15.84279189
225.270367 -2.498419505e-05 -224.6707599
26.150056 -2.498419505e-05 -202.3112709
395.504595 -237.9130766 -164.4230829
28.505412 -2.498419505e-05 -243.5985949
4.748487 1.614511566 -1.342933889
55.498195 -2.498419505e-05 -122.0413359
414.483864 -16.31303895 -23.84305789
-402.84981 -2.498419505e-05 -164.2696959
-245.71676 -2.498419505e-05 -9.810306889
410.76045 -18.03087463 -204.8430579
248.316375 -2.498419505e-05 -128.7217439
15.799597 -68.00002402 -1.703730889
151.901604 -2.498419505e-05 -188.2757039
397.892793 -211.6307869 -206.5424399
334.297742 -2.498419505e-05 -252.3296619
366.301126 -2.498419505e-05 -140.1525229
-309.217426 -2.498419505e-05 -143.6392189
160.625064 -2.498419505e-05 -151.8845629
391.504595 -71.16413754 -46.65192989
395.504595 -52.96617941 -111.4472139
-399.577855 -2.498419505e-05 -59.40621789
263.083056 -0.6238624642 -15.65556889
398.657623 -7.353929964 -188.7732669
-371.226862 -2.498419505e-05 -184.1713559
77.306648 -2.498419505e-05 -181.9762279
399.504595 -251.6202308 -196.3090349
156.395814 -2.498419505e-05 -249.0152319
401.364582 -94.59485023 -208.5257279
-310.928584 -2.498419505e-05 -215.1258609
398.296014 -69.53503084 -78.84452289
-238.894761 -2.498419505e-05 -117.9170289
-138.283902 -2.498419505e-05 -32.00777089
395.504595 -6.951624914 -146.6849709
399.504595 -120.5001632 -109.3671359
-265.394072 -2.498419505e-05 -161.2673379
-51.243426 -2.498419505e-05 -177.7885309
399.504595 -142.6077015 -198.0112209
208.81551 -2.498419505e-05 -59.33814489
-61.410734 -2.498419505e-05 -86.74230289
120.51222 -2.498419505e-05 -48.48964089
216.830446 -66.5576931 -12.01541989
-136.255961 -2.498419505e-05 -155.2375779
-193.112107 -2.498419505e-05 -90.31280189
168.288377 0.8960946358 -14.21380189
-344.584431 -2.498419505e-05 -219.2230529
384.218984 -66.09918603 -29.84305789
-310.030157 -2.498419505e-05 -80.94257889
278.354766 -2.498419505e-05 -63.01654989
-5.855856 -68.00002402 0.948864111
313.089658 -14.66852184 -25.60988189
416.995118 -2.498419505e-05 -110.5438509
-195.337664 -2.498419505e-05 -152.7334249
45.383259 -51.83249328 -4.540908889
395.504595 -12.60173211 -234.9569359
331.575609 -2.498419505e-05 -166.1820469
359.811735 -2.498419505e-05 -72.17937989
391.504595 -35.16113514 -35.94002289
25.775125 -2.498419505e-05 -104.0563139
-353.653183 -2.498419505e-05 -251.0842499
-406.010984 -2.498419505e-05 -231.1315709
-118.943666 -2.498419505e-05 -177.9708229
399.504595 -236.5625552 -133.4532989
-18.230125 -2.498419505e-05 -84.45134089
-16.403412 -2.498419505e-05 -205.9145339
328.34147 -2.498419505e-05 -92.38630789
395.504595 -143.8107657 -175.1649559
395.504595 -150.4941041 -102.0008639
224.887791 2.464658576 -18.66827189
260.517395 -2.498419505e-05 -192.4953629
398.344235 -123.7666514 -50.82885689
-371.138592 0.9623100458 -153.8191889
391.504595 -174.4568278 -108.6756419
198.117448 -14.50027978 -16.56136389
395.504595 -122.819482 -143.0763119
55.287361 -25.92331908 -5.320379889
-281.589256 -2.498419505e-05 -76.81536689
278.853236 -2.498419505e-05 -40.32084789
399.504595 -146.0499207 -135.9065179
-89.697105 -2.498419505e-05 -138.7574549
-298.220202 -2.498419505e-05 -172.9085159
48.059637 -2.498419505e-05 -162.7026399
292.902153 -34.44281559 -24.02108989
413.291767 0.3313254658 -29.84305789
286.140332 -2.498419505e-05 -229.4170399
38.737567 -1.031412114 2.000756111
-157.762538 -2.498419505e-05 -176.7587559
-100.039374 -2.498419505e-05 -44.39822089
-129.211038 -2.498419505e-05 -47.79615789
-6.864371 -2.498419505e-05 -15.01609589
-326.462361 -2.498419505e-05 -112.2933659
-126.434854 -2.498419505e-05 -98.38503089
-136.548944 -2.498419505e-05 -231.2110419
395.504595 -220.8287303 -81.92717589
-317.314118 -2.498419505e-05 -36.09681289
395.723757 -191.775531 -55.45949389
354.752561 -2.498419505e-05 -41.22704989
137.832 -2.498419505e-05 -69.49146889
359.703466 -14.42958115 -23.25973989
115.382662 -2.498419505e-05 -23.38138589
-175.054688 -2.498419505e-05 -234.3842269
-3.968336 -36.98701712 -0.656850889
-257.683416 -2.498419505e-05 -23.12333089
-389.373648 -2.498419505e-05 -82.76573289
298.387853 -2.498419505e-05 -174.9866479
-392.800968 -2.498419505e-05 -116.6343229
399.504595 -95.46898812 -155.7098249
-277.638725 -2.498419505e-05 -103.3694309
-339.90562 -2.498419505e-05 -199.0173789
381.446736 -2.498419505e-05 -55.14864989
-84.779007 -2.498419505e-05 -170.1377169
96.865221 -2.498419505e-05 -104.0198339
-224.727186 -2.498419505e-05 -86.07581789
395.504595 1.065278286 -174.5312809
-223.542525 -2.498419505e-05 -17.72177189
287.984059 -2.498419505e-05 -193.8456399
316.724647 -2.498419505e-05 -220.5660509
214.008223 -27.64151871 -17.81199589
103.633742 -2.498419505e-05 -78.35734689
399.504595 -215.7271822 -114.0456109
38.242319 -2.498419505e-05 -136.5697209
395.504595 -166.0894733 -77.15630689
81.028323 -2.498419505e-05 -75.64070089
-286.58947 -2.498419505e-05 -137.9155269
185.376945 -2.498419505e-05 -32.13628489
-164.517427 -2.498419505e-05 -125.4688509
-153.457289 -2.498419505e-05 -240.8089639
329.466074 -2.498419505e-05 -204.6057389
395.504595 -110.6945645 -126.2587909
238.798164 -52.14598931 -19.76300889
280.263831 -26.27720567 -17.00772189
-196.81104 -2.498419505e-05 -37.79139889
413.224815 -230.1235141 -204.8430579
-394.965032 -2.498419505e-05 -148.8021299
2.447242 -2.498419505e-05 -150.3562899
-352.314336 -2.498419505e-05 -186.5248899
13.881002 -2.498419505e-05 -232.2416289
286.187592 -57.86649676 -23.49264189
391.504595 -67.48574642 -131.7155049
-105.863578 -2.498419505e-05 -123.9317139
230.85499 -2.498419505e-05 -248.9382309
124.147299 -2.498419505e-05 -102.6951339
-44.502273 -2.498419505e-05 -252.0977659
-175.804983 -2.498419505e-05 -95.07541989
-210.398064 -2.498419505e-05 -251.1736839
306.106595 -2.498419505e-05 -152.5142349
395.504595 -176.8721831 -146.0091739
391.504595 -88.11544071 -108.1250489
57.100881 -2.498419505e-05 -187.0071229
318.382771 -62.30710316 -20.00773989
391.504595 -112.4597838 -178.3289819
151.401114 -51.67353402 -6.866033889
-366.125131 0.1466565058 -221.7517489
-157.484336 -2.498419505e-05 -85.85739389
140.202616 -16.94792597 -12.00336289
395.504595 -70.53184254 -211.8661619
391.504595 -48.00649531 -58.52985289
365.743943 -2.498419505e-05 -237.9114559
258.071058 -2.498419505e-05 -210.7809789
-207.833499 -2.498419505e-05 -120.8997909
399.504595 -39.70194172 -90.24666189
399.504595 -11.13829319 -123.4941659
-397.692255 -2.498419505e-05 1.392422111
104.902815 -2.498419505e-05 -179.1717989
110.296574 -37.58328949 -9.649703889
312.775189 -2.498419505e-05 -122.3392489
73.366253 -2.498419505e-05 -110.5284119
342.401993 -9.597493034 -27.91681589
104.983109 -2.498419505e-05 -52.95954289
252.090635 -2.498419505e-05 -96.05367689
-240.122067 -2.498419505e-05 -139.9273559
391.504595 -15.79590861 -65.95860189
96.442188 -2.498419505e-05 -19.47779289
-227.408152 -2.498419505e-05 -39.64900289
-188.665567 -2.498419505e-05 -118.3390009
256.401059 -2.498419505e-05 -142.6506799
-376.365983 -2.498419505e-05 -208.7120719
382.03737 -2.498419505e-05 -106.4862989
200.243957 -2.498419505e-05 -251.2655209
-144.538394 -2.498419505e-05 -13.71791989
90.519424 -2.498419505e-05 -130.9648509
396.424995 -237.6446858 -189.2593169
-313.761121 -2.498419505e-05 -101.2683849
41.601229 -19.04415999 1.775382111
-184.659774 -2.498419505e-05 -187.3391759
415.146469 -236.0647189 -48.84305789
-372.548293 -2.498419505e-05 -236.2013879
402.256826 -140.5269029 -49.04058589
-219.490797 -2.498419505e-05 -147.7271329
158.188056 -2.498419505e-05 -71.31052789
-380.097098 -2.498419505e-05 -126.2350729
400.319334 -100.5000231 -51.26494489
331.07372 -32.2090682 -27.02525989
59.988907 -40.0749164 0.328244111
82.401353 -2.498419505e-05 -45.58818989
-21.420486 -2.498419505e-05 -167.5055609
399.504595 -208.1030538 -151.9915859
132.068133 -2.498419505e-05 -187.1351239
399.504595 -9.160257744 -83.41339689
395.504595 -194.6036025 -73.99039089
-287.792225 -2.498419505e-05 -28.10687189
-165.310338 -2.498419505e-05 -43.34209089
120.178974 -2.498419505e-05 -207.4747909
399.504595 -134.7705526 -81.83653289
-346.59176 -2.498419505e-05 -100.0600939
-400.502121 -2.498419505e-05 -216.5274179
395.504595 -135.2360597 -112.5539869
-396.746968 -2.498419505e-05 -183.6178799
-161.711985 -2.498419505e-05 -140.7626849
-92.53937 -2.498419505e-05 -195.0013849
397.463358 -2.498419505e-05 -212.9207819
-208.416185 -2.498419505e-05 -235.7698149
408.190629 -149.472211 -208.8430579
-355.698882 -2.498419505e-05 -153.2534889
395.504595 -28.7127144 -236.9928869
-95.046569 -2.498419505e-05 -21.76562989
399.532887 -240.6654159 -56.70079989
-13.900458 -2.498419505e-05 -238.5663579
-254.619429 -2.498419505e-05 -194.7366229
395.504595 -68.29990189 -165.9064219
391.504595 -97.4357064 -94.92709689
-297.334557 -2.498419505e-05 -126.9664159
274.169211 -2.498419505e-05 -142.4304199
-35.112177 -2.498419505e-05 -92.38617489
280.462674 -2.498419505e-05 -115.4554309
161.47143 -2.498419505e-05 -127.4766569
-332.709715 -2.498419505e-05 -47.22981489
391.504595 -99.90889135 -167.8976879
240.033296 -2.498419505e-05 -48.19401489
-35.591169 -2.498419505e-05 -233.1252369
16.217068 -2.498419505e-05 -156.8520789
395.504595 -235.1316215 -87.09483489
-353.46361 -2.498419505e-05 -133.3440289
-56.091753 -2.498419505e-05 -66.92633289
-9.169859 -2.498419505e-05 -118.1827669
406.277838 -119.3781297 -208.8430579
166.427215 -68.00002402 -12.50836989
391.504595 -126.790163 -168.5337249
398.574721 -211.6141647 -50.59837089
264.185122 -32.46021533 -21.76100789
308.015918 -2.498419505e-05 -44.61252389
175.43098 -2.498419505e-05 -43.50479489
29.392735 -56.00985281 -3.282426889
-369.561961 -2.498419505e-05 -77.17317289
84.399373 -30.3087782 -7.611546889
210.071851 -0.9353753842 -17.50219689
-266.918929 -2.498419505e-05 -124.1907909
270.04218 -56.1208846 -16.20326289
-227.085203 -2.498419505e-05 -201.7152179
171.20299 -30.50166359 -8.424470889
-323.81113 -2.498419505e-05 -74.98017489
391.504595 -95.63653915 -194.2843149
99.158021 -2.498419505e-05 -210.7646019
68.556163 -2.498419505e-05 -86.68927189
144.989952 -2.498419505e-05 -98.80840689
251.676075 -28.34016358 -14.75782289
349.295159 -2.498419505e-05 -89.32834389
59.14822 -2.498419505e-05 -237.4209229
-47.841281 -2.498419505e-05 -120.6002069
395.504595 -60.41590642 -187.0182239
157.102088 -2.498419505e-05 -207.1249449
59.130183 -2.498419505e-05 -212.8735849
140.882358 -2.498419505e-05 -216.2790809
358.905547 -2.498419505e-05 -160.7955669
-258.064323 -2.498419505e-05 -78.32027689
330.548458 0.7641496858 -151.4490579
-128.020428 -2.498419505e-05 -190.5272919
191.48486 -2.498419505e-05 -114.1935299
-210.955919 -2.498419505e-05 -63.25041889
237.319523 -2.498419505e-05 -97.86687489
387.934741 -2.498419505e-05 -236.0131989
-63.900239 -2.498419505e-05 -25.22130089
384.412356 -30.46614343 -23.84305789
183.19785 -2.498419505e-05 -98.07878989
188.234161 -2.498419505e-05 -135.3791209
-178.525706 -2.498419505e-05 -62.33146089
-279.931483 -2.498419505e-05 -233.0901119
-335.557338 -2.498419505e-05 -3.777154889
-284.353223 1.533664976 -209.7872289
48.219369 -2.498419505e-05 -16.54405589
399.504595 -84.74308493 -138.2596689
361.190182 -40.49243699 -29.39547989
-383.894788 -2.498419505e-05 -30.31397689
399.504595 -193.0013853 -157.0008219
407.077754 -198.1678275 -48.84305789
-370.489963 0.8750188558 -99.00979289
391.504595 -22.19989594 -42.68124489
-181.647758 -2.498419505e-05 -33.58438189
-337.583412 -2.498419505e-05 -232.0364819
391.504595 -83.16393656 -79.91043389
-29.243418 -54.28622872 1.332344111
-348.876198 -2.498419505e-05 -42.60830289
-105.867596 -2.498419505e-05 -74.85163489
-211.152296 -2.498419505e-05 -5.015230889
-255.307958 -2.498419505e-05 -42.17609789
207.810223 -2.498419505e-05 -195.7761109
-115.788571 -2.498419505e-05 -8.987511889
399.504595 -206.1693504 -132.0387879
352.699805 -65.50325556 -22.70854189
107.645042 -14.60289855 -9.441022889
221.187808 -50.96778995 -12.35835089
-331.175624 -2.498419505e-05 -125.9875879
27.494648 -2.498419505e-05 -83.95377689
135.185159 -2.498419505e-05 -13.22567089
391.504595 -52.41172527 -242.1913909
-64.776119 -2.498419505e-05 -190.3374649
306.009414 -2.498419505e-05 -63.29875189
90.372764 -13.00759015 -8.081663889
25.805416 -2.498419505e-05 -25.78278989
399.504595 -43.79116912 -139.1180999
367.287152 -2.498419505e-05 -219.0164889
-88.720438 -2.498419505e-05 -98.66900189
-198.871055 -2.498419505e-05 -188.7138979
325.397179 -2.498419505e-05 -68.07189489
357.764951 -2.498419505e-05 -128.7345109
382.680257 -2.498419505e-05 -207.7170699
243.571451 -2.498419505e-05 -69.54665689
-59.311534 -2.498419505e-05 -249.0818479
-389.442355 -2.498419505e-05 -243.4365259
404.036872 -244.9581195 -208.8430579
329.273408 -2.498419505e-05 -126.4092759
-161.683312 -2.498419505e-05 -10.35290989
-339.231987 -2.498419505e-05 -162.6888289
-212.625785 -2.498419505e-05 -94.73935489
389.945874 -13.75235028 -29.84305789
-308.607245 -2.498419505e-05 -49.06321489
161.246153 -2.498419505e-05 -167.2314769
148.760114 -2.498419505e-05 -31.04313389
-242.336282 -2.498419505e-05 -223.4056239
395.52015 -126.8582499 -201.0006309
-113.530923 -2.498419505e-05 -109.2083189
3.914522 -2.498419505e-05 -100.9891499
146.725093 -2.498419505e-05 -233.4686099
-417.354579 -2.498419505e-05 -248.5431699
399.504595 -167.0213142 -158.7844979
133.303151 -2.498419505e-05 -54.40817889
-203.065115 -2.498419505e-05 -219.7433839
399.504595 -168.7562777 -174.5285029
395.504595 -120.6477192 -78.66153989
333.070823 -2.498419505e-05 -53.24075189
-199.167191 -2.498419505e-05 -19.27695589
139.788218 -60.31806101 -11.97074889
395.504595 -160.6589803 -132.9290359
255.588844 -2.498419505e-05 -167.9246909
415.372363 -88.75484779 -208.8430579
399.504595 -223.9896887 -195.0316259
-295.156837 -2.498419505e-05 -240.3415479
399.504595 -39.57014627 -117.1806029
209.627103 -2.498419505e-05 -109.8356789
183.728559 -46.28340192 -15.42893189
-324.892243 -2.498419505e-05 -177.3491379
-149.0923 -2.498419505e-05 -210.9549499
-15.652049 0.0695668958 -220.9076639
-80.757224 -2.498419505e-05 -149.4717829
305.509174 -2.498419505e-05 -186.9502299
202.020128 -2.498419505e-05 -178.5374559
202.307412 -2.498419505e-05 -84.92491989
395.504595 -250.8536386 -134.5154389
-226.753007 -2.498419505e-05 -235.3943079
-246.461253 -2.498419505e-05 -101.7314849
304.37143 -4.548182474 -18.90502589
41.183733 -2.498419505e-05 -106.2550599
341.887493 -43.35441946 -27.87632389
416.033762 -68.00002402 -24.29776489
-349.309573 -2.498419505e-05 -20.70754689
-370.067929 -2.498419505e-05 -13.00272689
269.703542 -2.498419505e-05 -50.65564989
399.504595 -43.77112228 -175.8787769
-109.782626 -2.498419505e-05 -95.95475289
65.559927 -11.802025 -6.128848889
2.60862 -2.498419505e-05 -191.5439359
230.579705 -2.498419505e-05 -73.96718789
57.899197 -2.498419505e-05 -49.81231889
-139.442279 -2.498419505e-05 -117.2367569
-313.871102 -2.498419505e-05 -1.230749889
-9.254367 -52.41569004 -0.240829889
-82.631549 -2.498419505e-05 -183.6139429
392.377871 -2.498419505e-05 -119.4165449
-56.680897 -2.498419505e-05 0.595337111
278.866107 -9.831849474 -22.91642789
252.567608 -11.83257278 -20.84668889
-28.02654 -2.498419505e-05 -185.1392419
-331.765657 -2.498419505e-05 -60.80271289
-243.683619 -2.498419505e-05 -72.32264789
395.504595 -41.61807056 -225.3254649
391.504595 -87.51850885 -179.3858359
395.504595 -65.43597481 -104.7876579
-28.970193 -2.498419505e-05 -53.55448689
85.834 -2.498419505e-05 -171.4841239
110.673654 -2.498419505e-05 -160.3583279
283.669839 -2.498419505e-05 -128.5730869
399.504595 -171.5922653 -194.5115469
-308.869612 -2.498419505e-05 -230.3947989
15.478554 -2.498419505e-05 -54.51974889
78.194714 -41.1592702 -1.104579889
-4.618459 -2.498419505e-05 -40.15515689
-70.879348 -2.498419505e-05 -210.6081959
37.458773 -2.498419505e-05 -213.8898829
399.504595 -243.8606143 -109.0594029
-209.630912 -2.498419505e-05 -159.7164479
395.504595 -56.58477172 -140.3976479
394.754405 -2.498419505e-05 -199.3348519
137.056076 -2.498419505e-05 -109.6455869
391.504595 -150.6706682 -155.5890659
-241.177457 -2.498419505e-05 -57.78933589
-70.027655 -2.498419505e-05 -37.43717589
399.000434 -2.498419505e-05 -42.04088089
339.335804 -2.498419505e-05 -113.5739469
79.467627 -2.498419505e-05 -231.1471309
399.504595 -141.5381815 -63.74262889
391.504595 -14.06958067 -221.3413949
374.094676 -2.498419505e-05 -66.29936789
-281.076068 -2.498419505e-05 -192.2979079
131.799258 -2.498419505e-05 -131.7329129
399.504595 -196.7389823 -99.46291889
-71.609457 -2.498419505e-05 -56.25535189
395.504595 -24.10767654 -196.0308859
-41.140459 -2.498419505e-05 -212.7299289
-239.716282 -2.498419505e-05 -171.2239119
401.86745 -41.04644678 -29.84305789
133.586301 -2.498419505e-05 -173.8272209
391.504595 -13.77053062 -176.0807919
405.800276 -2.498419505e-05 -63.70573889
225.902072 -2.498419505e-05 -149.5985629
9.684093 -2.498419505e-05 -169.2391669
129.304212 -54.1016524 -5.126973889
334.537887 -2.498419505e-05 -79.75831389
-124.370583 -2.498419505e-05 -63.78210189
100.964497 -2.498419505e-05 -226.2499789
399.504595 -0.7120550042 -135.4653789
10.344385 -27.78927032 -1.783286889
292.530134 -2.498419505e-05 -138.4245899
91.047812 -2.498419505e-05 -84.29750789
391.504595 -61.0545437 -153.9007879
-22.088314 -2.498419505e-05 -15.27999089
395.504595 -48.99680874 -213.0441849
330.865119 1.774482956 -27.00884289
-199.538668 -2.498419505e-05 -52.05110089
390.827402 -2.498419505e-05 -158.7683089
395.504595 -63.24351611 -36.92510689
-28.098373 -5.500126834 1.242227111
363.260219 -2.498419505e-05 -101.4266769
316.689512 -42.92204319 -25.89319689
195.820018 -45.32429429 -10.36186789
78.815825 -2.498419505e-05 -160.0692099
42.619922 -2.498419505e-05 -75.31664989
-401.096356 -2.498419505e-05 -75.03244989
-326.890794 -2.498419505e-05 -197.6050399
391.504595 -32.42518606 -70.16981889
4.609172 -2.498419505e-05 -124.7737759
188.508359 -2.498419505e-05 -173.7128089
-80.273507 -2.498419505e-05 -88.69602689
-322.242854 -2.498419505e-05 -142.5720799
125.675304 -2.498419505e-05 -251.6856589
-123.716859 -2.498419505e-05 -244.2018039
254.758944 -2.498419505e-05 -240.9046409
403.36633 -13.089441 -29.84305789
-401.30866 -2.498419505e-05 -15.85197589
-248.855038 -2.498419505e-05 -250.4346049
7.190185 -2.498419505e-05 -217.2843209
286.362055 -2.498419505e-05 -208.5261489
-417.338695 -2.498419505e-05 -93.07966389
11.423843 -9.511928384 -1.868242889
-181.860283 -2.498419505e-05 -149.4048189
255.966379 -58.64075338 -15.09547589
-130.990202 -2.498419505e-05 -21.29019189
370.94018 -31.80450213 -23.84305789
391.504595 -26.16551664 -91.86475589
391.504595 -161.8440506 -111.5171129
363.131706 -53.26824622 -29.54828089
289.881336 -2.498419505e-05 -165.2646139
236.982325 -2.498419505e-05 -215.9796449
396.493853 -179.1097492 -53.19779189
-160.663329 -2.498419505e-05 -100.1413379
-268.679941 -2.498419505e-05 -49.02294289
404.926328 -2.498419505e-05 -106.1418759
399.504595 -247.1351332 -80.92582889
212.37003 -2.498419505e-05 -123.0594469
189.538183 -2.498419505e-05 -86.19988689
185.821146 -10.43093577 -9.574941889
171.717156 -2.498419505e-05 -202.8458139
-59.74774 -2.498419505e-05 -135.0138419
-270.203202 2.359438536 -216.3975789
193.547077 -2.498419505e-05 -208.0715229
272.755488 -2.498419505e-05 -168.5704229
382.394973 -2.498419505e-05 -40.59361789
83.409265 -2.498419505e-05 -119.2645889
112.242036 -2.498419505e-05 -107.2260099
-118.082304 -2.498419505e-05 -127.5255279
-240.837405 -2.498419505e-05 -193.7386039
395.504595 -227.6033026 -116.2753659
-9.747729 -2.498419505e-05 -74.97933389
119.956994 -2.498419505e-05 -235.0396529
-93.621091 -2.498419505e-05 -227.3356059
349.695058 -2.498419505e-05 -141.9599139
405.53597 -2.498419505e-05 -154.4954479
-187.70209 -2.498419505e-05 -101.8025839
144.764827 -5.025573214 -6.343747889
-61.463965 -2.498419505e-05 -103.5293159
65.154822 -2.498419505e-05 -137.4029749
50.801752 -2.498419505e-05 -85.14547689
-264.009817 -2.498419505e-05 -186.2872549
-289.66006 -2.498419505e-05 -44.38966789
-229.054642 -2.498419505e-05 -74.21485389
399.504595 -111.8273477 -148.2560009
395.504595 -59.87899571 -51.78193089
-271.167013 -2.498419505e-05 -69.69859489
399.504595 -126.3835736 -157.9961709
-378.600661 -2.498419505e-05 -89.32486489
203.631527 -2.498419505e-05 -138.6330969
-343.584338 -2.498419505e-05 -243.1190469
49.819195 -2.498419505e-05 -36.31263389
399.504595 -83.72484684 -150.8135069
395.504595 -193.0090525 -182.6967539
-2.575351 -2.498419505e-05 -246.6539139
-68.94283 -2.498419505e-05 -153.7350679
-289.879644 -2.498419505e-05 -15.72940789
-309.137043 -2.498419505e-05 -199.9652419
34.821558 -46.20525549 2.308952111
348.56032 -2.498419505e-05 -52.10401189
399.504595 -16.08584632 -139.1325279
391.504595 -46.04798885 -162.4859659
-41.472635 -17.56756893 2.294805111
-161.951058 -2.498419505e-05 -211.7862139
-128.893628 -2.498419505e-05 -170.3571689
70.743736 -66.09562356 -0.518176889
391.504595 -59.13787477 -77.61478889
277.119568 -66.38408515 -16.76026389
286.704549 -2.498419505e-05 -30.63281689
-55.044444 -2.498419505e-05 -221.9002979
127.776586 -16.82333007 -11.02541189
168.619522 -2.498419505e-05 -243.9582879
395.504595 -134.4382527 -137.8867159
235.122573 -2.498419505e-05 -234.7678919
395.504595 -116.3113969 -189.5848019
-215.030089 -2.498419505e-05 -176.3449879
-86.919018 -2.498419505e-05 -12.11819489
395.504595 -186.0408832 -133.2191799
-314.250711 -2.498419505e-05 -21.08603989
-28.927795 -35.11151149 1.307504111
405.627557 -42.35067365 -208.8430579
399.504595 -98.76091591 -128.4157719
-338.705333 -2.498419505e-05 -88.68659989
-190.06097 -2.498419505e-05 -239.2810099
230.572948 -2.498419505e-05 -113.5446489
258.366698 -2.498419505e-05 -73.87559589
185.181666 -2.498419505e-05 -228.8153459
160.929055 -2.498419505e-05 -233.8865419
391.504595 -69.58705227 -230.9091659
395.810383 -153.9907509 -202.9118059
-169.22139 -2.498419505e-05 -172.1546999
-148.000345 -2.498419505e-05 -60.61468889
391.504595 -70.23348881 -193.3194299
397.213014 -2.498419505e-05 -244.1348839
82.779331 -2.498419505e-05 -199.4552509
391.504595 -88.06509563 -211.9923389
65.986737 -2.498419505e-05 -154.1957209
354.520931 -2.498419505e-05 -116.8492019
208.034247 -36.24253368 -11.32314589
410.469966 -2.498419505e-05 -215.9015699
328.673809 -58.83528219 -26.83638289
383.834103 -2.498419505e-05 -170.7720199
161.802907 -2.498419505e-05 -115.1765679
91.945412 -57.80049633 -8.205433889
391.504595 -31.98251443 -177.7254779
-268.621154 -2.498419505e-05 -173.1238359
-288.724308 -2.498419505e-05 -108.6641269
102.067165 -2.498419505e-05 -238.7201149
376.727132 -56.36642813 -29.84305789
74.999115 -2.498419505e-05 -208.9919379
-29.192779 -2.498419505e-05 -103.1278859
399.584535 -197.4634316 -201.2991669
395.504595 -224.1044532 -166.5271559
-278.402752 -2.498419505e-05 -154.5253349
395.504595 -235.8377961 -152.3468449
-47.793544 -2.498419505e-05 -202.1121069
403.998696 -82.63751159 -208.8430579
414.788298 -2.498419505e-05 -233.8011329
-112.226543 -2.498419505e-05 -43.25632189
338.231554 -2.498419505e-05 -237.3703109
339.604677 2.032790946 -98.82724789
-83.667724 -2.498419505e-05 -50.59863789
413.094511 -173.5406221 -204.8430579
245.081512 -68.00002402 -16.80206989
399.504595 -132.0261501 -176.1125279
-317.023122 -2.498419505e-05 -249.5436279
399.504595 -207.6879108 -80.81121989
399.504595 -35.90844744 -153.6964789
241.982094 -33.45602029 -20.01358989
-398.061787 -2.498419505e-05 -47.34625989
399.504595 -46.93178212 -195.4180719
159.412982 -27.71985617 -7.496579889
-285.059752 -2.498419505e-05 -165.5377789
31.13886 -2.498419505e-05 -174.7174129
399.504595 -85.15717248 -188.1944199
-382.043044 -2.498419505e-05 -177.6950779
178.523361 -2.498419505e-05 -20.75012489
395.504595 -45.09396164 -100.3404449
-6.72982 -2.498419505e-05 -88.26464289
291.289581 -2.498419505e-05 -64.25504989
330.787687 -2.498419505e-05 -139.3780989
399.504595 -35.06537557 -191.1419639
391.504595 -26.82300348 -156.3673049
-82.009577 -2.498419505e-05 -215.8632719
-85.441646 -2.498419505e-05 -71.82385389
106.303787 -2.498419505e-05 -64.96401489
135.457822 -30.86813992 -5.611272889
402.359933 -112.1822078 -49.02426389
250.370739 -2.498419505e-05 -21.63749589
213.558854 -2.498419505e-05 -219.3741409
-106.671223 -2.498419505e-05 -205.9890709
391.504595 -61.98679032 -118.4069969
273.585999 1.238681696 -22.50090389
-215.086759 -2.498419505e-05 -106.5272909
-106.517395 -2.498419505e-05 -27.91825689
402.362776 -151.8556195 -53.07014689
-355.63965 -2.498419505e-05 -107.9366979
207.014344 -2.498419505e-05 -71.19211189
171.230169 -9.843931604 -8.426609889
303.402494 -40.16573851 -24.84748489
-354.558799 -2.498419505e-05 -121.4243399
-252.445286 -2.498419505e-05 -214.0189269
391.504595 -95.29500584 -66.90182889
323.941324 -2.498419505e-05 -177.9244129
324.352384 -2.498419505e-05 -235.4251869
-125.31323 -2.498419505e-05 -35.80069189
16.648824 1.631400756 -2.279457889
233.509937 -2.498419505e-05 -133.9994129
-109.805661 -2.498419505e-05 -151.9799629
-372.47062 -2.498419505e-05 -46.82997489
111.355187 -2.498419505e-05 -133.6444699
399.504595 -13.49321738 -94.51350889
405.952075 -69.97921082 -204.8430579
300.830283 -2.498419505e-05 -110.7858189
217.326912 -2.498419505e-05 -51.01534989
47.498911 -2.498419505e-05 -61.26571089
-302.19445 -2.498419505e-05 1.636709111
278.124651 -2.498419505e-05 -154.9440299
279.043558 -2.498419505e-05 -90.97833089
125.94351 -2.498419505e-05 -162.9768319
324.146119 -5.923544214 -20.46132389
295.036568 -49.24091636 -18.17035889
399.504595 -233.9995906 -174.8943889
-294.567265 -2.498419505e-05 -81.50637289
-35.992003 -2.498419505e-05 -69.12010189
164.706123 -57.22194701 -7.913157889
15.592718 -2.498419505e-05 -193.5779769
-128.872684 -2.498419505e-05 -82.49847489
370.829426 -2.498419505e-05 -43.03454289
395.504595 -238.3876919 -121.0884209
-150.885274 -2.498419505e-05 -76.07989489
28.598318 -2.498419505e-05 -43.19475089
217.666717 -2.498419505e-05 -163.3637539
-33.849728 -2.498419505e-05 -203.4527829
414.507127 -225.0226249 -52.84305789
187.873969 -2.498419505e-05 -161.9792269
81.565103 -50.61594524 -7.388484889
-39.91827 -2.498419505e-05 -180.9102859
399.504595 -164.2518646 -119.8439969
-17.12973 -2.498419505e-05 -140.6735299
208.252819 -2.498419505e-05 -234.6061249
399.504595 -207.9507801 -178.7740329
-301.218151 -2.498419505e-05 -187.2434289
301.629579 -2.498419505e-05 -235.8688799
399.504595 -213.9784962 -162.2986419
395.504595 -108.9479317 -77.10924489
399.504595 -86.84597174 -116.5277619
391.504595 -15.6530264 -77.61683289
-171.876961 -2.498419505e-05 -188.6251049
395.504595 -143.5711506 -186.8133069
-29.504437 -2.498419505e-05 -81.51825289
36.594644 -2.498419505e-05 -17.18801489
365.759233 -4.498368284 -23.73633789
-5.793731 -2.498419505e-05 -177.2716889
202.243986 -2.498419505e-05 -49.04456989
228.900933 -7.868929084 -12.96538489
395.504595 -165.5628897 -60.72344089
267.086862 -42.09233049 -15.97067489
30.010498 -2.498419505e-05 -232.0945169
399.504595 -123.8154853 -95.48050189
399.504595 -154.0543602 -76.35014389
399.504595 -153.7631108 -90.36357489
-371.993432 -2.498419505e-05 -165.5536199
225.873903 -24.62510664 -12.72715289
399.504595 -186.3845754 -112.0525329
319.368259 -29.58232469 -26.10401989
365.204392 -2.498419505e-05 -180.5158669
227.264098 -2.498419505e-05 -175.8876049
399.504595 -224.6914085 -139.5230949
262.81947 -2.498419505e-05 -115.9973319
369.310531 -2.498419505e-05 -128.9899439
237.589304 -12.74883497 -19.66786889
-257.314331 -2.498419505e-05 -150.1409279
357.453483 -26.98826565 -23.08266289
395.504595 -23.27309347 -170.3668899
165.094644 -2.498419505e-05 -80.55818989
23.816622 -2.498419505e-05 -146.5953009
399.504595 -59.56865506 -129.1987919
13.707282 -2.498419505e-05 -76.92783589
-355.02877 -2.498419505e-05 -30.70649989
100.694092 -37.487933 -2.875314889
406.87995 -2.498419505e-05 -117.8838239
408.263181 -2.498419505e-05 -82.82067389
395.504595 -176.916966 -96.40753289
-399.229475 -2.498419505e-05 -96.81179889
347.856023 -18.27996731 -22.32732889
380.514453 -2.498419505e-05 -117.8479339
391.504595 -39.6962599 -50.42546289
-238.656965 -2.498419505e-05 -41.72624189
383.755093 -1.040754824 -23.84305789
416.907841 -118.1402679 -204.8430579
416.917776 -142.49234 -204.8430579
-44.344412 -2.498419505e-05 -9.577228889
318.444576 -2.498419505e-05 -251.1370609
391.504595 -112.5160362 -107.8677149
139.75094 -2.498419505e-05 -40.40367089
29.642015 -2.498419505e-05 -191.4735879
344.089009 -2.498419505e-05 -171.9071589
-337.885501 -2.498419505e-05 -21.12595389
391.504595 -102.0205073 -120.1041509
391.504595 -70.9240131 -87.84121189
399.504595 -91.94543858 -166.6808179
407.553778 -29.06938589 -204.8430579
399.504595 -204.202592 -108.2752739
-188.245311 -2.498419505e-05 -130.4707259
360.101065 -2.498419505e-05 -251.7275129
-277.970908 -2.498419505e-05 -130.5472039
289.597665 -67.0195554 -17.74230889
-255.584396 -2.498419505e-05 -239.6254119
-53.487467 -2.498419505e-05 -189.3935399
391.504595 -76.20437948 -67.19271289
-380.625565 -2.498419505e-05 -111.4568419
391.504595 -41.45009367 -235.9141959
395.504595 -212.2870093 -140.6817379
310.745008 -2.498419505e-05 -210.7670929
391.504595 -62.77659695 -219.0684959
399.504595 -91.47422842 -100.2467989
4.039823 -2.498419505e-05 -136.3197009
-15.662879 -2.498419505e-05 -249.7206169
80.111164 -2.498419505e-05 -136.1171849
255.888171 -2.498419505e-05 -43.59544589
115.162871 -2.498419505e-05 -35.38025989
395.533592 -133.0037979 -56.65999989
-53.86935 -2.498419505e-05 -95.11735189
292.970854 -6.098850444 -18.00778389
54.392378 -2.498419505e-05 -172.0225079
-145.968096 -2.498419505e-05 -149.5330949
-262.676429 -2.498419505e-05 -137.1206099
-367.130075 -2.498419505e-05 -196.6347899
395.504595 -176.9749794 -79.87917789
38.371284 -2.498419505e-05 -152.5149709
-364.470113 -2.498419505e-05 -248.1592249
114.350422 -68.00002402 -7.464633889
398.36927 -135.8966646 -206.9440489
-38.39232 -61.5196817 2.052379111
6.410513 -2.498419505e-05 -47.99478289
25.51286 -2.498419505e-05 -117.6394039
-136.638147 -2.498419505e-05 -131.9555179
-116.189578 -2.498419505e-05 -212.0909929
399.504595 -220.6783908 -92.34369089
284.506766 -2.498419505e-05 -242.0429609
28.085705 -38.27437999 -3.179560889
320.00865 -2.498419505e-05 -159.5252889
-68.211843 -2.498419505e-05 -237.4630949
391.504595 -105.3009468 -188.7540059
56.298461 -2.498419505e-05 -26.38232489
-302.975821 -2.498419505e-05 -21.34646489
207.520396 -17.26589175 -11.28270489
-348.082277 -2.498419505e-05 -208.2967449
391.504595 -75.06800529 -174.5818139
-236.742181 -2.498419505e-05 -96.32306689
-18.187129 -2.498419505e-05 -42.65033489
-84.527467 -2.498419505e-05 -246.5324799
300.017446 -23.01117416 -18.56236089
399.504595 -138.9817306 -93.81541189
95.064982 -2.498419505e-05 -42.69127389
-134.82658 -2.498419505e-05 -105.6489399
158.613286 -2.498419505e-05 -55.83247289
248.864818 -2.498419505e-05 -192.2370229
-231.492326 -2.498419505e-05 -221.0715849
395.504595 -119.3906572 -62.42075389
178.49387 -2.498419505e-05 -54.56665889
182.23226 -2.498419505e-05 -122.6246829
-370.38433 -2.498419505e-05 -24.05935989
-38.001405 -42.06893067 2.021613111
119.097804 -9.144249604 -10.34237589
93.937822 -2.498419505e-05 -180.5652919
-189.793834 -2.498419505e-05 -25.13414889
29.575956 -2.498419505e-05 -129.7216999
-177.198445 -2.498419505e-05 -122.0830499
399.504595 -51.52460858 -79.22011189
404.669887 -223.14725 -204.8430579
391.504595 -4.104782864 -59.11023589
328.628328 2.432553436 -216.5447949
90.041174 -2.498419505e-05 -227.7696339
-235.937985 -2.498419505e-05 -244.4275309
-320.834348 -2.498419505e-05 -49.20290789
260.662238 -49.14140415 -21.48375089
273.895777 -2.498419505e-05 -80.44892989
399.504595 -118.3055552 -173.5267139
-10.437334 -2.498419505e-05 -63.99048989
167.489239 -2.498419505e-05 -176.3003089
15.705464 -2.498419505e-05 -123.2045119
16.601678 -2.498419505e-05 -66.31909989
-393.865873 -2.498419505e-05 -206.0316389
-300.223663 -2.498419505e-05 -160.1633929
399.504595 -58.47222564 -163.0556089
256.491465 -2.498419505e-05 -229.7376199
-235.573932 -2.498419505e-05 -14.00131189
181.157219 -2.498419505e-05 -188.2026249
-348.973385 -2.498419505e-05 -172.6968779
402.157036 -2.498419505e-05 -53.35592589
395.504595 -33.79090794 -133.3094629
412.51583 -161.119234 -52.84305789
-165.574683 -2.498419505e-05 -32.39986389
134.350858 1.101643476 -149.9341219
115.111453 -2.498419505e-05 -75.32439889
391.504595 -22.01430774 -55.06624989
66.363139 -2.498419505e-05 -181.1957549
395.504595 -27.64865476 -249.1776609
46.233741 -62.05701703 1.410796111
96.381583 -2.498419505e-05 -114.9364979
391.504595 -163.3316475 -88.09335989
62.12835 1.056557026 -5.858777889
119.004431 -41.43154744 -4.316365889
73.413047 -2.498419505e-05 -38.23008689
-205.944977 -2.498419505e-05 -147.6147479
-286.693785 -2.498419505e-05 -95.84670689
-93.318043 -2.498419505e-05 -32.75024289
-177.651846 -2.498419505e-05 -207.6206789
413.571145 -173.8034102 -48.84305789
307.643437 -60.69037944 -25.18125489
395.504595 -189.6304695 -193.0338519
-235.627129 -2.498419505e-05 -161.0432069
-221.22078 -2.498419505e-05 -189.0404559
212.843053 -2.498419505e-05 -31.02972989
-265.528739 -2.498419505e-05 -11.16125089
268.080235 -2.498419505e-05 -68.99977089
407.688594 -31.63670449 -23.84305789
227.889821 -56.47554526 -18.90450289
59.70213 -2.498419505e-05 -62.97252689
46.521216 -29.16558805 1.388171111
-136.995074 -2.498419505e-05 -142.9301779
-6.642035 1.361269226 -215.0113659
200.509715 -5.674942054 -10.73095389
125.1951 -28.15887351 -10.82224389
105.258923 -57.81290106 -3.234573889
-73.327743 -2.498419505e-05 -117.4104099
-271.867043 -2.498419505e-05 -245.3744419
-167.829074 -2.498419505e-05 -75.06562789
-48.041549 0.2486846158 -161.2042899
395.504595 -137.1899837 -166.6128809
391.504595 -79.25886347 -133.4788569
395.504595 -141.5690785 -73.76959389
391.504595 -31.68814792 -82.17586589
391.504595 -24.63754915 -206.0322919
306.873023 -2.498419505e-05 -131.3576299
48.636495 0.5628970958 -4.796994889
-170.978864 -2.498419505e-05 -155.1465169
7.405851 -2.498419505e-05 -181.2252709
48.984297 -43.48721876 1.194323111
-398.352843 -2.498419505e-05 -195.7888629
391.504595 -88.87635297 -145.8304189
399.504595 -247.8340133 -163.4927349
395.504595 -73.8634836 -56.24163589
-130.918955 -2.498419505e-05 -200.8571979
-120.139014 -2.498419505e-05 -222.7797639
164.939658 -2.498419505e-05 -218.7775909
-330.123144 -2.498419505e-05 -102.2243359
417.066675 -202.2431234 -204.8430579
351.806595 -2.498419505e-05 -65.07042289
395.504595 -215.0357451 -72.12545089
380.145523 -2.498419505e-05 -75.12558089
237.219798 -2.498419505e-05 -60.46591089
190.767886 -2.498419505e-05 -219.6919869
316.044864 -2.498419505e-05 -90.53807989
-106.120216 -2.498419505e-05 -64.16261589
161.571399 -36.15774129 -13.68512389
406.358723 -57.15576988 -23.84305789
-98.256973 -2.498419505e-05 -169.2298749
-195.046433 -2.498419505e-05 -178.7622379
-353.585533 -2.498419505e-05 -65.66799189
399.504595 -2.885146634 -95.56517989
399.504595 -176.420934 -115.8190909
-121.845331 -2.498419505e-05 -74.49047689
413.596677 -141.5613595 -52.84305789
139.920475 -43.71240881 -11.98115789
-358.362539 -2.498419505e-05 -0.514773889
391.625139 -120.3123373 -154.3009099
395.504595 -121.8099434 -119.0991419
227.600474 -2.498419505e-05 -48.39259789
391.504595 -46.97718188 -85.51099289
395.504595 -228.7054405 -58.97802489
-151.037323 -2.498419505e-05 -36.16299189
53.290937 -2.498419505e-05 -153.4887669
374.225117 -2.498419505e-05 -99.33174289
395.504595 -214.0849926 -100.9648149
399.504595 -61.02689687 -196.7787109
135.659873 -67.68133735 -5.627173889
94.42118 -2.498419505e-05 -9.124089889
-15.823472 -26.41853674 0.276170111
188.96784 -58.47518309 -15.84127289
406.155418 -204.8700307 -204.8430579
401.929186 -1.375991374 -23.84305789
399.504595 -241.4017901 -142.7811969
80.415548 -2.498419505e-05 -57.18839089
158.764538 -2.498419505e-05 -196.7540559
39.777841 -2.498419505e-05 -40.27842889
-176.898772 -2.498419505e-05 -250.3490439
128.735161 -2.498419505e-05 -74.70497989
395.504595 -15.87741327 -153.2985549
305.103297 -2.498419505e-05 -250.1857469
-137.322676 -2.498419505e-05 -6.112792889
-228.859224 -2.498419505e-05 -152.4210549
-161.733881 -2.498419505e-05 -234.3834669
-200.536032 -2.498419505e-05 -74.46583189
76.917494 -16.46053456 -1.004060889
-249.201709 -2.498419505e-05 -116.0837469
