# .PCD v0.7 - Point Cloud Data file format
VERSION 0.7
FIELDS x y z
SIZE 4 4 4
TYPE F F F
COUNT 1 1 1
WIDTH 1268
HEIGHT 1
VIEWPOINT 0 0 0 1 0 0 0
POINTS 1268
DATA ascii
-13.500029 -45.63457757 -245.4911264
-13.500029 -20.41146613 -193.7878094
-23.913463 -2.498422495e-05 -79.42981339
-17.500029 -33.7510718 -46.53612739
-15.590121 -2.498422495e-05 -143.1803924
-17.500029 -62.44649596 -245.7287644
-13.500029 -14.86279277 -125.9784814
-13.500029 -20.05115083 -231.9914004
-13.839001 -2.498422495e-05 -31.18991239
-13.500029 -67.56674505 -95.50711839
-13.500029 -90.95828047 -243.0855984
-37.85094 -2.498422495e-05 -140.0615064
-13.500029 -30.63641226 -165.0971414
-17.500029 -10.26382048 -120.3449804
-16.762207 -2.498422495e-05 -45.87132039
-17.147903 -129.9636543 -217.4266234
-17.500029 -101.3835137 -45.14607439
-13.500029 -28.00501348 -188.7738414
-17.500029 -76.60241902 -51.40175439
-13.500029 -96.15510259 -211.5398314
31.369811 -2.498422495e-05 -141.6138814
-13.500029 -135.8949602 -218.1512154
-13.500029 -12.47753489 -146.4205874
-17.500029 -71.77861076 -100.1023074
-13.500029 -11.85060778 -219.8687734
-4.787757 -46.69236953 -9.73861047e-05
-13.500029 -45.867653 -44.26671839
-17.500029 -43.52901236 -30.32539139
-17.196951 -134.000025 -231.0788504
-13.500029 -109.457984 -228.5291914
-13.500029 -4.675047194 -54.68072439
-17.500029 -38.17911103 -15.29311339
-17.500029 -17.20339662 -81.12348539
-17.500029 -59.47630935 -78.32228839
-8.707286 -2.498422495e-05 -240.7272884
-17.500029 -82.5479176 -67.92555139
-17.500029 -66.6247188 -40.74519739
-13.500029 -34.21979143 -145.9594204
-17.500029 -66.78201586 -174.0182514
-13.500029 -4.590481814 -48.53756539
-13.500029 -24.80464964 -197.6003114
-13.500029 -104.98863 -246.4701294
-17.500029 -22.18795994 -68.37197339
-13.500029 -3.772133844 -204.9288894
-17.500029 -56.28163265 -51.99112139
-13.500029 -135.523486 -42.70984239
-13.500029 -3.666336334 -67.57991939
-17.500029 -69.56116179 -126.1213984
-29.154942 -7.904425784 -9.73861047e-05
22.963105 -2.498422495e-05 -58.30132039
-17.500029 -66.46312353 -50.93594439
14.7838 -2.498422495e-05 -194.8689754
-13.500029 -11.98097665 -197.7141674
-17.500029 -17.39542859 -200.0401064
-13.500029 -59.09712843 -181.1115284
-13.500029 -67.3709143 -187.7323194
-17.500029 -127.1781165 -74.53701539
-13.500029 -31.11743748 -18.25111839
-13.500029 -10.16578388 -82.84689939
-17.500029 -81.87825575 -89.39208639
-13.500029 -36.85523896 -78.14612639
-17.500029 -89.60529524 -221.4960824
-13.500029 -61.67155558 -250.4340504
-13.500029 -56.65571322 -26.03867739
-17.500029 -44.45129678 -20.31650239
-26.137178 -63.50510676 -9.73861047e-05
31.365094 -26.92959651 -1.169920386
-13.500029 -19.7892801 -208.4392104
-16.894086 -88.34475928 -201.5350194
-17.500029 -41.3317237 -118.7762604
-17.500029 -106.5808623 -218.1330724
-17.500029 -5.346822264 -174.4341184
-5.340277 -25.65928062 -9.73861047e-05
-4.102092 -2.498422495e-05 -4.874947386
-13.500029 -55.26062874 -83.90510339
-17.500029 -44.38454651 -103.4358154
-17.500029 -10.90554762 -97.31916339
-11.422285 -8.943862374 -9.73861047e-05
-17.500029 -140.1755715 -51.74894339
-17.500029 -3.365407934 -87.21963439
-17.312439 -100.5606131 -79.18120639
-17.500029 -126.3043145 -247.5009704
-17.500029 -60.0066461 -22.69780939
-13.500029 -98.54976813 -231.7329414
-13.500029 -16.73781051 -34.40179339
-13.500029 -48.55833194 -142.8275874
-13.500029 -109.6101256 -209.7991074
-17.500029 -68.67199956 -76.73143239
-13.500029 -29.71587345 -128.7133464
-17.500029 -49.9060494 -108.6528524
3.601005 -2.498422495e-05 -41.31611339
-17.500029 -51.84134259 -146.8233094
-17.500029 -49.3065919 -239.0147214
-13.500029 -25.29258068 -29.41915139
-17.500029 -27.77903807 -77.45894539
-13.500029 -47.14131379 -111.4542394
-17.500029 -22.06973257 -238.6803694
-17.500029 -28.64068578 -176.2964214
-17.500029 -138.9043364 -69.54768939
-13.500029 -56.65806507 -242.0949784
23.407121 -26.23501721 -0.5436133861
31.66344 -59.331552 -1.193400386
-17.500029 -103.9853563 -239.8664744
-13.500029 -115.9439167 -61.57628739
-17.500029 -6.741704884 -202.6393624
-17.500029 -32.21314024 -30.70013639
-13.500029 -58.49077287 -72.77129639
-13.500029 -122.3639542 -216.6436774
-7.690097 -2.498422495e-05 -27.24285939
-17.500029 -29.0217256 -152.1675704
-27.6142 -2.498422495e-05 -114.9704284
3.747633 -0.7500249842 1.109612614
-17.500029 -112.2357947 -70.34568139
-13.500029 -16.48445864 -179.0362554
-13.500029 -51.77586848 -201.1269464
18.202994 -46.42295022 -0.1340393861
-9.367787 -68.00002402 2.396943614
-13.500029 -120.9535114 -211.2847594
-12.041255 -2.498422495e-05 -138.5264074
-13.500029 -25.9255921 -16.59337739
34.956611 -2.498422495e-05 -35.43117139
-13.500029 -70.93900225 -237.9912104
10.962202 -17.14041508 -9.73861047e-05
-13.500029 -36.48263188 -119.4853384
-13.500029 -60.80857089 -32.30802139
-17.350168 -133.9895794 -52.94086339
-13.815664 -114.4076731 -38.00009739
-13.500029 -82.8228326 -209.0053364
-13.500029 -31.07542023 -172.7972114
-13.500029 -75.38258071 -225.1642044
-17.218353 -2.498422495e-05 -127.5172854
-17.500029 -34.38355443 -115.5369524
-17.500029 -22.86385045 -166.7848954
-17.500029 -67.61650814 -206.9982024
-17.500029 -58.55855838 -66.35247139
-13.500029 -117.7738861 -72.23776839
-17.500029 -59.36716087 -36.98138339
29.047059 -2.498422495e-05 -96.63275939
-13.500029 -22.3238665 -126.7999974
-13.500029 -71.88352393 -209.5971934
-17.500029 -61.58858506 -176.1565154
14.942499 -3.268314084 -9.73861047e-05
-13.500029 -83.41520952 -75.53610939
-17.500029 -140.910592 -245.7359844
-17.500029 -4.683314134 -224.9893244
-13.500029 -58.21679974 -121.5036484
-13.500029 -138.418547 -226.6618404
-8.585673 -2.498422495e-05 -218.0584174
-1.831633 -2.498422495e-05 -231.0703104
22.45391 -2.498422495e-05 -11.96543539
-17.500029 -52.21468609 -189.9194724
-10.700913 -2.498422495e-05 -123.4531214
-13.500029 -121.6624499 -235.4260924
-13.574473 -25.14149959 -64.25559839
-17.500029 -45.17603937 -128.0157264
-17.500029 -71.79269652 -27.56946639
-17.500029 -67.43073071 -228.7133044
-17.500029 -55.33872195 -204.4018534
-17.500029 -15.2275348 -182.3461664
-17.500029 -67.61173014 -57.63734839
-34.151518 -2.498422495e-05 -91.28050639
-13.500029 -49.51809746 -133.8331604
-13.500029 -79.01663536 -213.6498964
-37.110326 -2.498422495e-05 -220.6494064
-17.500029 -48.58606884 -196.0329084
-13.500029 -19.92817739 -137.7965184
19.599499 -2.498422495e-05 -78.23947839
-17.500029 -7.529870794 -136.7399234
-17.500029 0.5729704158 -79.06702439
7.064813 -48.38747991 -9.73861047e-05
-17.500029 -72.98625775 -66.44292839
-13.500029 -22.06478936 -180.4306974
-13.578273 -2.498422495e-05 -190.9282884
-14.438432 -145.000025 -228.1744204
-13.500029 -115.8011777 -215.2497214
-13.500029 -76.98567396 -203.0768114
-17.500029 -107.3515029 -232.2522694
-17.500029 -77.37121925 -34.38584039
-13.500029 -20.24512874 -224.7581744
-13.500029 -62.59530151 -192.1998624
-13.500029 -1.024152134 -9.757119386
-13.500029 -9.243874654 -129.5759794
-17.067178 -2.498422495e-05 -40.45188639
-17.500029 -48.46254352 -8.429232386
-13.500029 -39.71623321 -7.679592386
-13.500029 -11.19727406 -109.4758584
-13.500029 -1.106446884 -20.00662239
-29.579617 -2.498422495e-05 -139.4549154
-17.500029 -9.745912304 -14.22613839
-17.500029 -31.00020659 -246.5817504
-17.500029 -109.2776044 -61.22597939
-13.500029 -112.80307 -50.31094739
-13.500029 -100.211591 -69.41245739
-13.500029 -31.37499795 -123.5748484
-17.500029 -77.53741122 -193.5286314
-13.500029 -138.4164576 -61.93944039
-13.500029 -46.17935989 -123.1967884
-13.500029 -45.63879228 -85.03470339
-17.500029 -60.52575062 -218.1053934
-30.770002 -2.498422495e-05 -25.28231939
-17.500029 -70.29493559 -33.53863439
-17.500029 -17.50758014 -234.4140004
-13.500029 -68.18421877 -169.9634954
32.283314 -2.498422495e-05 -198.8371394
-13.500029 -58.25509236 -198.7877874
-13.500029 -8.877717254 -185.3948884
-17.500029 -98.80236635 -222.4080394
-17.500029 -62.34725902 -135.1087304
-17.500029 -46.4091626 -153.1996744
-13.500029 -61.87637744 -95.10633039
-13.500029 -4.843528154 -119.1527764
-17.500029 -35.1631939 -109.7859784
-13.500029 -52.0484017 -32.10096939
-17.500029 -22.5581441 -143.3421134
-17.500029 -40.92795385 -93.19108339
-13.500029 -98.61188819 -50.58909039
-17.500029 -2.907246444 -28.90800639
-17.500029 -21.98374813 -121.5175884
-30.734297 -61.07276533 -9.73861047e-05
-13.500029 -48.77911673 -16.78524639
-13.500029 -5.401508954 -78.95228739
-13.500029 -5.126439664 -197.4779194
-13.500029 -61.19721021 -57.99616839
-17.500029 -36.49223418 -245.4721814
-13.500029 -9.390450984 -114.6648894
-13.500029 -46.93489705 -27.10627939
-17.500029 -34.83110524 -164.8075904
-17.500029 -48.98850167 -137.3428764
-17.500029 -91.50722141 -210.2925394
-13.500029 -71.71259389 -245.5290624
-13.500029 -64.83041385 -105.4260444
-13.500029 -37.34281402 -22.57528739
-16.521057 -90.44262244 -250.9598374
-13.500029 -15.88466439 -91.54732439
-17.500029 -131.2527267 -245.9860424
-14.032805 -27.82396698 -231.6385584
-17.500029 -77.01591823 -79.42805539
-17.500029 -40.03910858 -195.8519604
-13.500029 -89.98676186 -52.25367539
-13.500029 -40.78983247 -146.8169994
-13.500029 -6.132642494 -110.4357274
-29.863918 -14.93549168 -9.73861047e-05
-13.500029 -33.97592079 -6.052065386
-17.500029 -91.89477654 -216.8823964
-17.500029 -17.97106193 -129.9462954
-17.500029 -10.55878215 -143.8101664
-17.500029 -68.02613991 -236.5868514
-17.500029 -124.6355385 -213.2963524
-17.500029 -46.00648641 -94.22048939
-17.500029 -70.06235948 -111.2381304
-13.500029 -139.6990453 -45.70349939
-17.500029 -27.44333102 -194.2462464
23.310602 -2.498422495e-05 -116.9582544
-17.500029 -18.52532317 -188.3342894
-13.500029 -94.84200424 -239.5685834
-17.540709 -2.498422495e-05 -91.08824439
-15.664831 -26.66716637 -216.2025444
-17.500029 -7.522530724 -51.03225439
-13.500029 -18.72929622 -114.5774314
-13.500029 -63.1361435 -200.4041504
-17.500029 -141.8687681 -42.13757139
-13.500029 -41.41475415 -101.2131914
-18.000029 0.2756376358 -205.4343044
-13.500029 -10.42915356 -49.56300639
-17.500029 -34.50253329 -25.82160839
-13.500029 -59.40726933 -233.8475444
-17.500029 -11.09276271 -159.1685884
30.158797 -2.498422495e-05 -91.65146639
-17.500029 -30.46066052 -107.2518804
-17.500029 -78.13954709 -217.1596104
-13.500029 -90.60988905 -233.9317204
-17.480631 -88.65617347 -34.54529439
-13.500029 -86.07480093 -225.5217104
-16.479235 -57.96434387 -13.73733339
-13.500029 -67.00427572 -137.3813344
-19.746181 -2.498422495e-05 -136.6124304
-17.500029 -54.31913016 -90.82208439
-13.500029 -50.10299239 -116.9457594
-14.926136 -144.9680047 -68.24326739
-13.500029 -75.002082 -251.3332204
-17.500029 -63.82024103 -124.8431234
-13.500029 -14.63042855 -8.251380386
-17.500029 -131.7432869 -47.69152339
-17.500029 -31.74715337 -35.75560839
-13.500029 -28.55671123 -244.6350614
-13.500029 -11.32987879 -73.11967639
-13.500029 -130.4139718 -213.9305844
12.946771 -30.41989537 -9.73861047e-05
9.398352 -2.498422495e-05 -27.48861639
-13.500029 -36.8002607 -29.26254939
-13.500029 -1.006397424 -99.59559839
-17.500029 -86.33360977 -217.3218654
-13.500029 -49.2263889 -174.0198224
-17.2173 -2.498422495e-05 -174.4854764
-17.500029 -53.79817696 -16.44562339
-10.558169 0.3015524558 0.8314486139
-13.500029 -70.22841584 -39.63492639
-17.500029 -37.66316054 -133.1715934
-17.500029 -25.24528705 -125.7330514
-17.500029 -12.61593325 -228.5401114
-18.726898 -2.498422495e-05 -232.2335104
-11.803716 -2.498422495e-05 -227.9485904
-17.500029 -36.38116287 -188.4817554
-13.500029 -82.74045953 -245.1095114
-17.500029 -10.09401365 -209.1007824
-28.802594 -39.25989345 -9.73861047e-05
-17.500029 -21.07472677 -157.5470244
-17.500029 -137.7504392 -208.5520884
-17.500029 -36.82923749 -143.2525514
-17.500029 -67.33997311 -84.46409839
31.57001 -2.498422495e-05 -182.1022174
-17.996479 0.008552875775 -221.5133464
-13.500029 -44.91799866 -187.6073574
-17.500029 -40.63271637 -161.5804284
-17.500029 -16.84999471 -219.6716784
-17.500029 -32.31852638 -156.0209154
-17.500029 -13.69845828 -34.69655839
-13.500029 -71.20467006 -194.7266144
-17.500029 -4.522594464 -165.9377834
-17.500029 -30.72565854 -211.0581554
-17.500029 -22.54923221 -24.81659839
-17.47017 -54.78217424 -61.06667939
-13.500029 -80.75943992 -221.3845934
-17.500029 -26.89370292 -8.598401386
-17.500029 -100.5601325 -234.5381194
-13.500029 -5.960168984 -149.3584874
-17.500029 -48.43202132 -31.96061939
-17.500029 -63.9646862 -80.55736339
-13.500029 -71.69412318 -85.56776139
-17.500029 -55.65765637 -226.8768314
-13.500029 -11.60888245 -248.4527774
-13.500029 -132.3600307 -38.21909839
-13.500029 -9.739616824 -104.6917384
-13.988755 -65.52237827 -21.31158639
-32.926293 -68.00002402 0.1488596139
-17.500029 -71.69157085 -94.74468839
-13.500029 -60.43695788 -103.0409394
-17.500029 -37.97002566 -206.1636564
-17.500029 -103.6060187 -56.12019439
-17.500029 -90.6560962 -43.33515739
-13.500029 -120.5136807 -58.08049639
-17.500029 -113.4807382 -246.8805784
-17.500029 -19.78781143 -54.59766439
-13.500029 -144.7847929 -238.4006824
32.442792 -2.498422495e-05 -113.0022564
27.833415 -2.498422495e-05 -106.7833504
-13.500029 -37.17995554 -88.54063539
-17.500029 -66.4170898 -155.6095144
-17.500029 -119.1280641 -226.4273584
3.190876 -44.39405463 -9.73861047e-05
-17.500029 -32.06496249 -102.5309974
-13.500029 -73.78186892 -230.7854274
-13.500029 -22.96661159 -99.95938739
-17.500029 -62.48027139 -29.85398739
-13.500029 -36.09769752 -17.75502139
4.734645 -2.498422495e-05 -88.27990339
-13.500029 -69.22090999 -204.5072694
-13.500029 -113.4228931 -231.9454664
-13.500029 -52.35591819 -38.34264039
-17.500029 -44.88264987 -15.37062039
-17.500029 -44.72353337 -82.16398939
-17.500029 -22.81501181 -138.3284184
35.275815 -18.83628182 -1.477701386
-13.500029 -42.41037228 -151.6545894
-17.500029 -72.61537211 -248.3152334
-17.500029 -132.9501663 -72.55651239
-13.500029 -19.14906603 -238.7319364
-17.500029 -46.64637669 -77.36705839
-17.500029 -21.18801036 -183.6788694
-9.028628 -63.68201076 -9.73861047e-05
-13.500029 -10.36633378 -11.13034039
-17.500029 1.769542016 -214.3831874
-13.500029 -63.46720296 -113.1308954
-14.402662 -70.00002402 -119.9289094
-17.500029 -19.21916388 -12.44037939
-13.500029 -10.38461146 -233.2592174
-13.500029 -52.03304529 -247.2864444
-17.500029 -53.18291721 -142.0709104
-17.500029 -68.89771617 -196.7335144
-32.850291 -2.498422495e-05 -66.15375239
-13.500029 -105.3148336 -64.01402939
-13.500029 -19.9253697 -66.59269639
-17.500029 -48.25831146 -247.9366814
-17.500029 -55.1644104 -238.3256094
-17.500029 -8.948979764 -169.7160124
-33.871689 -2.498422495e-05 -56.88396439
-17.500029 -120.7164197 -240.4932824
-17.500029 -4.374428284 -248.5765424
-17.500029 -24.35789524 -83.66657239
-13.500029 -141.2320805 -212.4980424
10.964137 -2.498422495e-05 -181.0912064
-17.500029 -50.55284002 -156.8550314
12.765901 -2.498422495e-05 -126.9688384
-17.500029 -10.18428804 -175.3044564
-24.836981 -2.498422495e-05 -238.0152114
-13.500029 -34.29817287 -38.48848939
-17.500029 -5.612461114 -183.9592214
-17.500029 -8.802857354 -76.13276639
-17.500029 -21.77320958 -31.98355739
-13.500029 -25.87467908 -166.9457394
-17.500029 -71.71530865 -50.91197939
-13.500029 -41.4911599 -156.5461764
-21.944811 -2.498422495e-05 -54.70965739
-13.500029 -117.8773519 -41.45714639
-13.500029 -25.84970904 -176.8319984
-13.500029 -58.95296834 -47.94599339
-17.500029 -10.78606769 -39.99667639
-17.276305 -34.59475153 -236.9004564
-13.500029 -39.80650087 -174.8852834
-18.257952 -2.498422495e-05 -103.3662114
-13.500029 -79.53615905 -66.85562939
-17.500029 -21.21190128 -244.2663654
-17.500029 -51.20286239 -79.19603639
-17.500029 -61.89627398 -181.4732354
-17.500029 -30.49933762 -181.9300684
-17.500029 -17.37079994 -119.8870584
-13.500029 -4.250913174 -216.5016494
-13.500029 -9.859703694 -44.10758439
-13.500029 -41.68652314 -41.47461939
-13.500029 -64.53019505 -166.7106954
-17.500029 -77.03220187 -58.78534539
-17.500029 -19.9028552 -151.4944604
-13.500029 -84.98235936 -59.43384539
-24.599312 -46.43748115 -9.73861047e-05
-17.500029 -50.85714055 -166.9369354
-13.500029 -94.42108386 -229.1297084
-17.500029 -95.31970224 -76.44189239
-17.500029 -9.227172424 -245.2449144
-17.500029 -18.50296065 -169.4336464
-13.500029 -27.98846512 -5.775857386
-13.500029 -98.44020402 -74.88523739
-13.500029 -18.81509707 -24.11371239
-13.500029 -104.9893951 -213.5869774
-13.500029 -141.4799555 -58.15025339
-13.500029 -14.30311745 -140.6589164
15.724552 -2.498422495e-05 -33.42288939
-13.500029 -90.52880626 -47.17741539
-17.500029 -40.44752699 -242.6362414
-17.500029 -58.40044994 -209.8139834
-13.500029 -63.2615906 -69.06519439
-17.500029 -26.10482037 -171.4251224
-17.500029 -121.4835609 -65.76645839
-13.500029 -69.05689422 -49.11537039
-17.500029 -60.56789686 -150.1143254
-13.500029 -18.28838874 -161.2748884
-13.500029 -46.10899567 -204.4398794
-13.500029 -65.23034994 -38.38553439
-17.500029 -73.34779407 -205.6142934
-13.500029 -101.6859002 -59.73755739
-13.500029 -57.46215076 -172.6155274
-17.500029 -71.528814 -191.6352374
-13.500029 -21.42990148 -187.8901564
-13.500029 -74.73506924 -60.36572039
-13.500029 -42.23716555 -36.24542339
-22.278794 -2.498422495e-05 -90.10095139
-13.500029 -5.313420934 -238.7334174
-13.500029 -108.0432973 -51.18567739
-17.500029 -37.23037924 -6.146748386
-17.500029 -63.68802602 -252.2765854
-17.500029 -30.08757925 -92.28907639
-13.500029 -77.78916847 -38.55761439
-13.500029 -92.9089986 -219.8245404
-10.892141 -2.498422495e-05 -71.81757639
-17.500029 -99.97153024 -65.39387939
-17.500029 -8.027597934 -90.67584239
-13.500029 -11.52642441 -23.18443739
-23.38281 -2.515713094 -9.73861047e-05
-17.500029 -78.45664546 -46.18112439
22.169236 -2.498422495e-05 -5.269880386
-17.500029 -39.26175526 -113.6698994
-13.500029 -68.8653556 -164.5769614
-13.500029 -7.692308034 -64.70905439
-17.500029 -27.90210334 -25.94327039
-17.500029 -45.78162341 -182.4173084
-13.500029 -22.4008916 -77.47467939
-17.500029 -21.99902024 -17.61689339
-13.500029 -13.66429889 -164.7229254
-17.500029 -71.44606366 -41.99812139
-13.500029 -61.53670254 -214.9842954
-17.500029 -95.55913392 -236.0533534
-17.500029 -28.81968886 -49.61514739
-13.500029 -138.6022652 -241.4740014
-19.424739 -2.498422495e-05 -122.4066494
-17.500029 -5.427107564 -41.68647139
-17.500029 -87.71471102 -241.5751064
-13.500029 -93.27043873 -67.16373839
-13.500029 -60.84521581 -185.5710634
-17.500029 -110.444076 -55.71434939
-13.500029 -79.77083202 -78.64159939
22.277085 -2.498422495e-05 -128.8524084
-17.500029 -8.234876484 -35.42417839
-13.500029 -9.604308524 -54.27631539
-13.500029 -24.53071538 -237.7686544
-17.500029 -7.523027684 -103.2941344
-13.500029 -82.29398675 -233.8965204
-13.500029 -1.248286294 -234.6851674
-13.500029 -4.312243154 -162.3188004
-17.500029 -47.08879945 -200.5728864
-17.500029 -27.18954101 -100.3835004
-13.500029 -50.96577056 -81.81105239
-17.500029 -39.91951667 -167.5077404
-17.500029 -51.54468862 -234.3754604
-13.500029 -57.65683021 -18.00669139
-17.500029 -5.253022284 -57.21822739
-17.500029 -16.62972948 -143.0646834
-17.500029 -76.43694075 -234.2895114
-20.652196 -33.60701164 -9.73861047e-05
-17.500029 -52.63286967 -209.5225334
-17.500029 -52.03576176 -22.80653339
-13.500029 -1.630586384 -26.45743339
-13.500029 -84.72479797 -38.84822839
-17.500029 -52.04363152 -179.6009564
-17.500029 -107.8697394 -222.7148904
-17.500029 -23.51847751 -51.64495639
-17.500029 -38.88774531 -81.25023739
-13.500029 -22.71821008 -70.88597039
-13.500029 -68.14767262 -79.24514039
-13.500029 -36.21537898 -124.2300934
-13.500029 -124.2824139 -240.8269904
-17.500029 -39.99630768 -43.40107839
-13.500029 -33.02022344 -107.3697004
-17.500029 -68.59986537 -184.7380834
4.025693 -2.498422495e-05 -34.05860439
-17.500029 -26.59767357 -35.48732139
-17.500029 -26.10681464 -113.1532854
-13.500029 -65.97333417 -59.92114539
-13.500029 -37.33361367 -152.4268384
-13.500029 -69.59989486 -144.8921464
-17.500029 -6.822689344 -61.91632339
-13.500029 -50.3414596 -154.3344794
-17.500029 -70.62915589 -211.7893994
-13.500029 -40.18779498 -187.5534124
-5.176869 -2.498422495e-05 -162.6985234
-17.500029 -117.3256905 -68.25626239
-13.500029 -85.91158674 -34.27270639
-17.500029 -55.80083452 -218.0064224
-17.500029 -123.3271888 -71.48672839
-13.500029 -20.36114091 -6.391937386
-17.500029 -118.5529476 -46.31825839
-17.500029 -4.631602694 -13.70351539
-17.500029 -80.03358087 -54.64152739
-13.500029 -48.44518181 -97.04736539
-17.466458 -5.648929524 -4.351192386
-13.500029 -69.24241585 -232.8590704
-17.500029 -142.2756423 -47.52660939
-17.500029 -67.17515194 -97.97354639
-13.500029 -13.42886708 -99.16794639
-17.500029 -53.3118133 -194.5027294
-13.500029 -61.37008187 -242.0663814
-13.500029 -36.7846807 -42.84983939
-17.500029 -32.58625821 -242.1257614
-17.500029 -18.73659588 -85.63633339
-17.500029 -56.05663226 -120.2900264
-17.500029 -132.8613487 -67.85233639
-13.500029 -71.16685576 -214.2465734
-17.500029 -131.2732912 -241.0130124
-13.500029 -21.46804673 -20.22967939
-13.500029 -85.48599145 -50.71652939
-17.500029 -86.40489556 -206.5230424
32.725402 -2.498422495e-05 -151.7637734
-13.500029 -21.93894049 -59.26473839
-13.500029 -54.49993048 -124.3816534
-13.500029 -73.20406675 -96.85907539
-17.500029 -11.43743616 -202.8522914
-17.500029 -45.96694866 -166.7801314
-17.500029 -39.45695563 -123.0855944
-13.500029 -109.4678945 -42.04926739
-17.500029 -10.47490197 -131.7087944
-13.500029 -25.79075955 -203.3162204
-17.500029 -3.269923164 -179.8907394
-13.500029 -11.3788292 -181.3637394
-13.818621 -17.58111751 -2.000097386
-17.500029 -10.82775457 -58.92601439
-17.500029 -36.14365346 -160.2213424
-17.500029 -27.48019362 -136.1059854
-17.500029 -70.21494147 -72.30756439
-13.500029 -103.1512846 -53.72492439
-13.500029 -88.18649258 -69.77423639
-13.731827 -129.2414087 -238.8361854
-17.500029 -87.28661292 -62.09178539
-13.500029 -80.45947769 -240.5438214
-13.500029 -112.7818301 -74.11420939
-17.500029 -48.48381955 -162.3828444
-13.500029 -29.33717872 -94.59227439
-17.500029 -47.0241398 -40.52590439
-13.500029 -136.5779463 -67.06416639
-17.500029 -45.36701337 -115.2649554
-17.500029 -94.44935408 -53.41072639
-13.500029 -13.2334943 -40.73591939
-17.500029 -74.61233837 -74.08998239
-13.500029 -102.0121801 -242.8733994
-17.500029 -0.2732677042 -63.23465739
-17.500029 -7.131578184 -161.7458124
-13.500029 -12.49025502 -152.1334224
-13.500029 -67.25644302 -28.63678039
-17.500029 -7.209873934 -188.5868414
-17.500029 -17.42430996 -112.5422344
-17.500029 -96.38412596 -45.03531539
-17.500029 -19.09610487 -177.5008604
-17.500029 -65.86547068 -89.64205939
-17.500029 -119.3273157 -219.2587494
-17.500029 -58.62421283 -159.2944474
-17.500029 -46.95712048 -24.65166339
-13.500029 -136.5897721 -212.8466054
-17.500029 -17.3103435 -30.66962339
-17.500029 -33.45143086 -251.8119314
-17.500029 -5.800815874 -125.0813814
-17.500029 -57.57703219 -125.3090774
25.963089 -2.498422495e-05 -188.5825334
-17.500029 -117.1429263 -233.2964364
-13.500029 -10.6816582 -137.3032874
-17.500029 -7.690942364 -230.1110114
-13.500029 -39.9959293 -12.30995939
-13.500029 -74.90220925 -42.22556339
-17.237777 -39.50516624 -237.9443194
-17.500029 -28.94938962 -40.52412639
-17.500029 -89.47753377 -78.55921239
-17.500029 -56.36119555 -40.50232439
-13.500029 -3.095380394 -153.7510114
-17.500029 -31.83985014 -199.5885664
-15.017784 -49.66701673 -51.58723839
-17.500029 -14.69594477 -76.46813739
-17.500029 -43.05170183 -246.4547254
-13.500029 -2.592793404 -209.6242794
-13.500029 -47.04835149 -238.5264704
-17.500029 -93.12371524 -247.3309324
-17.500029 -3.060909314 -240.6364754
-13.500029 -95.58362333 -38.41193339
-17.500029 -23.22769419 -97.07187539
-17.500029 -15.41562325 -194.6771074
-13.500029 -62.3444842 -132.8134094
-13.500029 -54.05492695 -234.1848234
-17.500029 -23.15327347 -5.907637386
-17.500029 -57.06181678 -174.9155634
-17.500029 -21.52466894 -40.88003939
-17.500029 -48.88718431 -19.06770439
-17.500029 -69.54168889 -115.9065444
-13.500029 -35.69658445 -205.9774204
-13.500029 -26.61627964 -90.69872639
-17.500029 -107.816178 -74.24124139
-17.500029 -87.96043023 -236.2205494
-13.500029 -56.69111345 -155.4441224
-17.500029 -54.07108174 -35.94324239
-17.500029 -84.17867488 -84.09225639
-17.500029 -74.17652918 -221.8322844
-13.500029 -107.3562488 -46.29669839
-17.500029 -19.46455406 -48.05058139
-17.500029 -115.4010554 -211.9905134
-17.500029 -47.05676406 -89.74826639
-13.500029 -11.83104828 -224.8607174
-13.500029 -39.25590867 -182.1111944
-13.500029 -111.663428 -63.23996439
-17.500029 -11.90225821 -81.40897839
-17.500029 -65.96685492 -218.3055834
-17.500029 -21.6136168 -195.6904724
10.686716 -2.498422495e-05 -46.00901539
-17.500029 -109.9332853 -241.9377924
-13.500029 -79.1612789 -52.57329139
-17.500029 -25.34604181 -14.42893539
-17.500029 -69.47122523 -46.32913039
-13.500029 -16.22505797 -55.43643939
-17.500029 -58.4552901 -92.90886539
-17.500029 -27.64055817 -30.97875039
-14.394228 -137.6707324 -77.62510039
-13.500029 -36.58259224 -98.78618439
-13.500029 -8.112300694 -29.11037739
-17.500029 -34.6133989 -88.53996639
-13.500029 -64.52017235 -98.92223739
-17.500029 -15.88491708 -214.2460544
-13.500029 -16.23379918 -105.9257374
-17.500029 -3.580778734 -37.47770039
-13.500029 -8.889774514 -163.0971114
-17.500029 -39.26591322 -128.5747184
-13.838344 -2.498422495e-05 -88.40480139
-13.500029 -21.82153134 -147.3429084
-17.500029 -41.73617238 -153.7615954
-17.500029 -63.75155383 -225.8825734
-13.500029 -93.16271606 -76.90953439
-17.500029 -17.76792056 -104.1000484
-13.684171 -115.7196243 -78.00009739
-17.500029 -85.05734302 -74.07260739
-13.500029 -14.68617761 -216.2924484
-13.500029 -31.94092538 -113.2235054
-13.500029 -44.36582473 -163.0805424
-17.500029 -68.60579218 -106.6154454
-13.500029 -6.054658834 -133.5821544
-17.500029 -37.22965288 -177.9085894
-17.500029 -79.88322017 -211.6463694
-13.500029 -7.429754584 -143.4592744
-17.500029 -5.845748764 -156.6160794
-13.500029 -86.50338467 -44.20941539
-13.500029 -42.98836163 -113.6170894
-13.500029 -129.3202677 -42.71806839
-17.500029 -64.79451735 -24.53806739
-17.500029 -141.6089919 -64.13717739
-11.882077 -2.498422495e-05 -243.9818604
-17.500029 -0.1089938842 -73.48453539
-1.76052 -2.498422495e-05 -186.0605134
16.499971 -28.13111939 2.239684614
-17.500029 -51.36659956 -129.2382654
17.550544 -15.38272576 0.5636196139
-17.500029 -87.39413828 -66.90053839
-13.500029 -67.13759581 -33.96603039
-13.500029 -66.49659443 -213.4124424
-17.500029 -1.998480474 -192.0404434
-13.500029 -63.3179027 -157.3478944
-17.500029 -138.0527569 -59.82413139
-13.500029 -60.57539391 -80.16546739
-17.500029 -42.12297134 -11.76719339
-17.500029 -116.224394 -50.21419739
-13.500029 -46.87798397 -138.6113284
-13.500029 -120.2479103 -67.51856739
-13.500029 -58.68578302 -168.0641944
-13.500029 -11.39448316 -122.5094904
-13.500029 -4.296300754 -61.12074439
-13.500029 -119.1584605 -51.25233739
-13.500029 -20.93539589 -154.5641774
-17.500029 -65.80279154 -169.5913864
-17.500029 -61.02159752 -106.5215094
-17.500029 -22.17240781 -204.0006454
-17.500029 -138.0606842 -219.9760224
-17.500029 -84.06764346 -224.8168824
-17.500029 -39.2239092 -249.0863584
16.440809 -2.498422495e-05 -2.807883386
-13.500029 -77.34616049 -93.87226739
-17.500029 -31.76552881 -137.5641994
-17.500029 -0.5773674542 -154.6541414
-13.500029 -20.2866266 -174.3351334
-17.500029 -50.66177864 -114.9146494
-13.500029 -14.57345954 -67.79267039
-13.500029 -115.7925822 -227.4913774
-13.500029 -49.0989411 -11.55158339
-13.500029 -88.21635974 -76.55149639
-17.500029 -60.67101 -129.1233604
-17.500029 -119.6714252 -209.6346564
-17.500029 -141.7594411 -56.08426139
-16.982456 -82.60562898 -197.0647254
-17.500029 -55.06149788 -151.9609114
-13.500029 -138.8173209 -50.18367639
-13.500029 -21.93460368 -132.0171904
-13.500029 -27.83024807 -161.5734644
-13.500029 -95.43290861 -71.53282239
-17.500029 -91.6338604 -60.63771739
-13.500029 -27.2962823 -250.4339284
-13.500029 -69.8714429 -155.9338884
-16.384087 -128.6804356 -208.0000974
-17.500029 -15.88340901 -124.1350964
-17.500029 -26.17531102 -186.8205054
-13.500029 -40.39504595 -202.8868574
-17.500029 -44.86188214 -239.7140194
-13.500029 -54.25952809 -183.8456794
-13.500029 -14.37425119 -60.30165139
-13.500029 -75.28377949 -65.40726939
-13.904351 -2.498422495e-05 -195.4069004
-17.126778 -133.3244495 -220.4045304
-17.493342 -145.000025 -236.3593054
-17.500029 -68.5933835 -67.35484739
-17.500029 -139.1921316 -237.3794714
-17.500029 -68.61655821 -201.2410294
-15.104811 -106.4066055 -78.23550639
-17.500029 -48.8038669 -186.6639584
-17.500029 -59.93331566 -82.77668839
-17.500029 -29.58489941 -82.54560139
-13.500029 -28.74984176 -235.9852514
-13.500029 -19.35440316 -213.4241744
-17.500029 -66.95666155 -178.4896624
-17.500029 -31.05389966 -130.6871024
-17.500029 -127.377337 -40.84783939
-13.500029 -14.62215746 -83.22507839
-13.500029 -22.14820054 -111.6956564
-14.063631 -122.2893155 -221.3591364
-17.500029 -98.98296432 -212.7075044
-17.500029 -117.0389054 -59.90738439
-17.500029 -120.0680815 -77.31118539
-13.500029 -31.64338543 -184.6898744
-13.500029 -3.567307994 -182.5489204
-13.500029 -99.03328393 -219.1473894
-17.500029 -61.443204 -115.2698164
-17.500029 -57.20528506 -56.35955839
-13.500029 -16.81377012 -221.6513064
-23.863252 -2.498422495e-05 -225.0813014
-17.500029 -16.15219264 -39.66710039
-17.500029 -136.8392845 -225.4812644
-17.500029 -16.3326557 -17.70395039
-13.500029 -67.42693656 -54.44965439
-17.500029 -62.9839617 -208.3257524
-13.500029 -122.0456328 -244.6831274
-17.500029 -56.89741442 -137.1395284
-17.500029 -62.86094237 -233.7108754
-17.500029 -20.48616982 -63.85175139
-17.500029 -88.08224447 -50.11663839
-13.973861 -25.24015928 -225.1311434
-17.500029 -72.36613125 -37.64654539
-13.500029 -65.74201128 -247.8418814
-17.500029 -34.0046496 -42.09834439
-13.500029 -61.57299575 -63.59566739
-25.676986 -2.498422495e-05 -108.8678304
-13.500029 -16.87675335 -147.0329134
-13.500029 -25.32462568 -115.2768524
-13.500029 -76.97023907 -247.3554784
-13.833445 -134.000025 -62.21447839
-17.500029 -59.33795079 -196.0010904
-13.500029 -16.82906006 -15.35084139
-13.500029 -24.69931419 -192.6719814
-13.500029 -32.37767343 -210.1145814
-13.500029 -69.86058294 -134.0015284
-17.500029 -57.93240848 -247.8441854
-17.500029 -47.80467036 -145.0135494
-17.500029 -17.73873289 -228.3311204
-13.500029 -76.37751251 -208.3352854
-17.500029 -45.30306551 -208.8700944
-17.500029 -57.83188493 -110.9365304
-17.500029 -6.934783174 -27.09127139
-17.500029 -44.48555268 -99.01924239
-13.500029 -11.13329415 -5.392231386
12.743392 -2.498422495e-05 -198.7842894
-13.500029 -103.7825435 -226.5500434
-13.500029 -115.4916771 -56.67482039
-13.500029 -42.8859475 -193.0277584
-17.500029 -12.79843753 -236.7409424
-17.500029 -45.47771489 -121.4751624
-17.500029 -107.1670387 -65.09917239
-13.500029 -45.71207257 -176.6844354
-17.500029 -38.38783983 -28.30022739
-17.500029 -30.65312949 -170.3252514
-13.500029 -66.19764317 -117.8873974
-14.16788 -104.1379669 -37.68285839
-17.500029 -36.72467321 -38.15357939
-17.500029 -65.81796223 -129.0825664
-13.500029 -72.89382094 -187.2874104
-17.500029 -65.01661077 -163.1929314
-13.500029 -140.280534 -216.7891164
-15.907783 -2.498422495e-05 -147.5620864
-17.500029 -69.92362918 -152.6158194
-17.500029 -48.50242785 -45.92319139
-28.49622 -28.3174545 -9.73861047e-05
-13.500029 -53.61709977 -132.2724604
16.499971 -63.15240969 0.4655196139
-17.500029 -54.16181165 -9.476883386
-13.500029 -28.07396945 -207.0506674
-17.500029 -77.78074596 -68.89567839
-13.500029 -106.6772744 -57.66785139
-13.500029 -42.83788196 -131.2321684
-13.500029 -7.390604174 -20.02040439
-17.500029 -29.02834384 -203.7904134
-13.500029 -8.770652074 -215.1895094
-13.500029 -114.8766838 -219.5086994
-17.500029 -29.83752603 -122.7981864
-13.500029 -87.95233956 -217.9004214
-13.500029 -64.85093851 -47.99095139
-37.292482 -2.498422495e-05 -49.12677639
-17.262127 -2.498422495e-05 -114.0733324
20.325031 -2.498422495e-05 -216.7694184
-13.500029 -31.25758558 -100.1326944
-13.500029 -105.3110939 -236.8891844
-17.500029 -56.94616842 -73.41630639
-13.500029 -60.89776156 -223.2540904
28.433457 -0.7173621342 -0.9391953861
-13.500029 -6.992688834 -174.3290994
-13.500029 -41.89141122 -136.1299384
-17.500029 -93.37688224 -225.5650174
-13.500029 -50.25851225 -75.94092539
-13.500029 -41.65800578 -105.5241744
-6.204647 -2.498422495e-05 -94.14323439
-17.500029 -141.9680051 -228.4124024
-13.500029 -128.3809104 -70.29859439
-17.500029 -19.68628357 -163.8677734
-13.500029 -34.5639125 -175.3339364
-17.500029 -33.47826663 -148.5447044
-4.533363 -2.498422495e-05 -181.5551544
13.933589 -2.498422495e-05 -77.50329939
-17.500029 -85.54997206 -231.5696474
30.248283 -2.498422495e-05 -160.8281174
-17.500029 -112.9677577 -44.42173639
-17.500029 -108.668826 -247.3046224
-0.4829689996 -2.498422495e-05 1.489767614
-13.500029 -95.11670024 -205.9305474
-17.500029 -39.78238232 -108.0321604
-22.115021 -64.75453888 -9.73861047e-05
-5.76847 -2.498422495e-05 -213.4814244
36.235713 -2.498422495e-05 -200.2392534
-19.17669 -24.33236908 -9.73861047e-05
23.056261 -61.86553423 -0.5160003861
-17.500029 -3.710238284 -219.7647614
28.92124 -2.498422495e-05 -74.50355539
-30.207416 -21.78732407 -9.73861047e-05
-11.276256 -15.1040976 -9.73861047e-05
6.967384 -40.69391812 -9.73861047e-05
-17.500029 -0.5968300742 -187.4344734
-5.649892 -2.498422495e-05 -232.2339364
-20.030606 -68.00002402 1.081417614
-18.912696 -2.498422495e-05 -118.4785184
-12.848976 -27.44436141 -9.73861047e-05
-28.178207 -2.498422495e-05 -60.63989239
-10.182949 -49.58634229 -9.73861047e-05
-25.234487 -2.498422495e-05 -66.73464339
14.05469 -2.498422495e-05 -48.06582039
11.9405 -2.498422495e-05 -241.5730314
20.894562 -2.498422495e-05 -184.0725404
5.945994 -25.72036783 -9.73861047e-05
30.240352 -2.498422495e-05 -145.3479704
-19.56381 -4.031360354 -9.73861047e-05
-18.625946 -28.29373403 -9.73861047e-05
-17.500029 -3.393956594 -101.7302744
-12.987672 -2.498422495e-05 -213.7156364
35.752686 -2.498422495e-05 -70.33129939
-13.500029 -46.30939949 -2.652424386
-4.00317 -2.498422495e-05 -97.27583239
-35.723689 -2.498422495e-05 -190.3171104
31.226652 -2.498422495e-05 -226.3935474
4.314084 -2.498422495e-05 -120.6967694
29.952332 -2.498422495e-05 -207.8521174
34.383297 -2.498422495e-05 -134.9445504
-34.509567 -2.498422495e-05 -125.4998704
2.875393 -2.498422495e-05 -168.2793614
-31.567306 -2.498422495e-05 -152.6486674
-14.215902 -39.28595762 -9.73861047e-05
-1.839658 -2.498422495e-05 -88.52172939
31.350911 -63.51796583 -1.168804386
-8.784523 -2.498422495e-05 -208.2585834
15.892558 -7.507944184 -9.73861047e-05
10.839738 -2.498422495e-05 -206.7715634
33.604762 -2.498422495e-05 -178.4362914
-12.176039 -2.498422495e-05 -83.14760039
34.096501 -2.498422495e-05 -90.40847439
-17.500029 -3.361801474 -197.1044094
31.012695 -2.498422495e-05 -132.2619494
-0.7874899996 -2.498422495e-05 -77.19741239
28.465518 -2.498422495e-05 -219.7282434
-32.169226 -2.498422495e-05 -220.3431894
32.200712 -2.498422495e-05 -69.29102739
10.741616 -2.498422495e-05 -160.5207064
-20.551594 -2.498422495e-05 -156.3449034
-7.894473 -2.498422495e-05 -146.8541404
-20.414615 -2.498422495e-05 -126.0271254
17.915026 -2.498422495e-05 -110.4847454
-29.944782 -2.498422495e-05 -38.66442939
-37.921526 -2.498422495e-05 -149.3479104
11.05173 -2.498422495e-05 -60.20643739
-17.500029 -49.54914482 -2.583737386
-13.500029 -1.356536984 -134.0702234
19.584713 -2.498422495e-05 -10.12412039
24.468902 -2.498422495e-05 -222.5961904
-10.202167 -25.32594865 -9.73861047e-05
14.802358 -2.498422495e-05 -211.7128414
4.739061 -2.498422495e-05 -161.7226764
-33.871067 -62.29823151 -9.73861047e-05
10.758729 -2.498422495e-05 -124.2842204
-17.500029 -43.83424834 -2.231049386
14.44918 -2.498422495e-05 -123.4577084
35.029548 -2.498422495e-05 -158.2407334
1.90073 -2.498422495e-05 -83.79294939
-10.971337 -38.38419018 -9.73861047e-05
34.416295 -25.92708704 -1.410055386
10.592399 -2.498422495e-05 -14.97613239
-13.807064 -2.498422495e-05 -163.9932004
21.771402 -57.80262864 -0.4148793861
-14.148195 -2.498422495e-05 -114.6940694
-31.524689 -2.498422495e-05 -112.1637424
33.383708 -2.498422495e-05 -161.1695664
-34.708657 -2.498422495e-05 -144.5363304
10.621345 -2.498422495e-05 -93.79391039
17.030344 -2.498422495e-05 -178.9591694
14.745711 -26.7805717 -9.73861047e-05
-0.5011379996 -2.498422495e-05 -120.5041204
-13.500029 -2.622831144 -244.3274374
5.716546 -2.498422495e-05 -39.06054339
-36.850337 -2.498422495e-05 -174.0918254
-14.402414 -2.498422495e-05 -198.4246714
-0.08634099965 -2.498422495e-05 -180.1701244
11.841797 -27.59107792 -9.73861047e-05
-18.936614 -2.498422495e-05 -247.3661914
3.180108 -2.498422495e-05 -251.7709924
-11.527379 -2.498422495e-05 -91.61994939
-14.724253 -2.498422495e-05 -54.95838039
11.384164 -2.498422495e-05 -86.80510539
-14.629905 -2.498422495e-05 -0.1027293861
23.585364 -2.498422495e-05 -151.0906074
4.696063 -2.498422495e-05 -196.7878624
17.64025 -43.03658883 1.702954614
16.375827 -2.498422495e-05 0.1366736139
25.018274 -2.498422495e-05 -196.1401314
32.689853 -2.498422495e-05 -238.8732554
-17.500029 -2.872360754 -91.70980039
1.870049 -2.695816774 -9.73861047e-05
-16.077971 -2.498422495e-05 -19.19489039
-13.500029 1.172332626 -71.22761539
-7.329968 -45.26289081 -9.73861047e-05
-29.588893 -2.498422495e-05 -156.2354494
-34.570862 -2.498422495e-05 -180.3968254
-16.905631 -48.46703023 -9.73861047e-05
-6.196575 -63.92989095 -9.73861047e-05
0.9695420004 -2.498422495e-05 -186.8528644
13.252878 -2.498422495e-05 -217.7944144
-22.704002 -2.498422495e-05 -222.4983004
-31.21831 -2.498422495e-05 -147.2656364
-8.935079 -66.50427486 -9.73861047e-05
20.908798 -24.94672553 -0.3469913861
-6.601278 -2.498422495e-05 -174.9398124
10.89902 -2.498422495e-05 -105.1894894
25.1905 -2.498422495e-05 -47.83257639
4.455873 -2.498422495e-05 -91.05270139
-22.361742 -2.498422495e-05 -169.2814744
-4.367814 -23.06292653 -9.73861047e-05
-30.637097 -2.498422495e-05 -218.0390674
17.503193 -22.32272955 -0.0377893861
26.115368 -8.783581704 -0.7567573861
27.307495 -2.498422495e-05 -242.8739764
-30.944736 -2.498422495e-05 -178.9093454
20.745906 -2.498422495e-05 -236.7629864
-15.324409 -2.498422495e-05 -158.0073824
-30.140916 -2.498422495e-05 -29.22373339
-34.989412 -2.498422495e-05 -219.0443714
-26.913094 -51.26824019 -9.73861047e-05
-28.735859 -12.56335378 -9.73861047e-05
16.499971 -61.05822177 2.032209614
-29.534694 -2.498422495e-05 -162.7916214
-14.958926 -24.97304495 -9.73861047e-05
17.500752 -2.775973954 -0.0687893861
26.58112 -2.498422495e-05 -143.4421214
20.952883 -2.498422495e-05 -214.2511114
12.872265 -2.498422495e-05 -248.8693494
15.581062 -2.498422495e-05 -119.2256154
-17.676662 -2.498422495e-05 -249.6113024
26.312001 -56.00029221 -0.7722333861
27.371851 -52.44368421 -0.8556453861
-17.206618 -2.498422495e-05 -95.35859939
28.491926 -2.498422495e-05 -29.47793239
15.490818 -2.498422495e-05 -84.06819039
21.729058 -2.498422495e-05 -247.8642224
33.355063 -21.15078703 -1.326534386
-32.392977 2.025753016 -9.73861047e-05
-13.500029 -0.1602263942 -147.0237674
17.465284 -2.498422495e-05 -186.8573554
-23.110875 -33.6983606 -9.73861047e-05
-23.642851 -2.498422495e-05 -88.07777939
31.720438 -2.498422495e-05 -184.9103584
-19.553092 -40.63439819 -9.73861047e-05
-17.500029 -1.083774064 -230.5061844
11.684916 -2.498422495e-05 -38.73019339
13.964431 -1.105943344 -9.73861047e-05
12.311113 -2.498422495e-05 -79.22031139
22.922403 -2.498422495e-05 -165.9294164
-19.777352 -2.498422495e-05 -85.51186639
-35.361363 -2.498422495e-05 -182.5561504
-33.360549 -2.498422495e-05 -193.2649244
35.567266 -2.498422495e-05 -222.6538884
-13.500029 -0.4639686442 -140.1202414
-11.34261 -2.498422495e-05 -201.5518924
17.68558 -40.90954346 2.278685614
-27.723054 -2.498422495e-05 -54.51503939
14.079511 -6.280400944 -9.73861047e-05
24.324 -2.498422495e-05 -227.1037634
35.811108 -2.498422495e-05 -195.0743894
8.266902 -27.60126361 -9.73861047e-05
-3.976214 -2.498422495e-05 -249.6033794
-22.459712 -2.498422495e-05 -31.83636839
0.2658030004 -2.498422495e-05 -132.1784014
13.281624 -2.498422495e-05 -81.76397139
-17.291049 1.999975016 -204.4135594
-7.625775 -2.498422495e-05 -103.1444634
-17.558966 -2.498422495e-05 -97.44678539
15.248408 -2.498422495e-05 -213.7749194
22.863047 -2.498422495e-05 -9.915734386
-4.054781 -2.498422495e-05 -124.8806734
-34.628563 -2.498422495e-05 -31.29459639
-13.000029 0.2154347158 -76.88528039
29.797866 -2.498422495e-05 -196.8096724
1.805551 -2.498422495e-05 -230.7642274
33.747439 -2.498422495e-05 -243.3968544
11.540454 -2.498422495e-05 -13.17482339
-31.003743 -2.498422495e-05 -42.77971439
18.400336 -63.29184808 -0.1495703861
-10.276397 -13.37012006 -9.73861047e-05
-26.770582 -27.3188816 -9.73861047e-05
33.881593 -2.498422495e-05 -98.58528539
14.549732 -2.498422495e-05 -175.4175454
-13.000029 1.504626126 -84.13464539
-15.873614 -61.04657918 -9.73861047e-05
12.417521 -2.498422495e-05 -89.56325739
-13.117386 1.072579456 -86.93804739
32.699292 -2.498422495e-05 -162.9961864
-30.332602 -27.66590506 -9.73861047e-05
33.189975 -2.498422495e-05 -136.4849214
-17.500029 -0.06509993422 -122.4126274
-7.806209 -2.498422495e-05 -202.7743584
4.155258 -2.498422495e-05 -77.14684639
26.457309 -2.498422495e-05 -132.9070094
-6.69121 -2.498422495e-05 -196.9508064
19.41703 -2.498422495e-05 -56.45530439
-29.17377 -16.60752759 -9.73861047e-05
-24.70517 -2.498422495e-05 -212.8775704
-16.830978 -2.498422495e-05 -153.1043624
22.621728 -2.498422495e-05 -112.9227724
-4.346956 -2.498422495e-05 -233.4282264
29.625216 -2.498422495e-05 -225.6756844
-17.500029 -0.9999980642 -54.21184439
-16.566684 -2.498422495e-05 -243.5770674
-14.29961 -2.498422495e-05 -110.7376454
20.10711 -2.498422495e-05 -148.2585034
-5.007274 -2.498422495e-05 -12.01607439
-13.000029 1.799766426 -219.6604474
-12.837213 -2.498422495e-05 -115.7815114
28.100588 -2.498422495e-05 -60.47101639
-18.000029 0.3052634158 -75.00586539
9.689345 -2.498422495e-05 -203.7441954
-24.969777 -2.498422495e-05 -123.0470234
18.239932 -2.498422495e-05 -105.5278454
-19.848354 -2.498422495e-05 -169.5157554
-16.90309 -2.498422495e-05 -157.6060384
-12.645732 -2.498422495e-05 -114.0752034
23.602937 -2.498422495e-05 -101.3625734
-17.536191 -2.498422495e-05 -188.8689834
-33.337134 -2.498422495e-05 -55.45055239
16.499971 -42.8378443 0.7367516139
27.713524 -2.498422495e-05 -75.38001439
31.9874 -2.498422495e-05 -161.6914404
-16.325029 -25.3142394 -9.73861047e-05
16.499971 -21.39932464 0.2613436139
-17.549658 -2.498422495e-05 -195.6760474
-4.46207 -2.498422495e-05 -176.0731004
-16.818259 -2.498422495e-05 -142.8186334
22.691673 -2.498422495e-05 -150.1982304
22.195967 -2.498422495e-05 -152.7536594
21.225004 -20.05371598 -0.3718773861
-2.860358 -2.498422495e-05 -87.91830639
19.209014 -2.498422495e-05 -243.3774714
14.328872 -2.498422495e-05 -81.11801439
-34.580453 -2.498422495e-05 -190.3548044
0.01828400035 -2.498422495e-05 -210.4750004
30.982423 -2.498422495e-05 -44.33095339
-33.467025 -2.498422495e-05 -175.3949444
-22.406273 -2.498422495e-05 -223.3872984
-10.921163 -2.498422495e-05 -223.2892504
-9.317423 -2.498422495e-05 -65.98544939
12.6181 -2.498422495e-05 -162.6766584
12.147703 -2.498422495e-05 -86.41637539
28.070203 -2.498422495e-05 -122.5395014
-17.050881 -2.498422495e-05 -91.71347139
-18.656989 -2.498422495e-05 -246.7053414
22.36468 -2.498422495e-05 -57.92242739
-5.852818 -2.498422495e-05 -150.0424214
-17.638788 -2.498422495e-05 -188.2357854
-35.165307 -2.498422495e-05 -79.94951839
-8.4349 -66.84816783 -9.73861047e-05
-17.500029 -0.05806315422 -96.85601239
-13.500029 0.9659001258 -202.3190034
-6.504494 -2.498422495e-05 -70.61058039
15.036601 -2.498422495e-05 -81.90086539
-29.914368 -27.3610067 -9.73861047e-05
-35.067544 -2.498422495e-05 -31.31564939
-32.675611 -29.95215926 -9.73861047e-05
22.543077 -2.498422495e-05 -5.441207386
21.2473 -24.84236426 -0.3736323861
-4.921517 -66.39525996 -9.73861047e-05
3.043539 -2.498422495e-05 -251.7002964
-13.653488 -42.43247221 -237.7259234
-17.237777 -39.50516624 -237.9443194
-17.276305 -34.59475153 -236.9004564
-14.032805 -27.82396698 -231.6385584
-13.973861 -25.24015928 -225.1311434
-13.574473 -25.14149959 -64.25559839
-17.006449 -70.00002402 -139.5408164
-14.402662 -70.00002402 -119.9289094
-13.500029 -33.60326981 -239.8636214
-13.500029 -27.2962823 -250.4339284
-13.500029 -32.28011788 -249.7544774
-13.500029 -39.772857 -245.8662904
-13.500029 -15.80722355 -251.7566714
-13.500029 -24.53071538 -237.7686544
-13.500029 -28.74984176 -235.9852514
-13.500029 -2.622831144 -244.3274374
-13.500029 -15.91097858 -227.8671964
-13.500029 -5.313420934 -238.7334174
-13.500029 -11.83104828 -224.8607174
-13.500029 -20.05115083 -231.9914004
-13.500029 -11.60888245 -248.4527774
-13.500029 -19.14906603 -238.7319364
-13.500029 -1.248286294 -234.6851674
-13.500029 -14.50224882 -235.9898784
-13.500029 -6.857918044 -250.0222624
-13.500029 -5.339956894 -229.9499294
-13.500029 -7.483931654 -243.0590034
-13.500029 -10.38461146 -233.2592174
-13.500029 -16.0643223 -245.4363124
-13.500029 -5.985023394 -221.6469424
-13.500029 -20.24512874 -224.7581744
-13.500029 -16.81377012 -221.6513064
-13.500029 -11.85060778 -219.8687734
-13.500029 -3.772133844 -204.9288894
-13.500029 -20.72215719 -217.6857214
-13.500029 -2.592793404 -209.6242794
-13.500029 -8.770652074 -215.1895094
-13.500029 -6.921969404 -211.2403164
-13.500029 -14.68617761 -216.2924484
-13.500029 -4.250913174 -216.5016494
-13.500029 -19.35440316 -213.4241744
-13.500029 -14.35994087 -209.7650604
-13.500029 -27.74818488 -211.6836654
-13.500029 -9.630327574 -205.2575644
-13.500029 -19.7892801 -208.4392104
-13.500029 -32.37767343 -210.1145814
-13.500029 -25.87467908 -166.9457394
-13.500029 -29.33717872 -94.59227439
-13.500029 -27.03677599 -182.8146184
-13.500029 -22.76831307 -163.1408574
-13.500029 -11.98097665 -197.7141674
-13.500029 -19.92817739 -137.7965184
-13.500029 -24.80464964 -197.6003114
-13.500029 -11.3788292 -181.3637394
-13.500029 -31.64338543 -184.6898744
-13.500029 -16.48445864 -179.0362554
-13.500029 -32.69529654 -151.4620804
-13.500029 -4.815405744 -188.7032534
-13.500029 -31.37499795 -123.5748484
-13.500029 -8.877717254 -185.3948884
-13.500029 -20.41146613 -193.7878094
-13.500029 -19.23119689 -143.0828104
-13.500029 -33.26816048 -159.9020404
-13.500029 -30.12200049 -201.1498234
-13.500029 -17.15529115 -152.0590534
-13.500029 -21.82153134 -147.3429084
-13.500029 -21.26370802 -202.0725294
-13.500029 -26.32321237 -148.1429464
-13.500029 -25.32462568 -115.2768524
-13.500029 -13.66429889 -164.7229254
-13.500029 -29.71587345 -128.7133464
-13.500029 -31.28856159 -117.8713654
-13.500029 -29.33074732 -104.0214654
-13.500029 -31.25758558 -100.1326944
-13.500029 -33.02022344 -107.3697004
-13.500029 -20.2866266 -174.3351334
-13.500029 -26.07413571 -138.1006924
-13.500029 -30.63641226 -165.0971414
-13.500029 -16.87675335 -147.0329134
-13.500029 -5.126439664 -197.4779194
-13.500029 -31.94092538 -113.2235054
-13.500029 -27.83024807 -161.5734644
-13.500029 -18.05296073 -166.6763104
-13.500029 -21.42990148 -187.8901564
-13.500029 -25.79075955 -203.3162204
-13.500029 -14.68239204 -192.5017614
-13.500029 -31.07542023 -172.7972114
-13.500029 -22.3238665 -126.7999974
-13.500029 -22.06478936 -180.4306974
-13.500029 -28.00501348 -188.7738414
-13.500029 -21.93460368 -132.0171904
-13.500029 -25.84970904 -176.8319984
-13.500029 -28.77611455 -109.9365024
-13.500029 -25.62609101 -154.1808684
-13.500029 -18.3123522 -184.1856364
-13.500029 -24.75470239 -119.6789064
-13.500029 -18.28838874 -161.2748884
-13.500029 -16.10975771 -172.5982064
-13.500029 -24.69931419 -192.6719814
-13.500029 -20.93539589 -154.5641774
-13.500029 -28.07396945 -207.0506674
-13.500029 -52.94729895 -158.4220004
-13.500029 -34.21979143 -145.9594204
-13.500029 -45.06762165 -117.6664854
-13.500029 -34.86661299 -180.7597484
-13.500029 -48.55833194 -142.8275874
-13.500029 -41.4911599 -156.5461764
-13.500029 -39.80650087 -174.8852834
-13.500029 -41.26188039 -125.0332434
-13.500029 -41.41475415 -101.2131914
-13.500029 -49.2263889 -174.0198224
-13.500029 -50.3414596 -154.3344794
