# .PCD v0.7 - Point Cloud Data file format
VERSION 0.7
FIELDS x y z
SIZE 4 4 4
TYPE F F F
COUNT 1 1 1
WIDTH 1194
HEIGHT 1
VIEWPOINT 0 0 0 1 0 0 0
POINTS 1194
DATA ascii
125.4681372 -26.23939741 -76.9245554
-127.3125728 -2.498658043e-05 -59.4784414
-68.58612278 -2.498658043e-05 -79.9722984
-7.904712777 -2.498658043e-05 -85.2923424
46.51148722 -2.498658043e-05 -112.5587014
116.5144572 -2.498658043e-05 -147.0667884
-112.8072928 -34.18077169 -164.9285914
-64.66394278 -2.498658043e-05 -8.895395396
-38.43092278 -2.498658043e-05 -104.4207914
-95.95303278 -2.498658043e-05 -115.5015534
-46.25643278 -34.54419605 -9.739595816e-05
-69.94389278 -2.498658043e-05 -31.5063544
94.30098722 -2.498658043e-05 -227.2547974
91.95393722 -2.498658043e-05 -209.9787804
-45.23460278 -2.498658043e-05 -208.4875724
-107.8072928 -18.68570932 -243.0756424
129.0665272 -27.10993985 -87.9992264
82.04731722 -2.498658043e-05 -108.6235294
-112.8072928 -9.952358357 -25.5778394
-107.8072928 -36.26862779 -221.7987414
116.5660372 -7.547370987 -33.3445264
-38.85847278 -2.498658043e-05 -241.8062974
-112.8072928 -32.50899276 -122.4840264
33.03958722 -2.498658043e-05 -149.3794014
-107.8072928 -10.56194778 -47.3028704
-112.8072928 -12.74249941 -207.0875994
-107.8072928 -29.26171123 -99.3137904
64.27026722 -67.11906223 -9.739595816e-05
10.15346722 -2.498658043e-05 -76.2213864
69.52469722 -2.498658043e-05 -208.2732674
6.607737223 -2.498658043e-05 -59.9844024
-78.77216278 1.971637573 -9.739595816e-05
-19.17548278 -55.44994792 -9.739595816e-05
108.1833772 -5.852340787 -9.739595816e-05
2.488707223 -2.498658043e-05 -137.0727464
113.9703372 -33.98972619 -25.3559714
-107.8072928 -42.0956188 -84.3391804
-115.7900428 -2.498658043e-05 -185.9333624
-35.67651278 -2.498658043e-05 -63.8761434
27.65727722 -2.498658043e-05 -80.1672004
70.68786722 -2.498658043e-05 -139.3046684
-118.8182328 -11.19197578 -5.862194396
-26.16731278 -49.71060499 -9.739595816e-05
74.10334722 -2.498658043e-05 -98.2406944
-112.8072928 -21.13877124 -168.2406034
40.70610722 -2.498658043e-05 -165.8615114
-112.8072928 -0.9496644266 -153.7617374
-107.8072928 -26.73598306 -190.3519234
122.7242672 -42.58022254 -52.2975714
-69.91585278 -2.498658043e-05 -158.6363104
-112.2159228 -50.00002499 -205.2025044
106.5396272 -2.498658043e-05 -14.3968354
-69.31370278 -58.4970186 -9.739595816e-05
-42.03839278 -2.498658043e-05 -58.3410424
-112.8072928 -34.37596102 -148.1010904
-3.335912777 -2.498658043e-05 -29.1023854
-42.74616278 -2.498658043e-05 -84.1858524
-129.3988828 -2.498658043e-05 -216.0698564
-112.8072928 -0.2405750066 -67.1484534
40.76211722 1.998308633 -225.0800744
-96.67707278 -7.576597487 -9.739595816e-05
108.1163772 -2.498658043e-05 -42.3726574
-112.8072928 -40.43673645 -98.7614614
-65.05079278 -2.498658043e-05 -108.7679924
95.84902722 -2.498658043e-05 -182.3596794
-112.8072928 -37.7022332 -114.1473184
-107.8072928 -23.62391628 -58.1738894
83.25226722 -2.498658043e-05 -63.2711754
-12.75765278 -10.30618554 -9.739595816e-05
19.11317722 -68.00002403 0.291272604
-124.6854828 -2.498658043e-05 -108.6171114
-112.8072928 -16.67370541 -87.0313354
-107.8072928 -6.384555017 -188.4727194
-11.66186278 -2.498658043e-05 -38.5180844
-93.68180278 -46.23881993 -9.739595816e-05
28.28866722 -8.371474887 -9.739595816e-05
-107.8072928 -17.07574502 -195.9401274
-113.0659628 -63.83691027 -0.609589396
-94.67810278 -2.498658043e-05 -10.6404164
-53.60177278 -2.498658043e-05 -24.4364354
-5.152932777 -2.498658043e-05 -16.6583174
-44.92497278 -2.498658043e-05 -174.5941844
-105.7222428 -19.88911016 -9.739595816e-05
-112.8072928 -41.66950097 -193.9021694
-23.65285278 -2.498658043e-05 -111.5755894
109.3457772 -2.498658043e-05 -191.7016654
-112.8072928 -41.46413791 -161.3229114
49.33550722 -2.498658043e-05 -233.6071584
17.36911722 -2.498658043e-05 -109.7004104
96.95935722 -21.74044837 -9.739595816e-05
116.8214572 -21.458756 -50.3130374
-107.8072928 -9.620121937 -59.6273484
109.8394672 -2.498658043e-05 -162.0193614
2.241737223 1.685841163 -9.739595816e-05
109.8778472 -25.27799585 -28.9427934
-70.28416278 -2.498658043e-05 -146.1675744
121.4847672 -35.55789589 -64.6648824
-26.15507278 -2.498658043e-05 -100.0495404
46.33157722 -62.35185302 -9.739595816e-05
-1.087912777 -2.498658043e-05 -71.1991914
81.13908722 -2.498658043e-05 -189.9276384
-107.8072928 -43.08345391 -21.7342554
-107.8072928 -7.737745367 -142.7232444
38.93633722 -2.498658043e-05 -10.3021204
-112.8072928 -41.43447703 -12.2345104
125.4660672 -10.93211501 -76.9178354
-107.8072928 -20.78218161 -176.5865394
71.61516722 -2.498658043e-05 -18.1557374
92.70776722 -2.498658043e-05 -108.9742564
63.85860722 -17.40830231 -9.739595816e-05
-112.8072928 -29.11376776 -220.8030554
12.10161722 -2.498658043e-05 -20.7148074
-47.96222278 -2.498658043e-05 -160.0747714
-45.72490278 -2.498658043e-05 -28.4082934
29.62637722 -2.498658043e-05 -100.7111334
29.67896722 -21.03648014 -9.739595816e-05
-47.08458278 -2.498658043e-05 -44.8056504
-112.8072928 -26.50988009 -245.7686644
107.5649072 -2.498658043e-05 -114.1848014
-42.71560278 -2.498658043e-05 -127.0608744
-107.8072928 -29.27362727 -88.4063474
128.6793472 -2.498658043e-05 -200.2872164
17.61648722 -2.498658043e-05 -44.2280034
68.52055722 -2.498658043e-05 -9.709051396
-112.8072928 -11.73828254 -73.6888234
-103.7173928 -2.498658043e-05 -25.9456194
112.1209672 -38.97396858 -19.6641624
0.270387223 -51.91725902 -9.739595816e-05
58.64445722 -6.321843697 -9.739595816e-05
-97.15391278 -19.93779983 -9.739595816e-05
-107.8072928 -43.43906078 -249.5165594
-101.9357028 -2.498658043e-05 -76.5830324
85.65275722 -2.498658043e-05 -200.3666694
-27.77519278 -23.63598362 -9.739595816e-05
71.93570722 -2.498658043e-05 -238.1398614
-118.6178428 -2.498658043e-05 -95.0782404
97.42505722 -2.498658043e-05 -61.0101544
-125.5458528 -2.498658043e-05 -206.1777464
-96.87106278 -2.498658043e-05 -181.9280294
126.7605172 -32.65267785 -80.9019544
-115.0297328 -2.498658043e-05 -238.2047104
53.19524722 -2.498658043e-05 -42.4487974
13.83324722 -2.498658043e-05 -138.3133784
-80.87279278 -2.498658043e-05 -103.4996954
109.5812172 -22.22135037 -11.8478614
-70.59560278 -2.498658043e-05 -187.1166984
-112.8072928 -27.80673963 -44.3546384
-95.97275278 -2.498658043e-05 -91.7181824
72.75437722 -2.498658043e-05 -155.4389294
106.1666572 -2.498658043e-05 -31.1577104
129.3667472 -2.498658043e-05 -76.0903334
-112.8072928 -4.687923497 -172.7650324
-112.8072928 -17.71119861 -145.4454194
122.8441172 -0.1322205166 -52.6675894
-107.8072928 -8.237882297 -14.1843544
-112.8072928 -9.191018797 -128.3314774
-120.3401428 -63.03280989 -7.410899396
-64.10156278 -65.29791091 -9.739595816e-05
-119.0993328 -2.498658043e-05 -198.8869524
82.51135722 -40.13305832 -9.739595816e-05
79.97279722 -2.498658043e-05 -70.0613194
-41.96411278 -2.498658043e-05 -201.6947634
77.73132722 -1.330050067 -9.739595816e-05
93.51943722 -40.60283445 -9.739595816e-05
-126.9113028 -2.498658043e-05 -17.5497714
110.8713372 -13.18079287 -9.739595816e-05
-107.8072928 -6.677871087 -96.5057844
-10.99775278 -2.498658043e-05 -109.2788844
-67.44056278 -2.498658043e-05 -236.7481024
-55.83788278 -2.498658043e-05 -183.9597934
-37.64219278 -58.99602844 -9.739595816e-05
109.1565572 -49.02752212 -10.5405624
23.47551722 -2.498658043e-05 -20.9162664
29.42011722 -2.498658043e-05 -142.8151474
-25.51560278 -2.498658043e-05 -135.2300104
111.5346672 0.8491119534 -9.739595816e-05
-108.7465928 -50.00002499 -224.9366904
65.76702722 -2.498658043e-05 -59.4052624
-79.03033278 -2.498658043e-05 -92.6197714
48.82933722 -23.46038966 -9.739595816e-05
-122.4234328 -2.498658043e-05 -230.4863084
-112.8072928 -44.78147222 -128.0510774
43.22384722 -2.498658043e-05 -105.8690174
-107.8072928 -44.93124605 -116.9808184
-112.8072928 -22.6473156 -224.8939354
-112.8072928 -25.14674195 -115.1337634
-31.44782278 -2.498658043e-05 -48.7403304
-112.8072928 -19.03047257 -181.7781024
-107.8072928 -48.97026367 -6.688105396
-40.67190278 -5.600527017 -9.739595816e-05
-92.12552278 -2.498658043e-05 -229.9960954
-20.11407278 -2.498658043e-05 -76.7174204
65.94487722 -41.58129864 -9.739595816e-05
34.47872722 -41.46293398 -9.739595816e-05
-107.8072928 -6.007600557 -155.7639254
-90.16892278 -2.498658043e-05 -211.7692404
-112.8072928 -29.32543232 -7.358496396
-20.37063278 -2.498658043e-05 -28.5806524
-110.8737328 -50.00002499 -43.9287154
113.9286272 -30.49931475 -41.4096634
13.06840722 -55.98914909 -9.739595816e-05
-25.62327278 -2.498658043e-05 -154.8932584
120.2356172 -8.409857857 -44.6393874
-112.8072928 -18.10875146 -16.4464694
-95.75523278 -2.498658043e-05 -0.956751396
-112.6374728 -50.00002499 -144.2697654
-70.09774278 -2.498658043e-05 -210.8684094
115.2298072 -58.67870844 -9.739595816e-05
-119.9799528 -28.5627767 1.515857604
-107.8072928 -49.32241015 -186.5087734
106.7079972 -47.82888235 -3.004703396
-77.19136278 -2.498658043e-05 -227.8402654
95.99021722 -2.498658043e-05 -191.1301344
-107.8072928 -26.80324628 -1.047876396
4.125367223 -44.51645182 -9.739595816e-05
-123.0327328 -5.800017267 -10.1509074
-107.4751528 -5.771381297 -9.739595816e-05
-48.90682278 -62.10416892 -9.739595816e-05
-112.8072928 -5.155734667 -85.8439454
14.28744722 -41.75623826 -9.739595816e-05
81.66077722 -2.498658043e-05 -124.6093534
59.44507722 -2.498658043e-05 -86.5751854
118.2679672 -2.498658043e-05 -190.6766254
106.5220072 -37.01229076 -2.432423396
-102.2604328 -2.498658043e-05 -12.9138284
122.7480872 -34.01213898 -9.739595816e-05
-30.28881278 -13.86728497 -9.739595816e-05
-112.8072928 -2.828453147 -200.6877604
-107.8072928 -41.9460848 -176.7805444
53.39488722 -2.498658043e-05 -56.4630174
-114.8085928 -2.498658043e-05 -111.6689874
-93.55308278 -2.498658043e-05 -67.0808224
-112.8072928 -48.71681507 -212.6248214
-117.4317028 -2.498658043e-05 -47.3335204
-82.19900278 -2.498658043e-05 -69.1025284
-107.8072928 -49.5502772 -242.9169784
-107.8072928 -29.43674292 -166.4855374
-36.97103278 -2.498658043e-05 -180.9505394
117.0141472 -40.8324626 -34.7237354
78.70428722 -16.503595 -9.739595816e-05
-116.3857328 -2.498658043e-05 -125.2379974
128.9778172 -2.498658043e-05 -212.8803994
-13.90066278 -50.63338334 -9.739595816e-05
120.9820172 -43.18553628 -63.1174694
56.01712722 -2.498658043e-05 -100.8855984
-89.13572278 -2.498658043e-05 -194.4197064
113.6143072 -42.27295095 -9.739595816e-05
89.31722722 -2.498658043e-05 -6.389356396
-87.86743278 -2.498658043e-05 -152.3685484
-119.7909428 -2.498658043e-05 -78.6645974
-107.8072928 -44.47444868 -102.7312714
-71.10366278 -2.498658043e-05 -88.1937144
-112.8072928 -34.87250403 -175.7690594
78.46541722 -2.498658043e-05 -31.6479134
48.92177722 -2.498658043e-05 -194.2758004
-107.8072928 -20.91480712 -34.1119144
-94.08996278 -54.00768343 -9.739595816e-05
-4.661052777 -2.498658043e-05 -126.0019814
-73.27878278 -2.498658043e-05 -200.7377014
-76.70323278 -22.49126121 -9.739595816e-05
-121.9498528 -2.498658043e-05 -137.9335684
33.53891722 -2.498658043e-05 -124.6688554
56.79726722 -2.498658043e-05 -220.2321524
62.33834722 -2.498658043e-05 -127.0581534
80.98697722 -2.498658043e-05 -251.3859724
-107.8072928 -22.23875826 -11.3812734
-107.8072928 -45.70706155 -133.5825144
97.24627722 -2.498658043e-05 -28.4304894
28.91018722 -2.498658043e-05 -51.9846034
-3.961312777 -2.498658043e-05 -50.0483864
-17.63038278 -2.498658043e-05 -141.5323484
-108.0432928 -50.00002499 -77.3002654
-107.8072928 -17.30328372 -106.2362854
40.45823722 -2.498658043e-05 -172.7743584
-99.79995278 -2.498658043e-05 -51.9771654
-112.0734928 -2.498658043e-05 -136.4579084
21.99473722 -35.70711733 -9.739595816e-05
41.67917722 -47.1760014 -9.739595816e-05
97.32467722 -2.498658043e-05 -141.7136004
-107.8072928 -3.908870157 -73.8351984
-77.14624278 -2.498658043e-05 -131.1769804
105.4483172 -2.498658043e-05 -84.6636444
-18.57662278 -2.498658043e-05 -35.2124574
-22.51977278 -2.498658043e-05 -48.2432804
-57.95536278 -2.498658043e-05 -7.471883396
17.40370722 -2.498658043e-05 -86.4023864
-107.8072928 -17.86248373 -249.8789624
120.3629672 -2.498658043e-05 -66.2598334
-20.13024278 -30.34091436 -9.739595816e-05
35.95722722 -2.498658043e-05 -36.2615744
-32.11532278 -2.498658043e-05 -160.5816424
-112.8072928 -6.543674447 -209.9596634
-107.8072928 -16.40730671 -164.5904914
-112.8072928 -43.99800188 -69.8871284
36.82932722 -2.498658043e-05 -3.827338396
-14.17411278 -2.498658043e-05 -15.1626894
77.52188722 -64.09992662 -9.739595816e-05
-17.05433278 -2.498658043e-05 -22.5958844
-107.8072928 -47.31508581 -110.4369254
-107.8072928 -6.639032017 -218.8113664
121.6156972 -25.27838803 -65.0680424
86.70190722 -48.96852193 -9.739595816e-05
119.5995772 -41.83279596 -42.6808194
-107.8072928 -49.87267568 -200.0654734
37.75778722 -55.98805462 -9.739595816e-05
-110.2505128 -50.00002499 -19.9541154
-126.6643828 -2.498658043e-05 -83.9886064
40.45011722 -2.498658043e-05 -49.0021494
-23.42201278 -39.74685132 -9.739595816e-05
-66.98588278 -41.8608691 -9.739595816e-05
109.4837872 -4.755480447 -27.7279494
-89.80403278 -2.498658043e-05 -243.5478844
30.65549722 -2.498658043e-05 -118.1717104
110.6444572 -19.02028747 -31.3023054
105.7561072 -2.498658043e-05 -51.7354904
-100.6684828 -2.498658043e-05 -106.4935794
-74.13803278 -2.498658043e-05 -251.0450864
-103.3658928 -2.498658043e-05 -158.0642614
-85.35309278 -2.599001237 -9.739595816e-05
-112.8072928 -33.75570386 -228.0604194
53.51932722 -2.498658043e-05 -246.8390834
-107.8072928 -22.19685997 -20.4657344
-112.8072928 -4.769619797 -19.2071014
-2.645832777 -24.16469929 -9.739595816e-05
-112.8072928 -35.2765643 -43.3752374
88.25801722 -2.498658043e-05 -131.1445644
111.1059172 -2.498658043e-05 -248.6784674
-81.63206278 -2.498658043e-05 -148.2375174
117.4888672 -2.498658043e-05 -88.4093744
-107.8072928 -5.987800547 -121.6223394
-96.92764278 -2.498658043e-05 -202.4771234
-41.97315278 -2.498658043e-05 -186.4637354
-112.8072928 -43.85839048 -107.0947524
-107.8072928 -16.30567242 -27.9614244
71.80773722 -2.498658043e-05 -91.9953654
-112.8072928 -21.65318732 -103.4067794
-107.8072928 -2.497245647 -81.2161034
-51.60519278 -2.498658043e-05 -109.3532344
-11.72252278 -2.498658043e-05 -138.4801964
107.4835372 -9.365988787 -21.5727454
-55.41788278 -2.498658043e-05 -238.8556174
-107.8072928 -41.95545649 -52.0186994
-127.9154028 -62.40914162 -15.1195684
-92.48176278 -2.498658043e-05 -108.3710034
19.52624722 -2.498658043e-05 -70.2632444
-111.0303028 -2.498658043e-05 -40.0435684
-121.2528728 -2.498658043e-05 -189.6862994
-110.4485028 0.1350266834 -159.8549144
103.5606272 -2.498658043e-05 -240.7323844
-107.8072928 -13.79332165 -147.2824104
-107.8072928 -13.71201161 -117.9427914
123.2529872 -2.498658043e-05 -219.7566154
55.55630722 -2.498658043e-05 -172.0906894
-107.8072928 -7.054150777 -165.5212704
-47.36744278 0.8550739434 -9.739595816e-05
-108.6078628 -39.80106217 -1.000097396
106.5686672 -29.20964979 -2.576126396
15.10834722 -25.45286547 -9.739595816e-05
105.4382672 -39.5457035 -15.2789614
60.96414722 -2.498658043e-05 -10.8205044
-108.7840528 -2.498658043e-05 -32.3065504
38.78727722 -16.43104424 -9.739595816e-05
103.0768772 -35.8245533 -8.011454396
-108.6788028 -14.41156495 -4.944667396
0.391807223 -2.498658043e-05 -90.4509384
72.81935722 -2.498658043e-05 -77.3488534
-40.42470278 -2.498658043e-05 -215.2486464
-31.48421278 -2.498658043e-05 -167.0886184
-19.89757278 -2.498658043e-05 -122.3424554
119.6316472 -9.938410677 -58.9612584
91.32851722 -55.56724846 -9.739595816e-05
-107.8072928 -30.31829196 -105.8959264
119.7394072 -30.75582888 -59.2933294
91.72479722 -2.498658043e-05 -33.4654794
-112.8072928 -37.30942663 -181.8149844
129.2167472 -23.00591932 -72.2795374
102.4573072 -22.53379691 -6.104898396
123.6754372 -2.498658043e-05 -86.3989064
-107.8072928 -35.61415105 -62.7605134
-112.7056828 -2.498658043e-05 -54.4662974
58.77473722 -2.498658043e-05 -147.9917704
39.71246722 1.879167793 -199.6727534
109.6980072 -9.327930317 -12.2067164
122.9307572 -48.35675513 -69.1151864
101.0819672 -44.22146425 -9.739595816e-05
-21.88091278 -2.498658043e-05 -90.6037454
-112.8072928 -35.41763106 -108.0872104
-112.8072928 -11.62249336 -33.5484144
-112.8072928 -35.82042579 -238.3391634
116.3623472 -11.33627017 -48.8996414
125.8136872 -2.498658043e-05 -113.1196154
-48.48764278 -2.498658043e-05 -58.6456924
-76.37429278 -2.498658043e-05 -174.4157534
68.93126722 -2.498658043e-05 -223.2664214
-71.61406278 -2.498658043e-05 -22.2251924
-128.5398928 -2.498658043e-05 -189.9040994
-112.8072928 -44.42029364 -121.0005644
-112.8072928 -6.496800657 -44.6219294
-112.8072928 -21.14374619 -65.5797244
113.2534472 -18.64464291 -39.3319304
-62.70282278 -2.498658043e-05 -19.4600184
-112.8072928 -31.04072375 -33.6765564
56.17972722 -2.498658043e-05 -205.5295184
95.18176722 -6.740518587 -9.739595816e-05
-112.8072928 -17.60233887 -191.6093694
-111.6230328 -50.00002499 -176.1374804
-56.57732278 -2.498658043e-05 -198.8413064
-112.8072928 -17.65463875 -173.5868404
-18.39559278 -2.498658043e-05 -63.1698514
-107.8072928 -39.01347527 -242.1212064
111.2236772 -50.00002499 -29.9641784
121.0637672 -2.498658043e-05 -25.0761024
-41.99502278 -29.80580027 -9.739595816e-05
127.9295272 -12.52067708 -84.4998244
-112.8072928 -28.67907842 -210.7061324
-50.61307278 -2.498658043e-05 -165.8607384
122.5489272 -2.498658043e-05 -99.9492014
119.9546372 -2.498658043e-05 -233.0983214
-112.8072928 -45.54413174 -58.0631884
-107.8072928 -36.33378682 -152.6240674
-102.3231528 -2.498658043e-05 -144.4196314
-112.8072928 -48.5463656 -161.4245754
-12.59743278 -39.64337782 -9.739595816e-05
-98.66830278 -32.02242172 -9.739595816e-05
126.0478972 -20.70100808 -62.5268944
44.68278722 -2.498658043e-05 -68.3651574
122.5287072 -8.284705997 -67.8771824
-112.8072928 -38.79509739 -123.8549714
69.09595722 -63.05692047 -9.739595816e-05
-112.8072928 -24.32038181 -151.7290724
-107.8072928 -30.21096657 -246.7628064
-86.98413278 -17.52118302 -9.739595816e-05
88.77404722 -25.14234253 -9.739595816e-05
-8.408632777 -2.498658043e-05 -8.775810396
-107.8072928 -0.3427698566 -204.0382314
-107.8072928 -42.2493701 -210.0011104
-112.8072928 -34.3634612 -69.2702014
-107.8072928 -35.00245121 -85.8294044
-107.8072928 -22.01767367 -93.6725414
93.86155722 -2.498658043e-05 -72.8961514
-112.8072928 -5.780980207 -246.8005324
-112.8072928 -44.5089746 -18.2145964
-21.67345278 -2.498658043e-05 -2.206579396
-112.8072928 -2.306337037 -98.4914034
-112.8072928 -13.55005222 -138.1137234
113.8559972 -45.52243344 -41.1858594
-107.2305428 -50.14650459 -9.739595816e-05
-112.8072928 -34.91116334 -205.1766424
-107.8072928 -24.03919161 -207.8432814
112.4993672 -48.52715676 -20.8286384
120.3212172 -63.91096649 -9.739595816e-05
-4.141042777 -2.498658043e-05 -41.8732064
114.8956572 -2.498658043e-05 -40.6161804
-121.2151328 -2.498658043e-05 -180.1509604
-123.3665528 -2.498658043e-05 -37.8144364
30.21720722 -2.498658043e-05 -107.1338984
-126.0368628 -41.51470295 -4.647723396
-54.48752278 -21.78810589 -9.739595816e-05
-112.8072928 -15.26452647 -68.5801204
-102.8850128 -2.498658043e-05 -183.5843154
-58.83938278 -2.498658043e-05 -132.4031364
48.56484722 0.5491570434 -9.739595816e-05
104.1723072 -11.9970339 -11.3808884
-112.8072928 -29.36171267 -134.6875504
104.6148472 -2.498658043e-05 -179.6507034
-35.13602278 -2.498658043e-05 -192.0513074
-112.8072928 -44.11150383 -232.9035774
-107.8072928 -13.39890238 -239.8267324
-119.6469928 -2.498658043e-05 -15.2753434
-108.1917728 -2.498658043e-05 -234.7195474
-12.11623278 -20.49438749 -9.739595816e-05
-107.8072928 -11.44203294 -125.5561264
102.5225872 -15.39060766 -6.305933396
-107.8072928 -24.6170352 -216.6191324
-112.8072928 -25.3319343 -86.3906374
-60.20488278 -2.498658043e-05 -118.0904054
-60.19567278 -59.20350146 -9.739595816e-05
-107.8072928 -7.798693927 -228.0740714
-127.9237028 -2.498658043e-05 -71.2348934
44.43722722 -2.498658043e-05 -229.5568954
62.70274722 -47.06145541 -9.739595816e-05
0.575887223 -13.40962199 -9.739595816e-05
49.88002722 -50.51128306 -9.739595816e-05
-79.13398278 -16.12383028 -9.739595816e-05
-0.450012777 -36.20056326 -9.739595816e-05
60.52256722 -25.21777747 -9.739595816e-05
-28.66114278 -2.498658043e-05 -115.0816654
126.1078472 -8.651471267 -62.7117334
-27.80430278 -2.498658043e-05 -58.6633774
-112.8072928 -46.70882497 -39.1557734
-112.8072928 -14.08575546 -153.3008814
-112.8072928 -23.90339875 -122.0978814
12.67858722 -2.498658043e-05 -12.9599864
-25.96424278 -2.498658043e-05 -12.3880474
-48.96758278 -68.00002403 1.455186604
-76.13748278 -2.498658043e-05 -158.5615564
-55.10198278 -2.498658043e-05 -125.5116854
-107.8072928 -5.367093127 -51.3633464
-107.8072928 -26.79320575 -177.2928314
95.38294722 -2.498658043e-05 -1.252852396
-107.8072928 -5.865931547 -243.0952314
83.58751722 0.1498258034 -9.739595816e-05
100.6176072 -67.10240725 -9.739595816e-05
-112.8072928 -40.98919562 -142.8445214
60.63136722 -2.498658043e-05 -136.4841504
-129.4383228 -51.7461807 -8.109086396
-76.01118278 -52.55691399 -9.739595816e-05
35.21607722 -2.498658043e-05 -141.1592104
11.95273722 -17.46834908 -9.739595816e-05
-107.8072928 -23.95390552 -79.9074094
-68.84887278 -2.498658043e-05 -58.9224784
8.330217223 -60.98526339 -9.739595816e-05
-107.8072928 -49.64512015 -49.0892504
-112.8072928 -40.00407622 -172.6344244
-73.38051278 -2.498658043e-05 -242.3772734
56.09832722 -2.498658043e-05 -212.0754024
109.8926472 -31.98485681 -12.8061994
-112.8072928 -40.16189448 -39.4062884
117.8592172 -36.82252008 -53.5065964
-107.8072928 -7.993989137 -40.6762414
-64.56543278 -49.22987714 -9.739595816e-05
110.4595172 -2.498658043e-05 -132.7407144
-112.8072928 -39.19502879 -79.4349644
-79.89006278 -2.498658043e-05 -141.3201924
63.23976722 -2.498658043e-05 -110.0233914
76.11708722 -2.498658043e-05 -126.8409634
121.8304172 -26.00477738 -49.5467974
-107.8072928 -2.326421467 -114.2060664
117.8770172 -2.498658043e-05 -116.9231704
52.47326722 -2.498658043e-05 -5.827729396
-35.72577278 -50.26144952 -9.739595816e-05
86.98307722 -2.498658043e-05 -181.7420254
-107.8072928 -47.62016475 -97.4759114
-107.8072928 -26.84868836 -33.6772574
-112.8072928 -9.192686267 -202.0358994
32.65572722 -35.80027267 -9.739595816e-05
-97.17479278 -2.498658043e-05 -226.8651854
-112.8072928 -9.797065167 -95.7827114
117.6983772 -30.31570439 -36.8296994
124.1159772 -19.52796119 -56.5811004
-58.02022278 -7.970638687 -9.739595816e-05
104.7973572 -2.498658043e-05 -58.6022434
-107.8072928 -25.04766714 -142.4473254
-107.8072928 -2.338939357 -179.8537244
52.35251722 -12.20792081 -9.739595816e-05
99.45386722 -2.498658043e-05 -168.8129634
-124.9290828 -12.61018212 -12.0806594
34.71335722 -2.498658043e-05 -167.3774784
-107.8072928 -13.75822953 -38.4038414
-39.07932278 -2.498658043e-05 -98.1161874
-107.8072928 -43.39663357 -228.7248174
-117.5566628 -2.498658043e-05 -116.8863294
-61.10320278 -2.498658043e-05 -33.4385284
4.770827223 -2.498658043e-05 -102.3492774
71.18108722 -11.486676 -9.739595816e-05
-112.8072928 -23.53985304 -231.3380924
-107.8072928 -34.30653836 -216.2472544
-71.14779278 -2.498658043e-05 -132.8225924
-116.7551528 -1.590291167 -3.762776396
-111.7005328 -18.23875708 -1.000097396
113.0121272 -2.498658043e-05 -74.5333404
9.716047223 -2.498658043e-05 -98.3218994
-112.8072928 -15.66670504 -24.2119924
-122.0618728 -2.498658043e-05 -224.6223694
-107.8072928 -36.03949547 -16.0025084
117.3947772 -30.79715748 -9.739595816e-05
21.79192722 -2.498658043e-05 -82.5152614
97.87284722 -2.498658043e-05 -68.1779264
-112.8072928 -32.09254054 -159.4527034
-107.8072928 -42.55425471 -58.7003684
-82.49972278 -26.01281353 -9.739595816e-05
-112.8072928 -30.8371906 -26.6855434
56.76319722 2.009143793 -9.739595816e-05
-54.44650278 -2.498658043e-05 -223.0278774
-107.0745328 -2.498658043e-05 -21.1745964
-112.8072928 -6.865337937 -222.6735584
-112.8072928 -44.572348 -208.1256114
125.2447772 -2.498658043e-05 -61.0543114
0.789527223 -2.498658043e-05 -53.4114084
-91.84166278 -2.498658043e-05 -166.8981824
116.4817972 -46.8001247 -49.2672674
111.8612672 -13.49084261 -35.0471564
-112.8072928 -42.78171798 -187.0376524
-68.89390278 -11.02338739 -9.739595816e-05
-112.8072928 -18.9619277 -200.8419274
-112.8072928 -9.764587637 -184.2236154
-50.80530278 -2.498658043e-05 -31.2011634
-112.8072928 -11.04693148 -89.6835584
-107.8072928 -33.51063282 -235.7936974
-77.76244278 -39.04839434 -9.739595816e-05
109.1301972 -2.498658043e-05 -183.2620474
-112.8072928 -43.82916822 -88.1617534
-112.8072928 -47.93812191 -228.4832564
-83.19125278 -2.498658043e-05 -86.1662914
-107.8072928 -40.61121672 -156.4974954
-41.53179278 -20.07935017 -9.739595816e-05
74.61776722 -2.498658043e-05 -107.5488554
-69.80637278 -2.498658043e-05 -95.2980064
107.9989372 -24.85822204 -6.978089396
-107.8072928 -13.42840392 -245.5830354
-112.8072928 -48.17311312 -83.1289264
-107.8072928 -44.8634872 -74.7400614
-112.8072928 -5.604697057 -70.1413394
-14.58463278 -2.498658043e-05 -55.7426454
34.42686722 -4.256456087 -9.739595816e-05
126.7029772 -38.38438612 -80.7247414
-112.8072928 -30.99665168 -103.1761434
-84.08847278 -2.498658043e-05 -176.5558534
129.2204372 -13.70130634 -72.2910484
-112.8072928 -2.805102747 -217.7813544
-108.6112728 -2.498658043e-05 -62.8975204
-107.8072928 -18.32242694 -63.1604474
-112.8072928 -5.197854987 -138.7355834
-112.8072928 -30.68133786 -113.0332704
117.5321472 -12.74461327 -36.3183744
-57.16040278 -2.498658043e-05 -163.4051224
-112.8072928 2.403436513 -203.9240574
-107.8072928 -3.470155757 -198.0154874
109.1193672 -15.82180583 -26.6086434
-107.8072928 -37.1585203 -21.5939244
-107.8072928 -47.33628632 -27.0614274
-107.8072928 2.316847943 -195.5771444
128.3906272 -46.85353467 -69.7368904
47.63474722 -2.498658043e-05 -154.4050314
-94.84683278 -14.72985651 -9.739595816e-05
-112.8072928 -46.60867842 -9.873757396
-107.8072928 -1.459133017 -225.5659474
-112.8072928 -16.23410405 -113.6496504
-89.87434278 0.8257296634 -9.739595816e-05
-98.24037278 -41.81231523 -9.739595816e-05
-107.8072928 -44.15130241 -34.7421444
-113.1084728 -5.904190037 -0.627417396
-107.8072928 -11.59689123 -133.5105094
-112.8072928 -13.92415472 -8.792522396
-112.8072928 -11.72259688 -62.9958444
-112.8072928 -27.00155407 -52.2541104
107.2472072 -23.93779145 -20.8465764
-107.8072928 -8.082620277 -237.0877044
-43.10638278 -2.498658043e-05 -4.854369396
118.4072872 -49.85009972 -39.0113944
99.05836722 -2.498658043e-05 -203.7779954
107.9455172 -40.79869231 -22.9954104
-107.8072928 -21.05717428 -154.9405864
-107.8072928 -20.7012684 -129.4158094
-107.8072928 -31.82296327 -129.8790044
78.18183722 -2.498658043e-05 -75.5973834
-115.3601228 -29.67425871 -2.343176396
-36.52599278 -2.498658043e-05 -155.1167914
-55.73943278 -2.498658043e-05 -230.7519744
-112.8072928 -2.534300627 -105.4255384
124.5187872 -6.204066227 -74.0016614
108.3547572 -54.65694448 -9.739595816e-05
28.83911722 1.266603603 -163.7804734
7.324087223 -9.209239827 -9.739595816e-05
56.28115722 -36.20090706 -9.739595816e-05
-33.95180278 -2.498658043e-05 -125.8791874
60.48259722 -2.498658043e-05 -153.3482964
-107.8072928 -11.37942428 -200.6889844
-42.83055278 -11.69077047 -9.739595816e-05
-18.74905278 -2.498658043e-05 -127.8415754
-112.8072928 -41.89863459 -247.4705094
96.67742722 -2.498658043e-05 -82.7908824
127.6560472 -2.498658043e-05 -38.1812544
-107.8072928 -29.16034226 -184.3452784
-68.96362278 -30.75481737 -9.739595816e-05
-112.8072928 -19.45377186 -139.7002174
-112.8072928 -15.91134652 -235.3422214
-11.54895278 -2.498658043e-05 -92.0629104
-107.8072928 -12.30316756 -67.6472954
-112.8072928 -22.85707777 -189.7182024
111.4969572 -29.93034309 -17.7437684
-107.8072928 -39.70122625 -195.4057014
-112.8072928 -30.33569998 -151.9476764
110.8223272 -17.88869275 -15.6676504
-126.0123928 -57.54295736 -13.1830494
-107.8072928 -2.929481367 -139.9101304
118.9798372 -24.6579863 -56.9557394
-107.8072928 -14.19536285 -86.6947124
-107.8072928 -40.27383722 -109.2275824
-107.4500328 -2.498658043e-05 -133.3564104
-107.8072928 -30.04704635 -13.2058234
-64.16862278 -2.498658043e-05 -89.1634794
-107.8072928 -21.88906807 -163.6464564
57.96039722 -2.498658043e-05 -183.6825144
-107.8072928 -45.61489972 -191.5377254
-112.8072928 -8.064975147 -115.4720204
-112.8072928 -32.03980834 -215.1175534
-112.8072928 -5.947298657 -38.8126694
-107.8072928 -35.58816241 -183.4758054
-112.8072928 -41.82512037 -220.2218134
-107.8072928 -37.98121111 -92.4630644
-86.42563278 -2.498658043e-05 -96.7707654
101.2020272 -49.28166722 -2.240997396
-28.83480278 -2.498658043e-05 -0.946976396
89.22287722 -2.498658043e-05 -229.7155994
-112.8072928 -14.5614519 -178.1744794
84.90184722 -2.498658043e-05 -193.9828924
-107.8072928 -37.94334106 -250.1296754
38.30673722 -2.498658043e-05 -75.1406034
122.9552372 -2.498658043e-05 -187.7456604
-107.8072928 -13.67692782 -99.5703004
-61.10530278 -2.498658043e-05 -67.2686834
-98.41698278 -2.498658043e-05 -213.6200574
40.43869722 -2.498658043e-05 -114.7575014
106.4056072 -44.57206433 -18.2560174
-107.8072928 -35.71429929 -122.4317524
-81.82730278 -2.498658043e-05 -75.3611044
-112.8072928 -39.44127449 -198.9503374
118.6409572 -5.408112897 -55.9114324
-88.46604278 -2.498658043e-05 -234.1149974
-112.8072928 -27.67097729 -126.1172454
-8.414922777 -2.498658043e-05 -31.2296634
-8.235042777 -7.167979067 -9.739595816e-05
121.2575572 -49.34577322 -63.9656214
-107.0850828 -2.498658043e-05 -120.9757834
-112.7619028 -50.00002499 -130.5323454
-55.59450278 -2.498658043e-05 -144.6723664
-112.8072928 -34.85071052 -94.3222464
-112.8072928 -26.90626938 -240.2416244
-101.4324928 -2.498658043e-05 -115.9408584
120.8582372 -36.08135168 -46.5546374
126.1240372 -30.62531067 -62.7611074
103.7690672 -2.498658043e-05 -77.0840664
-114.0354228 -2.498658043e-05 -211.0528924
-116.5173728 -39.50805764 -3.520806396
127.5025972 -23.58898514 -83.1860164
29.21316722 -2.498658043e-05 -69.1521004
-104.3784928 -2.498658043e-05 -246.1400824
-112.8072928 -23.8136275 -204.0690854
-116.2742528 -68.00002403 -2.158019396
-112.8072928 -8.569476497 -81.3012644
-15.23851278 -2.498658043e-05 -30.4973264
-112.5042228 -50.00002499 -26.1602514
109.7299672 -35.46559494 -28.4874744
-112.8072928 -17.02584208 -162.4602134
114.5499272 -7.777802167 -43.3202374
19.13432722 -2.498658043e-05 -10.2884994
91.54464722 -2.498658043e-05 -194.3066684
-107.8072928 -32.03537976 -189.0321754
-112.8072928 -16.70115153 -229.9420444
-112.8072928 -5.517012937 -190.4784674
-107.8072928 -32.77237547 -55.1515114
116.1081272 -16.48905808 -31.9356094
84.79103722 -2.498658043e-05 -46.8790264
-112.8072928 -37.77618306 -135.7472344
-112.8072928 -22.23409762 -195.9790154
-112.8072928 -45.76561588 -172.4809854
113.0514272 -35.50734907 -38.7098214
-107.8072928 -14.16439428 -208.7128314
-112.8072928 -32.30057942 -196.8543694
-107.8072928 -35.47339083 -48.0739764
-112.8072928 -8.012791037 -160.4751574
-62.25199278 -2.498658043e-05 -150.1401044
-112.8072928 -26.1712089 -22.7941804
-107.8072928 -41.53061493 -223.1765804
-98.97947278 -56.38971793 -9.739595816e-05
-107.8072928 -10.54965079 -105.0395304
-112.8072928 -27.12478095 -182.0688484
-107.8072928 -37.40566525 -227.1120604
-41.32202278 -2.498658043e-05 -31.5892694
121.1437772 -14.71642936 -63.6158564
129.2315672 -41.02362007 -88.5069434
-87.01524278 -2.498658043e-05 -222.6763514
-107.8072928 -23.85332189 -88.3759794
-107.8072928 -43.38728796 -92.8418014
-107.8072928 -21.35571851 -235.0772954
110.5858872 -44.75158901 -31.1215154
128.8921372 -2.498658043e-05 -150.1028034
-107.8072928 -20.37361609 -211.8205174
-107.8072928 -40.95954624 -140.5784914
-107.9894228 -2.498658043e-05 -97.6438184
128.7998772 -38.31021134 -70.9963644
-112.8072928 -18.73211639 -55.6538114
-107.8072928 -24.21414194 -5.789470396
109.2323872 -42.72877722 -10.7739954
-107.8072928 -39.61988716 -214.7168174
-107.8072928 -32.92791536 -67.4408284
-96.53413278 -2.498658043e-05 -154.0194504
-112.8072928 -16.11330866 -186.3140004
95.26976722 -2.498658043e-05 -232.5557294
-112.8072928 -36.43232294 -192.6400904
-112.8072928 -4.777277577 -237.0837984
-112.8072928 -19.93161102 -134.3414054
-112.8072928 -23.84905302 -12.5428294
-107.8072928 -16.17919976 -72.5125674
118.1502372 -23.21588701 -38.2204684
59.03216722 -55.76894656 -9.739595816e-05
78.56364722 -2.498658043e-05 -175.9084724
-91.85191278 -67.70672716 -9.739595816e-05
126.8289172 -35.97014664 -64.9304324
122.6970372 -24.63631009 -9.739595816e-05
-112.4251828 -50.00002499 -55.1064734
117.6156272 -36.15319355 -9.739595816e-05
-107.8072928 -26.93706523 -46.0758674
-112.8072928 -18.39441852 -206.1705774
-107.8072928 -23.62591252 -181.6086274
120.7211172 -19.89045753 -62.3149234
-108.7681528 -50.00002499 -86.5190374
-103.8358728 -2.498658043e-05 -125.3631164
67.16612722 -2.498658043e-05 -46.7456924
85.06043722 -2.498658043e-05 -28.1706894
113.4727872 -5.343597107 -23.8257734
108.5894772 -30.11787593 -24.9775434
-107.8072928 -3.846080187 -174.4530974
88.79070722 -2.498658043e-05 -12.1098864
9.524507223 -44.17902422 -9.739595816e-05
-36.31314278 -2.498658043e-05 -2.164922396
80.27830722 -2.498658043e-05 -154.2196324
100.9182872 -2.498658043e-05 -35.5014524
-45.52557278 -2.498658043e-05 -99.6670034
-107.8072928 -18.86484064 -148.8965704
-107.8072928 -43.25985532 -122.4053454
-53.56893278 -2.498658043e-05 -90.2147654
-107.8072928 -14.55043038 -57.6281324
101.2970172 -38.00235147 -2.533412396
-107.8072928 -32.84197088 -210.5014204
-121.4479428 -46.02470129 -8.538217396
-112.8072928 -35.23618478 -99.8396344
-112.8072928 -22.04974462 -248.6522514
-107.8072928 -31.06560302 -174.1380744
118.8973372 -3.987937387 -40.5207254
125.7884672 -44.94376797 -61.7282154
98.16556722 -60.17904792 -9.739595816e-05
96.23247722 -2.498658043e-05 -151.4131524
-112.8072928 -17.20859553 -45.9617804
40.74792722 -34.38367282 -9.739595816e-05
-112.8072928 -15.84605835 -168.0710074
-95.13274278 -2.498658043e-05 -246.0036674
128.4742972 -12.70314827 -9.739595816e-05
-112.8072928 -44.74839923 -165.4698644
-102.1347428 -2.498658043e-05 -188.8187684
-112.8072928 -30.18300579 -97.8618374
59.67873722 -41.01165052 -9.739595816e-05
105.7255772 -23.09124489 -0.716553396
-112.8072928 -9.607482807 -169.2142284
19.46497722 -2.498658043e-05 -36.5276704
-107.8072928 -17.84342108 -171.1054944
74.57744722 -51.94595827 -9.739595816e-05
114.4673072 -39.33465658 -43.0673874
-107.8072928 -47.06725274 -212.1372224
113.6619572 -25.30082197 -40.5890674
-112.8072928 -0.07664801658 -222.9695244
-107.8072928 -31.21935982 -93.3007774
90.78009722 -2.498658043e-05 -204.8454354
-107.8072928 -3.636169957 -86.4885684
-112.8072928 -41.84623444 -53.6649824
-107.8072928 -34.15388884 -163.2863414
-107.8072928 -33.8499466 -142.0433744
62.90431722 -2.498658043e-05 -164.5008374
112.0903572 -28.89302588 -35.7521114
-107.8072928 -49.3697447 -137.5454624
91.08179722 -2.498658043e-05 -245.2361874
-112.8072928 -9.028533327 -143.6219794
-96.78822278 -2.498658043e-05 -97.3965274
-121.8713128 -2.498658043e-05 -72.2908464
-112.8072928 -11.84553879 -20.6294104
-112.8072928 -26.43369414 -146.8189834
-107.8072928 -14.37657914 -79.3714074
-84.97692278 -2.498658043e-05 -188.0417784
-112.8072928 -25.36174542 -130.9192434
-14.21141278 -2.498658043e-05 -71.6035454
-107.8072928 -15.8787595 -183.4640184
-112.8072928 -46.8683119 -222.7830274
123.9161872 -4.024071857 -55.9670344
-107.8072928 -47.38183899 -149.5132064
123.0761372 -36.32504588 -69.5625904
115.8327272 -17.44156438 -9.739595816e-05
-112.8072928 -24.62010709 -218.1850414
-112.8072928 -3.550781747 -121.6956734
-107.8072928 -19.32853358 -77.5371774
-107.8072928 -34.66961398 -111.6066104
-121.8930528 -2.498658043e-05 -44.6693744
-107.8072928 -31.83157007 -27.6773164
-107.8072928 -38.88257883 -75.5882934
-107.8072928 -12.9533291 -168.4683414
-112.8072928 -29.39645039 -57.3111654
-107.8072928 -6.572798887 -193.6590534
65.86720722 -2.498658043e-05 -137.3827454
-112.8072928 -17.29623431 -243.0740174
-107.8072928 -9.331524417 -151.7813784
-112.8072928 -1.697267317 -165.3663594
-53.36423278 -2.498658043e-05 -5.058680396
-112.8072928 -20.62342425 -118.0812764
-112.8072928 -38.36796077 -232.9469884
-69.05104278 -2.498658043e-05 -119.7565854
-15.99992278 -2.498658043e-05 -8.194161396
110.7812372 -2.498658043e-05 -155.3042274
75.14899722 -2.498658043e-05 -184.8161984
115.9458572 -16.86463086 -47.6183074
105.6514072 -24.14568898 -15.9352304
109.1169472 -2.498658043e-05 -234.7822614
104.5369372 -18.92229344 -12.5053824
-115.2117928 -11.58620811 -2.192234396
-112.8072928 -25.15074208 -75.7376824
115.1696272 -30.59270619 -29.0470424
-36.84411278 -2.498658043e-05 -173.3265384
-112.8072928 -15.17029782 -92.7626804
-112.8072928 -7.128312067 -76.3617744
121.2775372 -0.9909073566 -47.8461694
-107.8072928 -0.02868421658 -154.5190884
-107.8072928 -11.57034432 -139.2985844
117.7037072 -2.498658043e-05 -196.7076204
-85.10758278 -36.17873115 -9.739595816e-05
-112.8072928 -41.00445825 -147.9813274
-107.8072928 -2.318484357 -215.5582974
-112.8072928 -28.25548606 -119.3723564
47.07260722 -2.498658043e-05 -183.4460834
108.2508872 -29.91853546 -7.753435396
76.83105722 -2.498658043e-05 -244.6715964
39.82388722 -2.498658043e-05 -19.5008854
117.6353672 -42.53464348 -52.8175494
127.7298772 -20.98740333 -67.7034654
-112.8072928 -21.90552804 -126.8018034
-107.8072928 -8.386785787 -27.5142274
46.37719722 -2.498658043e-05 -79.5868904
-112.8072928 -26.65528082 -67.2003944
-73.53457278 -2.498658043e-05 -16.9927474
-107.8072928 -26.13631841 -172.2285944
-107.8072928 -28.93887889 -63.3248454
-124.0514628 -2.498658043e-05 -21.7792834
-112.8072928 -35.52487182 -84.9405024
-107.8072928 -8.890256427 -116.2710254
-112.6219828 -50.00002499 -89.8636464
113.0004672 -14.69409205 -22.3712824
-107.8072928 -10.32147028 -158.4842264
117.9354072 -44.98836735 -37.5589984
-107.8072928 -19.77173238 -46.8330734
-112.8072928 -22.15974375 -98.3454994
-31.91394278 0.5431722234 -180.9197154
-107.8072928 -7.211313027 -181.3113284
68.14539722 -2.498658043e-05 -108.6826964
-112.8072928 -24.31613418 -57.1282054
-85.59795278 -2.498658043e-05 -198.0667974
-111.8351128 -50.00002499 -239.8551924
-107.8072928 -22.35044181 -53.2582164
111.9931672 -1.077840527 -19.2720194
-112.8072928 -22.83703021 -43.3175874
-112.8072928 -11.48393347 -45.5668864
-112.8072928 -12.21020627 -100.7366204
-112.8072928 -36.7232089 -153.3972634
-107.8072928 -46.26552296 -234.5480564
118.7139172 -2.498658043e-05 -217.4913644
125.6221072 -39.20421711 -61.2161994
-36.64668278 -2.498658043e-05 -132.2424184
121.7082172 -20.74337423 -49.1707924
125.6552572 -16.20450089 -77.5006584
128.9478972 -21.65923864 -87.6342064
-112.8072928 -27.14587109 -167.1785834
93.36121722 -2.498658043e-05 -132.0914164
-112.8072928 -39.45263004 -104.6265074
-107.8072928 -16.47202443 -132.1956514
-112.8072928 -4.372406387 -49.2025664
-107.8072928 -13.75493171 -51.2132784
-112.8072928 -30.85397446 -202.1732564
-4.029112777 -2.498658043e-05 -98.2927464
107.0505472 -18.46993477 -20.2414494
-22.99537278 -22.03113005 -9.739595816e-05
-107.8072928 -4.577614627 -101.0838034
119.4071472 -35.83054202 -58.2706514
106.2053572 -2.498658043e-05 -174.8757614
113.8080272 -23.55225943 -24.8565554
-107.8072928 -48.2134337 -53.9137814
120.6001772 -45.6818755 -45.7603124
-107.8072928 -25.96992676 -156.9991094
122.5588172 -37.28030732 -51.7884284
-107.8072928 -26.1690087 -199.6325744
-112.8072928 -37.02536312 -221.6985404
-107.8072928 -23.30334397 -63.7963014
-112.8072928 -37.36854394 -64.2198664
-112.8072928 -20.04663249 -220.5097684
110.2802572 -20.86512462 -9.739595816e-05
-112.8072928 -46.41673536 -217.0854674
-112.8072928 -41.61857169 -237.2587624
-112.8072928 -29.51181592 -189.8650904
-107.8072928 -45.00351152 -198.8627034
-107.8072928 -36.06164399 -204.3934334
-68.29964278 -2.498658043e-05 -178.9239124
-107.8072928 -34.60947019 -147.8060154
-78.21394278 -2.498658043e-05 -49.8293544
-112.8072928 -45.66149329 -133.2777444
-110.1405928 -46.19419678 -1.000097396
-47.38208278 -2.498658043e-05 -133.4288764
107.8028272 -48.66570533 -22.5561584
115.2844372 -21.97629097 -45.5825794
-107.8072928 -23.90562705 -100.9610754
-107.8072928 -7.260876347 -213.8505104
-112.8072928 -13.62370627 -212.0085064
-112.8072928 -12.35880707 -242.2924144
-112.8072928 -13.02346766 -148.2117424
39.15022722 1.837631913 -240.3824744
-107.8072928 -39.2554371 -5.897942396
-90.20321278 -2.498658043e-05 -12.8525404
-112.8072928 -40.76264733 -47.3399504
75.47073722 -27.81074087 -9.739595816e-05
116.8333372 -4.224343617 -50.3473554
-107.8072928 -34.02717933 -241.9929564
-112.8072928 -41.52014018 -74.7902864
34.51840722 2.192194283 -9.739595816e-05
-124.9557428 -2.498658043e-05 -103.6454074
-112.8072928 -20.58638643 -35.4731474
-107.8072928 -15.25161941 -178.5292734
112.7910672 -8.169005497 -37.9071854
-57.34665278 -2.498658043e-05 -99.6687114
84.87481722 -2.498658043e-05 -213.6722784
115.7250972 -12.14981673 -9.739595816e-05
-107.8072928 -35.05745273 -32.5825264
124.0345572 -27.98381868 -72.5124324
124.1430572 -44.44402954 -56.6641764
-112.5064728 -50.00002499 -68.4536034
-107.8072928 -25.72763683 -122.9168334
107.2113972 -13.80451687 -6.205414396
-107.8072928 -46.85141289 -176.0431694
-107.8072928 -43.56355954 -69.7027554
-107.8072928 -45.43561601 -165.6757004
126.7702172 -2.498658043e-05 -80.2976124
-112.8072928 -45.48327872 -32.5996844
24.79611722 -2.498658043e-05 -75.8814684
125.9014172 -21.50368264 -78.2581464
-107.8072928 -11.3694891 -220.2243934
-112.8072928 -46.58360873 -245.2466974
65.20030722 -11.54408786 -9.739595816e-05
123.1598972 -30.49919452 -53.6384644
73.58807722 -32.80824521 -9.739595816e-05
-112.8072928 -33.44610799 -20.2685064
124.1712272 -2.498658043e-05 -226.1497734
122.2090972 -2.498658043e-05 -130.0523034
118.9988872 -2.498658043e-05 -209.3391254
-107.8072928 -33.59529645 -230.2212074
111.9729972 -21.40685978 -35.3910814
-112.6908328 -50.00002499 -13.4313644
59.25814722 -2.498658043e-05 -97.0056344
-107.8591128 -50.00002499 -131.1956984
-112.8072928 -7.190212207 -65.4957064
-112.8072928 -16.86239716 -125.0807964
-112.8072928 -13.04852909 -83.3029474
-65.35997278 -2.498658043e-05 -4.039524396
-107.8072928 -46.25498515 -81.7391944
61.34515722 -2.498658043e-05 -27.8600914
-107.8072928 -44.96291184 -9.512903396
-112.8072928 -31.61229366 -242.8043914
-107.8072928 -45.42488148 -145.0241284
-32.30563278 -30.49766767 -9.739595816e-05
-107.8072928 -41.07603066 -63.3677494
-112.8072928 -45.02535517 -100.4595244
-107.8072928 -32.62780014 -200.7928584
-10.17836278 -44.12632855 -9.739595816e-05
-107.8072928 -19.32079482 -15.3031184
55.54712722 -50.79969202 -9.739595816e-05
-50.73767278 -2.674963627 -9.739595816e-05
-112.8072928 -43.38765672 -111.9487054
123.0433472 -23.11125213 -53.2798354
-107.8072928 -40.38349783 -182.5999074
49.12863722 -2.498658043e-05 -61.9792924
110.0235672 -27.12985787 -13.2092044
-107.8072928 -38.23447695 -99.6482184
-60.44661278 -54.33721816 -9.739595816e-05
-4.309812777 -2.498658043e-05 -119.6836684
-112.8072928 -32.64004295 -180.0952214
-107.8072928 -37.32930011 -58.2046114
-112.8072928 -22.72560849 -143.6714074
-108.2784228 -50.00002499 -229.7774664
-112.8072928 -47.11969495 -196.4971434
-112.8072928 -15.19164648 -29.0516594
-112.8072928 -22.56139745 -242.9317054
112.4366472 -33.72310867 -20.6357824
13.12984722 -2.498658043e-05 -54.2264544
115.7114972 -45.32923688 -30.7145414
-121.6327428 -2.498658043e-05 -50.4365364
122.8832172 -31.5078798 -68.9689164
118.0486172 -0.9457551566 -54.0877444
-107.8072928 -2.881700237 -230.2095054
-107.8072928 -34.09183563 -3.402763396
-107.8072928 -32.97602908 -42.1583374
-112.8072928 -33.14468505 -127.2964814
-112.8072928 -17.53468561 -72.8688534
-107.8072928 -40.66023356 -131.0414634
-107.8072928 -22.46208133 -246.1210644
-107.8072928 -13.12869831 -31.6277714
0.741297223 -28.24912646 -9.739595816e-05
114.2535472 -49.39386512 -26.2274814
-112.8072928 -36.73808881 -140.5213624
-108.9279228 -2.498658043e-05 -71.2034074
-107.8072928 -21.99925116 -230.2792514
-112.8072928 -3.400650907 -81.1241914
-107.8072928 -27.69591518 -127.3494874
-112.8072928 -34.16044776 -7.174812396
-112.8072928 -29.38097665 -230.1273604
-20.80720278 -2.498658043e-05 -154.4299204
-112.5033228 -50.00002499 -187.4552794
-107.8072928 -6.568169757 -126.4253244
111.8375372 -10.54560751 -18.7927104
-25.42047278 -2.498658043e-05 -106.8376964
-107.8072928 -21.93489484 -138.7474784
67.33049722 -2.498658043e-05 -69.8788044
-107.8072928 -32.41426356 -20.6687814
-74.49845278 -2.498658043e-05 -26.8440484
64.54384722 -2.498658043e-05 -6.385804396
-126.2802128 -2.498658043e-05 -241.1501144
-77.88152278 -2.498658043e-05 -61.0817054
-112.8072928 -38.69754686 -28.4842534
-112.8072928 -33.74903918 -74.0536854
-112.8072928 -26.60542009 -101.1823574
100.3506372 -2.498658043e-05 -195.1928044
42.87613722 0.09382329342 -9.739595816e-05
-129.1827728 -2.498658043e-05 -106.8880064
-75.35177278 -2.498658043e-05 -186.3560624
89.17864722 1.926244993 -9.739595816e-05
118.8081872 -15.21452815 -40.2455144
-107.8072928 -27.60656406 -136.7012474
-107.8072928 -37.5591415 -171.0025264
99.12206722 -2.498658043e-05 -220.7456664
-107.8072928 -9.165777427 -88.8670314
-107.8072928 -18.91338176 -6.375275396
80.00532722 -2.498658043e-05 -115.3603914
-112.8072928 -34.20790748 -54.1681124
91.39327722 -2.498658043e-05 -142.6594424
-99.18863278 -2.498658043e-05 -241.8722574
-112.8072928 -31.89938806 -79.4066684
21.24461722 -2.498658043e-05 -26.8895944
-112.8072928 -5.517143897 -205.1060984
103.3395372 -2.498658043e-05 -140.8778894
96.82112722 -2.498658043e-05 -49.4020034
-112.8072928 -5.258015927 -196.5683674
114.3761372 -2.498658043e-05 -28.7022314
-112.1115228 -50.00002499 -154.3227114
-107.8072928 -25.76590824 -69.6965234
-112.8072928 -32.52262649 -39.4797874
-107.8072928 -12.02924186 -232.3654244
102.7333172 -27.21811954 -6.954260396
103.9826572 -40.28554219 -10.7990584
104.0536372 -33.73874084 -9.739595816e-05
-40.68916278 -2.498658043e-05 -246.2063134
-107.8072928 -11.83178317 -163.2587034
60.88286722 -2.498658043e-05 -82.0321604
-112.8072928 -47.45294024 -73.1687594
-107.8072928 -39.07620751 -165.5496464
-107.8072928 -3.389649157 -109.4715994
-112.8072928 -18.31015353 -214.7236164
-107.8072928 -16.9078621 -227.3970614
-107.8072928 -44.75548232 -180.7125294
125.9597272 -25.89344204 -62.2554814
-107.8072928 -3.851592187 -169.3936194
39.87399722 -2.498658043e-05 -70.6479654
-107.8072928 -29.12307426 -233.9530924
-107.8072928 -26.88434069 -114.4129854
-112.8072928 -47.88947924 -124.2534614
101.4859472 -25.16214924 -9.739595816e-05
-35.52680278 -2.498658043e-05 -145.3532204
-112.8072928 -7.717797507 -241.2699494
-112.8072928 -44.79118448 -155.1538674
124.9763072 -15.67882878 -59.2289514
65.28075722 -57.57914953 -9.739595816e-05
-107.8072928 -48.25516499 -204.9724354
104.3695572 -2.498658043e-05 -153.5897834
-112.8072928 -32.66604706 -64.8372574
-102.7172128 -2.498658043e-05 -133.6040604
-107.8072928 -39.66394061 -25.6157004
128.2622672 -31.59116105 -85.5238744
-112.8072928 -8.269308357 -107.8468134
1.044607223 -2.498658043e-05 -27.3076724
-112.8072928 -7.858528387 -58.3571044
127.3570172 -47.09832623 -82.7377754
16.12316722 -2.498658043e-05 -74.1046074
-25.50033278 -2.498658043e-05 -75.2536134
-107.8072928 -10.49995073 -18.4830234
-107.8072928 -14.29220856 -192.1149144
-1.615002777 -2.498658043e-05 -139.4197204
30.07293722 -2.498658043e-05 -18.2534134
107.2175072 -43.39969609 -4.572864396
-112.8072928 -19.85023835 -9.172610396
-107.8072928 -7.865099457 -208.5635344
106.5445172 -6.697769477 -14.5350524
-107.3072928 0.5493080034 -208.6438794
-107.8072928 -18.51983104 -119.6743314
-107.8072928 -25.35568559 -38.1516064
-112.8072928 -40.46714684 -215.5266134
-36.72983278 -2.498658043e-05 -82.1500654
112.5573872 -43.39886163 -37.1891814
-46.77276278 -2.498658043e-05 -219.9857774
68.55606722 -2.498658043e-05 -63.1971514
-107.8072928 -44.43931829 -186.5256584
-107.8072928 -31.5792857 -221.5392204
119.8460472 -2.498658043e-05 -43.4881604
-108.7106928 -50.00002499 -181.9554514
-107.8072928 -31.3303469 -7.700567396
-112.8072928 -22.30627314 -174.1627354
-107.8072928 -46.28574877 -220.6795464
46.95751722 -2.498658043e-05 -121.5537824
124.3222272 -14.3877783 -73.3980344
-38.60885278 -46.57534818 -9.739595816e-05
-112.8072928 -35.24455536 -118.6873154
62.45273722 -2.498658043e-05 -56.1025174
-123.4584128 -65.01709418 -10.5840854
41.06525722 -59.29327073 -9.739595816e-05
