# .PCD v0.7 - Point Cloud Data file format
VERSION 0.7
FIELDS x y z
SIZE 4 4 4
TYPE F F F
COUNT 1 1 1
WIDTH 1203
HEIGHT 1
VIEWPOINT 0 0 0 1 0 0 0
POINTS 1203
DATA ascii
102.195017 -47.30350699 -228.0000974
-103.338374 -2.498419857e-05 -50.85869639
-43.67719295 -2.498419857e-05 -76.77142139
-291.749955 -151.6966628 -95.82480339
-161.463518 -19.80804084 -234.0000974
-67.53405695 -2.498419857e-05 -187.4075644
221.792323 -2.498419857e-05 -191.0507424
-138.696148 -2.498419857e-05 -193.9988154
-253.604691 -2.498419857e-05 -194.4591294
-177.908486 -43.76272339 -9.738602012e-05
-161.391143 -2.498419857e-05 -40.81373639
-88.55568095 -44.48902374 -234.0000974
-191.470237 -42.6147588 -228.0000974
-213.487722 -2.498419857e-05 -80.31179139
-295.749955 -189.6612574 -62.19453839
-36.04750995 -2.498419857e-05 -199.1355094
115.793813 -2.498419857e-05 -84.16151039
62.60852105 -2.498419857e-05 -117.3339494
-277.383685 -137.597745 -175.0000974
29.65970305 -2.498419857e-05 -110.4987824
111.939158 -2.498419857e-05 -178.1882574
-27.14853495 -2.498419857e-05 -42.22254539
-88.47995895 -2.498419857e-05 -184.6794414
174.123047 -2.498419857e-05 -76.52239439
-291.749955 -230.5905641 -61.54151239
-317.994507 -2.498419857e-05 -196.5630124
146.356587 -2.911219094 -234.0000974
279.271719 -2.498419857e-05 -12.75954439
-291.749955 -169.1181296 -39.01323939
-295.749955 -172.40799 -119.4525184
-104.922618 -2.498419857e-05 -193.5484004
302.872427 0.1873245158 -131.9087884
294.935748 -2.498419857e-05 -102.6582254
-302.569321 -54.41714438 -234.0000974
277.594038 -2.498419857e-05 -214.2813384
-299.749955 -33.66048557 -113.8973694
-180.403628 -2.498419857e-05 -68.02092339
-295.749955 -31.83587454 -27.88799939
-60.18678895 -2.498419857e-05 -20.93243139
83.11995605 -14.66449422 -234.0000974
161.312598 -2.498419857e-05 -114.0557784
320.443254 -63.20716684 -228.0000974
98.46121905 -2.498419857e-05 -122.6913104
-272.002466 -100.6445064 -179.0000974
148.352492 -2.498419857e-05 -174.2800974
38.25311605 -2.498419857e-05 -215.9453534
-291.749955 -39.70194172 -60.40370139
-79.33984095 0.3069844158 -9.738602012e-05
-260.088467 -165.8950281 -175.0000974
-11.17519795 -11.05528714 -228.0000974
-295.524089 -199.6397966 -25.57420939
74.13765805 -29.31466645 -228.0000974
-291.749955 -56.29317382 -146.8272414
68.79607805 -45.67947737 -9.738602012e-05
-291.749955 -56.77277114 -90.77895339
-94.27675295 -12.55419666 -228.0000974
21.31140005 -11.15567642 -234.0000974
-162.387708 -32.75075162 -9.738602012e-05
-300.301174 -2.498419857e-05 -168.6571934
13.78077405 -2.498419857e-05 -71.57101239
-295.213046 -247.7814482 -81.95172239
-62.13429995 -25.4398254 -228.0000974
-291.749955 -124.4022353 -159.7184004
142.6461 -2.498419857e-05 -115.2198904
-192.635827 -2.498419857e-05 -167.7980804
-4.541959953 -2.498419857e-05 -166.3291924
-187.446441 -2.498419857e-05 -193.0012704
-295.749955 -19.05312526 -92.15062839
-238.358457 -151.6363602 -19.00009739
-211.403216 -50.58872177 -234.0000974
141.035337 -2.498419857e-05 -80.15089039
192.801731 -21.68479934 -9.738602012e-05
-290.409597 -14.08908536 -9.738602012e-05
-299.749955 -94.94454464 -80.10122539
-24.29089795 -2.498419857e-05 -133.8058564
-295.749955 -248.5778266 -155.8353964
-295.749955 -118.9096835 -93.48503139
54.06742205 -0.1287162742 -234.0000974
-54.57674995 -2.498419857e-05 -50.50815539
-299.749955 -81.75164921 -170.8737934
-285.857359 -2.498419857e-05 -103.3822664
-188.676096 -2.498419857e-05 -109.2687894
4.606577047 2.338020536 -9.738602012e-05
-294.427761 -233.2314466 -175.3924574
-291.749955 -247.2709618 -118.3568664
-299.749955 -33.57739722 -81.89535839
-149.335489 -2.498419857e-05 -3.154745386
207.277987 -62.47345428 -9.738602012e-05
-203.201506 -10.79122308 -228.0000974
-284.638818 -51.95992944 -175.0000974
283.55701 -30.51879541 -9.738602012e-05
-259.475112 -42.62697634 -175.0000974
31.41289005 -2.498419857e-05 -45.95270339
-174.874574 -2.498419857e-05 -217.1835044
39.56206905 -16.50875485 -234.0000974
23.24697405 -2.498419857e-05 -161.9514004
-122.715746 -2.498419857e-05 -45.57502539
-299.749955 -82.61119234 -99.95911439
-299.749955 -26.49896421 -147.7909464
-253.367209 -2.498419857e-05 -163.5674054
-80.01353695 -21.6701833 -9.738602012e-05
-284.495268 -51.01615302 -9.738602012e-05
124.116333 -2.498419857e-05 -143.6553624
300.522263 -2.498419857e-05 -164.8303514
-291.517327 -2.498419857e-05 -214.0320014
-122.483111 -11.14065407 -228.0000974
-102.325264 -2.498419857e-05 -217.1038744
-148.528116 -53.88640369 -228.0000974
-275.2611 -14.46473427 -179.0000974
-292.178263 -0.5000249842 -65.15596939
-299.749955 -67.75526582 -68.49422139
27.84754705 -2.498419857e-05 -143.5905774
-247.177303 -182.9655663 -19.00009739
-280.069118 -167.3806654 -23.00009739
50.28463205 -2.498419857e-05 -17.83312439
-175.196964 -43.98380855 -234.0000974
-291.749955 -190.9311276 -103.5910174
-80.57822595 -2.498419857e-05 -150.4658894
138.530128 -2.498419857e-05 -56.66811439
-107.620812 -2.498419857e-05 -85.25093239
305.777518 -14.79722426 -9.738602012e-05
6.116164047 -67.91675832 -228.0000974
-90.66416895 -68.00002402 -228.7923544
-114.669732 -2.498419857e-05 -9.739075386
-232.51291 -17.89088619 -175.0000974
-259.343095 -74.5587635 -175.0000974
-195.612048 -15.97671537 -9.738602012e-05
-224.753923 -169.139855 -179.0000974
-253.178849 -41.53710815 -9.738602012e-05
-217.749955 -232.3939242 -175.2420304
-179.915898 -2.498419857e-05 -11.93794439
-242.444763 -2.088487024 -234.0000974
22.94968305 -52.09408781 -9.738602012e-05
-295.749955 -229.519683 -131.9759294
-178.218623 -2.498419857e-05 -126.8847004
-276.964658 -184.1734043 -175.0000974
-295.749955 -75.5380508 -144.8772884
-301.433118 1.183879716 -234.0000974
210.133868 -2.498419857e-05 -204.5455084
-54.05678895 -2.498419857e-05 -129.4384334
302.132796 -4.198698354 -228.0000974
-222.913571 -202.6568009 -19.00009739
-295.749955 -82.18132552 -40.09536439
-90.29865695 -2.498419857e-05 -165.9732474
-271.575958 -2.498419857e-05 -223.0299054
-113.738613 -2.498419857e-05 -154.6706514
111.962882 -29.36482213 -234.0000974
-125.360328 -2.498419857e-05 -88.04143539
-252.529719 -2.498419857e-05 -141.4608104
106.273012 -2.498419857e-05 -214.6514804
-225.153081 -235.277061 -19.00009739
3.548796047 -2.498419857e-05 -101.8957394
-291.749955 -109.3867323 -52.29839639
207.683632 -13.47667846 -228.0000974
-315.491006 -2.498419857e-05 -58.99705939
253.5317 -2.498419857e-05 -42.32578139
-233.252472 -105.2018559 -19.00009739
-233.073217 -34.8379045 -175.0000974
41.62522705 -2.498419857e-05 -85.65052539
87.12231005 -2.498419857e-05 -98.96217439
231.480897 -2.498419857e-05 -65.18116939
174.031133 -66.80121321 -9.738602012e-05
-294.032234 -236.321106 -22.10781539
-291.272102 -126.7539524 -178.1726834
-57.06376995 1.153998076 -228.0000974
177.239031 -2.498419857e-05 -185.9180564
-295.749955 -199.3112416 -170.2632944
-287.640671 -35.10792253 -179.0000974
-34.00278895 -2.498419857e-05 -170.7292304
-278.769584 -2.498419857e-05 -187.8055454
-6.231541953 -2.498419857e-05 -216.6468094
-295.749955 -10.52889845 -124.4859314
-295.749955 -137.5959709 -29.13405739
-210.653588 -67.21889075 -9.738602012e-05
-116.879451 -43.51770861 -234.0000974
144.004166 -55.45696362 -228.0000974
318.008297 -2.498419857e-05 -77.01357039
-310.727084 -16.56485545 -234.0000974
-154.808447 -2.498419857e-05 -122.6570044
208.353186 -2.498419857e-05 -79.17135939
-299.749955 -12.46412431 -26.23583839
-304.290704 -2.498419857e-05 -0.04676738602
-280.294835 -220.7008248 -179.0000974
-275.210395 -252.1077579 -175.0000974
-319.737068 -56.13228955 -9.738602012e-05
-115.059652 -59.61419356 -9.738602012e-05
-223.960994 -201.3709443 -179.0000974
-299.749955 -175.9200445 -73.82329239
181.77357 -2.498419857e-05 -103.2328284
271.474219 -16.42879968 -9.738602012e-05
242.141225 -2.498419857e-05 -212.4751574
268.524644 -57.92282284 -228.0000974
-222.692199 -164.364184 -19.00009739
193.727832 -2.498419857e-05 -206.9808424
-256.592827 -134.1447069 -19.00009739
163.889487 -53.88038891 -9.738602012e-05
304.920712 -36.63766729 -228.0000974
227.619885 -2.498419857e-05 -135.1246474
297.993692 -65.30757391 -234.0000974
-291.749955 -213.3984956 -150.0208454
-295.749955 -195.9470988 -137.2173864
-250.381741 -2.498419857e-05 -107.5640194
-291.749955 -210.9129705 -117.0961274
196.181678 -2.498419857e-05 -50.12552839
54.09120505 -2.498419857e-05 -149.7090984
-224.10968 -29.88029326 -9.738602012e-05
-237.912088 0.6666921858 -125.0804714
-244.066271 -217.8487147 -177.0004414
-178.685225 -65.91854081 -9.738602012e-05
-217.749955 -103.5949551 -177.5089044
-299.749955 -33.56582125 -189.0474864
-217.749955 -133.1199944 -21.84701439
-225.477792 -25.64195561 -234.0000974
113.426928 -2.498419857e-05 -155.2047394
-291.749955 -138.1036968 -119.7543914
-274.491993 -144.0166455 -19.00009739
-74.65996995 -2.498419857e-05 -33.47081739
-152.352201 -2.498419857e-05 -53.65753239
170.421892 -2.498419857e-05 -28.29452739
17.26277705 -2.498419857e-05 -221.8137634
287.170573 -45.77804302 -9.738602012e-05
-105.827875 -45.56651016 -9.738602012e-05
-299.200243 -138.3484551 -152.9559694
-149.902147 -2.498419857e-05 -103.5661774
-120.035616 -2.498419857e-05 -175.0010204
-245.397193 -144.8625529 -179.0000974
-285.302475 -69.97921082 -175.0000974
-291.749955 -150.9949538 -68.19192339
-231.485606 -2.498419857e-05 -33.33793239
-315.715242 -48.50768689 -228.0000974
-271.940654 -220.3246299 -19.00009739
176.042453 -8.127246794 -234.0000974
233.749224 -13.51358 -228.0000974
250.85366 -39.73651876 -228.0000974
-108.506284 -15.65294629 -234.0000974
-103.795003 -2.498419857e-05 -118.4838414
90.02968705 -2.498419857e-05 -54.15301239
-291.749955 -226.1009346 -96.45838039
-291.749955 -251.950282 -49.11146539
62.76438605 -39.87870885 -228.0000974
-127.43139 -2.498419857e-05 -125.4851484
271.9364 -2.913995584 -234.0000974
-157.998288 -2.498419857e-05 -88.06747839
260.118146 -46.01264474 -9.738602012e-05
140.745536 -3.954029254 -9.738602012e-05
61.03294005 -15.71270973 -9.738602012e-05
316.009674 -13.14879976 -228.0000974
-199.399454 -2.498419857e-05 -46.55559939
-223.943129 -2.498419857e-05 -157.3499984
-299.749955 -23.70664021 -163.7258354
-303.687464 -48.99142 -9.738602012e-05
220.281544 -34.85288856 -9.738602012e-05
-93.71135995 -2.498419857e-05 -18.10791739
88.02152905 -2.498419857e-05 -152.7715834
-161.12228 -12.19084009 -9.738602012e-05
-295.749955 -53.87337377 -55.99284339
-28.80898295 -2.498419857e-05 -2.297821386
-177.43577 -12.61421535 -234.0000974
174.619532 -2.498419857e-05 -53.37751539
-5.279850953 -15.44048887 -9.738602012e-05
-224.016786 -68.63904468 -179.0000974
-222.890464 -2.498419857e-05 -92.36627239
116.275394 -2.498419857e-05 -31.74696239
177.418583 -47.352299 -234.0000974
-299.749955 -155.8992378 -133.4635264
63.84163405 -2.498419857e-05 -102.1306624
-295.444167 -153.9907509 -173.0688454
58.66384105 -2.498419857e-05 -86.93077739
-28.91850595 -2.498419857e-05 -80.45959039
-123.843008 -28.17282315 -234.0000974
-218.625147 2.162768706 -9.738602012e-05
-81.67259195 -66.32374764 -9.738602012e-05
17.91617505 -40.63961348 -228.0000974
277.551559 -2.498419857e-05 -157.9479824
-295.749955 -65.4160326 -195.9237184
204.073865 -2.498419857e-05 -161.3808754
-299.749955 -99.09313143 -112.9299564
141.843951 -58.34234156 -9.738602012e-05
-75.12409095 -2.498419857e-05 -75.59344139
-62.16932695 -58.47922151 -234.0000974
-295.749955 -118.8416975 -134.9025274
-253.751361 -163.5589562 -23.00009739
-116.264862 -66.43010701 -228.0000974
-70.53918095 -2.498419857e-05 -51.37529339
30.92298805 -2.498419857e-05 -201.2666694
147.23579 -2.498419857e-05 -13.04981239
-74.98874595 -42.27918692 -228.0000974
-291.749955 -205.1686961 -81.89662839
-259.617074 -112.6273939 -179.0000974
-219.717152 -2.498419857e-05 -177.6353164
-266.402383 -2.498419857e-05 -131.4924444
-299.749955 -110.2079596 -162.0493164
-187.973239 -2.498419857e-05 -209.9556534
-291.749955 -180.6514383 -160.2638954
305.707586 -50.5913499 -9.738602012e-05
-295.749955 -91.0744335 -181.8788684
99.37943905 -2.498419857e-05 -191.1102984
-299.749955 -54.74496844 -162.1742424
-212.270362 -2.498419857e-05 -223.1347494
-66.01650595 -12.36108578 -234.0000974
-295.749955 -40.89368648 -147.0699664
-295.749955 -135.7988441 -97.59865339
201.317684 -2.498419857e-05 -146.1107514
-253.866851 -2.498419857e-05 -79.34400739
-78.33877695 -2.498419857e-05 -110.5328724
-306.322168 -2.498419857e-05 -115.2637004
-19.72318495 -2.498419857e-05 -20.83623339
-257.62269 -118.225892 -19.00009739
144.872761 -2.498419857e-05 -40.15638439
-237.956954 -84.9525309 -175.0000974
108.200074 -68.00002402 0.103170614
-59.83242595 -2.498419857e-05 -153.9044344
308.166706 -2.498419857e-05 -213.6856994
-20.43545095 -48.08358211 -234.0000974
-112.805377 -31.53806726 -9.738602012e-05
236.941783 -27.97562665 -228.0000974
-302.314264 -68.00002402 -228.1231354
-263.053762 -101.35612 -23.00009739
-242.663396 -35.17055748 -228.0000974
72.48475705 -2.498419857e-05 -152.1627144
76.21223105 -2.498419857e-05 -3.447101386
-302.15996 -2.498419857e-05 -33.79481139
307.185183 -2.498419857e-05 -151.6452644
-192.746803 -22.12837797 -228.0000974
-291.749955 -125.9719461 -57.77979539
161.865357 -2.498419857e-05 -209.1082854
-264.715377 -17.97351187 -234.0000974
-261.635779 -2.498419857e-05 -47.68287539
-254.457331 -59.23195197 -179.0000974
240.843074 -66.83991573 -228.0000974
-215.615212 -2.498419857e-05 -53.64719039
-55.57442695 -34.02691627 -9.738602012e-05
-234.631085 -120.9687396 -23.00009739
272.740602 -2.498419857e-05 -120.2910134
-302.200639 -35.25358353 -234.0000974
130.368816 -2.498419857e-05 -208.7664684
-299.749955 -36.00315098 -48.55177439
-173.465297 -2.498419857e-05 -185.6882524
79.30950205 -2.498419857e-05 -220.3232604
19.07686905 -2.498419857e-05 -31.89823839
194.350435 -13.95747459 -234.0000974
-126.842714 -2.498419857e-05 -103.0825724
36.30572205 -2.498419857e-05 -6.608622386
50.60601105 -2.498419857e-05 -127.0894704
296.076996 -2.498419857e-05 -61.39853539
-291.749955 -176.420934 -85.97613039
-291.749955 -120.5001632 -79.52417539
-197.191279 -54.57903188 -234.0000974
-257.743724 -2.498419857e-05 -14.76447639
148.134797 -2.498419857e-05 -96.11680739
-261.775099 -53.24822659 -9.738602012e-05
-17.95581395 -2.498419857e-05 -53.61425739
-299.749955 -55.89772055 -29.02195339
-211.799387 -2.498419857e-05 -147.2984894
-265.136714 -130.4375376 -179.0000974
-244.988143 -186.250604 -179.0000974
281.365684 -68.00002402 0.819565614
-70.95597995 -2.498419857e-05 -211.7968754
-47.78700695 -2.498419857e-05 -111.1308544
-136.420167 -10.30126287 -9.738602012e-05
-204.730233 -27.11047952 -9.738602012e-05
87.81623205 -2.498419857e-05 -84.58887439
243.463335 -2.498419857e-05 -165.7173744
-299.749955 -103.7901214 -135.2172114
-102.140764 -41.99157527 -228.0000974
-170.079757 -56.98552107 -228.0000974
-127.85775 -2.498419857e-05 -24.81012339
4.840880047 -2.498419857e-05 -33.82221239
16.07830205 -2.498419857e-05 -191.7892674
79.39437205 1.264121466 -71.07504639
135.178989 -33.03358987 -228.0000974
-49.00023495 -49.7636647 -228.0000974
-243.076 -250.961777 -179.0000974
-230.823473 -2.498419857e-05 -225.9375494
247.190342 -2.498419857e-05 -76.29999239
-10.34697195 -2.498419857e-05 -106.8783924
-181.683678 -7.604381564 -9.738602012e-05
142.887385 -31.53240253 -9.738602012e-05
245.301349 -2.498419857e-05 -20.31270339
-86.43140995 -2.498419857e-05 -60.44776539
225.456915 -2.498419857e-05 -15.90185439
-243.684664 -2.498419857e-05 -1.620519386
5.341173047 -31.95253795 -9.738602012e-05
317.555675 -2.498419857e-05 -94.93235339
-229.775318 -2.498419857e-05 -8.539601386
189.279635 -34.71986202 -228.0000974
-144.50261 -2.498419857e-05 -156.4719694
-291.749955 -18.62684547 -54.27747339
-291.249955 2.238434896 -148.7281724
-146.84459 -0.9450670442 -234.0000974
317.505779 -43.17197353 -228.0000974
-231.956747 -54.787109 -234.0000974
-160.644015 -46.8046365 -9.738602012e-05
-293.587078 -169.2174149 -176.4386004
-144.929788 -68.00002402 -233.1417314
214.060715 -35.18521385 -228.0000974
223.685673 -2.498419857e-05 -165.2076314
169.922992 -2.498419857e-05 -130.0003514
-239.626238 -234.363146 -23.00009739
318.947935 -29.36203168 -9.738602012e-05
-209.89357 -2.498419857e-05 -120.4073134
-234.087723 -115.9500491 -175.0000974
-282.290347 -114.5388348 -23.00009739
-34.18183895 -13.22736155 -228.0000974
302.760581 -2.498419857e-05 -0.544544386
286.494122 -2.498419857e-05 -81.34618339
229.459159 -17.52428029 -9.738602012e-05
61.68348305 -68.00002402 -233.2562634
-262.23564 -20.96839139 -179.0000974
-182.524671 -2.498419857e-05 -26.63327439
-216.59752 -2.498419857e-05 -191.2485734
-295.749955 -113.1943631 -111.7465254
-282.285714 -54.324649 -228.0000974
15.58702905 -2.498419857e-05 -134.4133094
-151.417321 -67.48820123 -9.738602012e-05
-299.749955 -160.1304073 -104.8251324
-247.068796 2.499975016 -176.7424824
-243.838144 -51.87510141 -9.738602012e-05
292.412518 -2.498419857e-05 -218.3039494
-5.856674953 -51.9882304 -228.0000974
243.271651 -2.498419857e-05 -129.7567234
-295.749955 -220.8287303 -52.08421539
-295.845822 -72.21645563 -208.0303574
-231.578899 -184.9258287 -23.00009739
-299.749955 -41.3005514 -176.2408284
-299.749955 -98.51783205 -149.8950464
-256.958045 -232.9784726 -175.0000974
235.636462 -2.498419857e-05 -189.8109834
-296.854595 -13.00791386 -217.8897374
-13.13288195 -24.84207821 -228.0000974
121.642179 -12.98552537 -9.738602012e-05
-95.06495295 -30.05010532 -228.0000974
122.98809 -2.498419857e-05 -107.3105914
-166.336672 -2.498419857e-05 -152.4520114
-219.033553 -61.59166549 -228.0000974
246.865396 -51.44943295 -234.0000974
-142.101442 -36.81294959 -234.0000974
159.976183 2.230398566 -9.738602012e-05
-295.749955 -47.94903729 -201.8676794
-299.749955 -97.4357064 -65.08413639
51.86240205 -2.498419857e-05 -212.4665674
-220.452176 -133.4548105 -175.0000974
134.92798 1.566994446 -228.0000974
236.141475 -53.52218469 -9.738602012e-05
-229.521536 -142.0414635 -23.00009739
258.945144 -14.11026653 -228.0000974
-295.749955 -63.24351611 -7.082146386
25.26231205 -2.498419857e-05 -16.88152839
-303.962919 -31.13744847 -9.738602012e-05
172.134728 -60.78379796 -234.0000974
39.77134205 -32.56487392 -9.738602012e-05
274.505053 -30.31989795 -228.0000974
-148.243968 -2.498419857e-05 -78.08353339
23.43677105 -14.57872849 -9.738602012e-05
89.77792005 -49.40905745 -9.738602012e-05
-96.90478495 -2.498419857e-05 -104.6682184
-291.749955 -148.9047715 -81.61078439
-253.833987 -197.3018742 -175.0000974
255.38038 -2.498419857e-05 -90.56354839
-142.11646 -2.498419857e-05 -129.8235994
87.57949705 -2.498419857e-05 -32.07138139
-295.749955 -226.2876674 -31.04200939
-266.318686 -86.11140529 -179.0000974
313.411162 -2.498419857e-05 -186.6266914
-295.749955 -116.934778 -32.30903039
1.690021047 -2.498419857e-05 -80.78118839
-43.06658595 -2.498419857e-05 -58.70144839
-270.992423 -2.498419857e-05 -3.759288386
-294.305484 -164.1835864 -22.46132739
-134.563686 -34.6588135 -9.738602012e-05
-56.43422995 -2.498419857e-05 -7.020198386
-296.395511 -107.3320797 -84.22834539
92.85577605 -14.7194754 -9.738602012e-05
199.216977 -2.498419857e-05 -3.170893386
143.413208 -16.47404738 -228.0000974
-291.749955 -63.1824104 -78.28893439
-126.420731 -2.498419857e-05 -188.5145744
-287.004741 -204.59726 -179.0000974
86.73613605 -2.498419857e-05 -166.2848184
-291.749955 -95.46898812 -125.8668644
-198.933243 -2.498419857e-05 -217.6754424
-248.633905 -104.9525134 -179.0000974
110.459329 -0.6957893142 -9.738602012e-05
-255.153643 -199.3980245 -23.00009739
-304.703589 -2.498419857e-05 -85.87876039
-282.85885 -196.230482 -23.00009739
-320.425124 -2.498419857e-05 -13.19158239
-189.97473 -53.20151638 -9.738602012e-05
-271.845598 -2.498419857e-05 -39.10534239
-295.749955 -243.985019 -36.11520839
184.177247 -2.498419857e-05 -13.17399939
-87.64095495 -2.498419857e-05 -30.47234939
151.373379 -2.498419857e-05 -200.9100654
-183.436084 -2.498419857e-05 -155.2872874
168.838074 -24.4142346 -234.0000974
2.066586047 -2.498419857e-05 -126.6366944
120.419727 -9.669993144 -234.0000974
306.124086 1.399307886 -71.24198339
-295.749955 -36.12313707 -15.32090439
-71.46805695 -50.3623891 -9.738602012e-05
195.642267 -2.498419857e-05 -105.5483314
11.36651405 -59.64487358 -9.738602012e-05
-299.749955 -77.39706009 -120.8906454
247.627247 -2.498419857e-05 -2.389595386
-261.843808 -2.498419857e-05 -93.58967739
-90.43220195 -2.498419857e-05 -226.2528254
-56.51571295 -2.498419857e-05 -172.7096224
31.13261805 -2.498419857e-05 -97.34686039
134.103236 -49.07246235 -234.0000974
197.275084 -2.498419857e-05 -71.95810639
291.769039 -51.74486524 -234.0000974
-291.749955 -73.3754563 -94.55186439
-156.512276 -2.498419857e-05 -221.6490204
-18.66286995 -2.498419857e-05 -220.9892814
-291.749955 -198.9750926 -53.81359139
-29.88188695 -37.50336956 -228.0000974
137.588849 -2.498419857e-05 -141.0354004
79.65560205 -2.498419857e-05 -191.9482974
-284.530409 -134.5519648 -23.00009739
-14.27581795 -46.05987271 -9.738602012e-05
-271.073198 -62.84435521 -234.0000974
-271.780697 -172.13929 -175.0000974
-228.063877 -50.94624125 -9.738602012e-05
75.06360805 -63.61761923 -9.738602012e-05
319.937456 -2.498419857e-05 -158.4870514
113.944395 -2.498419857e-05 -69.97486639
205.720047 -2.498419857e-05 -226.2714644
-235.809794 -2.498419857e-05 -165.5471634
-177.464759 -2.498419857e-05 -202.2174914
-278.185866 -2.498419857e-05 -68.62350639
28.71985605 -2.498419857e-05 -83.75796639
194.568862 -62.87142022 -234.0000974
-252.963442 -8.993055484 -175.0000974
-291.749955 -197.9033729 -37.92490939
-184.280025 -32.40929649 -9.738602012e-05
-195.59318 -2.498419857e-05 -74.44986539
-246.273814 -34.99215185 -175.0000974
-52.39010295 -32.07565929 -234.0000974
-217.749955 -40.12527465 -176.6774264
-258.042636 -55.71873976 -228.0000974
-269.336327 -112.4753335 -19.00009739
288.332766 -2.498419857e-05 -50.98543639
-291.749955 -35.90844744 -123.8535184
106.687235 -26.44620998 -9.738602012e-05
-24.05828795 -2.498419857e-05 -117.3382374
194.246741 -2.498419857e-05 -26.31951539
-299.749955 -123.9659569 -69.05223439
47.73863005 -50.54197776 -228.0000974
-295.749955 -52.90616168 -102.4584934
260.939923 -31.15162799 -234.0000974
263.816279 -67.01479051 -9.738602012e-05
-20.13243595 -2.498419857e-05 -70.21374439
-216.33038 -18.4860387 -228.0000974
-299.749955 -126.1727186 -148.8195894
8.170528047 -11.07170205 -228.0000974
150.182004 -2.498419857e-05 -188.1046384
174.606522 -2.498419857e-05 -154.8551414
-295.749955 -3.851896044 -96.12706239
115.909216 -51.76524799 -9.738602012e-05
-299.749955 -14.06958067 -191.4984344
-280.57024 -35.50341823 -234.0000974
106.886083 -0.5883010942 -228.0000974
239.520459 -68.00002402 2.073429614
252.653479 -2.498419857e-05 -145.2581374
-299.749955 -95.63653915 -164.4413544
66.22498605 -2.498419857e-05 -181.6627724
-299.749955 -46.22285029 -220.2427784
-252.232391 -15.18607843 -234.0000974
-54.56043095 -20.73652334 -9.738602012e-05
168.509709 -39.04603319 -9.738602012e-05
-295.749955 -61.8454978 -118.2215474
195.970248 -40.91778155 -9.738602012e-05
-210.186788 -38.76088393 -228.0000974
-204.078526 -2.498419857e-05 -11.46910039
100.90914 -2.498419857e-05 -89.28524939
284.741965 -2.498419857e-05 -186.9856954
-248.738016 -144.2745657 -19.00009739
-299.749955 -78.42279811 -158.6101074
-295.749955 -61.11606539 -39.89150739
-275.401719 -208.7758185 -23.00009739
-308.663513 -2.498419857e-05 -186.5096084
-291.749955 -172.9616198 -150.1742844
41.68940405 -2.498419857e-05 -114.5163444
281.071303 -2.498419857e-05 -105.8080944
-246.162124 -210.8182764 -23.00009739
178.327762 -2.498419857e-05 -140.9644114
-229.93135 -55.55094166 -179.0000974
19.22046505 -55.0446729 -228.0000974
-284.042385 -148.8467231 -175.0000974
-17.67209195 -2.498419857e-05 -170.1485314
286.465597 -9.641841534 -228.0000974
-291.749955 -237.5501602 -88.51135139
111.183331 -2.498419857e-05 -43.39203439
-232.894365 -2.498419857e-05 -194.0408744
114.624378 -2.498419857e-05 -119.3333534
-205.766499 -2.498419857e-05 -132.7518794
84.03855105 -57.27319788 -234.0000974
181.762002 -2.498419857e-05 -198.0337364
-296.248324 -10.1036865 -13.47603639
-129.768144 -2.498419857e-05 -72.74929139
179.263836 -2.498419857e-05 -88.03351039
-291.749955 -164.5052174 -72.31181039
-295.749955 -186.7558258 -31.13263139
-192.293286 -2.498419857e-05 -60.71154139
-166.439293 -2.498419857e-05 -52.33198839
255.76056 -0.0722670442 -234.0000974
-275.931101 -42.315434 -179.0000974
-42.23528995 -2.498419857e-05 -210.6742994
-278.60346 -184.6491391 -19.00009739
55.17889405 -2.498419857e-05 -37.60503739
68.66632205 -2.498419857e-05 -77.72099439
-283.384084 -107.5703404 -179.0000974
-266.653332 -2.498419857e-05 -196.1553394
-118.500273 -2.498419857e-05 -223.8888614
-304.213169 -12.50705402 -9.738602012e-05
-123.678521 -2.498419857e-05 -58.03893939
-295.749955 -239.9464555 -164.9336564
-291.749955 -147.7543022 -128.4145714
-66.65798395 1.420348986 -9.738602012e-05
-63.02250795 -2.498419857e-05 -37.97816039
-291.749955 -71.14521224 -58.64890239
159.272799 -7.690758204 -234.0000974
-291.749955 -42.29829145 -85.72119039
90.28345805 -45.60794134 -234.0000974
-320.266631 -2.498419857e-05 -165.4921004
-291.749955 -237.3363241 -142.1852114
76.78486405 -35.96460903 -9.738602012e-05
-291.749955 -204.2972832 -158.4266484
-283.746806 -24.06691723 -175.0000974
-258.91345 -188.0060109 -19.00009739
305.865502 -2.498419857e-05 -27.34096739
173.157496 -2.498419857e-05 -40.34888639
219.338308 -2.498419857e-05 -26.63679139
-192.794053 -66.37691701 -234.0000974
159.436833 -2.498419857e-05 -179.9259144
2.423625047 -2.498419857e-05 -207.8650184
-242.639579 1.267195546 -71.88389939
-35.57786395 -25.7287306 -228.0000974
-99.02783995 0.9284825058 -62.36107339
-299.749955 -83.60128045 -69.32925639
-271.52332 -150.3187408 -179.0000974
298.214324 -2.498419857e-05 -116.3525614
33.13796205 -62.95874343 -234.0000974
217.584743 -55.57999383 -9.738602012e-05
-209.07764 -2.498419857e-05 -27.86945039
139.10973 -2.498419857e-05 -28.88234339
-299.749955 -44.39725688 -24.72348639
47.41191705 -19.99841169 -9.738602012e-05
0.2096750468 -2.498419857e-05 -180.8397404
-266.097928 -241.5497351 -175.0000974
151.790054 -68.00002402 -231.2349674
114.153054 -18.34247408 -228.0000974
194.585581 -56.74184237 -9.738602012e-05
-233.614021 -246.5199897 -19.00009739
-15.89951895 -6.047802724 -9.738602012e-05
262.626676 -2.498419857e-05 -165.5444934
-295.749955 -180.0309988 -54.65724639
-35.77914895 -68.00002402 -229.4995264
-30.79106395 -32.27429268 -9.738602012e-05
-248.360638 -64.75847482 -228.0000974
249.752068 -2.498419857e-05 -115.6864194
230.81957 -1.655075694 -228.0000974
-233.653594 -240.1455599 -179.0000974
3.738241047 -2.498419857e-05 -138.7830624
-183.799279 -2.498419857e-05 -93.73047939
276.97321 -2.498419857e-05 -38.91025539
-291.749955 -213.6005549 -90.67531239
-299.749955 -26.89899587 -215.7675694
-280.861653 -250.6926905 -19.00009739
7.835180047 -33.77424359 -228.0000974
-103.25041 -2.498419857e-05 -160.8230594
157.414714 -30.39759618 -228.0000974
-285.900378 -227.8409966 -19.00009739
13.72796505 -2.498419857e-05 -59.43901039
-46.86254095 -2.498419857e-05 -18.87348039
-299.749955 -28.60003973 -58.16082139
-252.566941 -174.524383 -179.0000974
-295.749955 -148.8470285 -157.9397614
-295.749955 -149.154895 -56.86893139
138.805646 -2.498419857e-05 -181.7443774
-73.98758095 -2.498419857e-05 -97.72499639
-148.505682 -31.93213553 -9.738602012e-05
-171.093343 -32.75656943 -228.0000974
95.51271405 -2.498419857e-05 -10.97617039
-291.749955 -101.1114515 -31.74095739
-234.948967 -2.498419857e-05 -98.30822439
-299.749955 -4.972388174 -206.2820264
-299.749955 -113.2681854 -44.16244539
-276.476585 -13.02370268 -228.0000974
242.113247 -2.498419857e-05 -35.93151339
-140.663151 -12.06378467 -234.0000974
-288.486031 -2.498419857e-05 -19.90640939
222.742795 -2.498419857e-05 -38.64359839
-268.13578 -31.71968763 -234.0000974
122.739082 -31.44909338 -228.0000974
257.295936 -15.95491616 -9.738602012e-05
72.54386605 -9.675041674 -228.0000974
-274.45133 -2.498419857e-05 -116.8751044
-53.11149995 -2.498419857e-05 -84.45203939
-291.749955 -181.6744867 -134.3404984
-253.601913 -154.7786954 -179.0000974
227.627048 -2.498419857e-05 -101.7029794
216.361845 -60.34111185 -234.0000974
227.536931 -45.17430708 -9.738602012e-05
-249.52834 -11.09267548 -9.738602012e-05
254.105987 -2.498419857e-05 -213.1192844
45.50026805 -5.095226944 -9.738602012e-05
-16.71793995 -57.91065479 -228.0000974
-291.749955 -29.94735533 -105.8127444
156.510247 -46.64449798 -234.0000974
208.786645 -2.498419857e-05 -51.66946539
-271.237012 -159.3198554 -23.00009739
-260.395315 -100.4302134 -175.0000974
-116.51566 -53.83164048 -228.0000974
-168.063116 -2.498419857e-05 -120.6322624
93.40767905 -14.08572789 -228.0000974
147.048107 -47.61638164 -9.738602012e-05
254.32607 -34.99562386 -9.738602012e-05
-295.749955 -98.18992428 -53.05728239
-232.629313 -159.2230513 -175.0000974
-239.94239 -8.591110604 -175.0000974
-1.200149953 -2.498419857e-05 -17.78212939
60.26470505 -2.498419857e-05 -51.30148539
-293.709946 -232.7957375 -73.05115739
-152.405321 -29.59581734 -234.0000974
-265.187321 -2.498419857e-05 -67.56051439
-286.514584 -2.498419857e-05 -196.9597274
-4.058357953 -30.900065 -234.0000974
186.559742 -56.48714194 -228.0000974
-137.906721 -2.498419857e-05 -6.594291386
201.658523 -13.78349637 -9.738602012e-05
204.157088 -52.12567215 -228.0000974
-39.55564195 -8.314837764 -9.738602012e-05
-46.06681395 -1.984455014 -234.0000974
-175.800623 -65.75403757 -234.0000974
-269.54892 -212.372919 -179.0000974
69.25468305 -56.5129915 -228.0000974
-64.50597195 -2.498419857e-05 -200.1035164
283.205108 -57.27080547 -228.0000974
-38.92613495 -42.17519496 -9.738602012e-05
141.908695 1.137241326 -67.93602639
-160.037683 -2.498419857e-05 -8.547941386
-239.507368 -68.00002402 1.478623614
-315.458501 -2.498419857e-05 -90.72512439
-291.749955 -164.2518646 -90.00103639
-291.749955 -159.883677 -115.3409374
-295.749955 -7.832848994 -179.4723034
-164.493149 -2.498419857e-05 -140.8151214
-82.54583095 -36.19612528 -9.738602012e-05
-102.50357 -2.498419857e-05 -136.5067594
-291.749955 -7.441508454 -50.58967139
-295.749955 -13.35554025 -167.6584624
173.341803 -2.498419857e-05 -173.8010964
-8.582640953 1.927455906 -228.0000974
40.27870705 -2.498419857e-05 -179.0252644
-291.749955 -136.3480825 -48.57209239
-102.207065 -2.498419857e-05 -35.68187239
-291.749955 -10.77410938 -70.80271039
-225.253864 -91.20942714 -175.0000974
277.033435 -46.67055187 -228.0000974
155.374835 -2.498419857e-05 -158.7190704
-226.766774 -2.498419857e-05 -121.5556754
302.328804 -19.92286844 -234.0000974
-295.749955 -154.3274694 -33.79512639
-291.749955 -146.0499207 -106.0635574
-295.749955 -201.5626205 -110.7375304
3.591293047 -2.498419857e-05 -157.5886574
-299.749955 -66.2775769 -152.5367464
-34.35863095 -2.498419857e-05 -152.2858384
223.518416 -46.39705299 -228.0000974
306.356203 -2.498419857e-05 -105.0670514
-77.08784095 -2.498419857e-05 -131.2325694
100.192128 -36.68198678 -9.738602012e-05
-130.542568 -53.77332078 -234.0000974
121.532637 -2.498419857e-05 -17.11760839
-100.841602 -17.96555484 -9.738602012e-05
-291.749955 -86.84597174 -86.68480139
120.689843 -2.498419857e-05 -53.62730339
-294.932942 -57.33902917 -174.4515314
-268.048311 -193.2161578 -179.0000974
-156.250002 -11.33125262 -228.0000974
-72.12476495 -31.66102342 -234.0000974
184.826392 -30.1164192 -9.738602012e-05
302.428898 -2.498419857e-05 -193.5664854
228.959341 -2.498419857e-05 -154.8762114
-97.01261595 -2.498419857e-05 -89.93958339
170.679365 -2.498419857e-05 -64.28021939
-159.802344 -51.20495128 -228.0000974
-100.844395 -56.02179912 -9.738602012e-05
-32.88506595 -2.498419857e-05 -184.1895104
263.262842 -2.498419857e-05 -58.27321939
122.802325 -68.00002402 -233.3584224
-317.850658 -2.498419857e-05 -118.2357124
-260.794404 -2.498419857e-05 -35.19436139
-299.177262 -182.4980733 -92.39067439
234.682238 -28.2095769 -9.738602012e-05
-26.69748295 -2.498419857e-05 -93.00665839
-295.749955 -218.7432106 -159.3938284
-56.23123195 -2.498419857e-05 -192.1180964
-1.546665953 -14.34341737 -234.0000974
233.571816 -2.498419857e-05 -201.1204234
58.69562005 -27.5974023 -234.0000974
-270.31653 -226.7625724 -175.0000974
-274.464201 -1.776597324 -234.0000974
18.55172305 -2.498419857e-05 -107.6319414
-277.566996 -2.498419857e-05 -153.7357834
254.152579 -57.97894485 -228.0000974
268.173855 -2.498419857e-05 -88.58142039
-261.555009 -2.498419857e-05 -114.4180624
185.515172 -2.498419857e-05 -77.65986039
206.559764 -2.498419857e-05 -108.9593844
41.57228505 -2.498419857e-05 -70.49457939
292.332576 -23.20095793 -9.738602012e-05
-295.749955 -181.4515572 -108.5559854
113.243398 -38.99961997 -228.0000974
-131.369732 -2.498419857e-05 -159.6803804
-154.373609 -2.498419857e-05 -194.1436904
-287.217678 -244.9581195 -179.0000974
104.179834 -60.38419073 -234.0000974
260.187404 -2.498419857e-05 -19.09938639
-291.749955 -80.40070135 -51.55464539
289.140402 -2.498419857e-05 -165.5242704
132.814167 -2.498419857e-05 -154.0930034
133.412339 -8.009219344 -234.0000974
-233.359084 -227.6955094 -175.0000974
-295.749955 -235.8377961 -122.5038844
-306.660267 -2.498419857e-05 -70.74148939
-26.85875795 -2.498419857e-05 -30.84727939
63.52623805 1.890358756 -228.0000974
-291.749955 -177.883063 -65.08373639
11.64343005 -6.595127834 -9.738602012e-05
-86.41502395 -53.9014381 -228.0000974
-263.491288 -239.3395952 -19.00009739
175.508 -2.498419857e-05 -4.905159386
-299.749955 -65.53043606 -92.75334439
236.515635 -2.498419857e-05 -84.47028739
-240.256451 -29.21685069 -9.738602012e-05
-286.180755 -2.498419857e-05 -91.40497239
252.939244 -2.498419857e-05 -158.3855894
189.520439 -2.498419857e-05 -184.8836904
-291.749955 -209.2796893 -31.49606139
-261.456034 -16.15397409 -9.738602012e-05
52.00000205 -39.25387966 -234.0000974
-291.749955 -48.31130902 -154.9680074
200.137187 -2.498419857e-05 -60.73264839
-173.03732 -2.774625574 -228.0000974
-291.749955 -29.99905466 -158.7822874
176.685469 -2.498419857e-05 -221.0048694
-295.749955 -81.07427417 -27.57303539
-51.37499395 -2.498419857e-05 -146.4159514
-302.407294 -2.498419857e-05 -222.8122844
47.97388105 -11.9633111 -228.0000974
272.847922 1.464164106 -70.85874839
-299.749955 -52.25504294 -123.2188154
-192.060956 -31.66042176 -234.0000974
232.083688 -58.1166909 -234.0000974
318.717613 -15.82031907 -9.738602012e-05
153.186884 -2.498419857e-05 -106.2341634
-241.260238 -2.498419857e-05 -141.0713924
64.79097605 -2.498419857e-05 -62.61785739
-292.189497 -2.498419857e-05 -1.864710386
293.298573 -31.3776818 -234.0000974
-209.695079 -2.498419857e-05 -96.13796139
-250.056029 -243.0890912 -175.0000974
-237.300491 -2.498419857e-05 -207.1353674
-122.954671 -2.498419857e-05 -136.2066924
-16.68763695 -2.498419857e-05 -192.3906684
-299.629411 -120.3123373 -124.4579494
-287.268634 -19.43553434 -234.0000974
216.59983 -2.498419857e-05 -140.9496244
66.88630105 -2.498419857e-05 -9.706850386
-116.609447 -2.498419857e-05 -36.14821839
-9.318110953 -2.498419857e-05 -73.76816739
-299.749955 -78.69042663 -181.6670174
-291.749955 -12.98040322 -141.2693304
-295.618502 -30.90526059 -172.3317394
-5.194800953 -63.71970964 -228.0000974
208.810458 -2.498419857e-05 -92.48599539
-291.749955 -78.71646594 -134.9214564
-299.749955 -91.36177275 -34.34733539
-57.63411895 -2.498419857e-05 -95.25061739
-84.06582495 -2.498419857e-05 -82.30084439
-240.648434 1.498981236 -60.88898039
-242.480468 -94.35330966 -179.0000974
-228.525731 -224.4384957 -23.00009739
-280.243557 -38.66087624 -9.738602012e-05
39.17507105 -35.72558292 -234.0000974
-293.541846 -60.80644302 -228.0000974
-249.022552 -81.25124648 -179.0000974
-256.559107 -38.35652577 -228.0000974
-229.807334 -78.14926161 -179.0000974
-287.775619 -94.61203336 -174.9971034
-299.674393 -172.867681 -129.8373474
-143.998833 -54.50700324 -9.738602012e-05
151.166543 -2.498419857e-05 -223.6905524
268.763136 -2.498419857e-05 -9.189762386
-232.062505 -177.4896532 -179.0000974
129.235332 -2.498419857e-05 -187.3581864
-6.567873953 -2.498419857e-05 -47.00202139
-242.982212 -114.8816857 -19.00009739
-246.491208 -2.498419857e-05 -27.35346539
-65.32931695 -23.34283265 -9.738602012e-05
128.053676 -27.15783321 -9.738602012e-05
266.207039 -2.498419857e-05 -212.7950274
-295.749955 -161.4120708 -45.85516739
-256.073456 -135.954762 -175.0000974
-131.060087 -19.59600483 -234.0000974
-267.645029 -2.498419857e-05 -210.6014894
-142.228729 -2.498419857e-05 -182.6910384
-109.881494 -6.767562414 -9.738602012e-05
248.292464 -2.498419857e-05 -103.3464614
223.090234 -4.290748814 -9.738602012e-05
112.861182 -50.11481335 -228.0000974
-299.749955 -50.78589499 -84.44164739
-83.94200295 -9.708236834 -9.738602012e-05
170.325805 -10.0432208 -9.738602012e-05
-291.749955 -197.306517 -69.04681839
220.95804 -2.498419857e-05 -222.2266054
-295.749955 -205.3927557 -143.6128654
-309.59975 -7.408282204 -228.0000974
91.66488805 -2.498419857e-05 -108.9817574
-213.80357 -33.71643448 -9.738602012e-05
312.964885 -2.498419857e-05 -44.78943939
-204.748074 1.263109176 -9.738602012e-05
-29.58721795 -2.498419857e-05 -225.8370744
70.56509505 1.053072976 -127.7868724
-320.353964 -2.498419857e-05 -140.6096344
-291.749955 -72.01727058 -115.6339954
-283.749272 -173.3596661 -179.0000974
-67.85040895 0.7372864758 -234.0000974
77.81718805 -2.498419857e-05 -105.8940114
-295.749955 -162.3840619 -144.3423034
119.551897 -2.498419857e-05 -210.5792704
-2.383608953 -43.49089371 -234.0000974
-286.700141 -28.68874142 -228.0000974
-299.749955 -118.5253374 -57.05553039
311.374191 -64.45589077 -234.0000974
-299.749955 -66.1570983 -169.0676864
-291.749955 -164.720909 -126.1360934
-314.467553 -24.91456528 -228.0000974
248.436838 -2.498419857e-05 -51.99541639
-295.749955 -217.7198348 -67.24480839
-295.749955 -88.97395225 -145.2430604
-291.749955 -31.43114304 -73.94622539
184.741713 -14.32432947 -9.738602012e-05
-299.749955 -43.32805666 -108.8472914
47.56017805 -2.498419857e-05 -187.8948284
216.006099 -2.498419857e-05 -10.48109739
101.45724 -35.26511009 -228.0000974
-99.25494795 -21.39962832 -234.0000974
71.82250505 -40.6119376 -234.0000974
-194.043659 -2.498419857e-05 -137.2751354
-68.99364295 -2.498419857e-05 -12.49006739
104.629302 -2.498419857e-05 -200.6347604
-299.749955 -56.84055839 -133.9647284
-299.749955 -1.557831444 -154.3356714
193.360708 -24.23491044 -228.0000974
-295.749955 -33.71815114 -135.6118604
-78.72413195 -68.00002402 -233.8265914
36.72705505 -42.98250547 -9.738602012e-05
-295.749955 -5.488069624 -40.61943839
-295.749955 -1.022955754 -119.2743794
-262.008992 -224.447513 -23.00009739
-296.047621 -142.2480739 -74.22656639
-295.157236 -7.414620694 -228.0000974
220.171989 -14.86603979 -234.0000974
-295.749955 -64.80292167 -141.4597204
-291.749955 -88.21459144 -74.97634739
-291.749955 -235.1892723 -102.3161914
282.528155 -18.58960942 -234.0000974
-291.749955 -128.3709162 -90.12272939
185.219222 -5.413888094 -228.0000974
-288.785074 -2.498419857e-05 -182.0980644
-124.966114 -63.92872969 -9.738602012e-05
-259.708035 -209.7751931 -175.0000974
82.67378805 -24.81046525 -9.738602012e-05
142.680461 -2.498419857e-05 -163.1503794
-299.749955 -88.07953856 -53.52318039
-235.113894 -190.5362061 -179.0000974
261.896153 -2.498419857e-05 -113.9942144
50.72578905 -2.498419857e-05 -162.5615724
-204.116691 -49.43823032 -9.738602012e-05
251.171752 -2.498419857e-05 -30.16728739
46.13560105 -2.498419857e-05 -223.2209364
126.013468 -2.498419857e-05 -88.84254039
-280.585137 -126.4741599 -179.0000974
-28.09368395 -2.498419857e-05 -211.1496814
-227.495119 -124.4000236 -175.0000974
-193.113581 -2.498419857e-05 -99.02868739
-67.16090695 -2.498419857e-05 -122.4536994
-115.460951 -2.498419857e-05 -165.3221064
-311.109027 -2.498419857e-05 -45.28262039
68.43868405 -7.988955674 -9.738602012e-05
184.640992 -51.601777 -9.738602012e-05
-104.644008 -2.498419857e-05 -206.6631474
-291.749955 -112.5664468 -168.7407334
-256.233265 -247.9136433 -19.00009739
-296.173529 -66.14903757 -216.8183224
-291.749955 -135.5695164 -145.8248184
-86.01048595 -2.498419857e-05 -8.321224386
-142.137151 -2.498419857e-05 -29.47424039
24.70594305 -21.56284609 -228.0000974
-83.62914795 -12.09149547 -228.0000974
-299.749955 -62.05314641 -18.81501039
-71.45178795 -2.498419857e-05 -155.9517144
58.38533705 -47.91072137 -9.738602012e-05
-291.749955 -97.64052713 -138.6034784
292.457152 -2.498419857e-05 -92.31462439
225.453223 -2.498419857e-05 -91.30312639
-291.749955 -219.4054666 -127.2624054
-291.749955 -226.716134 -142.0492694
-164.633123 -2.498419857e-05 -174.3819594
275.138622 -2.498419857e-05 -22.53742039
-227.927142 -155.1336186 -19.00009739
-291.749955 -126.3835736 -128.1532104
-295.699539 -2.498419857e-05 -107.3440224
-291.749955 -203.3536168 -130.7670164
-216.414118 -2.498419857e-05 -112.0468264
-23.73832495 -11.41841912 -228.0000974
-127.005819 -2.498419857e-05 -211.4468784
-35.93047795 -2.498419857e-05 -104.8626144
-291.749955 -128.305442 -33.95300439
-163.968604 -2.498419857e-05 -97.17261239
-48.19880895 -62.54260878 -9.738602012e-05
-238.299479 -2.498419857e-05 -41.41698839
-299.749955 -37.90596368 -36.92241639
279.758939 -2.498419857e-05 -224.6168364
212.891947 -2.498419857e-05 -214.7321054
298.998082 -42.98209119 -234.0000974
-223.652214 -176.3986453 -19.00009739
-52.34708695 -10.42708621 -9.738602012e-05
-92.44036595 1.868310616 -9.738602012e-05
-291.749955 -191.3246932 -164.6730004
-265.752839 -65.856352 -9.738602012e-05
-193.325678 -2.498419857e-05 -10.49014639
-192.481291 -9.094778194 -234.0000974
-123.852382 -36.82901982 -228.0000974
-291.749955 -5.884608014 -133.4901754
-6.368564953 -2.498419857e-05 -94.19042739
-295.749955 -31.88954078 -91.48242839
-229.172907 -45.05788964 -179.0000974
-279.195632 -153.7334742 -19.00009739
-73.04663095 -51.15741156 -234.0000974
-91.29665695 -61.70492648 -9.738602012e-05
-90.73742695 -20.84734947 -9.738602012e-05
-272.847809 -76.9824687 -179.0000974
280.455665 -4.566747084 -9.738602012e-05
-291.749955 -74.19154229 -70.64104939
-11.96529595 -2.498419857e-05 -158.9323014
10.10095705 -2.498419857e-05 -9.026086386
312.014612 -2.498419857e-05 -126.7911774
-22.41376495 -25.98396658 -9.738602012e-05
-227.910182 -11.85695482 -228.0000974
-299.749955 -36.10302465 -223.8547034
-205.970279 -2.667837534 -234.0000974
44.90014905 -2.498419857e-05 -30.30071639
-299.749955 -43.62248077 -67.85945639
-136.847939 -21.61424348 -9.738602012e-05
-295.749955 -32.60149411 -198.6719944
248.742649 -6.000055234 -228.0000974
-261.549056 -2.498419857e-05 -220.0554734
-282.393213 -2.498419857e-05 -219.1415114
-291.749955 -243.0633858 -72.81412439
-291.610719 -191.3423621 -20.09905339
99.55657205 -23.21295808 -234.0000974
-38.71017795 -55.86161953 -9.738602012e-05
-175.581793 -53.93397208 -9.738602012e-05
-299.749955 -26.82300348 -126.5243444
151.829807 -21.0722737 -9.738602012e-05
-291.749955 -108.8802617 -103.1469684
-250.789086 -70.16614506 -179.0000974
-244.404339 -2.498419857e-05 -186.4927774
132.307268 -2.498419857e-05 -114.0085254
159.533873 -2.498419857e-05 -130.6160484
314.848991 -55.55609153 -9.738602012e-05
-236.637242 -150.4510191 -179.0000974
-4.936136953 -1.764179094 -9.738602012e-05
-224.937898 -6.312774474 -9.738602012e-05
-299.749955 -56.87209429 -65.08287739
-295.749955 -208.2815481 -72.69197839
73.77327705 -19.14267222 -234.0000974
-120.62549 -4.459895604 -9.738602012e-05
265.346617 -2.498419857e-05 -137.2657804
179.043007 -33.11971056 -228.0000974
310.426645 -2.646457504 -234.0000974
13.19057905 -38.69937164 -9.738602012e-05
-255.94614 -2.498419857e-05 -153.5519954
104.141136 -2.498419857e-05 -26.55668239
-40.12423395 -54.71719769 -234.0000974
-295.749955 -223.9377111 -41.10249339
-93.07475795 -2.498419857e-05 -193.9309704
30.39149805 -39.83438985 -228.0000974
-36.00855995 -2.498419857e-05 -35.62238539
141.747993 -2.498419857e-05 -204.5985994
-102.501015 -2.498419857e-05 -72.03035539
-299.749955 -89.45875288 -123.4097824
-295.749955 -79.25006298 -108.8367114
95.40431605 -54.54445973 -234.0000974
-214.368527 -27.38355822 -234.0000974
-72.28457195 -21.36686676 -234.0000974
-291.749955 -100.1702348 -70.95733039
183.918178 -2.498419857e-05 -45.25384439
-296.891312 -23.66597703 -9.738602012e-05
68.92697805 -2.498419857e-05 -204.5001704
37.62259505 -2.498419857e-05 -37.56702639
-290.956107 -116.2285724 -178.3109464
-89.10932695 -19.81407301 -234.0000974
-237.743835 -2.498419857e-05 -114.8352414
-295.749955 -24.14209922 -189.8281294
240.300213 -2.498419857e-05 -59.92449439
6.888633047 -2.498419857e-05 -111.6033414
-233.503139 -208.9212142 -175.0000974
-46.29328895 -2.498419857e-05 -199.5087134
-215.237819 -2.498419857e-05 -201.4039284
117.438362 -2.498419857e-05 -169.5532064
32.96253405 -54.22557253 -9.738602012e-05
-291.749955 -249.559212 -91.41951139
-161.266449 -2.498419857e-05 -112.9821384
-45.27843595 -2.498419857e-05 -174.2019994
-159.537688 -22.29262259 -9.738602012e-05
210.313306 -8.040061834 -9.738602012e-05
-115.243265 -2.498419857e-05 -111.3739764
-277.313801 -2.498419857e-05 -17.14443739
-299.749955 -34.01327949 -100.9338764
-291.749955 -109.0797527 -38.12844539
-194.552944 -27.89364718 -9.738602012e-05
-203.383126 -9.359141714 -9.738602012e-05
-291.749955 -200.8174602 -93.66644639
165.039419 -2.498419857e-05 -81.17575139
-149.928085 -2.498419857e-05 -14.01250739
-93.18723195 -2.498419857e-05 -211.1178194
-273.33255 -0.5000249842 -177.6184164
-299.749955 -107.6894505 -58.38347339
-252.233288 1.184150586 -228.0000974
96.16663305 -2.498419857e-05 -213.5579724
-231.562729 -206.189981 -23.00009739
308.202957 -29.11984154 -234.0000974
-264.586531 -52.11612995 -179.0000974
163.376081 -14.78456756 -228.0000974
162.438026 -68.00002402 -232.6220254
-265.713053 -11.0051254 -179.0000974
96.21305005 -5.228122624 -234.0000974
-40.45040495 -18.49452577 -234.0000974
-249.30234 -129.5454787 -179.0000974
-84.25266795 -2.498419857e-05 -218.2099724
76.03712405 -2.498419857e-05 -27.67657039
-296.330112 -2.498419857e-05 -11.15520039
-197.239594 -2.498419857e-05 -36.65876339
-312.328169 -58.6237761 -228.0000974
-234.411193 -45.36572856 -228.0000974
-7.763581953 -56.02556986 -9.738602012e-05
200.583321 0.6687551958 -121.9224674
149.801919 0.5381988058 -9.738602012e-05
-295.749955 -241.3999164 -48.00478939
-295.27478 -43.39863412 -9.738602012e-05
-132.671494 -33.07875146 -234.0000974
-242.416504 -161.1216609 -19.00009739
-299.749955 -76.07945503 -62.59438739
-299.749955 -171.0699855 -89.01754039
-299.749955 -158.5551402 -70.76792239
-241.740726 -27.11240865 -234.0000974
-242.41289 -2.498419857e-05 -197.3844744
-204.676574 -21.1137385 -228.0000974
-291.749955 -144.7995699 -34.93314939
-291.749955 -171.5922653 -164.6685864
-78.36979395 -2.498419857e-05 -177.8837834
115.010638 -2.498419857e-05 -100.2524534
-299.749955 -147.2048606 -139.0413584
218.534793 2.082714896 -53.03869539
-272.952332 -100.5000231 -19.12269439
-95.42290195 -2.498419857e-05 -44.67763639
-270.41777 -162.1958634 -175.0000974
-2.266636953 -6.330651134 -228.0000974
-188.192042 -50.14056558 -234.0000974
-249.85688 -43.46595703 -179.0000974
281.479352 -15.69328804 -9.738602012e-05
-169.95831 -2.498419857e-05 -10.03492539
-310.745118 -2.498419857e-05 -28.60728839
35.46085205 -2.498419857e-05 -192.3213354
209.133145 -5.586750714 -234.0000974
-255.306461 -173.4538615 -23.00009739
-231.313052 -2.498419857e-05 -139.9054724
-299.749955 -71.60338035 -133.6078884
281.426812 -56.22506031 -9.738602012e-05
-251.160384 -224.5448479 -19.00009739
-299.749955 -47.55358089 -93.88584339
-263.157672 -175.1756399 -179.0000974
-291.749955 -135.3766004 -68.42453339
-268.831117 -2.498419857e-05 -58.28356539
14.44326005 -26.82752231 -9.738602012e-05
-299.749955 -57.95738486 -188.4676964
243.048154 -38.29806455 -234.0000974
-150.814491 -2.498419857e-05 -174.7543624
-299.749955 -117.4939457 -143.9693144
-79.94535695 -2.498419857e-05 -161.1155744
-180.923377 -2.498419857e-05 -115.4848604
-64.17023095 -66.14020162 -228.0000974
206.785992 -41.9458349 -228.0000974
227.327003 -2.498419857e-05 -122.6845444
50.69410605 -39.31608099 -9.738602012e-05
-169.15558 -18.01917807 -228.0000974
-219.699547 -144.1246889 -179.0000974
-243.541031 -175.4128236 -175.0000974
