# .PCD v0.7 - Point Cloud Data file format
VERSION 0.7
FIELDS x y z
SIZE 4 4 4
TYPE F F F
COUNT 1 1 1
WIDTH 1219
HEIGHT 1
VIEWPOINT 0 0 0 1 0 0 0
POINTS 1219
DATA ascii
0.0002636413374 -47.06449574 13.49786561
146.0892096 -133.000025 149.3518346
109.0356566 -2.498441938e-05 -23.40596039
109.2710306 -2.498441938e-05 1.927405614
96.00026364 -68.16719447 76.97256261
83.28549964 -2.498441938e-05 3.237790614
93.24672764 -2.498441938e-05 -21.58303339
177.3062626 -14.98243378 148.7499026
132.5468626 -2.498441938e-05 -130.0568344
190.0767816 -88.35044006 148.7499026
176.9823716 -2.498441938e-05 71.21371561
100.0002636 -37.87613857 82.41556061
37.11891364 -2.498441938e-05 119.6526336
111.0820366 -51.27078289 -139.2500974
100.0002636 -91.52922394 140.7620766
100.0002636 -7.537563014 -82.01833039
232.6561106 -2.498441938e-05 -108.7689444
238.1494436 -2.498441938e-05 7.982651614
241.9822436 -1.542790524 -145.2500974
191.0484186 -2.498441938e-05 -35.30567639
126.1327426 1.347341516 148.7499026
0.0002636413374 -52.61430355 -98.87475839
96.00026364 -20.33675383 -131.5865764
205.2393816 -2.498441938e-05 122.7591496
141.3582366 -9.028116334 148.7499026
43.61976264 -19.44921666 -145.2500974
0.0002636413374 -36.97819356 -97.47292539
183.6124186 -1.889288224 148.7499026
147.2913246 -2.498441938e-05 139.4435946
96.00026364 -46.93166681 29.66825261
66.22577664 -8.746654154 -139.2500974
169.3293276 -129.4679346 148.7499026
184.3561436 -2.498441938e-05 44.00570661
115.5496726 -2.498441938e-05 83.18090961
191.9501386 -30.14419926 -139.2500974
2.958746641 -2.498441938e-05 -130.4417814
141.8140716 -58.80922607 -139.2500974
100.0002636 -62.90933214 67.46177861
35.24810064 -2.498441938e-05 -40.04944039
195.6762526 -2.498441938e-05 -19.00399739
23.40539164 -63.04680037 -145.2500974
138.6096176 -2.498441938e-05 -41.09729139
106.1174666 -2.498441938e-05 -139.1277504
107.5190486 -2.498441938e-05 104.7669426
156.0510306 -2.498441938e-05 33.41310261
108.8292556 -2.498441938e-05 -97.42344839
210.9071336 -2.498441938e-05 68.71303061
100.0002636 -76.97925835 55.04803461
33.31437664 0.6877622756 148.7499026
39.20589964 -2.498441938e-05 -103.1530244
216.3005426 -57.72042762 -145.2500974
134.2819186 -97.11935802 148.7499026
97.64047564 -2.498441938e-05 -115.6208604
182.4785636 -106.7419947 148.7499026
3.511579641 -2.498441938e-05 64.77451461
0.0002636413374 -15.24442761 -109.0237644
-1.080292359 -7.422291594 -137.1723634
100.0002636 -22.46332327 5.565146614
126.4527686 -42.60147205 154.1778176
80.55895564 -39.85803332 -139.2500974
14.00872164 -2.498441938e-05 -51.48477339
0.0002636413374 -102.838575 98.35933361
229.2694476 -2.498441938e-05 -63.62858539
49.50698664 -2.498441938e-05 -54.66884339
40.34652864 -44.04587683 -139.2500974
0.0002636413374 -25.11228791 -13.85228739
112.8769236 -13.08898296 148.7499026
4.186793641 -47.8681484 -145.2500974
187.1125346 -2.498441938e-05 62.66965261
100.0002636 -4.699841784 -66.96643139
94.55059164 -120.1525743 148.7499026
100.0002636 -22.59801415 -97.32685239
57.70315664 -2.498441938e-05 -114.5607394
-0.5096733587 -108.5944645 108.2118536
0.0002636413374 -10.43519294 -8.978068386
96.00026364 -63.46607949 -43.29225439
100.0002636 -45.32012187 139.8992706
21.30525164 1.079127436 -145.2500974
0.0002636413374 -65.55923135 106.3224826
125.8398206 -77.24760704 151.6999066
116.0189166 -2.498441938e-05 -40.92275439
45.20525664 -34.2747188 148.7499026
91.06229564 -2.498441938e-05 -56.64476739
150.3153696 -2.498441938e-05 7.173031614
26.10695264 -2.498441938e-05 -13.00284039
31.68537364 -55.12598272 -139.2500974
100.0002636 -20.08802195 137.4143536
175.2492966 -32.47918576 148.7499026
202.2439016 -2.498441938e-05 138.8309566
0.0002636413374 -39.23603136 63.44234661
165.8234836 -2.498441938e-05 87.55929061
0.0002636413374 -17.64866577 -119.7622444
250.7202926 -2.498441938e-05 -126.0542304
0.0002636413374 -85.21683443 98.80710161
100.0002636 -33.5818914 -89.07441839
58.77170064 -67.67356128 -145.2500974
32.91525864 -14.79590199 -145.2500974
100.0002636 -73.68115829 -3.991508386
228.7744306 -26.72489161 -145.2500974
52.72378764 -50.62673936 -145.2500974
238.6960416 -22.83182707 -139.2500974
159.3532326 -68.00002402 -140.7524884
0.0002636413374 -23.72001271 -66.80962239
8.707166641 -2.498441938e-05 -101.4123434
0.0002636413374 -32.20030031 -129.6583654
37.08867164 -2.498441938e-05 27.05496561
205.6420386 -18.74158 -145.2500974
11.26633164 -120.3089231 152.9959316
0.0002636413374 -87.67244482 142.5596036
0.0002636413374 -86.04134063 111.5173586
245.2007866 -2.498441938e-05 -64.94294139
96.00026364 -45.90190627 89.44801461
219.9540366 -9.271012164 148.7499026
0.0002636413374 -2.416362624 -36.23670139
74.12902764 -57.13783536 148.7499026
77.82136364 -2.498441938e-05 49.62303461
178.8756926 0.6131838456 -145.2500974
36.36528564 1.312187446 -139.2500974
72.82138064 -7.067868064 148.7499026
20.38050264 -47.96635114 148.7499026
204.1502966 -101.8507277 151.3304006
100.0002636 -81.16928687 75.88650761
191.0836366 -2.498441938e-05 135.5391616
0.0002636413374 -63.79405021 136.9392026
42.99524464 -56.29952668 148.7499026
99.62684864 -2.498441938e-05 -128.6570294
177.4696926 -2.498441938e-05 -15.90005139
0.0002636413374 -33.89983707 92.56998761
1.074750641 -11.03804824 148.7499026
108.6920476 -42.67725098 148.7499026
93.51806864 -2.498441938e-05 60.03359961
139.1962886 -2.498441938e-05 -4.923766386
177.1159456 -41.47677585 -145.2500974
100.0002636 -22.05045204 25.71262861
96.00026364 -91.27286507 121.1635716
19.71157764 -2.498441938e-05 126.0464626
71.33631964 -2.498441938e-05 -133.8946264
184.1922336 -2.498441938e-05 -104.4575214
60.52306664 -2.498441938e-05 -72.24936339
189.9027956 -56.65118924 -139.2500974
116.0962556 -75.15399161 148.7499026
94.25978264 -63.1623903 -145.2500974
100.0002636 -91.69456281 98.11679861
141.6984926 -2.498441938e-05 -91.85889939
208.2526396 -25.59904279 148.7499026
115.7200656 -2.498441938e-05 -62.93010239
36.56682564 -33.39619366 -145.2500974
249.7147336 -57.99419876 -145.2500974
214.7003656 -2.498441938e-05 -78.82010039
240.3697186 -2.498441938e-05 117.1575346
0.0002636413374 -8.732262084 -44.48560139
0.0002636413374 -105.8053932 141.9507946
76.73756164 -12.34643051 -145.2500974
136.2643636 -12.60948003 -145.2500974
0.0002636413374 -22.80591209 -88.15807239
56.49361164 -2.498441938e-05 35.44688061
100.0002636 -47.19974251 -55.92065639
103.3822356 -124.9225987 148.7499026
-2.250757359 -53.5765943 -108.7649064
63.17231764 -25.7900803 148.7499026
194.3857386 -21.007898 -145.2500974
0.7572776413 -12.94530506 -145.2500974
96.00026364 -115.033691 127.2716616
183.4863176 -2.498441938e-05 -57.14397839
117.2047756 1.490078086 -145.2500974
0.0002636413374 -3.107011584 40.86228661
0.0002636413374 -65.85017249 11.25102261
170.9870566 -2.498441938e-05 17.24442661
64.75641164 -55.91388739 -145.2500974
103.6428406 -2.498441938e-05 143.7332066
163.3807526 -24.76355991 -145.2500974
100.0002636 -52.83192615 -40.97008239
100.0002636 -22.76482796 -52.83505939
234.1019236 -2.498441938e-05 23.24114661
175.5165276 -2.498441938e-05 -30.89284439
79.34902164 -25.59417533 -145.2500974
96.07267164 -2.498441938e-05 131.9385096
169.1146966 -2.498441938e-05 139.5889496
123.8551436 -2.498441938e-05 -111.2953164
101.9141266 -108.7599084 148.7499026
200.4382386 -11.39482208 148.7499026
179.9372716 -2.498441938e-05 98.34668861
104.1106246 -2.498441938e-05 75.82636261
88.98822464 -2.498441938e-05 41.74099561
35.29079364 -21.56311916 148.7499026
180.8222116 -2.498441938e-05 -67.19912739
127.2033996 -62.33379188 -145.2500974
0.0002636413374 -57.49349551 -32.19592339
100.0002636 -26.55525231 130.0771966
126.0002626 -41.93201755 -139.2500974
96.00026364 -40.52061692 4.868364614
93.13116364 -29.6082499 148.7499026
102.1564236 -9.711549154 -139.2500974
0.0002636413374 -56.26616664 55.63107461
227.5677196 -43.16850256 148.7499026
69.42244764 -88.69911216 153.1745796
187.3017076 1.907948806 -139.2500974
100.0002636 -3.399982254 -92.32917139
0.0002636413374 -59.70282984 -22.31269239
115.9119986 -32.78509532 -145.2500974
165.2718116 -2.498441938e-05 -17.32182439
230.1814006 -2.498441938e-05 -129.6387194
233.5072996 -70.84940644 148.7499026
231.5648166 -2.498441938e-05 70.15092761
105.9460686 -43.05564835 -145.2500974
0.0002636413374 -27.42508751 -56.43715039
55.69076264 -2.498441938e-05 -1.008647386
4.074956641 -2.498441938e-05 -16.70640039
209.2939716 -45.12430775 148.7499026
100.8314776 -9.108441824 148.7499026
237.6999096 -2.498441938e-05 -19.85980639
0.0002636413374 -30.54717869 -4.572800386
0.0002636413374 -30.01675231 5.161047614
198.6119706 2.373987936 -139.2500974
51.07242964 1.854424626 -139.2500974
44.11445264 -2.498441938e-05 107.7625316
208.5037696 -2.498441938e-05 21.49622761
100.0002636 -16.59080876 65.56682861
100.0002636 -54.5372344 108.8250876
148.6739466 -22.01991012 -139.2500974
10.65299364 -26.40289792 148.7499026
40.10904164 -2.498441938e-05 -20.01589739
125.6928906 -88.83726531 154.3767606
185.4970216 -120.3094166 148.7499026
142.5337566 -42.12937073 -145.2500974
96.00026364 -68.14724259 58.97074161
150.6922246 -2.498441938e-05 117.2646926
96.00026364 -61.97027832 -55.98406339
216.8612626 -20.25444667 148.7499026
92.98681964 -96.29679402 148.7499026
46.18447064 -73.64753274 153.7416646
100.0002636 -38.19454595 129.8291336
0.0002636413374 -29.40987927 -109.1500644
151.0876276 -2.498441938e-05 -138.5809624
233.9091906 -2.498441938e-05 -8.045694386
100.0002636 -40.98892102 -105.5054274
251.1455616 -6.376781704 -145.2500974
10.07016064 -2.498441938e-05 -136.6815874
110.5552886 -2.498441938e-05 -32.74077739
113.3408796 -2.498441938e-05 133.9879536
100.0002636 -23.08941308 -65.52288939
30.70687264 -40.91641719 148.7499026
20.20722264 -2.498441938e-05 -83.92185739
236.1425056 -2.498441938e-05 85.40570661
186.1584146 -79.24075513 148.7499026
7.340469641 -2.498441938e-05 -115.1258774
57.08756164 -8.680042514 -145.2500974
221.9469836 -2.498441938e-05 92.85880061
155.3807476 -2.498441938e-05 -83.58033039
59.40884764 -2.498441938e-05 -18.53258239
137.3549086 1.323980766 -139.2500974
34.47787164 -2.498441938e-05 41.26707461
94.96785264 -2.498441938e-05 121.7543776
100.0002636 -82.33988104 62.71532961
174.0222746 -2.498441938e-05 43.09163461
1.044704641 -2.498441938e-05 -58.28165339
198.8866256 -2.498441938e-05 100.8749356
96.00026364 -39.60528421 146.9331166
0.0002636413374 -48.71197003 -8.679094386
185.8792686 -66.92754874 -139.2500974
96.00026364 -52.01304132 -84.78830739
167.7721516 -50.88773902 148.7499026
237.5138776 -2.498441938e-05 145.4553536
96.00026364 -41.99702655 -116.9912824
100.0002636 -46.69434339 58.45368161
96.00026364 -34.43881926 23.00516561
100.0002636 -60.67879932 -17.88457939
0.0002636413374 -55.17839053 21.61861961
153.5940876 -2.498441938e-05 75.36150561
144.5368476 -2.498441938e-05 -70.84011539
30.65238664 -81.19119921 148.7499026
106.0798446 -2.498441938e-05 19.11466361
0.0002636413374 -40.92208415 -79.77560239
96.00026364 -54.24243817 14.48974161
155.0054406 -42.28865419 148.7499026
220.8714246 -21.57306924 -145.2500974
35.93348664 -8.180969114 148.7499026
105.7979746 -2.498441938e-05 86.00105061
182.2665016 -52.75507149 -145.2500974
7.222878641 -2.498441938e-05 114.8722976
-1.327423359 -2.498441938e-05 2.089938614
129.2409226 -35.00430359 148.7499026
220.3454196 -39.46839715 -139.2500974
216.8829186 -75.08400861 148.7499026
90.93336164 -2.498441938e-05 -65.86552139
97.06845964 -39.19541541 -145.2500974
178.9397366 -2.498441938e-05 51.85992961
208.4772476 -9.951480774 -139.2500974
96.00026364 -25.24472743 37.75586261
12.85662764 -32.63372637 -139.2500974
148.0058466 -2.498441938e-05 96.21355661
163.0527186 -2.498441938e-05 67.70141061
240.7018936 -2.498441938e-05 97.92033061
243.3447826 -2.498441938e-05 0.404776614
204.5800036 -2.498441938e-05 -110.3281754
0.0002636413374 -17.24058762 -48.35379639
119.6151016 -6.470801694 -139.2500974
99.12317564 -54.16056076 -104.7856724
100.0002636 -30.3927158 117.7909356
0.0002636413374 -40.47673311 137.4159196
28.11416364 -2.498441938e-05 -62.28337539
203.9388086 -68.00002402 -145.0984624
69.86217564 -2.498441938e-05 31.32071261
96.00026364 -51.68533677 -0.636327386
139.1808516 -2.498441938e-05 61.87207161
0.0002636413374 -62.18461602 74.35623661
56.12800864 -2.498441938e-05 -131.2408344
3.333777641 -65.56637148 -139.2500974
101.8109466 -23.57337265 148.7499026
18.17947064 -45.23699617 -139.2500974
8.417180641 -17.77623795 -139.2500974
171.8658716 -100.6069704 148.7499026
100.0002636 -80.73628808 34.12143161
128.0055996 -2.498441938e-05 -45.83682639
96.00026364 -98.21552193 80.37834061
0.0002636413374 -32.25277061 14.73639061
122.6148766 -2.498441938e-05 39.93882961
166.7965886 -56.75403898 -145.2500974
0.0002636413374 -21.38203279 121.3543166
199.4277396 -46.31897877 148.7499026
191.9253516 -2.498441938e-05 -93.87934839
201.9637326 -36.34191152 -145.2500974
106.3723986 -2.498441938e-05 -40.77204739
0.0002636413374 -78.00867092 48.54949861
138.2757156 -18.97951171 148.7499026
100.0002636 -101.4461591 141.6546206
62.22564164 -2.498441938e-05 12.69012461
100.0002636 -56.99906896 76.62518161
187.6602166 -42.35576668 -139.2500974
241.6380956 -2.498441938e-05 41.29807961
155.5153766 -30.38925153 148.7499026
100.0002636 -6.955901784 38.53328361
47.89517764 -24.62701481 -139.2500974
38.22241964 -2.498441938e-05 63.84832661
0.0002636413374 -35.16725502 -34.91115639
81.71667564 -2.498441938e-05 74.92673061
108.5141776 -58.37698054 -145.2500974
85.76764064 -5.167243984 -145.2500974
0.0002636413374 -20.71886358 5.007114614
242.6070236 -60.75278847 148.7499026
-1.647540359 -56.84450024 -86.49691039
96.77220664 -2.498441938e-05 -42.53771939
99.63499764 -109.1678263 109.7690756
16.21179064 -90.59858966 148.7499026
229.7702436 -54.42842888 -145.2500974
164.2806826 -39.31899771 -145.2500974
0.0002636413374 -64.57773149 2.391846614
223.9877136 -2.498441938e-05 -87.96678039
96.00026364 -14.32523531 111.7439456
243.2608406 -2.498441938e-05 57.49163261
236.1448306 -7.555366594 -139.2500974
177.2100706 -2.498441938e-05 124.5275316
79.39811764 -2.498441938e-05 84.64579361
7.314102641 -77.4934611 148.7499026
42.28348864 -59.35737914 -139.2500974
-0.006999358662 -66.2716424 147.2499026
96.36331564 -93.7369697 66.05148261
22.70464164 -36.55503807 148.7499026
58.29407164 -2.498441938e-05 -56.06234839
195.8793936 -61.604553 148.7499026
78.11659864 -2.498441938e-05 -128.1444124
33.39346764 -61.1429427 148.7499026
58.79356664 -57.50380427 148.7499026
100.0002636 -21.02691035 -16.53904039
151.6337856 -73.20893869 148.7499026
40.94680164 -66.78950834 148.7499026
76.14678764 -43.39631832 148.7499026
0.0002636413374 -86.85461452 133.7479756
43.54426664 -2.498441938e-05 -61.98727739
157.2381986 -2.498441938e-05 -21.87225739
30.75723164 -2.498441938e-05 140.3159406
0.0002636413374 -61.15621903 98.66287861
154.4021906 -36.08209177 -145.2500974
216.3523606 -2.498441938e-05 124.7002596
80.23407964 -2.498441938e-05 -48.99020039
96.00026364 -83.88440894 136.1273786
165.6580616 -16.51368159 -139.2500974
100.0002636 -8.817483354 -104.7712814
227.3154376 -2.498441938e-05 105.5898896
0.0002636413374 -33.41576868 -63.70317839
199.3320536 -2.498441938e-05 -49.86810139
202.1779096 -2.498441938e-05 -60.33191139
22.25996664 -2.498441938e-05 -69.03947039
22.85160964 -38.88945097 -145.2500974
122.8632386 -133.000025 150.1608646
96.00026364 -31.54045956 71.03665161
0.0002636413374 -72.9454131 25.99991261
0.0002636413374 -12.33305971 -98.65613439
137.6924766 -2.498441938e-05 117.9613506
12.04089664 -2.498441938e-05 -128.1840974
245.6749506 -2.498441938e-05 124.1969806
0.0002636413374 -43.75706232 96.31481061
136.4600126 -124.4601481 148.7499026
103.8377696 -2.498441938e-05 8.729029614
85.52526964 -2.498441938e-05 -16.46719939
0.0002636413374 -33.80869529 56.65026161
140.3597796 -17.38345345 -139.2500974
244.6042006 -20.69826008 -145.2500974
197.6391196 -5.901046084 -145.2500974
127.9164296 -2.498441938e-05 32.18757961
248.3192446 -2.498441938e-05 77.48010661
0.0002636413374 -95.02945509 82.38909961
0.0002636413374 -22.94073324 52.71131461
78.05354564 -2.498441938e-05 132.8019726
100.0002636 -63.46908278 115.2926496
199.0172976 -21.93386432 148.7499026
100.0002636 -37.0255482 -62.23390539
0.0002636413374 -56.74910014 128.7319206
-0.4883203587 -67.96723153 -28.44218939
100.0002636 -53.80911372 142.9153206
0.0002636413374 -24.35933405 -34.07633939
60.83131564 -38.70179597 -145.2500974
100.0002636 -39.0336696 -77.46941639
100.0002636 -7.034052554 126.3286156
223.0711696 -2.498441938e-05 56.34922761
247.8760546 -2.498441938e-05 -109.0571854
0.0002636413374 -7.583731684 29.34503061
242.6925186 -64.07360004 -145.2500974
244.9753956 -9.050872704 148.7499026
180.5936746 -85.85010043 148.7499026
73.60385764 -68.59985801 148.7499026
0.0002636413374 -66.51947064 91.60853261
96.00026364 -49.41854689 69.26226461
72.29421664 -46.10912846 -139.2500974
100.0002636 -9.822991454 -5.223101386
96.00026364 -29.91232055 4.246040614
125.7434566 -97.61875305 148.7499026
174.7190086 -2.498441938e-05 -0.781097386
100.0002636 -21.97744524 102.8295256
163.9166996 -2.498441938e-05 12.49313861
96.00026364 -58.16929808 -31.13764739
149.4619576 -108.3481951 154.1558876
96.00026364 -73.36057487 94.28923561
251.6206286 -2.498441938e-05 16.29633061
111.3365666 -2.498441938e-05 39.74058061
96.05842864 -2.498441938e-05 48.94060561
120.3505786 -2.498441938e-05 -98.03049539
135.6332716 -2.498441938e-05 -99.15573039
129.0933426 -60.17189472 148.7499026
62.63515664 -2.498441938e-05 67.46451161
198.0457656 -2.498441938e-05 47.21653861
100.0002636 -34.27679331 -29.60149539
71.43175064 -2.498441938e-05 -25.80069139
28.09792264 -2.498441938e-05 25.37032061
96.00026364 -8.462772024 29.79136961
173.3748396 -2.498441938e-05 -90.01026839
0.0002636413374 -28.63891868 -77.11804039
85.30972564 -121.0191941 151.9188396
217.0491406 -2.498441938e-05 28.53613161
73.38127764 -2.498441938e-05 39.15562361
100.0002636 -49.83578454 -32.52186139
141.0711536 -84.00781986 148.7499026
0.07552464134 -2.498441938e-05 133.9741156
0.0002636413374 -52.5452004 64.28034161
0.0002636413374 -4.991582874 59.01933961
55.50448264 -17.04649658 148.7499026
192.0989446 -100.7611181 148.7499026
197.9446536 -50.15739343 -139.2500974
181.2774556 -2.498441938e-05 -132.2197344
96.00026364 -25.98875994 -108.5518844
125.4479316 -55.87390719 -139.2500974
64.83363764 -76.86801267 148.7499026
159.8398436 -2.498441938e-05 -137.2209114
212.2644586 -2.498441938e-05 -117.8948094
96.00026364 -29.61998006 -50.23450239
158.0787896 -47.76066456 -145.2500974
71.03989664 -24.86950869 -145.2500974
125.2715666 -2.498441938e-05 74.37289661
0.0002636413374 -7.364472084 -52.71031639
166.1589916 -2.498441938e-05 -37.88709239
96.00026364 -26.7077765 87.77590161
141.5450076 -2.498441938e-05 39.69077861
114.8048596 -45.83482238 -145.2500974
221.9955326 -58.5109214 -139.2500974
208.6333066 -2.498441938e-05 -91.13872839
96.00026364 -5.211196794 -51.39749739
206.4837926 -2.498441938e-05 146.1903626
154.5602576 -2.498441938e-05 -11.07600039
96.00026364 -50.19801862 114.6566826
131.9920456 -4.982865154 -139.2500974
140.8455236 -67.73203874 148.7499026
212.7313246 -2.498441938e-05 88.84705761
96.00026364 -15.9095496 -124.3062234
96.00026364 -33.5922009 42.69821861
96.00026364 -44.11671987 12.35428361
17.82892564 -53.91676499 -145.2500974
232.1246856 -2.498441938e-05 117.5266286
162.5651846 -2.498441938e-05 96.18188161
114.0233416 -2.498441938e-05 49.60205861
24.32600064 -2.498441938e-05 108.6055836
0.0002636413374 -41.75006198 109.1394556
96.00026364 -71.19695275 44.43072661
176.0746176 -24.19493248 -139.2500974
100.0002636 -62.01444072 126.4384086
96.00026364 -4.429734414 -13.32775339
39.64609664 -2.498441938e-05 -29.16660139
182.7510276 -25.27574348 -145.2500974
164.9482646 -2.498441938e-05 28.42031761
184.8753926 -2.498441938e-05 129.3617146
0.0002636413374 -75.30195353 77.32786761
96.00026364 -18.28047585 46.40476761
72.85668664 -2.498441938e-05 59.51793761
99.81790364 -21.13331263 -145.2500974
0.0002636413374 -53.73718198 -41.51500439
96.00026364 -4.540640284 -122.3175314
142.1674606 -2.498441938e-05 -14.28542739
96.00026364 -25.20420997 17.42866661
65.89139364 -18.46984021 -145.2500974
0.0002636413374 -43.25857372 127.0192376
147.8097816 -40.33590043 -139.2500974
47.02596464 -2.498441938e-05 0.131443614
96.00026364 -78.49948254 143.1539266
0.0002636413374 -49.51476089 -30.43258739
0.0002636413374 -46.62840461 -73.05378439
217.5177616 -63.04689486 148.7499026
96.00026364 -86.06778849 49.31450861
194.6209366 -2.498441938e-05 111.3316216
234.6603286 -44.25791415 -145.2500974
86.16808264 2.292461756 -139.2500974
193.0584926 -2.498441938e-05 90.27957761
0.0002636413374 -25.71959909 25.16463061
213.5401646 -2.498441938e-05 4.046714614
154.9650866 -124.1821393 148.7499026
0.0002636413374 -79.31536453 56.58948161
96.00026364 -60.69047449 29.85528961
80.44012164 -81.38215645 148.7499026
100.0002636 -56.88601502 4.181449614
153.3215456 -50.47408924 -139.2500974
60.66738864 -2.498441938e-05 91.87746161
5.969424641 -2.498441938e-05 -82.21888639
139.1401696 -2.498441938e-05 81.00782461
110.9093466 -66.47845295 148.7499026
130.3079816 -45.28696717 -145.2500974
224.5995436 -59.05411302 148.7499026
213.9152096 -2.498441938e-05 -26.78647239
114.5974216 -56.79440999 148.7499026
175.2173916 -2.498441938e-05 80.54040561
249.6812486 -42.89556366 148.7499026
0.0002636413374 -3.775875444 92.83332061
64.14328164 -2.498441938e-05 -103.8245064
0.0002636413374 -21.77388695 -129.5721564
36.81877164 -2.498441938e-05 131.4760296
68.59184664 -2.498441938e-05 -72.45772639
225.0222456 -2.498441938e-05 -4.653404386
226.1099266 -2.498441938e-05 24.79274361
-1.677923359 -33.6150406 -145.2500974
96.00026364 -7.008258164 81.32534461
96.00026364 -16.4006618 -11.13582639
213.1437376 -3.380280784 -139.2500974
158.9870426 -2.498441938e-05 58.39716861
176.4894856 -2.498441938e-05 -48.63885939
100.0002636 -85.53767006 103.9148986
220.4940146 -85.50696412 151.7837556
156.1932106 0.1218155756 -34.65944839
96.00026364 -64.61137729 -11.02024839
156.7811836 -2.498441938e-05 112.0191236
244.1124686 -2.498441938e-05 -37.06092939
131.6644196 -2.498441938e-05 112.3075066
0.0002636413374 -29.10524313 -95.88364139
138.6800236 -2.498441938e-05 -76.63028239
96.00026364 -74.34740617 15.85562261
178.7630276 -2.498441938e-05 36.62411361
211.4576076 -2.498441938e-05 -39.50232939
149.6125336 -2.498441938e-05 131.7710636
96.00026364 -56.13838301 -72.03560439
7.071599641 -2.498441938e-05 29.94049861
0.0002636413374 -73.41794667 124.1783086
162.8727616 0.6895400956 148.7499026
100.9188386 -60.22040312 -139.2500974
100.0002636 -8.934103154 14.37685161
35.37362664 -58.91994685 -145.2500974
78.38053364 -30.0242047 148.7499026
100.0002636 -22.0183116 -36.46007539
211.1088766 -27.19161089 -139.2500974
210.4741156 -55.18909722 -139.2500974
245.7714416 -2.498441938e-05 30.23163161
140.1896826 -49.51403784 -139.2500974
0.0002636413374 -18.61522657 70.26696861
86.94780564 -2.498441938e-05 87.88802061
112.0003916 -21.85147202 -145.2500974
96.00026364 -109.0745249 141.6720646
140.0206646 -2.498441938e-05 131.0938966
216.5166386 -65.66695582 -145.2500974
100.0002636 -100.082747 96.04142361
85.34327864 -18.98440725 148.7499026
0.0002636413374 -29.34153855 48.01516661
187.3699896 -61.21124273 -145.2500974
100.0002636 -73.27547822 115.0116596
207.5880206 -2.498441938e-05 -7.300853386
0.0002636413374 -90.93592713 105.1554876
100.0002636 -19.26575289 80.96368261
147.7775546 -2.498441938e-05 -63.61413839
136.6172776 -34.70956193 -145.2500974
227.0679906 -34.44051393 -145.2500974
140.3677416 -2.498441938e-05 9.613243614
65.24764664 -2.498441938e-05 -138.9199934
163.7271146 -2.498441938e-05 115.7473216
96.00026364 -7.278175114 96.01983961
231.2645306 -4.183583494 -145.2500974
19.40861364 -2.498441938e-05 74.66656361
80.66876464 -7.856392974 148.7499026
190.7544886 -2.498441938e-05 -45.27588339
64.67561764 -2.498441938e-05 106.6994576
125.5701966 -68.00002402 -140.0596324
5.265891641 0.1916548156 148.7499026
151.4821856 -26.90822043 -145.2500974
18.21993164 -6.141252794 -145.2500974
121.7372926 -2.498441938e-05 141.1687576
41.55928464 -2.498441938e-05 147.0968856
100.0002636 -101.9924906 124.5132256
8.348926641 -2.498441938e-05 -44.36993539
169.2729846 -2.663199524 -145.2500974
96.00026364 -27.43052988 55.35392761
35.50125264 -2.498441938e-05 -77.08510739
233.1832996 -2.498441938e-05 -33.81403039
115.5480706 -38.894906 148.7499026
100.0002636 -60.86644421 55.02877461
166.9804366 -93.9524725 148.7499026
133.6407376 -5.814524014 148.7499026
0.0002636413374 -14.08873192 -0.285860386
38.14923764 -6.295193524 -139.2500974
100.0002636 -0.4723117744 64.98169461
118.6920686 -22.82595308 148.7499026
242.8010846 -2.498441938e-05 14.24797761
96.00026364 -49.71019369 -98.20231439
206.9380176 -36.472626 -139.2500974
49.51260364 -2.498441938e-05 31.98032461
129.2791626 -2.498441938e-05 89.93181361
126.4241906 -17.96280487 148.7499026
100.0002636 -32.42189843 -18.69324339
95.60401464 -2.498441938e-05 26.09925161
236.0358706 -68.00002402 -144.4895314
238.7161046 -2.498441938e-05 -138.3864234
100.0002636 -41.72438934 75.68219861
153.1261236 -2.498441938e-05 -98.90113639
96.00026364 -7.619124564 66.19932661
144.8362866 -2.498441938e-05 148.3461256
154.3106786 -2.498441938e-05 -130.3414384
0.0002636413374 2.295233706 84.31466861
0.0002636413374 -44.28115686 38.65501261
216.1076916 -2.498441938e-05 -11.63715939
100.0002636 -47.01381805 96.43648861
136.9343846 -34.30624347 148.7499026
46.79833964 -61.98001529 -145.2500974
110.1367866 -107.1592944 148.7499026
150.2140036 -17.42063365 -145.2500974
37.74645664 -14.42848964 -139.2500974
26.40279064 -2.498441938e-05 122.2165566
73.45578364 -2.498441938e-05 145.1139186
85.53529164 -17.91187122 -139.2500974
52.99132664 -2.498441938e-05 -107.0543504
167.4818736 -2.498441938e-05 61.08099861
100.0002636 -47.6354904 50.54298261
206.9408066 -29.78322667 -145.2500974
46.91529764 -2.498441938e-05 -68.89968339
148.9022666 -2.498441938e-05 -89.17846139
27.84929364 -21.39508872 -139.2500974
89.84307764 -2.498441938e-05 -113.1290614
22.17880364 -2.498441938e-05 -110.5076094
60.74737464 -45.69380729 148.7499026
241.5884696 -2.498441938e-05 -72.36910839
5.450484641 -60.39649488 -145.2500974
0.0002636413374 -61.30531095 43.07327461
-1.723402359 -56.25936643 -139.2500974
190.9072466 -115.0938143 150.1829236
180.2590616 -114.7336212 148.7499026
100.0002636 -70.6778782 142.4820746
0.0002636413374 -39.5677853 28.70960361
61.83238264 -2.498441938e-05 -89.63897739
0.0002636413374 -72.51252636 39.93173261
30.83668864 -2.498441938e-05 1.073582614
77.85059164 -61.37198693 -145.2500974
96.00026364 -17.98639747 -25.69996739
199.4640176 -2.498441938e-05 117.2237026
100.0002636 -46.14290799 -74.43712039
100.0002636 -16.97356232 10.84115761
192.2919716 -41.09537719 -145.2500974
65.05551264 -2.498441938e-05 -112.5935014
101.5802486 -117.237565 148.7499026
-0.1103063587 -31.86736819 -137.7500974
96.00026364 -29.31476123 -93.93355939
127.0642706 -2.498441938e-05 -27.29437339
244.0073846 -59.6181078 -139.2500974
96.00026364 -112.3972203 134.3870516
109.0389996 -67.51675382 -139.2500974
202.4893106 -2.498441938e-05 34.44324661
100.0002636 -14.94725627 -40.49804439
118.0742606 -2.498441938e-05 0.626826614
223.6666826 -6.810299144 -139.2500974
168.2708936 -78.69322325 148.7499026
187.9908956 -2.498441938e-05 118.1389946
249.1781096 -43.15935884 -145.2500974
107.3150946 -4.431184044 148.7499026
100.0002636 -17.39937115 -59.25043939
237.0148596 -28.1591721 148.7499026
100.0002636 -73.45275787 73.36587361
100.0002636 -74.75547751 130.3598896
63.64510264 -2.498441938e-05 -35.03689839
91.54632364 -57.42493276 148.7499026
99.77454464 -2.498441938e-05 55.84023361
100.0002636 -73.31195024 104.9107236
162.5484176 -7.782871654 -139.2500974
213.5535786 -2.498441938e-05 -99.97862239
0.0002636413374 -39.67782781 116.3667086
242.2833656 -2.498441938e-05 -45.97875139
96.00026364 -47.66251471 -47.27100039
100.0002636 -41.52482876 -42.32986239
0.0002636413374 -12.89051385 -132.1304494
0.0002636413374 -37.62004307 -46.32118139
249.1590646 -26.12626904 -139.2500974
100.0002636 -46.39101014 38.40954861
0.0002636413374 -86.63533178 67.91777861
96.00026364 -38.41617631 89.64651961
160.8412896 -36.44862657 -139.2500974
252.4544736 -2.498441938e-05 -116.1499124
59.02279464 -53.00422908 -139.2500974
192.7986756 -3.164855094 -139.2500974
25.68595264 1.947858186 -139.2500974
161.5806266 -115.4426061 148.7499026
-0.8175983587 -72.6678176 -8.025473386
176.0236596 -44.70548356 148.7499026
-1.237543359 -51.41119481 -126.0299094
183.5939606 -72.10269785 148.7499026
0.0002636413374 -76.01177009 8.565269614
51.00461064 -34.86103441 -139.2500974
11.08033164 -24.7526985 -139.2500974
96.00026364 -40.87605844 -130.2061804
100.0002636 -51.7664732 -61.82561639
6.943380641 -2.498441938e-05 76.26262261
34.73974464 -2.498441938e-05 -97.01060339
96.00026364 -13.68342972 -49.44004439
130.1976366 -2.498441938e-05 -55.55790439
105.1273736 -27.7030949 -139.2500974
139.0393996 -133.000025 151.7880926
220.9436776 -2.498441938e-05 3.157114614
100.0002636 -96.79085126 130.8869426
0.0002636413374 -63.49823756 53.82413761
121.0265416 -2.498441938e-05 105.3245546
0.0002636413374 -61.2253638 113.8486436
143.5137926 -10.89241389 -145.2500974
100.0002636 -28.16293206 -129.8219424
142.0145896 -2.498441938e-05 100.6300436
0.0002636413374 -41.25334128 -19.63983539
154.4832626 -8.412350294 -139.2500974
179.1215496 -32.50949684 -139.2500974
96.00026364 -99.94027182 109.7233806
196.0313706 -31.86327898 -145.2500974
55.83602764 -21.92309498 -139.2500974
117.3402156 -3.768399744 148.7499026
96.00026364 -53.32312624 89.45746961
64.32035964 -29.41297595 -139.2500974
56.66255464 -33.30014735 148.7499026
159.2357496 -5.927053014 148.7499026
51.09163264 -8.125458904 -139.2500974
33.47353664 -2.498441938e-05 -12.15406539
249.9104166 -2.498441938e-05 -59.21639639
35.32416564 -2.498441938e-05 -87.04442039
245.9522876 -35.00241678 148.7499026
65.61223164 -2.498441938e-05 3.587394614
0.0002636413374 -0.5305593444 -121.5512154
-1.002607359 -121.2290921 148.7499026
0.0002636413374 -22.0325851 42.50971861
100.0002636 -18.6887835 73.61484861
97.03019264 -2.498441938e-05 41.63587861
0.0002636413374 -73.8794023 91.94983361
100.0002636 -6.496939424 108.3379916
87.24302864 -12.38181536 -145.2500974
96.71098464 1.863660276 -82.37490139
37.61879664 -2.498441938e-05 85.08831861
196.0986146 -2.498441938e-05 60.14999861
45.75367964 -2.498441938e-05 73.86634261
127.2005836 -2.418693384 -145.2500974
212.8012026 -6.804190414 148.7499026
-0.6131463587 -2.498441938e-05 -27.72957739
100.0002636 -16.00388057 95.00882861
0.0002636413374 -66.9206998 127.6108426
81.83806464 -58.16985636 -139.2500974
153.9168676 -2.498441938e-05 -110.5925994
100.0002636 -25.14392562 -73.26830939
100.0002636 -5.607528884 88.69735861
128.7362046 -2.498441938e-05 -19.86908739
201.8459646 -5.723953714 -139.2500974
200.6147286 -2.498441938e-05 -2.651017386
100.0002636 -81.50391649 122.1632126
100.0002636 -6.656099214 1.376181614
92.43895864 -2.498441938e-05 5.236579614
0.0002636413374 -7.160047864 -108.7295254
184.7723066 -2.498441938e-05 91.43398961
100.0002636 -16.00457322 -85.77265839
58.64372864 -4.813382684 -139.2500974
100.0002636 -5.325489254 -111.2131814
176.7046736 -24.20160402 148.7499026
103.8479766 -2.498441938e-05 121.6765256
157.8650916 -2.498441938e-05 -53.26926539
224.9597766 -2.498441938e-05 47.88451261
96.00026364 -28.38576275 -2.885028386
231.2500606 -2.498441938e-05 -86.77772439
71.90615164 -2.498441938e-05 79.43697861
159.4721856 -2.498441938e-05 105.2382376
96.00026364 -52.03508088 41.71763161
100.0002636 -69.06935427 11.64923261
146.9203936 -2.498441938e-05 46.19715961
175.9140156 -2.498441938e-05 -114.0860584
94.47254564 -2.498441938e-05 78.36731461
100.0002636 -64.65644119 91.34526861
100.0002636 -42.4020519 115.0431076
39.35343664 -36.40742198 -139.2500974
96.00026364 -91.02678914 91.53362861
107.1817366 -2.498441938e-05 -131.9430494
100.0002636 -38.36012523 15.26079861
95.41633664 -53.17333902 -139.2500974
121.4116936 -114.8342277 148.7499026
0.0002636413374 -37.13232725 35.70791461
200.7869686 -2.498441938e-05 -24.14535839
0.9239096413 -2.498441938e-05 -137.3968934
222.9396936 -2.498441938e-05 145.0919606
100.0002636 -6.325714184 -36.58380739
118.9987056 -67.16934437 -145.2500974
173.3263966 -62.22040608 -145.2500974
185.2807196 -13.18404282 -139.2500974
78.30997664 -2.498441938e-05 99.87028161
44.39208564 -27.61872307 -145.2500974
106.4833666 -2.498441938e-05 -104.8351644
0.0002636413374 -31.17454817 69.04061461
100.0002636 -1.015086264 -19.25272739
0.0002636413374 -9.006386874 80.02543961
0.0002636413374 -23.96824103 78.59693061
112.1844956 -2.498441938e-05 -15.00303039
5.563669641 -124.8415448 148.7499026
96.00026364 -75.12850794 1.833133614
24.16643164 -2.498441938e-05 -37.35898439
0.0002636413374 -45.43131174 -117.8036224
0.0002636413374 -17.43648542 145.6399246
96.00026364 -63.41314337 42.10734861
0.0002636413374 -48.58501629 142.1754996
3.645888641 -2.498441938e-05 7.275232614
6.740109641 -2.498441938e-05 -36.83304639
146.4327176 -23.98646709 148.7499026
93.45520564 -2.498441938e-05 -132.3187484
195.4734736 -2.498441938e-05 -130.1890694
47.02441564 -2.498441938e-05 46.00589661
3.208986641 -89.3076795 148.7499026
77.32799164 -2.498441938e-05 -5.041402386
19.02564964 -2.498441938e-05 30.67531761
49.09997564 -52.04804136 -139.2500974
100.0002636 -61.88838868 139.3503206
100.0002636 -88.43540121 115.9629406
159.0751516 -2.498441938e-05 -117.6483114
222.3657026 -2.498441938e-05 -19.60306639
140.1596806 -2.498441938e-05 139.1152686
20.36893164 -83.51055139 148.7499026
243.5184086 -17.00839989 -139.2500974
47.73851464 -2.498441938e-05 141.1548816
0.0002636413374 -39.7215484 48.46507061
19.46213064 -22.19477817 -139.2500974
196.4800936 -58.38746185 -145.2500974
70.33911864 -60.9738628 -145.2500974
96.00026364 -2.792751544 -98.17458539
116.2792766 -2.498441938e-05 98.52214361
0.0002636413374 -43.26359024 -3.385061386
111.2703226 -5.110957484 -139.2500974
96.00026364 -74.54706286 27.70747061
100.0002636 -2.730441594 -26.68402739
76.95662764 -38.69674705 -145.2500974
100.0002636 -34.10736954 -45.07944939
96.00026364 -27.83378847 99.77605661
4.115411641 -22.31160606 148.7499026
108.5581446 -2.498441938e-05 64.54159861
96.00026364 -62.51673097 -23.42945839
33.76093164 -70.30166859 148.7499026
207.7392216 -41.37982476 -145.2500974
93.78809364 -2.498441938e-05 -8.282575386
173.4204746 -40.99384577 -139.2500974
-1.189793359 -52.5731438 -145.2500974
128.6811356 -38.03608441 -145.2500974
12.75415664 -2.498441938e-05 42.01107261
96.00026364 -30.3418148 -124.4301334
100.0002636 -17.50410339 40.64658461
94.44474264 -2.498441938e-05 138.8019296
100.0002636 -37.77854894 37.53982561
100.0002636 -41.32417278 -17.76985039
147.9858556 -29.19688942 -139.2500974
100.0002636 -78.71714779 92.05370761
46.60733264 -2.498441938e-05 -104.0664714
96.00026364 -10.44665968 -99.20308939
102.4555026 -2.498441938e-05 -74.25643539
239.3266136 -2.498441938e-05 33.04525461
17.58252364 -60.8881217 148.7499026
137.0864206 -2.498441938e-05 -19.55668239
31.30986764 -8.049342034 -139.2500974
161.6917606 -17.94294676 148.7499026
88.25797864 1.682954956 148.7499026
75.90402864 -2.498441938e-05 66.46141061
96.00026364 -91.26754815 135.0156376
96.00026364 -89.73205457 82.47910061
109.9053776 -29.18035683 -145.2500974
77.73350764 -89.61676305 148.7499026
251.7459266 -10.84544745 148.7499026
100.0002636 -47.3066952 -81.48593139
65.43040964 -33.41948825 -145.2500974
96.00026364 -22.92687863 142.4105166
157.9863056 -2.498441938e-05 -90.08877439
24.51612264 -2.498441938e-05 137.1512946
234.2484406 -54.29859577 -139.2500974
-0.1271773587 -59.5026359 -71.15058339
223.8889686 2.191528346 -139.2500974
96.00026364 -8.247322074 -76.33264539
42.27783864 -2.498441938e-05 -89.68635839
25.32738764 -23.92523059 -145.2500974
-2.487395359 -2.498441938e-05 -14.34200439
0.0002636413374 -8.702160204 36.70265661
96.00026364 -43.40789598 134.5216026
148.1894646 -57.34336294 148.7499026
196.7946476 -2.498441938e-05 -98.85709139
90.08796964 -126.0289701 152.6549556
24.80708964 -56.1869795 -139.2500974
4.758027641 -30.09763514 148.7499026
0.0002636413374 -23.46500197 91.53167361
170.5335446 -43.72320687 -145.2500974
210.0734636 -2.498441938e-05 -53.57724039
83.03138864 -8.596272214 -139.2500974
78.55527164 -2.498441938e-05 123.4024656
91.81725264 -2.498441938e-05 -105.2573824
139.3856836 -24.90625076 -139.2500974
86.56962164 -28.53237489 -145.2500974
113.9913516 -2.498441938e-05 -86.01901839
100.0002636 -42.33079358 26.34621461
59.42799364 -2.498441938e-05 54.68627161
125.2064666 -2.498441938e-05 -12.17378939
113.8825916 2.470134456 -139.2500974
102.5011456 -14.74983384 -145.2500974
21.67011964 -5.984545704 -139.2500974
188.8459566 -2.498441938e-05 -61.56330839
75.96597464 -25.00412988 -139.2500974
91.31629964 -10.37606362 -139.2500974
0.0002636413374 -37.68481817 -115.0413824
106.7406656 -37.48974056 -139.2500974
91.85510264 -21.37491395 -139.2500974
0.0002636413374 -43.74343457 79.30455861
0.0002636413374 -4.836893964 -86.05067339
132.2651056 -14.19319316 -139.2500974
154.4602826 -2.498441938e-05 136.6777276
174.8086906 -2.498441938e-05 105.0097846
96.00026364 -82.27257292 56.92417861
28.44704164 -56.14629797 -145.2500974
96.00026364 -20.86179312 -113.1603964
208.6609906 -97.34002067 153.9353816
100.0002636 -37.57445129 -36.68509539
199.3693046 -2.498441938e-05 -79.53094639
0.0002636413374 -34.75257951 -17.41134039
43.76738364 -18.83281488 148.7499026
96.00026364 -28.94358231 125.0453506
39.12543364 -11.40883458 -145.2500974
173.9832636 -50.72037057 -145.2500974
142.9021866 -61.93538329 -145.2500974
100.0002636 -15.88282105 130.5694176
-2.065477359 -2.498441938e-05 -101.3717504
100.0002636 -44.46826556 -6.674130386
0.0002636413374 -111.8017762 128.6849266
207.5028636 0.5044154556 -139.2500974
26.90809064 -2.498441938e-05 -52.35458139
220.7903466 -42.24791304 148.7499026
240.1954796 -41.76068425 148.7499026
186.5260886 -2.498441938e-05 -30.17629339
130.3026076 -2.498441938e-05 128.9511336
100.0002636 -39.89263365 48.18371461
0.0002636413374 -13.77978561 -80.77169339
212.4697466 -46.80015449 -145.2500974
178.4325096 -2.498441938e-05 -95.77683239
0.0002636413374 -48.95590033 6.097625614
96.00026364 -39.10582988 107.0951736
218.3035086 -2.498441938e-05 50.37544161
54.52150564 -2.498441938e-05 122.8983956
99.30798664 -85.52857066 147.2499026
25.53730164 -10.58754504 148.7499026
96.00026364 -59.68184528 110.8174686
200.2538396 -66.82816877 148.7499026
64.73449264 -43.23819855 -139.2500974
0.0002636413374 -106.107305 115.6012736
122.2563706 -14.20087274 -145.2500974
176.9514556 -6.779912814 -145.2500974
100.0002636 -28.22178569 105.5084436
172.4629226 -64.88687577 148.7499026
0.0002636413374 -100.4602447 104.7223856
211.3296756 -2.498441938e-05 119.7591916
83.78663764 -2.498441938e-05 -99.93185839
3.456200641 -41.12171947 -145.2500974
158.7366486 -60.35260237 -145.2500974
96.00026364 -58.94174043 101.8854306
223.9490866 -49.84116951 -139.2500974
32.89997164 -14.24003939 148.7499026
244.8917216 -2.498441938e-05 -19.76529039
166.4879886 -2.498441938e-05 -63.36104739
22.35438964 -2.498441938e-05 86.90037961
54.14496064 -2.498441938e-05 68.99681161
233.5966186 -2.498441938e-05 -102.0665004
244.1334246 -37.41778648 -145.2500974
108.6459076 -2.498441938e-05 -6.980035386
96.00026364 -56.15967263 68.64164161
237.5151746 -70.97684725 154.1782786
49.40108364 -2.498441938e-05 -33.65070139
214.9367996 -2.498441938e-05 -124.0822294
174.3140466 -129.6567321 154.0461416
99.47136064 -73.49210656 148.7499026
17.34204064 -2.498441938e-05 144.7105806
118.3166236 -2.498441938e-05 -69.14237439
114.5872296 -2.498441938e-05 -125.3904414
0.0002636413374 -63.32744418 28.97494561
226.5739766 -2.498441938e-05 -81.77173839
195.1356026 -24.23551685 -139.2500974
35.52244264 -2.498441938e-05 -59.81665839
21.57684064 -12.3995848 -145.2500974
202.8581556 -16.26501816 -139.2500974
96.00026364 -55.87279045 -14.39040539
100.0002636 -63.24806012 79.14736261
134.1925286 -20.66960712 -139.2500974
0.0002636413374 -69.90264786 100.4537346
86.74468764 -102.3902581 148.7499026
11.51920964 -44.61958886 -139.2500974
146.5998736 -102.3211043 154.4604426
57.94010664 -57.90593703 -145.2500974
96.00026364 -45.51366066 101.5552886
135.2593736 -57.59763913 -139.2500974
113.1047156 -33.50493351 -139.2500974
0.0002636413374 -84.87072039 75.17101261
0.0002636413374 -60.97395619 -12.19067339
216.1081586 -16.50269059 -139.2500974
0.0002636413374 -4.216991144 103.1007376
26.10426164 -2.498441938e-05 9.620990614
0.0002636413374 -17.21625755 -69.25751839
245.1289616 -1.918753574 -139.2500974
0.0002636413374 -52.87229697 -70.71608739
0.0002636413374 -19.36295251 -29.69686039
40.49891864 -2.498441938e-05 20.44277361
203.5712406 -2.498441938e-05 17.04738561
176.1052456 -53.40681792 -139.2500974
70.08508564 -2.498441938e-05 18.10141661
92.93179864 -30.42101802 -145.2500974
0.0002636413374 -57.06859088 -58.00021639
100.0002636 -28.8053403 -80.14984139
0.0002636413374 -42.21776557 -33.32067739
-1.199651359 -2.498441938e-05 -43.17991339
97.10418764 -118.9298081 134.5600956
100.0002636 -20.43747198 118.4517996
0.0002636413374 -4.140962164 122.0729616
214.1119156 -2.498441938e-05 108.9177896
115.7201366 -95.56049667 148.7499026
231.9944416 -67.76277509 -139.2500974
228.6052036 -10.99594922 -145.2500974
96.00026364 -54.08103281 124.3973016
141.9608526 -37.25989833 -139.2500974
0.0002636413374 -10.0062658 -74.01880039
114.0008256 -2.498441938e-05 106.0273956
121.6840296 -36.9362912 -139.2500974
146.7303686 -2.498441938e-05 1.629909614
81.21697364 -60.18064661 148.7499026
201.9343716 -2.498441938e-05 -16.90917339
100.0002636 -31.78858642 -70.13391039
73.29777064 -31.06753463 -145.2500974
100.0002636 -25.3819802 -9.098132386
111.7911526 -80.84256942 148.7499026
100.0002636 -35.092841 9.162545614
121.0104246 -60.10183354 -145.2500974
185.4556616 -43.92158408 -145.2500974
0.0002636413374 -53.20767894 95.43199461
190.0072166 -2.498441938e-05 96.36196661
100.0002636 -5.530288784 76.32000161
182.1648086 -2.498441938e-05 104.5330486
100.0002636 -5.849896484 -60.17498439
192.2571666 -5.372950504 148.7499026
96.00026364 -34.73687874 78.25808661
96.00026364 -22.67107073 10.76661761
35.01020764 -2.498441938e-05 53.36977861
122.0618796 -39.69058088 148.7499026
104.9107006 -49.05166369 -139.2500974
206.5122736 -19.15277985 148.7499026
96.00026364 -42.06473177 -123.5490184
166.6799996 -32.84664867 -145.2500974
128.9549436 -2.498441938e-05 -79.67095139
219.1589206 -34.91769218 -145.2500974
187.5579536 -96.05147064 148.7499026
0.0002636413374 -119.7911816 138.6168776
227.3438626 -2.498441938e-05 -112.5796034
50.41040164 -2.498441938e-05 40.41410061
89.18547564 -2.498441938e-05 72.64123161
35.60757164 -26.93782993 -145.2500974
192.8865216 -2.498441938e-05 20.01001561
100.0002636 -15.45017583 58.57430961
0.0002636413374 -82.82211426 104.8741076
119.0793576 -53.12731375 152.1801836
0.0002636413374 -37.67824048 -89.94643439
127.8833606 -126.9963701 148.7499026
27.34354064 -32.05954136 -145.2500974
0.0002636413374 -69.50503046 140.0548256
0.0002636413374 -95.19282816 129.3413656
96.00026364 -36.38599735 -54.49450439
166.2292816 -28.4495588 -139.2500974
0.0002636413374 -41.7272138 -68.78371239
84.72937164 -2.498441938e-05 -58.09955539
53.39444464 -22.4166218 -145.2500974
4.628010641 -25.46824327 -139.2500974
96.00026364 -93.04257643 113.2695986
51.69372464 -2.498441938e-05 -117.0028984
0.0002636413374 -48.69729837 21.88185361
-1.570907359 -31.91524856 148.7499026
100.0002636 -33.85939788 -118.3694414
96.00026364 -47.43455214 -89.37958039
209.4629816 -2.498441938e-05 83.24713961
222.3363946 -27.88919903 -145.2500974
155.6176436 -5.094045214 -145.2500974
212.2798636 -2.498441938e-05 47.97864661
43.24722364 -29.78545862 -139.2500974
96.00026364 -14.06865608 -1.631516386
17.63056664 -16.18005232 148.7499026
219.5165116 -2.498441938e-05 -102.5005834
243.5808916 -2.498441938e-05 -88.29507139
0.0002636413374 -13.35272574 124.0999246
0.0002636413374 -96.36904327 97.36920161
186.9777146 -2.498441938e-05 -70.96093039
19.53069164 -2.498441938e-05 -90.35571539
114.6024446 -15.93007218 -145.2500974
96.76048764 -36.80818157 -139.2500974
100.0002636 -73.10969347 39.73121861
185.8667696 -2.498441938e-05 55.03815861
100.0002636 -30.31656251 37.64505261
41.90850564 -39.83021341 148.7499026
96.00026364 -87.04878612 64.59584261
0.0002636413374 -33.65677121 86.11696861
210.1003106 -2.498441938e-05 -128.3566774
100.0002636 -57.63683916 95.01593961
96.00026364 -17.20099839 24.28468561
215.4691216 -2.122249654 -145.2500974
71.64176864 -2.498441938e-05 118.9889526
102.9060386 -67.55168263 148.7499026
125.5383906 -2.498441938e-05 0.557122614
96.00026364 -61.59050927 22.61764661
0.0002636413374 -5.851742314 -0.237210386
121.4324486 -2.498441938e-05 67.19035961
100.0002636 -51.30396866 32.17688861
183.5252356 -2.498441938e-05 23.50348661
49.45782564 -65.55703424 -139.2500974
83.79231164 -24.10232403 -139.2500974
83.66547664 -2.498441938e-05 45.34870861
166.9127586 -2.498441938e-05 -126.6599374
100.0002636 -28.7111882 -100.6972904
0.0002636413374 -22.32430455 -80.91685039
0.0002636413374 -29.4364941 129.0684806
246.7392626 -2.498441938e-05 141.1638656
238.3356936 -19.33870433 -145.2500974
54.89081364 -2.498441938e-05 27.31287961
26.60077364 -2.498441938e-05 -29.64215739
0.0002636413374 -71.78688471 19.69464961
53.64387964 -2.498441938e-05 -100.6802404
74.47151564 1.577822706 -139.2500974
53.19490164 -2.498441938e-05 -83.55914939
83.15455364 -2.498441938e-05 -116.4019014
242.1841146 -2.498441938e-05 -5.885844386
251.8796456 -2.498441938e-05 70.16634161
220.3527216 -2.498441938e-05 22.00977161
186.7137686 -2.498441938e-05 32.81835761
104.6426546 -1.097507704 -145.2500974
147.8146156 -2.498441938e-05 38.44467761
11.94781564 -44.12143821 148.7499026
147.1873766 -2.498441938e-05 -8.032126386
100.0002636 -94.01467993 86.45093861
169.4554006 -2.498441938e-05 50.64341261
100.0675736 -56.40550882 148.7499026
100.0002636 -10.74517121 -13.91758439
0.0002636413374 -29.22844651 98.22246761
-1.205588359 -69.5800078 -21.34240439
0.0002636413374 -15.45608918 11.99684361
7.368881641 -69.30729372 148.7499026
62.43285764 -2.498441938e-05 125.3182266
100.3608146 -2.668763484 148.7499026
94.25112064 -60.22859533 -139.2500974
54.24618164 -43.73753422 -145.2500974
100.0002636 -95.29212128 75.56580061
224.5347986 -19.58696278 148.7499026
133.4195756 -2.498441938e-05 -35.20627839
211.6749676 -78.75192417 148.7499026
242.6461476 -1.829511714 148.7499026
0.0002636413374 -52.25948561 79.38714261
96.00026364 -24.80636315 116.1290426
0.0002636413374 -73.63479198 71.18783661
159.7036186 -49.10279554 -139.2500974
60.43948364 -4.982892914 148.7499026
0.0002636413374 -2.005580984 -72.80383239
134.7017656 -46.05123886 -139.2500974
129.4021196 -82.20391523 153.4386456
0.0002636413374 -31.8778768 62.69184661
-1.221239359 -27.28959326 -145.2500974
59.96108664 -11.0153239 -139.2500974
100.0002636 -79.54306748 85.55067061
96.00026364 -22.48966614 68.38520961
33.27254664 -29.37838642 -139.2500974
162.6439866 -3.010765274 -145.2500974
0.0002636413374 -45.87267977 134.0943886
90.09907864 -2.498441938e-05 129.8314536
67.04476964 -2.498441938e-05 -120.4398274
100.0002636 -54.85027545 -54.72445339
129.3009126 -51.60807947 -145.2500974
100.0002636 -84.76995151 140.9442936
33.88546364 -2.498441938e-05 21.60321461
96.00026364 -66.73278903 127.7244706
96.00026364 -97.03731471 104.1138056
96.00026364 -106.8802569 124.5563766
100.0002636 -12.1527618 23.95149461
96.00026364 -79.76793741 38.90845361
0.0002636413374 -6.240597714 46.34054161
96.00026364 -77.30007445 117.7744096
188.8105006 -2.498441938e-05 -121.8598704
179.6274186 -2.498441938e-05 65.48866461
96.00026364 -46.71228838 -26.04315139
131.8568636 -120.1532349 148.7499026
211.2179006 -63.25100857 148.7499026
143.0381566 -22.37123113 -145.2500974
88.97883664 -2.498441938e-05 -0.02436838603
210.6143706 -62.61264273 -145.2500974
26.27205564 -2.498441938e-05 -19.29211539
