# .PCD v0.7 - Point Cloud Data file format
VERSION 0.7
FIELDS x y z
SIZE 4 4 4
TYPE F F F
COUNT 1 1 1
WIDTH 1200
HEIGHT 1
VIEWPOINT 0 0 0 1 0 0 0
POINTS 1200
DATA ascii
-2.906693908e-06 13.40798499 -33.97921635
198.2515771 -2.498420187e-05 -19.64014535
214.5411291 26.21600249 -105.8869574
-2.906693908e-06 54.33607999 26.51905765
201.9175011 55.05728719 -105.8869574
78.05200409 -2.498420187e-05 81.64182065
143.3439921 6.776278566 -111.8869574
208.5435321 67.99997499 -106.3502444
-2.906693908e-06 12.07712929 13.38597665
115.2678191 -2.498420187e-05 -81.66518635
252.1210141 -2.498420187e-05 4.096050647
54.28355809 -2.498420187e-05 -65.26620635
211.2014811 -2.498420187e-05 -66.38537935
22.89306509 -2.498420187e-05 -91.08559835
237.4884551 -2.498420187e-05 44.12753465
130.2549671 -2.498420187e-05 20.26808365
109.0561111 -2.498420187e-05 27.98855765
32.69079209 -2.498420187e-05 -78.67071435
184.7153231 -2.498420187e-05 75.27826065
7.451744093 -2.498420187e-05 89.01491865
195.0116221 22.52578309 -105.8869574
128.5093881 67.11681109 -111.8869574
226.4497481 -2.498420187e-05 -92.25166935
-2.906693908e-06 21.12766749 55.33553365
121.3114041 -1.159706704 -105.8869574
214.7184781 -2.498420187e-05 50.52947465
57.36744309 -2.498420187e-05 -7.771892353
203.8325701 -2.498420187e-05 -84.35141535
133.0986001 -2.498420187e-05 -35.08568535
171.8191791 -2.498420187e-05 -35.46551635
29.37242409 25.91296719 -111.8869574
93.67191009 11.0274327 -105.8869574
41.56866009 -2.498420187e-05 -63.03218435
153.9268811 -2.498420187e-05 -93.13400235
156.0918741 -2.498420187e-05 -0.9890303526
199.8259171 -2.498420187e-05 -39.11484235
-0.6893379067 50.10548029 -111.8869574
96.60410209 -2.498420187e-05 -38.80157235
106.5933341 22.71195219 -105.8869574
95.07963009 -2.498420187e-05 82.53545565
115.0757411 -2.498420187e-05 51.59581365
79.90194709 11.24003344 -111.8869574
54.86652709 -2.498420187e-05 -82.24072735
99.20684709 -2.351086034 -77.25966935
237.5101601 -2.498420187e-05 82.56301065
-2.906693908e-06 17.74155679 27.96611565
-2.906693908e-06 47.71382249 100.6966926
-2.906693908e-06 65.12043759 113.3666216
139.4726071 29.34602509 -111.8869574
151.9235781 -2.498420187e-05 -32.92168635
160.5823051 -2.498420187e-05 88.49562165
71.40313809 -2.498420187e-05 -55.34230735
-2.906693908e-06 65.09162459 69.39469065
25.15691609 -2.498420187e-05 -102.5424054
70.10015309 20.90825499 -105.8869574
-2.906693908e-06 11.33670231 -69.91468835
23.26854709 -2.498420187e-05 -24.59535535
-2.906693908e-06 24.59673709 70.47604465
15.34687709 13.49010519 -105.8869574
28.67873209 47.87721869 -105.8869574
237.5147671 -2.498420187e-05 -62.75588235
120.4262801 -2.498420187e-05 70.43883465
57.76235109 10.39451075 -105.8869574
-2.906693908e-06 14.61765629 -99.28592435
-0.8957009067 50.49997499 -98.98258135
48.32929709 -2.498420187e-05 11.01885065
94.98949909 41.21608329 -105.8869574
51.84362909 55.99252119 -105.8869574
89.33815309 -2.498420187e-05 -22.93949535
36.07511509 -2.498420187e-05 -33.89543035
222.0566801 50.53192719 -111.8869574
24.29328109 -2.498420187e-05 61.28327165
184.0306391 -2.498420187e-05 92.21600065
64.77013109 0.6711992158 -105.8869574
219.6158251 66.83096009 -111.8869574
239.7794841 64.38654809 -111.8869574
235.7044591 43.78226369 -111.8869574
189.3552071 3.967442186 -105.8869574
161.6669271 45.94856259 -111.8869574
148.3396171 -2.498420187e-05 16.12997865
47.84500009 -2.498420187e-05 -50.46106835
72.03906309 -2.498420187e-05 56.06571065
168.6904171 65.94047069 -111.8869574
219.8105941 -2.498420187e-05 -31.54181035
73.53535709 -2.498420187e-05 -98.38032635
161.9256141 -2.498420187e-05 -12.14675135
250.7137231 -2.498420187e-05 -78.24328635
225.2060301 -2.498420187e-05 30.16608965
5.764758093 -2.498420187e-05 70.57632765
2.800157093 -2.498420187e-05 13.63642665
-2.906693908e-06 10.45794927 -45.31254035
163.3026371 -2.498420187e-05 -59.83394435
135.2266911 -2.498420187e-05 -14.76391335
9.219577093 -2.498420187e-05 -34.09668535
196.8993771 38.23319529 -111.8869574
25.76102409 -2.498420187e-05 3.504126647
83.25210509 -2.498420187e-05 28.09092565
71.80494209 -2.498420187e-05 -10.30916335
120.6617491 -2.498420187e-05 25.55055165
70.77644109 61.34149299 -111.8869574
152.0939961 -2.498420187e-05 -51.12086035
209.8056111 -2.498420187e-05 -11.36205335
78.19652909 -2.498420187e-05 -66.89842135
48.49891609 10.69001867 -111.8869574
218.4976201 34.49822539 -111.8869574
105.2762521 -0.2114573942 -105.8869574
226.0356421 -2.498420187e-05 79.84936965
102.9128921 -2.498420187e-05 -55.25364835
197.1448991 -2.498420187e-05 8.902294647
88.35575309 -2.498420187e-05 18.70762865
127.1564451 -2.498420187e-05 44.75164465
49.52191209 -2.498420187e-05 -102.0487874
-2.906693908e-06 24.04306479 103.9637796
225.9181801 -2.498420187e-05 -40.58503335
136.2136211 -2.498420187e-05 -71.83595335
179.5456941 -2.498420187e-05 -100.9148334
74.49061209 39.80238079 -111.8869574
162.0788131 -2.498420187e-05 65.44838765
84.22232809 58.57117789 -111.8869574
179.4625881 49.46147949 -105.8869574
209.0922121 -2.498420187e-05 10.00990165
16.85983809 -2.498420187e-05 94.06368365
174.2836971 -2.498420187e-05 72.40020865
84.61974709 -2.498420187e-05 -79.93757535
211.2058791 -2.498420187e-05 25.39910065
158.6886491 -2.498420187e-05 -22.82197235
114.0973951 -2.365105604 94.11304265
158.7603681 -2.498420187e-05 -72.36561735
155.8459201 -2.498420187e-05 44.01183765
249.3047611 -2.498420187e-05 37.13666265
137.2973541 -2.498420187e-05 87.35176865
90.88769009 -2.498420187e-05 70.75727665
176.3484751 -2.498420187e-05 47.83924765
78.25168209 23.25138029 -111.8869574
26.66948009 -2.498420187e-05 -44.20101735
171.9090551 32.19281049 -105.8869574
174.0091451 -2.498420187e-05 83.05670665
51.10301109 -2.498420187e-05 40.93423465
221.5494421 3.502034676 -111.8869574
58.35748409 37.13589529 -105.8869574
10.05669809 -2.498420187e-05 20.84859765
149.1983781 15.27153179 -111.8869574
135.6225161 -2.498420187e-05 11.56425665
147.9522631 -2.498420187e-05 54.33998165
15.68353609 -2.498420187e-05 66.72634165
81.38081509 -2.498420187e-05 10.30849665
-2.906693908e-06 57.87128499 85.06863865
11.39071309 -1.852635464 -111.8869574
160.5339401 -2.498420187e-05 8.140717647
230.3684461 -2.498420187e-05 -82.93488835
250.3016411 -2.498420187e-05 -95.67027535
35.75374309 58.62247779 -111.8869574
14.43333009 -2.498420187e-05 -3.553170353
32.67419809 -2.498420187e-05 15.63002365
134.0712221 10.84401604 -111.8869574
246.7877111 -2.498420187e-05 76.12509965
224.4994911 58.95163479 -105.8869574
127.9119161 51.50589189 -105.8869574
220.7802411 -2.498420187e-05 58.44100265
248.4555071 -2.498420187e-05 -5.421565353
-2.906693908e-06 5.783987176 91.93030865
194.1023401 -2.498420187e-05 -59.40486335
136.6137911 -2.498420187e-05 -84.31333335
143.4654991 -2.498420187e-05 70.60077165
133.2089431 -2.498420187e-05 -95.66559035
13.15419409 -2.498420187e-05 -91.58426335
62.72791909 -2.498420187e-05 32.54048765
102.1958881 -2.498420187e-05 -94.07185535
11.55569409 62.57421559 -111.8869574
114.9866701 7.611219256 -105.8869574
-2.906693908e-06 63.87224599 93.18014365
11.32918109 34.37964669 -105.8869574
13.37570509 -2.498420187e-05 -71.18998835
198.9477101 47.67967209 -111.8869574
194.2825871 -2.498420187e-05 73.92913065
154.3580401 -2.498420187e-05 78.28962265
172.9080621 -2.498420187e-05 58.30658765
52.05051809 32.33204589 -111.8869574
-2.906693908e-06 37.07441649 12.26342365
-2.906693908e-06 51.94963109 48.92444465
65.48138209 66.63644999 -105.8869574
141.0629581 38.80686289 -111.8869574
77.08555009 -2.498420187e-05 92.53381565
149.0798001 55.53815089 -111.8869574
250.7734851 -2.498420187e-05 -28.90045735
6.599090093 19.39802449 -105.8869574
220.8645431 -2.498420187e-05 -69.37065835
209.8722941 -2.498420187e-05 -75.83375835
121.0974711 67.25560939 -105.8869574
212.1854671 -2.498420187e-05 -52.46716135
166.2412121 24.42424589 -105.8869574
-2.906693908e-06 9.561569716 77.39188265
244.6095451 -2.498420187e-05 60.32293065
106.8219541 -2.498420187e-05 56.32115165
84.86245809 -2.498420187e-05 -56.45516035
110.3105521 -2.498420187e-05 -12.05814535
141.9705331 58.08992059 -105.8869574
37.80642809 22.14320079 -105.8869574
-2.906693908e-06 11.68962601 56.27867365
227.9047011 -2.498420187e-05 7.382233647
206.5020121 -2.498420187e-05 70.62045665
44.27683409 -1.101327834 -111.8869574
141.6926801 47.43788539 -105.8869574
86.93541509 37.44968729 -111.8869574
-2.906693908e-06 39.36004319 -82.32860135
252.3130351 -2.498420187e-05 -52.79622435
-2.906693908e-06 21.32027139 -78.97178435
113.6960551 54.81171509 -105.8869574
247.7660001 9.450953666 -111.8869574
194.5575441 -2.498420187e-05 -85.41876635
177.7975681 -2.498420187e-05 16.35321865
115.8166201 21.48415579 -105.8869574
21.06452809 24.67733069 -105.8869574
121.2533781 -2.498420187e-05 -66.07840235
44.39562509 -2.498420187e-05 0.6269256474
-2.906693908e-06 9.512950076 -79.00685635
68.74887909 -2.498420187e-05 25.09072065
98.11474309 34.91201289 -111.8869574
241.4276101 35.16997569 -111.8869574
222.0770271 23.77205939 -111.8869574
34.42315609 4.631802616 -111.8869574
42.61156409 42.03604639 -111.8869574
96.08465209 48.04839719 -111.8869574
53.77260309 -2.498420187e-05 59.59978665
217.1485601 -2.498420187e-05 -89.87115335
60.25626109 50.87557519 -111.8869574
0.2688050933 -2.498420187e-05 34.64795365
173.5384301 -2.498420187e-05 -83.20241735
36.22980909 -1.392138154 94.11304265
-2.906693908e-06 33.58439239 103.1722876
-2.906693908e-06 57.63280369 108.1775656
205.8913001 10.90901671 -105.8869574
213.8757111 -2.498420187e-05 -23.57179035
11.05651109 46.83211259 -105.8869574
100.2218081 -2.498420187e-05 -12.37646935
23.31499309 -2.498420187e-05 75.58457265
241.9314951 -2.498420187e-05 -52.01718035
163.7740621 -2.498420187e-05 -49.23776335
73.60512109 52.92322549 -105.8869574
-0.1762349067 0.9999750158 -15.98820335
200.6280931 4.761340996 -111.8869574
21.79769809 31.81861899 -111.8869574
108.4134111 -2.498420187e-05 9.014657647
126.1277461 11.3886246 -105.8869574
121.6012341 -2.498420187e-05 -96.11424735
245.5397741 49.88199989 -105.8869574
195.0710471 -2.392843094 94.11304265
243.3674331 -2.498420187e-05 1.970680647
171.6064711 -1.937724444 8.509145647
6.419463093 4.392670946 -105.8869574
85.02930709 -2.498420187e-05 2.127026647
51.78704209 64.94955469 -105.8869574
137.4303451 67.90880049 -111.8869574
-2.906693908e-06 42.95754629 -2.632290353
20.47154509 -2.498420187e-05 42.11080565
161.4460751 37.35435909 -105.8869574
63.47536609 -2.498420187e-05 -78.86644635
57.08038309 -2.498420187e-05 89.82282465
162.9207721 -2.498420187e-05 28.18872565
67.59770209 -2.498420187e-05 47.75015065
195.2499781 58.71126539 -111.8869574
83.16656409 -2.498420187e-05 -89.10552035
244.0192631 -2.498420187e-05 -68.82369635
151.7592411 -2.498420187e-05 -102.4032404
37.26237409 35.15603259 -105.8869574
-2.906693908e-06 22.55441119 -64.81467635
172.6558901 25.33931069 -111.8869574
67.90104609 -2.498420187e-05 -27.99267035
98.99310509 -2.498420187e-05 24.17751665
110.2337501 15.45091189 -111.8869574
243.5652721 -0.2042256942 -111.8869574
-2.906693908e-06 39.13936869 95.76474465
225.9214721 -2.498420187e-05 88.61469065
204.9316851 62.28030169 -111.8869574
-2.906693908e-06 29.40546089 77.77324165
235.2666701 22.66415499 -105.8869574
-2.906693908e-06 19.71669469 -45.14886735
83.38415209 67.86851409 -111.8869574
170.9232941 47.70378649 -111.8869574
209.9794401 49.20297579 -111.8869574
112.8746441 -2.498420187e-05 -37.37963435
223.7971011 13.53150769 -111.8869574
242.7640071 -2.498420187e-05 90.85172165
168.2045301 -2.498420187e-05 -104.2532364
127.4578431 41.83591059 -111.8869574
234.9128471 37.57833959 -105.8869574
233.4694811 -2.498420187e-05 33.75903365
216.7184311 17.83650449 -105.8869574
136.9938181 -2.498420187e-05 -6.298311353
36.41465909 -2.498420187e-05 -42.53465635
-2.906693908e-06 37.88580769 -93.42545535
64.34381509 -2.498420187e-05 -63.74263835
209.6278861 -2.498420187e-05 84.55753565
-2.906693908e-06 18.23018499 -8.165672353
-2.906693908e-06 67.51167189 39.48003365
14.86475609 6.020960336 -111.8869574
23.58028709 -2.498420187e-05 -75.62121035
99.78085009 -2.498420187e-05 -30.82021635
74.29544109 30.11255689 -105.8869574
82.68850309 41.85580549 -105.8869574
241.1422801 -2.498420187e-05 68.15308365
63.30176909 18.58857359 -111.8869574
197.8771971 -2.498420187e-05 -28.17859435
8.005285093 -2.498420187e-05 6.864935647
158.0318171 15.44301239 -105.8869574
-2.906693908e-06 8.549904676 -53.62265635
54.08619409 -2.498420187e-05 -31.30504235
161.6155681 -2.498420187e-05 -88.86367635
-2.906693908e-06 9.949491386 -6.243808353
-2.906693908e-06 -0.3802810342 112.7519346
143.8160011 -2.498420187e-05 33.47514765
227.4891541 -2.498420187e-05 -52.34022435
74.23976409 9.317835436 -105.8869574
0.7725120933 60.01333799 -111.8869574
31.23661309 14.60887039 -105.8869574
99.19715609 8.791136576 -111.8869574
97.21471609 -2.498420187e-05 -61.49133535
82.79112309 -2.498420187e-05 -97.53538235
85.89313909 -2.498420187e-05 -32.47858735
53.08554809 -2.498420187e-05 4.051526647
85.77004009 -2.498420187e-05 -42.75039935
-0.2784169067 32.88379509 -104.8869574
99.85219109 59.42855569 -111.8869574
228.3457141 34.81637499 -111.8869574
-2.906693908e-06 22.78776559 -101.9825734
54.57478009 -2.498420187e-05 -17.54482335
89.45184309 15.64408999 -111.8869574
12.50328209 -2.498420187e-05 -14.92928135
186.8157281 9.810258426 -111.8869574
240.1242171 -2.498420187e-05 -5.845033353
160.0851891 -2.498420187e-05 36.83060065
238.6415841 -2.498420187e-05 -35.10642635
97.13680209 -2.498420187e-05 2.372049647
105.4840031 30.84134029 -111.8869574
-2.906693908e-06 13.76506479 48.20733065
175.9361981 -2.498420187e-05 -25.39407935
107.0930711 -2.498420187e-05 39.51653665
-2.906693908e-06 52.82167919 38.60791365
250.0654541 18.33348669 -111.8869574
185.2820371 -2.498420187e-05 83.56682365
47.04413809 52.84403259 -111.8869574
7.179791093 -2.498420187e-05 61.50226365
129.7358931 -2.498420187e-05 -43.87073035
179.9378201 33.37141119 -111.8869574
82.74856009 -2.498420187e-05 -16.15719635
193.2169141 -2.498420187e-05 1.683180647
171.5234231 16.38576469 -105.8869574
195.0112241 32.95112549 -105.8869574
115.3768701 -2.498420187e-05 -19.87271035
181.9696741 14.35475819 -105.8869574
221.1530361 -2.498420187e-05 72.70365065
232.3847541 17.08750759 -111.8869574
111.0812771 65.73733429 -111.8869574
-2.906693908e-06 54.94138809 96.86511765
115.9679971 -2.498420187e-05 -46.02059635
-2.906693908e-06 39.70544599 55.96180565
-2.906693908e-06 7.419315776 -62.79336435
119.4348711 4.412476876 -111.8869574
-2.906693908e-06 48.20358529 9.840877647
31.29079609 -2.498420187e-05 80.74855365
92.13440909 33.62411619 -105.8869574
185.2469631 26.61726139 -111.8869574
5.787117093 -2.498420187e-05 -77.33667235
235.8783211 2.350829556 -105.8869574
239.9771241 29.24102129 -105.8869574
-2.906693908e-06 60.11543089 7.588236647
128.4250691 61.70857709 -105.8869574
195.5818861 -1.141326674 -105.8869574
87.51688809 48.49606319 -105.8869574
178.1311931 -2.164554264 2.711919647
89.98348909 -2.498420187e-05 62.76190065
238.0643551 13.51055639 -105.8869574
43.71305309 16.10303209 -105.8869574
68.91716309 -2.498420187e-05 12.76527665
235.9819771 -2.498420187e-05 7.218779647
-2.906693908e-06 33.55378189 -6.855879353
140.0627151 0.1390006758 -105.8869574
202.8061831 -2.498420187e-05 33.54231265
74.63367709 -2.424406544 -105.8869574
-2.906693908e-06 42.16506689 45.90471565
-2.906693908e-06 27.12431569 2.391886647
-2.906693908e-06 15.74242729 -26.38634235
-2.906693908e-06 49.70374799 81.09807965
152.2049941 64.46730829 -105.8869574
199.9407281 42.59675259 -105.8869574
-2.906693908e-06 21.64273199 8.352625647
-1.953925907 0.9999750158 69.10500765
87.63051509 -2.498420187e-05 79.85679665
24.53047609 55.66519359 -105.8869574
224.4296671 -2.498420187e-05 51.44025965
112.6262071 40.12895849 -105.8869574
69.09225009 3.465464206 -111.8869574
199.9086401 21.04100719 -111.8869574
178.0987921 54.37412639 -111.8869574
245.3540391 -2.498420187e-05 44.39785865
26.40089709 40.35035249 -105.8869574
211.1195451 22.46819649 -111.8869574
199.7680701 -2.498420187e-05 -46.96005735
33.17223609 -2.498420187e-05 -70.84068135
51.20026009 -2.498420187e-05 73.36990465
113.3347781 -2.498420187e-05 -105.0752314
-2.906693908e-06 42.35652969 24.67077365
91.53717909 -2.498420187e-05 39.41578265
-2.906693908e-06 15.19599389 108.0493516
17.24175209 -2.498420187e-05 84.73588865
211.7232881 33.48394609 -105.8869574
-2.906693908e-06 32.37385859 39.64724965
188.2559341 18.77521859 -111.8869574
100.8196131 49.84759089 -105.8869574
201.0048221 -2.498420187e-05 87.12765965
121.1128391 43.69831809 -105.8869574
-2.906693908e-06 51.90187569 64.95340365
217.1517131 50.89161669 -105.8869574
141.1699581 -2.498420187e-05 -58.43227535
46.10272509 -2.498420187e-05 58.46856265
159.7685761 -2.498420187e-05 -98.19757535
127.7442111 -2.498420187e-05 -101.7705824
156.3275571 -2.498420187e-05 70.59627365
194.2921211 -2.498420187e-05 46.33299365
-2.906693908e-06 25.14461329 -52.18398335
244.6616861 66.59156039 -105.8869574
249.5398161 24.55067549 -105.8869574
-2.441034907 -2.498420187e-05 -48.60472535
230.4213251 49.38932489 -111.8869574
70.40765709 -2.498420187e-05 -43.37107335
-2.906693908e-06 28.51783069 57.47577465
166.5962181 8.459717406 -105.8869574
31.86076609 -2.498420187e-05 52.87144565
114.4852681 -2.498420187e-05 -90.16397735
57.57147709 18.05339969 -105.8869574
101.0983381 19.68246699 -111.8869574
137.5609371 7.646297066 -105.8869574
216.8123691 44.98690829 -111.8869574
32.40420709 50.75479799 -111.8869574
52.65789809 -2.498420187e-05 -92.67258435
28.59422109 61.61406949 -111.8869574
188.2168921 -2.498420187e-05 26.65772965
-2.906693908e-06 7.254724346 -21.91193335
150.5562731 -2.498420187e-05 -40.37968035
105.6556321 57.25690049 -105.8869574
234.0201851 -2.498420187e-05 -98.77835935
180.1231191 37.97094179 -105.8869574
144.9631811 13.48718709 -105.8869574
170.5268881 6.030953476 -111.8869574
121.1004651 56.20741479 -105.8869574
96.07408709 -2.498420187e-05 55.83366865
67.91130209 -2.498420187e-05 74.81837765
229.9537881 28.97953159 -105.8869574
195.8068831 27.33246489 -111.8869574
113.9108051 -2.498420187e-05 82.69195065
21.15383909 -2.498420187e-05 25.50168165
188.4989801 65.91878689 -111.8869574
139.4853441 33.81465989 -105.8869574
5.619672093 -2.498420187e-05 42.78573065
100.1158781 -2.498420187e-05 35.27064365
127.0522731 -2.498420187e-05 -16.47742035
28.63900709 -2.498420187e-05 -11.80419835
76.05311909 -2.498420187e-05 -38.02166035
122.6921491 28.86029829 -111.8869574
187.6846221 61.55439539 -105.8869574
44.16146609 23.66794229 -111.8869574
241.6496601 40.64285859 -105.8869574
178.1379661 28.23522729 -105.8869574
164.6665571 -2.488481214 94.11304265
92.62018709 -2.498420187e-05 -79.59331935
20.43588609 36.04934539 -105.8869574
64.70534909 56.71561359 -111.8869574
105.2873301 44.03586009 -105.8869574
126.8625151 -2.498420187e-05 13.77049965
46.54830109 43.51194489 -105.8869574
144.1796501 -0.6061588242 -111.8869574
117.0314981 -2.498420187e-05 7.715808647
158.6077171 60.97812519 -105.8869574
123.0378521 20.52460109 -105.8869574
30.03431209 -2.498420187e-05 -94.24943835
53.51699109 18.70412549 -111.8869574
81.21126709 -2.498420187e-05 42.01626365
217.3825361 -2.498420187e-05 -5.829922353
54.59670509 -2.498420187e-05 -41.49842235
141.9509691 -2.498420187e-05 -37.37956335
38.68154609 -2.498420187e-05 -97.40514235
110.1787321 43.56464939 -111.8869574
-2.906693908e-06 21.29771009 -15.79668335
228.5399581 59.26441819 -111.8869574
127.0908231 55.47422419 -111.8869574
111.2842451 -2.498420187e-05 16.22210465
177.5331891 4.213071126 -111.8869574
165.6769991 45.44292329 -105.8869574
97.78983909 17.36207199 -105.8869574
186.5492441 -2.498420187e-05 -9.030248353
-2.906693908e-06 34.34861339 72.49195465
216.8525051 -2.498420187e-05 84.88779865
22.16695809 -2.498420187e-05 -51.06329435
147.4974981 51.83303249 -105.8869574
77.41855209 36.62926249 -105.8869574
224.4934821 -2.498420187e-05 -26.03896935
122.0151481 37.08638059 -111.8869574
-2.906693908e-06 32.41030849 -80.36780435
107.1641741 -2.498420187e-05 49.11616365
89.54546309 -2.498420187e-05 -6.735650353
215.5835151 -2.498420187e-05 -99.03809235
-2.906693908e-06 45.79912449 68.71426365
75.92209909 60.76756649 -105.8869574
179.2095871 -2.498420187e-05 -55.32685235
78.52965209 -2.154825454 -111.8869574
-2.906693908e-06 24.58236229 34.85613765
83.59854409 -2.498420187e-05 -72.86362835
-2.906693908e-06 30.66838339 114.5596656
-2.102218907 -2.498420187e-05 88.13351065
190.2378291 -2.498420187e-05 -76.95998535
44.92987909 62.43725059 -105.8869574
83.72296909 11.4066442 -105.8869574
158.9302741 23.88773479 -111.8869574
115.5126651 -2.498420187e-05 30.93368865
-2.906693908e-06 63.39123769 24.13911765
121.4185641 -2.498420187e-05 88.23072465
165.0321461 65.08601989 -105.8869574
6.563247093 -2.498420187e-05 54.35145565
56.50671109 -2.498420187e-05 66.74278565
240.5868101 25.40736809 -111.8869574
148.7385451 65.81241239 -111.8869574
136.2948361 44.01151939 -111.8869574
3.650557093 21.61885769 -111.8869574
30.78841009 -2.498420187e-05 -29.29104835
245.6523711 -2.498420187e-05 8.595506647
62.08283609 3.096515586 -111.8869574
-2.906693908e-06 46.60500529 110.3230296
28.04060709 -2.498420187e-05 -86.34479135
-2.906693908e-06 11.04009837 25.59387765
-2.906693908e-06 1.463327096 -35.69835935
12.14092709 50.24106549 -111.8869574
124.2122561 -2.498420187e-05 -48.13718035
110.5777051 58.78005639 -111.8869574
172.7978221 65.74133229 -105.8869574
241.9977101 16.21968769 -111.8869574
6.517940093 12.11394999 -111.8869574
221.1740871 6.986361886 -105.8869574
90.71409809 -1.579397344 -105.8869574
15.91168809 -2.498420187e-05 36.88143965
17.12163409 56.48706179 -105.8869574
107.0948691 -2.498420187e-05 2.212339647
204.0770011 43.03029759 -111.8869574
-2.906693908e-06 8.046132656 -28.77643235
35.25559009 7.941015826 -105.8869574
138.8836361 -2.498420187e-05 52.72364765
7.027135093 -2.471509834 -105.8869574
54.66640809 -2.498420187e-05 14.71649665
11.11113509 27.20986999 -105.8869574
215.0145921 -2.498420187e-05 -60.67202435
137.4578281 63.23659499 -105.8869574
6.786020093 42.91966459 -111.8869574
75.54199409 -2.498420187e-05 31.69385265
238.2217981 -2.498420187e-05 57.84255465
170.2587811 -2.498420187e-05 -59.25934335
233.7508261 -2.498420187e-05 49.85366165
56.08095509 -2.498420187e-05 -103.9428344
63.36207709 -2.498420187e-05 -43.20289035
107.3041961 -1.866077464 94.11304265
201.3742101 -2.498420187e-05 62.33768865
239.7611961 56.78102609 -105.8869574
207.3497451 59.15127059 -105.8869574
191.2703861 16.86055929 -105.8869574
34.78668209 -2.498420187e-05 -62.82367235
-2.011074907 -2.498420187e-05 -9.535711353
240.1680901 -2.498420187e-05 -43.91412035
135.4131931 -2.498420187e-05 32.99577765
20.81047209 62.16659759 -105.8869574
38.92452309 -2.498420187e-05 52.20880065
206.9799451 -2.498420187e-05 -48.14818535
5.880448093 -2.498420187e-05 -84.30373335
152.9679491 30.08442089 -111.8869574
192.8382551 50.52794229 -111.8869574
130.9124931 6.534783096 -105.8869574
-2.906693908e-06 32.51516659 87.72351165
83.38627209 -2.498420187e-05 55.57829865
228.8295251 -2.498420187e-05 -66.18436035
230.3181781 -2.498420187e-05 -9.828488353
-0.06827090669 -2.399389284 -105.8869574
118.2915001 49.80385109 -105.8869574
162.0352091 52.66030459 -111.8869574
39.30570209 45.49745979 -105.8869574
149.4935711 -2.498420187e-05 73.54639665
-2.179685907 47.51140019 -105.8869574
173.0730281 42.25606849 -105.8869574
60.67079609 9.759388726 -111.8869574
164.6159431 35.45784089 -111.8869574
-2.906693908e-06 7.100956126 48.79762865
29.94335209 9.599578616 -111.8869574
226.7109121 -2.498420187e-05 -0.3207203526
57.29842709 -2.498420187e-05 76.04670365
-2.906693908e-06 2.220191256 8.016856647
83.99954309 -2.498420187e-05 -49.16490935
168.1775651 -2.498420187e-05 -9.869254353
126.4352411 -2.498420187e-05 -61.90693235
-1.773425907 67.87545189 14.58419365
104.8229061 -2.498420187e-05 65.00480065
210.2390901 29.15796689 -111.8869574
60.35768509 -2.498420187e-05 84.04719465
67.37903209 28.71553219 -105.8869574
245.8212541 -2.498420187e-05 -20.35009835
59.95916909 -2.498420187e-05 -86.44875835
41.03937309 -2.498420187e-05 66.67267065
28.53525109 -2.498420187e-05 -57.47656935
166.8122221 -2.498420187e-05 -31.16431835
-2.906693908e-06 44.18860519 31.01136165
-2.906693908e-06 46.84441989 3.385340647
219.8706791 -2.498420187e-05 37.57413165
41.00603809 4.857568686 -111.8869574
206.2693461 48.41141029 -105.8869574
66.98643409 -2.498420187e-05 -99.03134335
249.4608601 59.77337549 -111.8869574
16.14577409 20.01038309 -105.8869574
173.4057661 58.96761169 -111.8869574
92.64869109 24.91714429 -105.8869574
153.1930241 -2.498420187e-05 23.77328965
53.15825309 -2.498420187e-05 -75.91241435
155.7048231 14.21618389 -111.8869574
224.1822121 -2.498420187e-05 -85.07697835
84.99311609 61.05182119 -105.8869574
95.26848209 63.98343529 -105.8869574
148.8567751 -2.498420187e-05 -27.15280935
148.6775411 42.56813889 -105.8869574
42.27779809 58.45167299 -111.8869574
171.2965151 -2.498420187e-05 51.97008565
222.3300661 65.10019009 -105.8869574
189.5986181 10.47896369 -105.8869574
144.1188931 59.74872139 -111.8869574
-2.906693908e-06 63.62144349 51.76658465
83.37937809 -2.498420187e-05 74.95177465
120.6272891 -2.498420187e-05 -14.88884035
247.8801191 -2.498420187e-05 22.27221565
82.96133709 3.197846966 -111.8869574
-2.906693908e-06 53.52282789 55.23960265
9.249839093 33.12072419 -111.8869574
45.92566709 -2.498420187e-05 -20.28487535
142.0262671 -2.498420187e-05 12.44095565
-2.906693908e-06 58.55192989 74.01283365
18.26420109 -2.498420187e-05 -86.55311235
240.2585551 -2.498420187e-05 36.68076665
116.0141111 11.76260128 -111.8869574
-2.906693908e-06 6.044677196 1.795078647
121.1392291 -2.498420187e-05 76.83402765
-2.906693908e-06 58.46754269 63.39833265
131.6236021 -2.498420187e-05 59.76276465
136.3260021 21.36492649 -111.8869574
202.7597291 4.087384426 -105.8869574
91.22326409 -2.498420187e-05 -0.06842435259
26.59506509 54.89176519 -111.8869574
75.84063609 49.12425819 -111.8869574
194.3788751 48.99484369 -105.8869574
-2.906693908e-06 35.01263639 26.50663865
71.82359209 3.416744776 -105.8869574
214.8468191 11.74777316 -105.8869574
169.7048681 30.98269889 -111.8869574
68.39830809 47.92893459 -111.8869574
65.68490309 -2.498420187e-05 55.77093065
133.1779091 -2.498420187e-05 4.050849647
51.07722909 66.92392999 -111.8869574
1.701594093 -2.498420187e-05 75.45897465
19.76164109 -0.1642092242 -105.8869574
202.4708521 53.05662649 -111.8869574
70.60665709 -2.498420187e-05 -4.077107353
33.84282309 57.83648309 -105.8869574
150.1839651 -2.498420187e-05 10.05906165
58.51798909 -2.498420187e-05 0.7816216474
222.5062961 56.85088149 -111.8869574
161.8737361 -2.498420187e-05 -104.3639424
-2.906693908e-06 51.69939399 105.9817056
-2.906693908e-06 29.38808459 108.3653056
69.29464509 -2.498420187e-05 88.03450565
150.3439861 -2.498420187e-05 -87.92508535
37.44247309 -2.498420187e-05 -82.82859135
135.3793331 57.26261689 -105.8869574
99.94132709 -2.498420187e-05 69.10766465
190.7021661 -2.498420187e-05 -16.58248935
-2.906693908e-06 34.44370939 -98.69843535
135.8342081 61.81783619 -111.8869574
15.04913209 -2.498420187e-05 17.01264565
17.83137609 66.01682219 -111.8869574
123.5765251 -2.498420187e-05 53.80437165
3.701662093 -2.498420187e-05 -52.05423835
3.450719093 -2.498420187e-05 20.54379565
0.3888690933 61.80719949 -105.8869574
220.3839091 23.06743539 -105.8869574
100.8616221 26.60192989 -111.8869574
59.01322609 43.36510309 -105.8869574
78.86116909 -2.498420187e-05 -77.48379735
148.4218551 22.87662099 -111.8869574
31.06087609 31.93637789 -111.8869574
-2.906693908e-06 4.806866136 98.10360165
52.31454109 -2.498420187e-05 -11.72163235
169.4422411 -2.498420187e-05 87.31251865
158.2056771 -2.498420187e-05 -34.98404935
-2.906693908e-06 62.82036719 35.36849065
204.9998411 -2.498420187e-05 -71.94022035
219.9314651 -2.498420187e-05 -103.9624684
187.8017811 33.21878699 -111.8869574
-2.906693908e-06 30.22945649 18.90683165
140.4234331 40.33328149 -105.8869574
43.21497509 36.97104249 -105.8869574
54.36975909 52.88878949 -111.8869574
-2.906693908e-06 2.934737036 40.27263665
16.01433209 43.09197239 -105.8869574
143.5356311 48.66618369 -111.8869574
2.471035093 38.46578169 -111.8869574
85.92686609 54.48474299 -105.8869574
236.2096571 0.8553273158 -111.8869574
213.2111471 -2.498420187e-05 -16.53253735
29.20049309 -2.498420187e-05 8.651629647
49.14754609 9.336715596 -105.8869574
36.49270509 67.99997499 -106.1586254
120.0622041 -2.498420187e-05 -87.51028635
-2.906693908e-06 56.80134649 32.17991265
178.7717421 26.93294219 -111.8869574
230.0416921 40.74782359 -111.8869574
119.1049601 -2.498420187e-05 46.93625265
61.99439709 30.07301969 -111.8869574
67.25820809 66.38532469 -111.8869574
88.74186409 40.78403039 -105.8869574
208.4102671 25.78067779 -105.8869574
48.70880609 -2.498420187e-05 25.39261465
168.2663991 55.63275769 -111.8869574
199.3688321 18.22933339 -105.8869574
20.90598209 23.49003299 -111.8869574
109.9537361 -2.498420187e-05 34.11279365
241.6304311 45.27128559 -111.8869574
3.018989093 -2.498420187e-05 93.21475865
99.17211609 7.728122976 -105.8869574
-2.906693908e-06 25.46531609 97.57923065
76.24191109 -2.498420187e-05 71.47935565
120.1843811 66.82657349 -111.8869574
-2.906693908e-06 1.432672666 28.70338665
-2.906693908e-06 5.556493886 -88.40194935
125.0607111 29.00915709 -105.8869574
-2.906693908e-06 11.68438975 19.55980965
251.5308321 34.10858869 -111.8869574
5.733515093 4.664674756 -111.8869574
122.7805311 -2.498420187e-05 -20.75480635
204.6471801 -2.498420187e-05 -93.92024635
122.7679401 47.72226589 -111.8869574
68.45095109 39.78303599 -111.8869574
135.8046781 34.14356819 -111.8869574
43.92399209 -0.5431776142 -105.8869574
165.0398501 17.59973219 -105.8869574
-2.906693908e-06 14.96250059 -41.30251035
106.5693701 -2.498420187e-05 -22.94015835
60.08346809 50.41517619 -105.8869574
49.81103809 58.18726819 -111.8869574
110.7161111 49.58567269 -105.8869574
-2.906693908e-06 1.722603596 -3.342409353
112.8753651 13.24028629 -105.8869574
67.95853709 -2.498420187e-05 -20.71556035
69.76096709 -2.498420187e-05 5.374468647
89.33151109 15.62618319 -105.8869574
136.2534781 -2.498420187e-05 20.14004065
106.7782261 30.75398949 -105.8869574
22.54866409 -2.498420187e-05 -57.04219935
73.82648709 41.42366569 -105.8869574
150.3795021 58.76666199 -105.8869574
-2.906693908e-06 52.44274919 14.06476465
122.3997001 -2.498420187e-05 19.82904365
71.21976209 -2.498420187e-05 61.97140865
-2.906693908e-06 1.015969936 -84.31046435
36.90824609 33.09033039 -111.8869574
108.7251921 -2.498420187e-05 -56.50689435
214.3403251 56.12882819 -105.8869574
233.2318321 23.15994239 -111.8869574
20.58551109 -2.498420187e-05 0.6134606474
-2.430816907 67.99997499 107.4002416
218.1049951 -2.498420187e-05 90.66971665
62.85318409 -2.498420187e-05 25.55047265
203.6754921 -2.498420187e-05 -17.28832935
-0.7886209067 67.99997499 64.31400465
196.0415741 55.64335269 -105.8869574
198.4477251 -2.498420187e-05 -63.40125335
-2.906693908e-06 39.53396899 18.96373865
99.45381809 -1.091268264 -105.8869574
-2.906693908e-06 12.17794079 82.65825865
-2.906693908e-06 45.53556729 76.95745265
5.289392093 47.93408809 -105.8869574
11.41418309 -2.498420187e-05 82.47240365
158.7243631 -2.498420187e-05 82.20230265
-2.906693908e-06 21.38960699 -86.12422235
125.5150761 -2.498420187e-05 39.12716065
-2.906693908e-06 43.58543849 -94.77686235
-2.906693908e-06 65.50350969 45.33667865
14.33152409 -2.498420187e-05 24.85175765
-0.3018999067 44.26907309 -111.8869574
155.5669081 -2.498420187e-05 -66.71198035
241.7329731 8.959323846 -105.8869574
129.2553821 16.32638679 -105.8869574
-2.906693908e-06 23.41916709 85.87071265
183.2256351 -2.498420187e-05 0.8527966474
140.4621441 -2.498420187e-05 -67.83312735
100.8097441 -2.498420187e-05 83.63529065
-2.906693908e-06 39.55486869 -102.0542614
211.3832391 -2.498420187e-05 4.652028647
195.1740841 -2.498420187e-05 -33.33868935
202.4046201 -2.498420187e-05 -77.15232535
11.41835509 67.76701569 -105.8869574
17.98737609 -2.498420187e-05 30.37638065
-2.906693908e-06 17.04066449 39.22910565
150.5683291 11.83293502 -105.8869574
110.9416311 -2.498420187e-05 22.00565365
102.9483811 -2.498420187e-05 -62.23106135
-2.906693908e-06 5.045052276 13.94323065
-2.906693908e-06 19.39194599 72.97819065
164.3705871 55.68693539 -105.8869574
-2.906693908e-06 38.80166359 68.81728465
131.7375791 16.12334479 -111.8869574
142.4603711 24.41062129 -111.8869574
-2.906693908e-06 6.369238116 68.32860765
-2.906693908e-06 10.13400578 88.14712465
83.57550009 -2.498420187e-05 -22.85809335
238.4585471 -2.498420187e-05 76.88037865
40.10286409 -2.498420187e-05 -12.20239135
189.8532721 -2.498420187e-05 -49.07846435
-0.7208159067 9.696898276 -111.8869574
-2.906693908e-06 17.26616379 -19.87928735
138.2855831 -2.498420187e-05 -92.99526635
-2.906693908e-06 7.890719466 -40.18316735
25.54330309 21.10509709 -105.8869574
103.9741981 47.03506719 -111.8869574
-2.906693908e-06 8.821080346 8.679613647
250.6234341 -2.498420187e-05 -83.96343335
131.4134741 46.99356759 -111.8869574
65.71016109 -2.498420187e-05 -33.27132635
96.43003409 -2.498420187e-05 -16.65098835
4.855595093 -2.498420187e-05 -30.42967535
234.0412491 -2.498420187e-05 -52.90923435
203.5044181 -2.498420187e-05 8.962280647
-2.906693908e-06 42.75640679 60.84155265
-2.906693908e-06 43.22231229 86.72993465
-2.906693908e-06 57.02463089 113.8995556
170.0975551 -2.498420187e-05 -47.39777235
49.46406409 25.68090369 -111.8869574
27.04837909 -2.498420187e-05 -71.13480635
-2.906693908e-06 20.09973559 99.38536965
233.2762021 -2.498420187e-05 86.31744365
98.42549609 -2.498420187e-05 -82.34611135
-2.906693908e-06 40.44944469 -88.38494335
54.86456009 -2.498420187e-05 -47.14392335
-0.8866319067 25.49997499 -60.07338235
-2.906693908e-06 10.45285865 97.91932965
182.1637821 -0.5610954542 -105.8869574
223.2674381 34.82492389 -105.8869574
243.1512191 -2.498420187e-05 -62.51908635
68.21634009 25.80665609 -111.8869574
191.5453671 -2.498420187e-05 41.40914665
94.48459609 61.13103459 -111.8869574
235.6972031 64.86811899 -105.8869574
-2.906693908e-06 29.90745299 -85.40936835
193.4016911 33.82706079 -111.8869574
-2.906693908e-06 18.95064239 -31.00704035
213.7480141 40.27809929 -111.8869574
55.56667409 -2.498420187e-05 -25.88633435
208.7346871 -2.498420187e-05 17.99435965
102.5087401 -2.498420187e-05 -99.67112735
-2.906693908e-06 9.320878516 43.64960965
53.07980009 35.24964349 -105.8869574
-2.906693908e-06 24.68822579 61.56694365
127.4117641 61.62884119 -111.8869574
207.7370301 -2.498420187e-05 -62.00391635
-2.906693908e-06 33.91004599 81.06966265
-2.906693908e-06 8.465357286 62.70434965
-2.906693908e-06 1.470849686 -21.53812935
151.5528511 -2.498420187e-05 -4.221008353
-2.906693908e-06 16.67663339 16.52366065
-2.906693908e-06 25.71679639 91.32589965
-2.906693908e-06 59.86405129 103.0848786
216.9634061 52.75203979 -111.8869574
-2.906693908e-06 17.41009369 -93.07544735
37.69240509 -2.498420187e-05 -74.07087935
91.45213309 -2.498420187e-05 -92.99786435
101.4833951 -2.498420187e-05 58.28813965
96.72466809 -2.498420187e-05 -94.94084735
-2.906693908e-06 12.85381089 3.612095647
55.35284109 -2.498420187e-05 54.29933265
165.7645631 3.168310126 -111.8869574
86.71426709 -2.498420187e-05 32.40030865
-2.906693908e-06 29.19166949 -100.4215164
153.2337071 -2.498420187e-05 -72.28208835
-2.906693908e-06 39.01914129 104.1701716
136.7940481 -2.498420187e-05 -39.36294135
-2.906693908e-06 29.19777709 65.63007765
250.8679831 -2.498420187e-05 11.09283065
244.4991361 -2.498420187e-05 -14.97848135
71.24908709 -2.498420187e-05 -15.79041335
143.6806361 4.279698116 -105.8869574
16.38115609 -2.498420187e-05 -26.10824935
232.9646751 -2.498420187e-05 -18.88349135
-2.906693908e-06 19.80832459 22.87594865
126.5832611 44.14598309 -105.8869574
168.2196361 39.69753709 -105.8869574
-2.906693908e-06 22.90023109 -96.51408835
-2.906693908e-06 42.87858369 114.3914596
166.2446741 -2.498420187e-05 -25.73595935
130.7146721 -1.998705164 -105.8869574
143.4133751 -2.498420187e-05 90.33941365
181.1083771 -2.498420187e-05 50.48492865
65.24791209 61.20133999 -105.8869574
124.8066391 -2.498420187e-05 30.43950865
66.74883409 -2.498420187e-05 40.01029465
-2.906693908e-06 19.33241259 -69.18766835
64.37095809 36.20028739 -111.8869574
-2.906693908e-06 30.53239419 -2.346512353
205.6494201 34.66298589 -111.8869574
117.2819291 29.18436179 -111.8869574
220.4941501 -2.498420187e-05 -17.77141135
8.606388093 24.92862859 -111.8869574
-2.906693908e-06 49.82555609 43.11858065
34.68251909 26.96105659 -111.8869574
-2.906693908e-06 57.22773809 50.09972865
194.8541311 -2.498420187e-05 25.60384965
47.85834109 -2.498420187e-05 5.404214647
91.61058509 -2.498420187e-05 93.20741165
245.0249011 -2.498420187e-05 85.96757365
40.33931509 6.178694386 -105.8869574
197.3674631 -2.498420187e-05 -4.124181353
6.516402093 60.72235709 -111.8869574
47.77067309 -2.498420187e-05 -14.58093535
174.2309071 -2.498420187e-05 -30.67141535
133.9483721 -2.498420187e-05 83.16672665
190.2823391 -2.498420187e-05 8.089641647
167.3953701 -2.498420187e-05 -76.28833135
131.8420381 -2.498420187e-05 -7.756400353
-2.906693908e-06 29.17360539 49.17512165
160.2353151 -2.498420187e-05 -27.94247935
157.3159671 50.15423359 -111.8869574
-2.906693908e-06 4.732162716 -48.16076635
-2.906693908e-06 54.84416629 9.291765647
157.3872861 -2.498420187e-05 49.67625265
90.83353909 -2.498420187e-05 -41.08207235
-1.779050907 25.49997499 -28.75819535
217.3695351 13.64525839 -111.8869574
99.89765809 -2.498420187e-05 -6.752934353
95.62074409 48.86115479 -105.8869574
214.4895871 -2.498420187e-05 -70.52434835
-2.906693908e-06 19.63836789 32.98607565
-2.906693908e-06 16.56280459 62.95361665
191.4550641 -2.498420187e-05 34.67620765
162.0131961 -2.498420187e-05 47.13298965
83.83626409 -2.498420187e-05 63.21192665
-2.906693908e-06 4.889228726 -7.733983353
-1.969043907 67.99997499 76.44828165
49.12993909 -2.498420187e-05 45.95451265
159.1507081 -2.498420187e-05 -5.277725353
-2.906693908e-06 12.84592979 -83.38656635
41.81014009 -2.498420187e-05 -5.871900353
114.7587921 -2.498420187e-05 25.62717665
212.8093171 5.802608866 -111.8869574
-2.906693908e-06 47.45593219 22.14002165
133.1399851 -2.498420187e-05 -80.38024535
28.72296109 -1.906118564 -105.8869574
7.720894093 53.06199369 -111.8869574
17.18197409 44.82401959 -111.8869574
103.8073901 -2.498420187e-05 -76.41119635
-2.906693908e-06 23.27304809 77.16733265
121.0692861 42.77299619 -111.8869574
221.3060691 -2.498420187e-05 44.73867165
-2.906693908e-06 14.70197479 -78.40538135
49.58884509 -2.498420187e-05 -70.92272935
102.2346191 -2.498420187e-05 -43.26466735
32.64965709 21.39978229 -105.8869574
-2.906693908e-06 62.79122929 79.07640265
131.9236331 11.855887 -105.8869574
230.4227481 49.41299829 -105.8869574
51.67783209 -2.498420187e-05 33.22767465
144.0137951 15.56518179 -111.8869574
200.3735281 57.88285439 -111.8869574
55.52038109 -2.498420187e-05 8.634529647
139.7326681 -2.498420187e-05 80.31026465
80.46274609 7.374013366 -105.8869574
228.9508001 -2.498420187e-05 -44.78956835
-2.906693908e-06 57.38298109 18.60907965
-1.974324907 0.9999750158 63.94301565
-1.194877907 11.05909333 -95.74725435
197.8135631 -2.498420187e-05 -89.41828335
-2.906693908e-06 1.621956086 103.8000766
-2.906693908e-06 4.561949916 -80.43917835
-2.906693908e-06 16.14968039 -52.43339635
30.93074509 -2.498420187e-05 61.81569465
123.3540251 3.554065746 -105.8869574
153.6872051 18.17546969 -105.8869574
188.2386831 -2.498420187e-05 -22.62954335
8.152171093 -2.498420187e-05 27.09519265
-2.906693908e-06 35.03187209 -85.39873535
-2.906693908e-06 26.39867659 25.48998665
-2.038738907 67.99997499 23.22359765
-2.906693908e-06 11.65467651 -59.91449035
210.7444921 -2.498420187e-05 73.93118065
-2.906693908e-06 67.18231199 57.48626565
149.7194881 -2.498420187e-05 32.65905765
49.07928809 -2.498420187e-05 -1.417046353
140.6652351 -2.498420187e-05 37.49650765
25.15946409 -2.498420187e-05 -1.651275353
182.1553681 -2.498420187e-05 -33.05673235
226.2612731 46.44204789 -111.8869574
-2.906693908e-06 20.58866269 67.33810165
-2.906693908e-06 24.51721439 20.59850865
75.99110009 -2.498420187e-05 60.21803065
-2.906693908e-06 28.47326489 82.76791465
-2.906693908e-06 52.06386779 92.67911065
159.7645941 -1.309747444 -111.8869574
233.0098981 -2.498420187e-05 -77.22634835
33.53345609 -2.498420187e-05 -47.97098735
-2.906693908e-06 34.69015809 108.7817906
-2.906693908e-06 6.904658996 -35.20758635
22.06887209 10.55730799 -111.8869574
126.1548931 67.52912549 -105.8869574
102.8297061 17.85100639 -105.8869574
230.0024611 -2.498420187e-05 -37.60081835
-2.906693908e-06 31.82777239 53.47478365
108.8418681 -2.498420187e-05 -76.03668935
244.5017011 24.81697939 -105.8869574
76.86705109 3.313824506 -105.8869574
127.1665891 3.255512806 -111.8869574
-2.906693908e-06 32.88496409 34.63286765
224.0597501 14.87893279 -105.8869574
-2.906693908e-06 16.95216819 103.3331926
191.0278331 -2.498420187e-05 15.40041965
45.15426009 50.18564969 -105.8869574
207.5642201 67.99997499 -111.2809584
2.234014093 16.90607629 -105.8869574
-2.906693908e-06 37.00722889 89.97828965
131.4886211 -2.498420187e-05 -18.83107535
26.33848709 67.99997499 -106.9127504
-2.906693908e-06 46.40509369 93.50442265
133.6050681 -2.498420187e-05 -55.91377935
-2.906693908e-06 17.96234689 -37.29152935
191.0150901 67.99997499 -108.0974394
-2.906693908e-06 48.32253789 35.06622065
-0.06157190669 67.99997499 33.55482765
-2.906693908e-06 40.37645289 35.48545365
239.3099241 -2.498420187e-05 -85.60782435
53.48968309 10.52669939 -111.8869574
-2.906693908e-06 19.26899759 50.70157465
-2.906693908e-06 12.25278809 -65.00713835
251.1006501 -2.498420187e-05 55.94088265
25.74577109 62.87646589 -105.8869574
-2.906693908e-06 48.17051419 -92.81845135
95.55831109 53.00500609 -111.8869574
-2.906693908e-06 13.94632809 71.24575965
115.1875081 -2.498420187e-05 -53.17672535
38.92037209 38.69242909 -111.8869574
97.09252609 34.09294069 -105.8869574
197.2593071 -2.498420187e-05 -81.23978335
169.2959441 21.67198409 -111.8869574
-2.906693908e-06 61.56991049 28.76374465
248.0457681 15.55410369 -105.8869574
209.2944691 14.64803239 -111.8869574
43.93069709 -2.498420187e-05 -47.41691735
140.3456111 15.29164259 -105.8869574
11.21925609 21.17985699 -105.8869574
184.6081451 -2.498420187e-05 22.79718065
137.6998671 -2.498420187e-05 -1.406569353
-2.906693908e-06 22.46291899 -34.74084635
-2.906693908e-06 14.88098229 -11.79030435
76.77216709 13.55116479 -105.8869574
120.0822331 -2.498420187e-05 -101.2550294
82.84584509 -2.498420187e-05 -36.34864735
31.84582709 -2.498420187e-05 4.499087647
83.50102209 65.73558159 -105.8869574
4.437483093 -2.498420187e-05 -17.34541435
211.1229131 -2.498420187e-05 -38.09700835
-2.906693908e-06 23.16632189 47.72131765
76.22355409 -2.498420187e-05 37.35891665
175.7229511 30.77446469 -111.8869574
239.5608271 -2.498420187e-05 21.64847465
-2.906693908e-06 25.33700729 40.14938865
-2.906693908e-06 20.74846229 -3.133282353
12.23414709 57.72555309 -111.8869574
35.62109009 52.39999519 -105.8869574
48.11587909 4.559662036 -105.8869574
38.97001809 9.963988476 -111.8869574
215.2693091 67.99997499 -109.9924754
246.4280851 -2.498420187e-05 -31.12688635
52.34602109 5.210695366 -111.8869574
98.00473009 -2.498420187e-05 -25.45515735
-2.906693908e-06 20.65127099 13.33724965
244.3171731 41.21441779 -111.8869574
109.8814701 48.41964799 -111.8869574
-2.906693908e-06 18.20917199 91.29057865
236.6637001 13.20072029 -111.8869574
77.86970809 36.30787319 -111.8869574
166.8909071 -2.498420187e-05 -66.86783335
-2.906693908e-06 19.85762749 109.4126476
-2.906693908e-06 6.259561646 105.2192036
222.5595181 -1.241289444 -111.8869574
167.2754791 33.60886199 -105.8869574
182.9920311 -2.498420187e-05 -12.31761535
-2.906693908e-06 17.14525769 58.09222365
22.05534409 -2.498420187e-05 -45.66278035
-2.906693908e-06 64.28449019 84.93520765
-2.906693908e-06 45.74449369 105.1149306
-2.906693908e-06 14.64066009 43.42266165
159.0451611 49.85942809 -105.8869574
213.7515181 35.34268569 -111.8869574
-2.906693908e-06 25.50319179 53.31290165
-2.906693908e-06 54.99245939 45.18614565
120.4743381 -2.498420187e-05 42.31842765
232.5752821 5.867317176 -111.8869574
97.62000009 -2.498420187e-05 -52.45114235
-2.906693908e-06 57.12933079 68.01228765
-2.906693908e-06 21.96481869 -74.21363535
185.8439941 -2.498420187e-05 63.03331965
76.91823109 -2.498420187e-05 12.06473665
-2.906693908e-06 36.62442419 59.63086465
16.60021609 -2.498420187e-05 6.341814647
225.6903431 54.31860159 -105.8869574
-2.906693908e-06 42.00072429 91.35483365
11.30779809 -2.498420187e-05 3.405035647
-2.906693908e-06 46.96034979 46.94558265
-2.906693908e-06 2.962577866 18.84658865
237.5311521 60.17226999 -111.8869574
183.9520581 -2.498420187e-05 -54.76361735
-0.05911190669 67.99997499 90.77924265
161.2595651 -2.498420187e-05 -93.62310935
122.3361701 -2.498420187e-05 -59.46942835
192.3129341 63.06063239 -111.8869574
162.1431871 26.85646929 -105.8869574
57.39567709 -2.402617564 -111.8869574
44.11927709 -2.498420187e-05 26.66071165
188.5190651 -2.498420187e-05 -36.22963235
-2.906693908e-06 14.31133659 75.98828265
-2.906693908e-06 7.302648906 54.44461265
9.364748093 -2.498420187e-05 -28.92131135
-2.906693908e-06 63.96722809 105.4865546
-2.906693908e-06 5.722969226 80.19156465
-2.906693908e-06 63.31805949 64.15673865
41.04554709 -2.498420187e-05 61.92504865
90.10091609 -2.498420187e-05 -18.25816435
-2.906693908e-06 11.65396821 -50.04679035
68.89920609 -2.498420187e-05 -65.02302535
-2.906693908e-06 24.06730579 -90.02433835
-2.906693908e-06 4.284193576 -59.09683935
11.75202009 -2.498420187e-05 62.70503965
101.0940031 -2.498420187e-05 49.73955565
182.8619501 -2.498420187e-05 43.10256665
74.13366209 -2.498420187e-05 -27.57881235
174.4266941 -2.498420187e-05 19.65892665
-1.318407907 25.49997499 -20.02786735
64.49010909 -2.498420187e-05 -50.89706635
102.0641081 24.01975409 -105.8869574
226.5992761 -2.498420187e-05 -73.54798935
47.37027209 -2.498420187e-05 53.30795465
219.5982721 -2.498420187e-05 -96.57504735
99.15710009 -2.498420187e-05 17.88610865
248.3589851 67.99997499 -108.4392384
-2.906693908e-06 60.87521399 96.80299865
-2.906693908e-06 58.48123399 37.17908265
186.8383441 -0.0564771542 -105.8869574
-2.906693908e-06 41.79129359 100.3748646
-2.906693908e-06 35.83156559 42.82656165
97.42106309 13.13683729 -111.8869574
-2.906693908e-06 33.14919769 14.83622565
-2.906693908e-06 30.03409129 70.24642465
4.432198093 -2.498420187e-05 -35.31711735
179.0462291 -1.973619274 -77.28808035
-2.389796907 26.46201899 -70.34113435
-2.906693908e-06 39.38919549 51.29825365
-2.906693908e-06 44.39714289 54.56018165
-2.906693908e-06 17.47385059 -82.94835935
164.3535391 -2.498420187e-05 85.78020165
-2.906693908e-06 28.26409429 -78.27054335
-2.906693908e-06 54.32783169 76.85648865
-2.906693908e-06 16.89483309 5.872769647
-2.906693908e-06 40.53819109 41.57051765
222.9734881 43.83241869 -105.8869574
-2.906693908e-06 29.47641649 99.88937765
182.8706071 -2.498420187e-05 -41.41130035
221.0986791 -2.498420187e-05 -64.75214735
-2.906693908e-06 52.30057449 31.12775665
132.4088511 -2.498420187e-05 -30.51623235
67.32063209 -2.498420187e-05 32.02997665
-2.906693908e-06 42.77424819 72.20757065
92.83281809 -0.2515320342 12.96576465
-0.1219139067 26.37328659 -104.8869574
-2.906693908e-06 5.556506966 87.32099965
14.68071609 31.21301939 -105.8869574
229.9870061 26.43431319 -111.8869574
110.4854441 6.622580716 -105.8869574
28.35460409 -2.498420187e-05 -98.53375335
246.0507181 -2.498420187e-05 18.05272465
58.48647709 -2.498420187e-05 70.89350865
158.9169071 9.152057166 -105.8869574
-2.906693908e-06 15.18580919 31.86036565
-2.906693908e-06 26.62823729 11.24669665
192.9677051 -2.498420187e-05 69.53621165
210.1364341 -2.498420187e-05 50.70330065
-2.906693908e-06 11.85475698 111.6639816
193.2508921 -2.498420187e-05 -95.81455035
4.081005093 -2.498420187e-05 -59.03665135
-2.906693908e-06 57.38409879 58.96278365
17.70902409 28.11377949 -111.8869574
102.7101191 40.19174499 -105.8869574
-2.906693908e-06 41.51445439 11.23160565
-2.906693908e-06 29.02133629 -7.291850353
54.05641709 -2.498420187e-05 -86.71679035
188.6405241 5.644722596 -111.8869574
