# .PCD v0.7 - Point Cloud Data file format
VERSION 0.7
FIELDS x y z
SIZE 4 4 4
TYPE F F F
COUNT 1 1 1
WIDTH 1257
HEIGHT 1
VIEWPOINT 0 0 0 1 0 0 0
POINTS 1257
DATA ascii
-31.279027 -28.40844631 41.49990261
-42.59388 -2.498436922e-05 -32.53570539
0.0002150000555 -50.8851867 35.57961761
0.0002150000555 -53.74972901 -46.36443239
-106.535616 -2.498436922e-05 -25.84212039
-216.653215 -2.498436922e-05 4.506138614
0.0002150000555 -26.71038498 -11.22611039
-5.418837 -2.498436922e-05 19.04870161
-156.320487 -38.10407759 41.49990261
0.0002150000555 -33.61335631 -39.80222439
0.0002150000555 -64.19169497 -42.23039039
0.0002150000555 -87.92266162 -41.85932639
-132.732076 -24.11281078 41.49990261
0.0002150000555 -91.99277042 -20.16275639
-26.809846 -68.00002402 44.36461061
-131.332421 -2.498436922e-05 -42.56977639
-174.041047 -2.498436922e-05 -16.72249339
0.0002150000555 -65.92527364 5.734689614
-73.05904 -2.498436922e-05 -33.20366239
-131.708714 -0.3371229044 47.49990261
1.220811 -2.498436922e-05 25.24601861
-59.59553 -2.498436922e-05 -19.51501739
-62.52566 -55.07310492 47.49990261
-80.144553 -2.498436922e-05 39.13698361
-193.88965 -27.72558332 41.49990261
-1.68544 -32.79594402 47.49990261
-91.687956 0.5898359356 41.49990261
0.0002150000555 -73.23876975 -15.74749239
-192.844183 -22.02193727 47.49990261
-163.683191 -2.498436922e-05 38.11053261
-177.677061 -2.498436922e-05 -38.81263339
0.0002150000555 -130.8938661 -35.83376139
-150.558293 -2.498436922e-05 -40.46308339
0.0002150000555 -20.0214837 5.103304614
-192.163149 -59.64111711 41.49990261
-218.493726 -70.84940644 41.49990261
-62.465877 -2.498436922e-05 12.38848961
0.0002150000555 -36.51151886 32.75419461
-200.857844 -29.72429693 41.49990261
-29.534648 -13.63860657 47.49990261
-55.536913 -2.498436922e-05 -33.31194639
-128.40826 -55.88752959 41.49990261
0.0002150000555 -20.65871661 30.42213061
0.0002150000555 -7.774721674 -15.49958339
0.0002150000555 -127.4669463 -46.85013539
-113.295531 -7.396819244 47.49990261
-41.283631 -2.498436922e-05 36.67850961
-157.064257 -2.498436922e-05 -40.74988839
-142.068071 -2.498436922e-05 -11.25599839
-37.146783 -4.803818154 41.49990261
0.0002150000555 -135.6315004 -30.11663139
-13.1802 -26.37385246 47.49990261
-235.139763 -20.25444667 41.49990261
-200.59151 -2.498436922e-05 10.38003361
-182.779463 -52.77982319 47.49990261
-124.246856 -2.498436922e-05 27.10461961
0.0002150000555 -59.39842667 -37.25267039
-93.523161 -2.498436922e-05 -31.63170339
-30.316713 -24.39425205 47.49990261
0.6904310001 -13.37400515 47.49990261
-124.56787 -4.158571364 47.49990261
0.0002150000555 -73.4637868 -37.19530039
-176.19792 -4.189280014 41.49990261
-245.488752 -19.15277985 41.49990261
-15.888882 -2.498436922e-05 37.52161761
-115.750207 -2.498436922e-05 -28.78140039
0.0002150000555 -140.9173823 -42.99997039
-111.774409 -25.36961866 41.49990261
-231.337435 -31.6656162 41.49990261
2.415312 -168.9276309 -42.77487139
-235.648665 -2.498436922e-05 17.45025961
-199.023085 -18.51225372 41.49990261
-107.810106 -67.50771055 47.49990261
0.0002150000555 -86.61360273 -34.59375539
-105.255576 -8.893151284 41.49990261
-145.692472 -15.10109939 47.49990261
0.0002150000555 -36.81751716 -15.91596939
0.0002150000555 -18.42124303 -16.69944239
-182.206103 -2.498436922e-05 5.333982614
-248.954913 -88.5523949 47.49990261
0.0002150000555 -62.27329308 -2.275318386
-181.228899 -2.498436922e-05 37.82166461
-29.962837 -32.61761742 47.49990261
-99.318256 -2.498436922e-05 -44.09003739
-4.553015 -51.7350454 41.49990261
0.0002150000555 -35.68776793 -26.55879339
-244.427983 -55.5089038 41.49990261
-69.565626 -6.688532504 41.49990261
-132.879731 -67.66148772 47.49990261
-11.594933 -2.498436922e-05 -16.57591739
0.0002150000555 -104.4798423 -22.06282539
-160.768537 -11.86765441 41.49990261
-33.225941 -23.54122988 41.49990261
-72.692789 1.628069376 41.49990261
0.0002150000555 -150.1002631 -47.66983539
-120.370797 -39.24050382 47.49990261
-218.195282 -2.498436922e-05 -4.608703386
-206.168916 -2.498436922e-05 -10.27326139
-99.835274 -2.498436922e-05 34.73763461
0.0002150000555 -43.79595961 -19.88356439
0.0002150000555 -27.69136697 -20.62898039
-25.672721 -2.498436922e-05 -40.12597739
-192.144452 -2.498436922e-05 16.59959261
-172.568078 -57.8723754 41.49990261
0.0002150000555 -94.10481018 -35.31124139
-17.488292 -28.92335022 41.49990261
-248.179669 -70.36897498 47.49990261
0.0002150000555 -74.55564806 -49.10500139
-162.141185 -64.28132413 47.49990261
-244.876145 -2.498436922e-05 27.67192361
0.2545300001 -42.82911068 41.49990261
0.0002150000555 -110.673293 -43.41925139
0.0002150000555 -24.57152109 -37.81548939
-70.761184 -64.69909188 41.49990261
-127.807361 -2.498436922e-05 -8.392328386
-239.0857 -64.35293561 47.49990261
-50.2298 -19.59990118 47.49990261
0.0002150000555 -54.35188655 -0.4891613859
-232.222076 -53.87675503 47.49990261
-186.194987 -68.00002402 42.34724061
0.0002150000555 -48.8127703 -14.80685639
0.0002150000555 -53.00585393 23.56341361
-87.322743 -68.00002402 42.66090861
-153.221807 -2.498436922e-05 -49.22836339
-55.369642 -53.57438478 47.49990261
-227.401482 -59.05411302 41.49990261
-203.599605 -2.498436922e-05 -42.45127939
0.0002150000555 -63.9059122 -9.993842386
-246.679172 -2.498436922e-05 -40.70044039
-54.093099 2.080834306 41.49990261
0.0002150000555 -41.3486785 31.29750961
0.0002150000555 -7.797562764 9.677835614
0.0002150000555 -49.89465854 -9.091849386
-85.297731 -11.87369241 41.49990261
-235.118107 -75.08400861 41.49990261
-201.007653 -2.905905774 41.49990261
-121.317292 -2.498436922e-05 -36.75797239
0.0002150000555 -55.17473606 9.587911614
0.0002150000555 -24.77369184 20.77083261
-205.261763 -2.498436922e-05 33.91386561
-56.69341 -35.2746061 47.49990261
0.0002150000555 -95.50499097 -49.38467739
0.0002150000555 -47.49120378 -38.76794739
-27.724566 -2.498436922e-05 14.49323561
-72.708398 -2.498436922e-05 14.66686961
-122.072239 -10.42378569 47.49990261
-115.67542 -2.498436922e-05 -10.70032439
-142.75494 -61.39858779 47.49990261
-141.319984 -26.85971282 47.49990261
-125.757015 -39.29966367 47.49990261
0.0002150000555 -81.99521783 -20.86500839
-188.408648 -2.498436922e-05 -2.031218386
-225.068745 -78.17627756 41.49990261
0.0002150000555 -11.96093983 -1.961170386
-186.763051 -2.498436922e-05 -25.71596739
-142.953592 2.427030786 41.49990261
-241.451363 -2.498436922e-05 36.12018761
0.0002150000555 -156.0439264 -35.83227439
-154.285411 -2.498436922e-05 -9.431768386
-153.118242 -47.65332471 47.49990261
-43.477724 2.005707056 41.49990261
0.0002150000555 -25.21872255 35.61938661
-113.150254 -38.9076957 41.49990261
0.0002150000555 -47.80334439 -33.10056439
0.0002150000555 -63.52065215 -33.11530339
0.0002150000555 -61.97047709 13.32534461
-179.530859 -2.498436922e-05 12.36523761
-83.73092 -40.31129532 41.49990261
-193.495306 -8.311083014 41.49990261
0.0002150000555 -38.14904786 16.14628961
0.0002150000555 -83.74232565 -38.56500139
-155.431138 -23.31871722 41.49990261
-67.573161 -57.31404966 41.49990261
-241.956303 -13.62734946 41.49990261
0.0002150000555 -26.15374774 -27.93274739
0.0002150000555 -74.11433713 -44.18169839
-199.279867 -55.96995038 47.49990261
-204.375872 -61.31360235 47.49990261
-100.944304 -39.05606685 47.49990261
-189.49665 -67.65299623 47.49990261
-153.610677 -0.8772728944 47.49990261
-80.006978 -35.94961593 47.49990261
-205.167173 -2.498436922e-05 13.10901161
0.0002150000555 -94.39123991 -28.27022839
-10.444519 -14.04914872 41.49990261
-244.889163 -2.498436922e-05 3.894920614
-152.650334 -1.033074624 41.49990261
-198.158549 -61.93822656 41.49990261
0.0002150000555 -41.14793244 5.832745614
-177.603482 0.5702660656 41.49990261
0.0002150000555 -53.68596064 -25.49525839
-0.5281709999 -18.0101451 41.49990261
0.0002150000555 -100.3641762 -44.38286739
-247.298461 -82.69515285 41.49990261
-137.146643 -2.498436922e-05 -41.15763339
0.0002150000555 -19.74728968 24.59052061
-230.578239 -2.498436922e-05 7.004498614
-30.32908 -52.23327223 47.49990261
0.0002150000555 -5.364589034 -8.430092386
0.0002150000555 -30.09163948 2.397770614
-2.36184 -2.498436922e-05 -22.09344939
-244.257859 -10.5630705 47.49990261
0.0002150000555 -27.40607515 8.506862614
-22.658682 -8.226757904 47.49990261
0.0002150000555 -48.82202053 7.758678614
-241.860347 -58.22010219 47.49990261
-64.08813 -33.20632593 47.49990261
-1.741132 -2.498436922e-05 -35.79095639
0.0002150000555 -125.2042064 -37.19487539
-225.463616 -71.46194284 41.49990261
-224.685588 -2.498436922e-05 -1.660110386
-126.153432 -2.498436922e-05 -29.03617939
-208.740185 -2.498436922e-05 -49.75836739
-161.10385 -61.47752178 41.49990261
0.0002150000555 -116.9882562 -46.57439439
-142.595396 -6.882193214 41.49990261
-64.717964 -4.672560684 41.49990261
0.0002150000555 -10.65565891 -22.52746839
-176.429001 -2.498436922e-05 25.87592961
0.0002150000555 -34.08402742 27.91736861
-251.562787 -11.39482208 41.49990261
-247.850729 -101.8507277 44.08040061
-72.703328 -2.498436922e-05 -45.26068339
0.0002150000555 -15.88064605 2.986575614
-145.56317 -32.72930712 47.49990261
0.0002150000555 -140.8742173 -48.63323739
0.0002150000555 -29.45163103 28.25443061
-183.314893 -63.83250741 41.49990261
0.0002150000555 -16.42871949 -24.90397539
0.0002150000555 -35.48874016 7.025418614
-153.282038 -60.80831381 41.49990261
-33.579106 -2.498436922e-05 38.32980761
0.0002150000555 -162.2029565 -44.95772939
-231.210679 -42.24791304 41.49990261
0.0002150000555 -54.57566459 16.18968561
-194.738323 -44.77621669 41.49990261
-208.564091 -2.498436922e-05 37.12426361
-21.169705 -19.72074468 47.49990261
-174.013614 -22.83959101 47.49990261
-168.093334 -2.498436922e-05 36.83811361
-239.004442 -52.86698411 47.49990261
-90.016476 -67.63362018 47.49990261
0.0002150000555 -39.10249955 21.65903861
-127.170347 0.7361142256 41.49990261
-61.829259 -42.42799875 41.49990261
0.0002150000555 -48.46684157 -23.65038239
0.0002150000555 -88.43998861 -14.70840339
0.0002150000555 -67.1617261 -21.55720239
0.0002150000555 -61.46652979 22.76351661
-201.526634 -2.498436922e-05 28.72444361
-121.747484 1.332798456 47.49990261
0.0002150000555 -100.2775122 -35.40763139
-46.79674 -2.498436922e-05 -27.88257039
-135.136713 -51.4165533 47.49990261
0.0002150000555 -29.24354109 -35.25163739
-75.886792 -44.94788204 47.49990261
-232.837965 -2.498436922e-05 35.35128861
-50.071884 -68.00002402 42.39812261
-177.195626 -57.69278235 41.49990261
-231.430141 -26.79065679 47.49990261
-216.196735 -20.10452097 47.49990261
0.0002150000555 -69.0338218 -6.353569386
-99.117044 -16.58758208 41.49990261
-75.391659 -44.95942936 41.49990261
0.0002150000555 -55.88473383 -18.76143739
0.0002150000555 -163.6421936 -39.48954839
0.0002150000555 -17.12143071 -7.167039386
-60.246747 -26.45048425 41.49990261
0.0002150000555 -25.13292546 30.38667061
-144.65938 -68.00002402 46.84582061
-142.21716 -42.00322464 41.49990261
0.0002150000555 -29.93751492 -42.68450039
0.0002150000555 -8.467762174 4.438481614
0.0002150000555 -34.75880671 -46.12475739
-19.246794 -2.498436922e-05 -0.1493003859
-193.933237 -11.43283411 47.49990261
-127.98416 -36.62564322 41.49990261
0.0002150000555 -131.6567041 -49.53962839
-48.281974 -59.37152216 47.49990261
-76.578611 -2.498436922e-05 -22.50165639
-100.969249 -2.498436922e-05 -0.1502013859
0.0002150000555 -132.5617053 -44.82725239
-48.546906 -40.68420443 47.49990261
-208.619357 -2.498436922e-05 -29.37955039
-89.289493 -2.498436922e-05 8.294240614
-90.942215 -26.58624784 47.49990261
-246.382213 -95.65414276 47.49990261
-92.318832 -48.5442226 47.49990261
-180.326224 -54.09718109 41.49990261
-242.216914 -2.498436922e-05 16.59076761
-217.722801 -31.55778669 41.49990261
-41.733182 -2.498436922e-05 -5.267838386
-108.974949 -68.00002402 42.97988661
-246.062656 -2.498436922e-05 19.80212761
-185.495089 -2.498436922e-05 -12.41365439
0.0002150000555 -77.60005549 -9.788650386
-141.286697 -2.498436922e-05 -6.982203386
-194.202597 -2.498436922e-05 0.6085796141
-133.512118 -62.77343512 41.49990261
-64.882084 -2.498436922e-05 -19.96485539
-223.697836 -73.79365301 47.49990261
-130.93807 -39.8544246 47.49990261
-48.208906 -15.8531408 41.49990261
-78.083175 -2.498436922e-05 -27.00100139
-22.308963 -61.56322249 47.49990261
0.0002150000555 -42.71349382 -36.67949539
-98.572004 -60.54047756 41.49990261
-237.88911 -2.498436922e-05 1.667789614
-88.205478 -30.58248852 41.49990261
-60.314858 -48.90579794 47.49990261
0.0002150000555 -86.57311454 -25.98374139
-240.490001 -28.01937419 47.49990261
-29.337064 -56.36467472 47.49990261
0.0002150000555 -3.086273694 -13.51130139
-88.665073 -2.498436922e-05 13.81831461
-212.418268 -17.30905684 47.49990261
-5.286551 -25.36476103 41.49990261
-212.963803 -2.498436922e-05 -5.466195386
-213.85083 -2.498436922e-05 22.70767661
-195.493096 -2.498436922e-05 -22.23619239
-74.418754 -37.86168018 41.49990261
-29.341966 -2.498436922e-05 -37.55955939
-128.976913 -59.04132485 47.49990261
-57.909986 -43.06087115 47.49990261
-58.849535 -9.559714864 41.49990261
-127.19798 -2.498436922e-05 -43.11657539
-181.116978 -40.53802749 41.49990261
-248.253934 -2.913698504 47.49990261
-202.537039 -44.97558005 41.49990261
-164.999905 -2.498436922e-05 -9.400895386
-238.81987 -91.48040739 41.49990261
-225.865107 -79.86504397 45.54796061
-146.802032 -2.498436922e-05 40.49832761
-243.345227 -29.70472845 41.49990261
-79.384829 -2.498436922e-05 9.281155614
-162.899045 -4.448570644 47.49990261
-161.901141 -2.498436922e-05 24.30256661
-8.425628 -2.498436922e-05 -24.88490239
-77.224619 -2.498436922e-05 -41.85603339
-123.023592 -2.498436922e-05 -6.323824386
-191.575602 -2.717977804 47.49990261
-233.669668 -61.42551323 47.49990261
-15.217609 -50.10314649 47.49990261
-167.599767 -62.04080216 47.49990261
-218.142664 -72.62221118 47.49990261
-29.09706 -18.41891352 41.49990261
-64.357552 -2.498436922e-05 -4.668752386
-44.763936 -46.97323793 47.49990261
-244.74217 -98.74215979 44.73774561
-142.194072 -10.80474643 47.49990261
-121.416139 -2.757156764 41.49990261
-150.829963 -2.498436922e-05 -2.415863386
1.402927 -2.498436922e-05 -20.74259339
-10.725142 -22.75395518 41.49990261
-194.401102 -64.39126053 41.49990261
-203.325362 -2.498436922e-05 7.470737614
-245.106231 -22.25866195 47.49990261
-204.739847 -5.788430874 41.49990261
-3.836689 -54.07847261 47.49990261
-236.020091 -2.498436922e-05 -20.68574539
-235.880819 -31.93842643 41.49990261
-127.006756 -64.01370673 47.49990261
-169.321121 -48.3636517 47.49990261
-98.671816 -11.29525356 41.49990261
-188.664784 0.7390863956 41.49990261
-163.650138 -19.00375467 47.49990261
-23.6911 -2.498436922e-05 25.07248361
-89.445027 -2.911425604 47.49990261
-159.253195 -40.71701289 41.49990261
-66.21965 -2.498436922e-05 -48.08212839
-114.998669 -42.36271363 41.49990261
-73.682904 -2.160987814 41.49990261
-188.866536 -2.498436922e-05 -30.94571139
-39.829306 -2.498436922e-05 15.59392261
-188.699597 -24.6299548 47.49990261
-126.043677 -2.498436922e-05 -11.85250439
-181.925246 -2.498436922e-05 19.37531861
-9.418074 -30.17110114 47.49990261
-230.202308 -2.498436922e-05 -10.21435039
-64.822251 -25.79123674 47.49990261
-120.384886 -26.26482895 41.49990261
-136.106059 -45.98829282 47.49990261
-242.538044 -2.498436922e-05 -24.00286039
-138.793987 -2.498436922e-05 31.47608661
-72.038683 -2.498436922e-05 20.17893461
-12.313693 -68.00002402 46.22030061
-221.620363 -2.498436922e-05 38.32754761
-136.143073 -57.97436349 41.49990261
-94.017002 -42.94638903 47.49990261
-30.83002 -2.498436922e-05 -29.92620239
-115.026046 -19.97351499 47.49990261
-95.308308 -16.81255135 41.49990261
-211.631307 -2.498436922e-05 9.907534614
-173.449742 -2.498436922e-05 3.367348614
-112.274496 -2.498436922e-05 35.77450661
-239.420263 -75.06725703 41.49990261
-175.674993 -2.498436922e-05 34.28007161
-239.433898 -80.83755588 47.49990261
-92.780784 -2.498436922e-05 -0.2456953859
-36.898694 -22.64358465 41.49990261
-54.604841 -40.59777087 47.49990261
-45.020779 -1.759796744 41.49990261
-10.933669 -45.25299897 47.49990261
-180.231501 -64.88921083 47.49990261
-108.20175 -43.88396102 41.49990261
-41.620472 -2.498436922e-05 7.636601614
-187.580879 0.5680539156 47.49990261
-241.093892 -2.498436922e-05 -38.53696939
-177.988692 -2.498436922e-05 -15.56905339
-63.284783 -18.66673491 47.49990261
-21.857821 -2.498436922e-05 11.39449761
-61.371719 -2.498436922e-05 -46.25486039
-107.745261 -2.498436922e-05 -6.003734386
-228.950742 -0.6985282644 41.49990261
-82.538409 -2.498436922e-05 -3.674973386
-82.95878 -0.4774962644 41.49990261
-48.586804 -41.20041972 41.49990261
-10.881745 -51.0571146 41.49990261
-235.113793 -2.498436922e-05 13.58361461
-30.085778 -2.498436922e-05 7.231688614
-167.973353 -2.498436922e-05 0.3612206141
-184.079314 -1.941874174 47.49990261
-56.467633 -38.90292986 41.49990261
-230.054042 -2.498436922e-05 -14.39119939
-133.168971 -15.94947901 41.49990261
-90.491532 -2.498436922e-05 -23.38897539
-67.244356 -35.05333957 47.49990261
-28.908897 -47.14512045 41.49990261
-172.801691 -2.498436922e-05 26.19313661
-158.971314 -48.40769244 41.49990261
-151.141471 -2.498436922e-05 1.861929614
-31.66152 -5.466137924 41.49990261
-91.474091 -2.498436922e-05 32.05542561
-21.296992 -40.57715792 47.49990261
-193.958331 -2.498436922e-05 -30.17533139
-4.970398 -33.28237997 41.49990261
-24.365177 -2.498436922e-05 -24.89101039
-242.114566 -2.498436922e-05 -10.64503439
0.0002150000555 -3.344301464 6.356721614
-235.951734 -2.498436922e-05 -14.92845939
-76.69848 -15.01863726 47.49990261
-42.98363 -63.11109649 41.49990261
-85.804344 -2.498436922e-05 30.03717461
-5.265961 -2.498436922e-05 -30.51245539
-79.732458 -2.498436922e-05 -5.839472386
-138.629079 -2.498436922e-05 -26.96649139
-58.820349 -2.498436922e-05 39.49620461
-146.706684 -6.298186674 47.49990261
-41.700058 -42.2253367 47.49990261
-76.997001 -58.97570429 47.49990261
-230.52459 -21.34256921 41.49990261
-74.428203 -65.79468301 47.49990261
-170.65768 -2.498436922e-05 14.87113061
-19.554923 0.4836132956 41.49990261
-95.368217 -46.32970197 47.49990261
-121.445547 -2.498436922e-05 29.18184461
-65.283479 -8.103010644 41.49990261
-251.65527 -70.36484804 47.49990261
-76.027283 -2.498436922e-05 -3.746270386
-140.001338 -2.498436922e-05 -2.696991386
-42.287694 -2.498436922e-05 1.567277614
-209.230444 -63.72595356 47.49990261
-181.42079 -36.56240233 47.49990261
-144.996561 -65.64458855 41.49990261
-208.533271 -0.6747790944 47.49990261
-248.350448 -8.061836554 41.49990261
-95.971893 -1.853879474 47.49990261
-171.411171 -46.87338383 41.49990261
-32.43682 -11.97406948 41.49990261
-182.159578 -2.498436922e-05 1.950648614
-196.045376 -41.55967283 41.49990261
-84.83652 -30.33710742 41.49990261
-131.333427 -2.498436922e-05 -45.94505739
-123.918072 -2.498436922e-05 -24.64130139
-157.066475 -7.219161764 41.49990261
-133.1217 -2.498436922e-05 -7.335347386
-247.201336 -53.62139333 41.49990261
-135.489247 -2.498436922e-05 -20.74670839
-210.003331 -48.25836027 47.49990261
-156.009878 0.1404084756 41.49990261
-121.610518 -65.89204764 47.49990261
-13.802918 -2.498436922e-05 -12.53787539
0.9073010001 -60.17682136 41.49990261
-33.700328 -2.498436922e-05 -31.74947739
-6.8921 -2.498436922e-05 10.38025261
-184.776794 -2.498436922e-05 -17.28226039
-25.120614 -2.498436922e-05 -45.17075839
0.0002150000555 -3.044130224 25.68114361
-246.175899 -36.59124047 47.49990261
-249.7174 -85.33638033 47.49990261
-48.595575 -56.07697719 41.49990261
-245.942039 -85.70026534 41.49990261
-165.701062 -2.498436922e-05 -15.14977939
-195.668212 -64.43505404 47.49990261
-151.498336 -40.98284371 41.49990261
-80.962508 -2.498436922e-05 32.35956661
-115.11646 -64.2149049 47.49990261
-172.879307 -0.3164612844 41.49990261
-134.263567 -2.498436922e-05 -48.62329439
-249.300714 -103.2249162 41.49990261
-233.036482 -2.498436922e-05 0.06112861414
-110.687591 -55.61180299 47.49990261
-27.51516 -22.76168853 47.49990261
-152.970025 -35.5235365 41.49990261
-77.152939 -9.443646714 41.49990261
-4.017857 -40.17759718 41.49990261
-193.9764 -56.51569036 41.49990261
-153.549243 -67.7487439 47.49990261
-1.873817 -63.30597866 41.49990261
-149.003697 -2.498436922e-05 -37.14159339
-100.485899 -23.66527127 47.49990261
-168.787379 -7.691380344 47.49990261
-224.87512 -68.97302421 47.49990261
-41.157675 -2.498436922e-05 -11.40020439
-58.955902 -21.9887166 47.49990261
-8.609454 -22.6440556 47.49990261
-231.927472 -2.498436922e-05 39.11852661
-222.6599 -27.62834319 41.49990261
-142.644191 -2.498436922e-05 -34.03041039
-74.304166 -3.663872324 47.49990261
-2.691456 -2.498436922e-05 20.75034261
-105.578485 -10.8628588 47.49990261
-42.472275 -38.34552783 41.49990261
-145.636849 -59.34693534 41.49990261
-158.334627 -2.498436922e-05 13.12036561
-243.814049 -0.2546990744 41.49990261
-205.520684 -66.70616457 47.49990261
-225.421171 -2.498436922e-05 -30.63908939
-15.314998 -2.498436922e-05 -4.534742386
-172.190603 -56.79891711 47.49990261
-174.022326 -43.47143914 47.49990261
-232.046989 -9.271012164 41.49990261
-95.913428 -2.498436922e-05 -13.07154739
-190.168704 -2.498436922e-05 30.98603761
-13.278828 -35.7478629 47.49990261
-214.897579 -32.6848853 41.49990261
-89.448582 -2.498436922e-05 18.30671061
-183.659897 -2.498436922e-05 16.92992461
-236.545933 -2.498436922e-05 -28.43992039
-83.025918 -54.56302564 47.49990261
-221.897505 -33.01370762 47.49990261
-6.55358 -2.498436922e-05 -36.89509539
-222.462335 -2.498436922e-05 29.07146061
-84.463168 -68.00002402 43.45354461
-5.733184 -62.41551282 41.49990261
-124.288061 -2.498436922e-05 11.70338561
-218.850554 -2.498436922e-05 -47.98044839
-44.678227 -2.498436922e-05 36.48375161
-162.902124 -22.92297059 47.49990261
-105.738874 -63.85013019 41.49990261
-217.571237 -2.498436922e-05 -37.82726739
-144.184865 -2.498436922e-05 -14.12528139
-137.860159 -32.35862381 47.49990261
-3.823337 -16.31423607 41.49990261
-136.084767 -2.498436922e-05 21.87893161
-127.75055 -55.67266048 47.49990261
-114.675427 -55.57285469 47.49990261
-41.702079 -2.498436922e-05 -49.08466739
-65.163414 -2.498436922e-05 -13.55783939
-65.406893 -55.54462106 47.49990261
-147.327085 -17.52162316 41.49990261
-208.486067 -2.498436922e-05 28.92625761
-201.836059 -58.20297185 47.49990261
-53.056587 -54.8312046 41.49990261
-188.589875 -2.498436922e-05 -34.24177139
-224.433306 -43.16850256 41.49990261
-60.916999 -2.498436922e-05 -24.80308639
-101.028966 -43.4152131 47.49990261
-31.951965 -2.498436922e-05 -38.74669639
-238.019806 -4.191395944 41.49990261
-115.029105 -2.498436922e-05 -7.912650386
-81.880588 -2.498436922e-05 26.54030061
-61.59706 -55.22052246 41.49990261
-12.26143 -30.42534387 47.49990261
-242.08487 -2.498436922e-05 -18.87449539
-145.884751 -68.00002402 43.14342761
-43.459777 -2.498436922e-05 16.84887461
-244.62991 -57.595217 47.49990261
-58.768259 -15.09970245 41.49990261
-77.539691 -3.391672904 41.49990261
-60.218934 1.115851036 47.49990261
-36.215769 -35.65190155 47.49990261
-147.984291 -35.45797161 47.49990261
-25.507963 -33.78105109 41.49990261
-179.434089 -2.498436922e-05 28.95260261
-101.930948 -16.69427137 41.49990261
-134.339866 -23.31847904 47.49990261
-20.223601 -2.498436922e-05 -39.68435839
-54.420716 -33.62633763 47.49990261
-126.267245 -2.498436922e-05 29.04988261
-233.167651 -14.31313756 47.49990261
-61.431798 -2.498436922e-05 -39.06681439
0.0002150000555 -1.437606264 -18.74278039
-67.979541 -64.94755185 41.49990261
-90.737156 -53.52067975 47.49990261
-133.75889 -2.498436922e-05 -43.94449239
-243.714672 -2.498436922e-05 -8.304082386
-34.913564 -61.72165613 41.49990261
-184.76219 -31.6972759 47.49990261
-124.887758 -62.71298689 41.49990261
-243.340035 -97.34002067 46.68538161
-71.195414 -2.498436922e-05 -3.375580386
-173.345009 -52.68868668 41.49990261
-183.350015 -0.9290117544 41.49990261
-52.379423 -2.498436922e-05 -21.92061239
-110.725027 -53.94515715 41.49990261
-196.527049 -2.498436922e-05 2.034314614
-217.295589 -2.498436922e-05 18.18135461
-147.645812 -16.99629824 47.49990261
-104.931318 -2.498436922e-05 41.09889661
-192.064612 -42.0723225 41.49990261
-4.702525 -45.521252 41.49990261
-135.976415 -2.498436922e-05 -26.49868239
-87.241256 -6.672868954 47.49990261
-47.6149 -20.24499819 47.49990261
-155.320414 -2.498436922e-05 -44.36797039
-160.328311 -55.78754288 41.49990261
-233.344235 -29.85617987 41.49990261
-81.016846 -2.498436922e-05 -21.49898839
-66.041198 -2.498436922e-05 22.00654561
-72.497763 -2.498436922e-05 36.13523061
-48.527416 -38.03372358 47.49990261
-241.604109 -49.26056039 47.49990261
-19.617859 -67.69661615 47.49990261
-160.253964 -23.9267186 47.49990261
-51.755833 -15.72809928 41.49990261
-27.026217 -14.42391467 47.49990261
-131.295268 -42.45472561 47.49990261
-170.599873 -2.498436922e-05 36.12369861
-80.945861 -2.498436922e-05 11.36274861
-147.575723 -2.498436922e-05 24.81223861
-78.12953 -29.07377531 41.49990261
-29.539432 -60.89846872 41.49990261
-218.453482 -29.08017008 41.49990261
-105.676039 -15.53501323 47.49990261
-194.472262 -51.9435156 47.49990261
-228.88629 -55.00505069 41.49990261
-47.79355 -2.498436922e-05 -32.32219439
-200.255099 -10.84544745 41.49990261
-248.934105 -86.84188533 41.49990261
-186.628306 -6.479663534 41.49990261
-133.407944 -39.17364781 47.49990261
-43.354939 -57.00790108 41.49990261
-110.144639 -2.498436922e-05 32.25232461
-166.071004 -2.498436922e-05 -11.70046639
-176.590383 -2.498436922e-05 29.63886661
-159.753625 -2.498436922e-05 -13.50632739
-189.126723 -2.992257504 41.49990261
-241.541179 -47.36826014 41.49990261
-216.095538 -2.498436922e-05 23.86960961
-66.760789 -2.498436922e-05 -3.887619386
-1.216852 -10.05469154 47.49990261
-181.326198 -25.06910986 47.49990261
-5.433633 -52.13187854 47.49990261
-166.983055 -2.498436922e-05 34.58746361
-39.439257 -2.498436922e-05 38.35473261
-14.369845 -2.498436922e-05 6.163908614
-50.939691 -40.01855366 47.49990261
-116.515056 -2.498436922e-05 -5.930826386
-127.981544 -39.09466136 41.49990261
-34.489346 -35.87961537 41.49990261
-244.143311 -2.498436922e-05 -36.55451039
-87.815855 -14.1287506 47.49990261
-218.007723 -2.498436922e-05 0.9309716141
-88.019787 -2.498436922e-05 27.12421761
-175.303816 -63.61199521 41.49990261
-98.408328 -16.72519353 47.49990261
-96.764827 -2.498436922e-05 2.333204614
-173.246736 -22.36626492 41.49990261
-89.307448 1.060626156 41.49990261
-194.658078 -17.91340128 47.49990261
-234.735982 -2.498436922e-05 19.66394061
-194.662742 -2.498436922e-05 -1.768285386
-181.946 -33.72939645 47.49990261
-244.601173 -2.498436922e-05 16.66120161
-37.295309 -16.14750536 41.49990261
-198.895269 -2.498436922e-05 2.758300614
-180.226985 -2.498436922e-05 35.66353161
-135.483768 -2.498436922e-05 -7.480621386
-33.702178 -25.85437183 41.49990261
-192.501202 -13.31066887 47.49990261
-83.839855 -2.498436922e-05 -33.78490339
-37.979154 -24.74171834 41.49990261
-148.559251 -36.75981675 41.49990261
-226.917891 -79.63553243 41.49990261
-210.41871 -2.498436922e-05 -48.10946039
-241.024035 -2.498436922e-05 -8.085390386
-94.741298 -57.43603088 47.49990261
-150.424218 -6.484274004 47.49990261
-27.980356 -2.498436922e-05 1.358667614
-48.013426 -2.498436922e-05 15.95781161
-227.252975 -41.99577654 41.49990261
-63.473685 -57.20516216 47.49990261
-181.679937 -63.0611477 47.49990261
-200.517424 -2.498436922e-05 -8.251822386
-176.255294 -59.82498214 41.49990261
-200.734814 -35.46385918 41.49990261
-182.777055 -2.498436922e-05 -18.45760139
-180.64992 -68.00002402 43.75582861
-113.109367 -62.05514052 47.49990261
-42.441205 -2.498436922e-05 41.03858461
-195.056253 -68.00002402 47.15467761
-4.034087 -2.498436922e-05 -32.96607339
-145.062599 -2.498436922e-05 -23.23257639
-230.491345 -44.42521678 41.49990261
-248.379599 -2.498436922e-05 -36.81602839
-129.292081 1.554709126 41.49990261
-214.961632 -2.498436922e-05 -4.381114386
-230.175835 -51.01453637 41.49990261
-190.091331 -55.98627519 41.49990261
-247.725671 -19.49473937 41.49990261
-51.41539 -30.8590885 41.49990261
-143.970659 -2.498436922e-05 -40.84233239
-101.661653 -2.498436922e-05 33.43074061
-9.986381 -66.21634196 41.49990261
-121.885022 -48.31776789 47.49990261
-46.089078 -2.498436922e-05 12.75064961
-78.365758 -2.498436922e-05 -20.20899139
-71.926393 -2.498436922e-05 -41.31978239
-151.914764 -53.22187674 47.49990261
-228.672457 -48.10623294 47.49990261
-196.873094 -44.1671705 41.49990261
-98.099115 -19.3872675 47.49990261
-53.663995 -47.21434431 41.49990261
-59.047421 -2.498436922e-05 -34.72011439
-82.177245 -34.56596215 41.49990261
-70.214899 -2.498436922e-05 -44.09655539
-87.989758 -27.43304469 41.49990261
-163.325087 -2.498436922e-05 -19.53238939
-130.746345 -67.27658197 47.49990261
-99.657393 -57.66520398 41.49990261
-251.724424 -2.498436922e-05 -18.87820939
-40.193657 -19.6317033 41.49990261
-107.523898 -65.38519319 47.49990261
-10.935862 -2.498436922e-05 -6.636001386
-169.334923 -7.798512854 41.49990261
-104.782483 -3.284402974 41.49990261
-83.450936 1.076001566 47.49990261
-38.215044 -29.15989146 41.49990261
-171.915512 -2.498436922e-05 39.04472061
0.5896340001 -23.94097449 40.49990261
-83.023811 -2.498436922e-05 -10.42804939
-166.202664 -2.498436922e-05 37.74861061
-108.799759 -66.52329156 41.49990261
-44.577966 -2.498436922e-05 -11.04903939
-202.319777 -42.89556366 41.49990261
-237.223015 -2.498436922e-05 38.61422161
-20.921158 -1.399681324 47.49990261
-216.210523 -48.23483057 47.49990261
-231.497018 -2.498436922e-05 -2.272540386
-113.823903 -25.42042733 41.49990261
-147.364183 -2.498436922e-05 -41.84689839
-198.959747 -2.498436922e-05 11.60976561
-232.266932 -2.498436922e-05 -25.88418039
-246.192046 -8.541415644 47.49990261
-176.998152 -68.00002402 43.11961861
-65.462305 -57.58272172 47.49990261
-4.346315 -60.77655906 41.49990261
-96.030896 -56.79126758 41.49990261
-176.771912 -6.124065284 41.49990261
-49.377633 -68.00002402 45.73126861
-206.326075 -2.498436922e-05 16.94698061
-112.409284 -2.498436922e-05 -13.16688539
-220.580004 -2.498436922e-05 -39.10113939
-117.639462 -2.498436922e-05 -29.38992739
-232.215445 -2.498436922e-05 8.115370614
-216.325278 -38.3866919 47.49990261
-65.234242 -31.60755778 47.49990261
-240.18603 -2.498436922e-05 22.81157761
-131.428876 -10.31338358 41.49990261
-46.98077 -3.422993674 41.49990261
-73.975059 -2.498436922e-05 19.29484461
-93.873099 -41.01400465 47.49990261
-205.778546 -57.45987288 47.49990261
-86.792724 -16.31078972 41.49990261
-114.136705 -2.498436922e-05 35.32881761
-236.695198 -5.566573164 41.49990261
-80.653757 -2.498436922e-05 -3.867964386
-139.303894 -2.498436922e-05 -28.71998939
-80.696442 -19.74080667 41.49990261
-158.486352 -26.23723805 47.49990261
-199.731865 -2.498436922e-05 8.729940614
-110.103471 -64.58480739 47.49990261
-53.797157 -38.94330145 47.49990261
-115.003089 -19.08081048 41.49990261
-78.6915 -9.401953114 47.49990261
-36.799977 -10.45926365 41.49990261
-190.918811 -10.13644491 47.49990261
-160.796309 -8.398280194 41.49990261
-68.849512 -2.498436922e-05 17.04703561
-238.811648 -71.3411833 47.49990261
-68.540063 -2.498436922e-05 -4.173437386
-144.10238 -14.25790095 47.49990261
-128.522485 -57.30382475 47.49990261
-148.121674 -0.6871011644 41.49990261
-63.693093 -2.498436922e-05 0.7933026141
-45.990539 -2.498436922e-05 8.878546614
-116.987011 -2.498436922e-05 -9.502997386
-101.514757 -41.71656321 47.49990261
-79.012048 -22.00925127 41.49990261
-54.981923 -37.99568528 41.49990261
-169.317992 -2.498436922e-05 -12.76087139
-209.431651 -2.498436922e-05 7.238202614
-89.477907 -2.498436922e-05 20.90782461
-235.125876 -2.498436922e-05 2.486514614
-10.980297 -68.00002402 45.11819161
-64.558116 -2.498436922e-05 -10.36199239
-11.32787 -52.71528188 41.49990261
-220.660002 -2.498436922e-05 -13.72062639
-15.453029 -2.498436922e-05 -12.99215639
-126.507462 -57.39566016 47.49990261
-216.598957 -35.23402607 41.49990261
-217.365368 -21.31345969 47.49990261
-161.238035 -2.498436922e-05 16.89006561
-133.704749 -40.82477721 47.49990261
-72.085714 0.08131525563 41.49990261
-234.795628 -41.18179371 47.49990261
-88.92268 -32.04982673 41.49990261
-193.431758 -42.95376588 41.49990261
-185.733727 -28.68078892 47.49990261
-98.833718 0.2196362756 41.49990261
-242.646462 -2.498436922e-05 37.20247461
-163.160946 -2.498436922e-05 -11.82362739
-197.98827 -36.20721028 41.49990261
-37.626755 -3.270642064 41.49990261
-176.932472 -2.498436922e-05 -14.36437039
-64.507243 -2.498436922e-05 -25.52045739
-109.872797 -5.438811934 47.49990261
-126.451341 -37.05291087 41.49990261
-154.00821 -10.58019195 41.49990261
-136.255654 -52.53752871 47.49990261
-7.752504 -10.86581482 47.49990261
-96.380429 -30.81179681 47.49990261
-164.421871 -2.498436922e-05 -2.955932386
-221.654547 -3.149336234 47.49990261
-122.061585 -2.498436922e-05 -7.492613386
-171.94752 -2.498436922e-05 3.529902614
-212.635491 -12.54839677 47.49990261
-87.287818 -2.498436922e-05 5.072080614
-161.445846 -4.753296414 47.49990261
-136.163233 -2.498436922e-05 29.93266661
-134.936914 -63.16640352 41.49990261
-229.412645 -22.28962279 41.49990261
-171.311138 -6.470561134 41.49990261
-119.91977 -2.498436922e-05 2.626640614
-86.016254 -2.958530354 47.49990261
-58.603128 -23.39743031 47.49990261
-76.011455 -2.498436922e-05 -18.28159639
-226.242207 -67.74218767 47.49990261
-246.082789 -62.04626423 47.49990261
-146.040546 -2.498436922e-05 -31.04643839
-176.59753 -2.498436922e-05 27.26830761
-147.563354 -2.498436922e-05 20.86325461
-188.173041 -11.38777552 41.49990261
-195.36688 -41.03024263 47.49990261
-140.697007 -25.64735875 47.49990261
-76.497838 -4.255242304 41.49990261
-12.068546 -45.95129454 47.49990261
-149.611877 -2.498436922e-05 -39.53349339
-83.599266 -2.498436922e-05 14.71553461
-232.992736 -4.915922954 41.49990261
-239.571745 -8.043745924 41.49990261
-150.123822 -2.498436922e-05 -34.17221739
-45.29966 -57.63059065 47.49990261
-62.493022 -45.86580836 47.49990261
-159.579637 -7.617425934 41.49990261
-152.936514 -13.03488054 41.49990261
-145.75924 -33.96000682 47.49990261
-242.857718 -70.06629383 41.49990261
-4.986803 -2.498436922e-05 -32.19690439
-126.935096 -54.76300723 47.49990261
-5.026117 -47.22891282 47.49990261
-146.577365 -2.498436922e-05 -40.91763839
-159.398412 0.1843366856 41.49990261
-216.057193 -41.04342029 47.49990261
0.4813530001 -2.498436922e-05 26.18563061
-181.408161 -2.498436922e-05 35.65326161
-224.349284 -61.11216962 47.49990261
-114.37109 -2.498436922e-05 -0.9080953859
-23.693898 -2.498436922e-05 29.49083061
-244.913413 -0.5936290444 41.49990261
-174.411907 -14.26213674 47.49990261
-56.076507 -36.20607173 47.49990261
-223.224035 -2.498436922e-05 -28.99570539
-169.65579 -2.498436922e-05 14.49063461
-138.438364 -2.498436922e-05 30.47035461
-37.917843 -21.15052809 47.49990261
-28.553388 -22.90404823 47.49990261
-73.08605 -2.498436922e-05 20.17040361
-237.553275 -2.498436922e-05 -36.74491839
-116.037871 -2.498436922e-05 -27.77720839
-100.154097 -16.65768804 41.49990261
-135.616518 -2.498436922e-05 -44.82726139
-127.615168 -2.498436922e-05 -42.18845039
-207.768601 -2.498436922e-05 -34.63294839
-89.409065 -21.65506718 47.49990261
-230.096971 -78.39258358 41.49990261
-215.298234 -2.498436922e-05 23.30312261
-45.953171 -2.044653894 41.49990261
-219.419272 -2.498436922e-05 -0.1835903859
-102.912722 -44.9294313 41.49990261
0.6650850001 -2.498436922e-05 -45.59840739
-238.268897 -63.85238053 47.49990261
-188.179604 -2.498436922e-05 -33.39465839
-206.564778 1.624475746 47.49990261
-124.404083 -13.89459878 47.49990261
-166.56875 -2.498436922e-05 -14.98431639
-176.881347 -2.498436922e-05 -39.17473839
-69.862889 -11.80798955 41.49990261
-136.776115 -2.498436922e-05 -26.80374639
-125.695717 -62.96490952 41.49990261
-20.469048 -40.69535475 47.49990261
-3.888506 -60.08483052 41.49990261
-130.946617 -17.71444597 41.49990261
-48.451388 -31.37298925 41.49990261
-3.289428 -2.498436922e-05 -27.54774639
-243.684218 -50.58346283 47.49990261
-159.643473 -6.412060274 41.49990261
-186.691703 -27.36319783 41.49990261
-4.742085 -61.40942587 41.49990261
-168.226035 -2.498436922e-05 13.49217161
-235.321423 -31.49436174 41.49990261
-190.305396 -53.18341556 47.49990261
-219.193842 -2.498436922e-05 -48.57772739
-171.440284 -2.498436922e-05 -23.68460539
-31.995412 -2.498436922e-05 9.883957614
-231.047173 -78.46349439 41.49990261
-81.392809 -2.498436922e-05 31.87871661
-208.748604 -13.42692721 47.49990261
-159.53454 -41.28342807 41.49990261
-104.68625 -2.498436922e-05 -5.407469386
-135.972148 -2.498436922e-05 -46.42318339
-250.218309 -56.63759235 41.49990261
-199.438492 -2.498436922e-05 11.24833961
-189.835011 -42.90109647 41.49990261
-99.90425 -2.498436922e-05 29.82761561
-121.244163 -65.47395502 47.49990261
-232.844878 -2.498436922e-05 -12.26657039
-174.226575 -24.03580829 41.49990261
-37.765881 -29.41152685 41.49990261
-231.943409 -2.498436922e-05 13.37939061
-167.08327 -2.498436922e-05 13.42979961
-216.575451 -20.4177405 47.49990261
-137.523598 -2.498436922e-05 -41.33225939
0.9942530001 -28.32370576 47.49990261
-71.723109 -2.498436922e-05 20.36701561
-230.25066 -21.48260122 41.49990261
-205.902659 1.019922596 47.49990261
-68.36073 -2.498436922e-05 -44.56989639
-204.120839 -56.72232554 47.49990261
-172.140664 -2.498436922e-05 20.22636561
-239.891417 -50.64685315 41.49990261
-134.208839 -23.42869453 47.49990261
-70.070954 -2.498436922e-05 -44.16390639
-62.82893 2.218854686 47.49990261
-85.182776 2.309803616 47.49990261
-206.564778 1.624475746 47.49990261
-149.669198 1.973087976 47.49990261
-250.964904 -101.2228123 47.49990261
-250.299131 -93.68243774 47.49990261
-240.840405 -94.2353047 47.49990261
-248.954913 -88.5523949 47.49990261
-246.382213 -95.65414276 47.49990261
-227.116022 -76.4386898 47.49990261
-251.11219 -74.61357878 47.49990261
-223.697836 -73.79365301 47.49990261
-218.142664 -72.62221118 47.49990261
-238.811648 -71.3411833 47.49990261
-237.126251 -70.69556567 47.49990261
-251.65527 -70.36484804 47.49990261
-248.179669 -70.36897498 47.49990261
-227.643868 -67.41258722 47.49990261
-224.87512 -68.97302421 47.49990261
-226.242207 -67.74218767 47.49990261
-243.070332 -69.11362206 47.49990261
-239.0857 -64.35293561 47.49990261
-238.268897 -63.85238053 47.49990261
-246.082789 -62.04626423 47.49990261
-246.781484 -60.7890635 47.49990261
-181.679937 -63.0611477 47.49990261
-241.860347 -58.22010219 47.49990261
-230.70231 -49.01250956 47.49990261
-5.199973 -48.43467906 47.49990261
-114.675427 -55.57285469 47.49990261
-96.863509 -58.43881673 47.49990261
-233.669668 -61.42551323 47.49990261
-130.790154 -62.81051152 47.49990261
-48.820153 -47.89872164 47.49990261
-142.75494 -61.39858779 47.49990261
-197.232245 -67.33134565 47.49990261
-224.095802 -50.35368819 47.49990261
-169.699229 -58.56177922 47.49990261
-124.982542 -56.67338681 47.49990261
-189.777221 -53.63602121 47.49990261
-232.222076 -53.87675503 47.49990261
-197.035037 -51.63576452 47.49990261
-92.318832 -48.5442226 47.49990261
-45.040375 -56.37047242 47.49990261
-48.281974 -59.37152216 47.49990261
-195.668212 -64.43505404 47.49990261
-3.836689 -54.07847261 47.49990261
-169.321121 -48.3636517 47.49990261
-153.118242 -47.65332471 47.49990261
-136.255654 -52.53752871 47.49990261
-22.308963 -61.56322249 47.49990261
-194.472262 -51.9435156 47.49990261
-209.230444 -63.72595356 47.49990261
-105.102727 -57.0713364 47.49990261
-241.604109 -49.26056039 47.49990261
-74.876548 -61.79460602 47.49990261
-76.997001 -58.97570429 47.49990261
-55.369642 -53.57438478 47.49990261
-212.632789 -64.15419586 47.49990261
-199.279867 -55.96995038 47.49990261
-243.310953 -51.28337865 47.49990261
-244.62991 -57.595217 47.49990261
-224.349284 -61.11216962 47.49990261
-210.003331 -48.25836027 47.49990261
-127.006756 -64.01370673 47.49990261
-45.29966 -57.63059065 47.49990261
-181.097009 -47.60215547 47.49990261
-224.707505 -60.00129514 47.49990261
-179.965203 -61.13106623 47.49990261
-91.127821 -56.28521145 47.49990261
-25.842199 -59.11441304 47.49990261
-135.136713 -51.4165533 47.49990261
-35.703031 -56.6046769 47.49990261
-190.305396 -53.18341556 47.49990261
-130.786996 -49.38204392 47.49990261
-162.141185 -64.28132413 47.49990261
-60.314858 -48.90579794 47.49990261
-182.779463 -52.77982319 47.49990261
-39.98319 -62.59411145 47.49990261
-149.171813 -58.6857186 47.49990261
-205.778546 -57.45987288 47.49990261
-239.004442 -52.86698411 47.49990261
-127.75055 -55.67266048 47.49990261
-172.190603 -56.79891711 47.49990261
-122.853939 -62.79535621 47.49990261
-112.90102 -53.24175628 47.49990261
-128.522485 -57.30382475 47.49990261
-238.661354 -47.05901269 47.49990261
-65.406893 -55.54462106 47.49990261
-139.661111 -51.74874283 47.49990261
0.1096150001 -54.60757278 47.49990261
-153.928218 -64.55638262 47.49990261
-151.914764 -53.22187674 47.49990261
-113.109367 -62.05514052 47.49990261
-204.375872 -61.31360235 47.49990261
-126.935096 -54.76300723 47.49990261
-74.023248 -49.07992602 47.49990261
-82.036968 -51.74501188 47.49990261
-28.103133 -47.99161695 47.49990261
-40.753041 -47.29663053 47.49990261
-175.7572 -55.6912289 47.49990261
-57.80063 -58.01743458 47.49990261
-83.025918 -54.56302564 47.49990261
-160.0386 -49.6294254 47.49990261
-63.473685 -57.20516216 47.49990261
-249.685828 -55.7294857 47.49990261
-126.507462 -57.39566016 47.49990261
-228.672457 -48.10623294 47.49990261
-149.814467 -52.48451609 47.49990261
-187.251212 -63.33556914 47.49990261
-237.297924 -59.56242341 47.49990261
-90.737156 -53.52067975 47.49990261
-204.120839 -56.72232554 47.49990261
-205.520684 -66.70616457 47.49990261
-128.976913 -59.04132485 47.49990261
-30.32908 -52.23327223 47.49990261
-5.026117 -47.22891282 47.49990261
-167.599767 -62.04080216 47.49990261
-44.763936 -46.97323793 47.49990261
-121.610518 -65.89204764 47.49990261
-243.684218 -50.58346283 47.49990261
-189.49665 -67.65299623 47.49990261
-121.885022 -48.31776789 47.49990261
-110.687591 -55.61180299 47.49990261
-146.893422 -64.18668552 47.49990261
-180.231501 -64.88921083 47.49990261
-94.741298 -57.43603088 47.49990261
-216.210523 -48.23483057 47.49990261
-107.523898 -65.38519319 47.49990261
-15.217609 -50.10314649 47.49990261
-214.303425 -49.04718356 47.49990261
-111.847788 -63.99088658 47.49990261
-204.148374 -56.44742867 47.49990261
-110.103471 -64.58480739 47.49990261
-65.402052 -60.24729803 47.49990261
-62.52566 -55.07310492 47.49990261
-201.836059 -58.20297185 47.49990261
-65.462305 -57.58272172 47.49990261
-115.11646 -64.2149049 47.49990261
-121.244163 -65.47395502 47.49990261
-5.433633 -52.13187854 47.49990261
-29.337064 -56.36467472 47.49990261
-61.679137 -44.87017231 47.49990261
-62.493022 -45.86580836 47.49990261
-209.74183 -44.91945917 47.49990261
-10.933669 -45.25299897 47.49990261
-248.650296 -45.51777542 47.49990261
-122.302822 -46.1143547 47.49990261
-106.483473 -45.18676112 47.49990261
-12.068546 -45.95129454 47.49990261
-171.371257 -44.96517416 47.49990261
-14.616169 -46.08165257 47.49990261
-75.886792 -44.94788204 47.49990261
-136.106059 -45.98829282 47.49990261
-95.368217 -46.32970197 47.49990261
-98.420107 -44.63147485 47.49990261
-90.536794 -44.53952568 47.49990261
-150.312168 -43.58673805 47.49990261
-101.028966 -43.4152131 47.49990261
-174.022326 -43.47143914 47.49990261
-57.909986 -43.06087115 47.49990261
-70.941665 -42.81017523 47.49990261
-94.017002 -42.94638903 47.49990261
-0.2597679999 -42.24934071 47.49990261
-134.68682 -42.38945614 47.49990261
-131.295268 -42.45472561 47.49990261
-41.700058 -42.2253367 47.49990261
-165.520314 -42.42137772 47.49990261
-43.966771 -14.17322417 47.49990261
-101.514757 -41.71656321 47.49990261
-145.75924 -33.96000682 47.49990261
-41.37097 -27.78159872 47.49990261
-33.525092 -36.53738544 47.49990261
-44.241043 -39.77682443 47.49990261
-201.737427 -29.13278677 47.49990261
-50.939691 -40.01855366 47.49990261
-97.912741 -31.16178757 47.49990261
-56.69341 -35.2746061 47.49990261
-131.823064 -22.06015913 47.49990261
-58.603128 -23.39743031 47.49990261
-29.534648 -13.63860657 47.49990261
-124.993155 -25.69980479 47.49990261
-52.264927 -37.63140836 47.49990261
-184.231509 -34.42920168 47.49990261
-125.757015 -39.29966367 47.49990261
-12.26143 -30.42534387 47.49990261
-21.169705 -19.72074468 47.49990261
-134.339866 -23.31847904 47.49990261
-90.942215 -26.58624784 47.49990261
-158.486352 -26.23723805 47.49990261
-54.604841 -40.59777087 47.49990261
-172.986231 -35.99720445 47.49990261
-27.026217 -14.42391467 47.49990261
-156.716826 -26.83085195 47.49990261
-46.77297 -23.36683987 47.49990261
1.34167 -28.1431781 47.49990261
0.6904310001 -13.37400515 47.49990261
-68.582282 -31.66497051 47.49990261
-48.246934 -31.5901485 47.49990261
-113.863415 -23.61468528 47.49990261
-16.438948 -30.74261396 47.49990261
-80.006978 -35.94961593 47.49990261
-147.984291 -35.45797161 47.49990261
-63.284783 -18.66673491 47.49990261
-98.033151 -21.60430716 47.49990261
-48.527416 -38.03372358 47.49990261
-53.797157 -38.94330145 47.49990261
-81.619802 -17.39872625 47.49990261
-56.076507 -36.20607173 47.49990261
-150.127813 -33.60916368 47.49990261
-141.319984 -26.85971282 47.49990261
0.9942530001 -28.32370576 47.49990261
-36.215769 -35.65190155 47.49990261
-58.955902 -21.9887166 47.49990261
-211.460447 -32.8088986 47.49990261
-19.912221 -37.26424506 47.49990261
-184.438647 -27.69904843 47.49990261
-28.847487 -19.1728873 47.49990261
-90.181521 -22.26699604 47.49990261
-215.324767 -40.0861609 47.49990261
-104.810056 -36.09403747 47.49990261
-129.337201 -35.8451089 47.49990261
-93.873099 -41.01400465 47.49990261
-7.979805 -19.56995668 47.49990261
-28.553388 -22.90404823 47.49990261
-1.216852 -10.05469154 47.49990261
-106.293884 -22.99374842 47.49990261
-13.278828 -35.7478629 47.49990261
-204.74967 -39.55437259 47.49990261
-235.083013 -39.56182691 47.49990261
-13.1802 -26.37385246 47.49990261
-100.944304 -39.05606685 47.49990261
-2.486202 -21.78559937 47.49990261
-137.860159 -32.35862381 47.49990261
-216.057193 -41.04342029 47.49990261
-195.36688 -41.03024263 47.49990261
-221.897505 -33.01370762 47.49990261
-190.461209 -30.15761409 47.49990261
-181.946 -33.72939645 47.49990261
-220.945023 -41.30702432 47.49990261
-41.244904 -34.19198123 47.49990261
-100.485899 -23.66527127 47.49990261
-64.822251 -25.79123674 47.49990261
-134.208839 -23.42869453 47.49990261
-98.099115 -19.3872675 47.49990261
-185.733727 -28.68078892 47.49990261
-36.93512 -21.5255391 47.49990261
-246.175899 -36.59124047 47.49990261
-20.461363 -15.17550974 47.49990261
-224.396182 -31.39700072 47.49990261
-9.418074 -30.17110114 47.49990261
-11.06596 -33.68678638 47.49990261
-21.296992 -40.57715792 47.49990261
-65.234242 -31.60755778 47.49990261
-245.115721 -39.72223476 47.49990261
-47.6149 -20.24499819 47.49990261
-85.156693 -26.01777971 47.49990261
-228.940544 -35.32233629 47.49990261
-137.21755 -35.23799698 47.49990261
-63.855691 -14.95507303 47.49990261
-159.648451 -40.88854803 47.49990261
-133.407944 -39.17364781 47.49990261
-1.68544 -32.79594402 47.49990261
-50.2298 -19.59990118 47.49990261
-8.609454 -22.6440556 47.49990261
-29.962837 -32.61761742 47.49990261
-90.912552 -38.60750019 47.49990261
-145.56317 -32.72930712 47.49990261
-234.795628 -41.18179371 47.49990261
-96.380429 -30.81179681 47.49990261
-7.954803 -9.306064104 47.49990261
-27.126599 -39.56376914 47.49990261
-27.51516 -22.76168853 47.49990261
-64.08813 -33.20632593 47.49990261
-181.42079 -36.56240233 47.49990261
-67.244356 -35.05333957 47.49990261
-89.409065 -21.65506718 47.49990261
-48.546906 -40.68420443 47.49990261
-37.917843 -21.15052809 47.49990261
-54.420716 -33.62633763 47.49990261
-179.1377 -31.3879832 47.49990261
-133.704749 -40.82477721 47.49990261
-30.316713 -24.39425205 47.49990261
-76.37001 -21.34810605 47.49990261
-130.93807 -39.8544246 47.49990261
-83.090839 -32.19113471 47.49990261
-61.377261 -24.01831889 47.49990261
-20.469048 -40.69535475 47.49990261
-7.752504 -10.86581482 47.49990261
-179.420405 -39.3469136 47.49990261
-120.370797 -39.24050382 47.49990261
-194.175006 -41.71672816 47.49990261
-146.709758 -26.94970178 47.49990261
-140.697007 -25.64735875 47.49990261
-216.325278 -38.3866919 47.49990261
-184.76219 -31.6972759 47.49990261
-119.583728 -34.07225033 47.49990261
-170.322111 -25.57182401 47.49990261
-115.026046 -19.97351499 47.49990261
0.2052310001 -7.972405424 47.49990261
-244.690045 -32.55926361 47.49990261
-13.627631 -5.221041494 47.49990261
-181.326198 -25.06910986 47.49990261
