# .PCD v0.7 - Point Cloud Data file format
VERSION 0.7
FIELDS x y z
SIZE 4 4 4
TYPE F F F
COUNT 1 1 1
WIDTH 1230
HEIGHT 1
VIEWPOINT 0 0 0 1 0 0 0
POINTS 1230
DATA ascii
-76.710351 -66.65665332 -9.738557628e-05
-181.92554 -2.498426295e-05 132.3109126
-152.119992 -44.80155624 -9.738557628e-05
165.153288 -2.498426295e-05 67.75886761
-5.837732 -2.498426295e-05 227.4024076
143.04725 -2.498426295e-05 129.9877276
-58.139147 2.204343296 -9.738557628e-05
414.159582 -0.5000249843 93.75948661
424.398481 -2.498426295e-05 191.3065146
76.174094 1.528448276 252.2163236
360.986555 0.2860984857 -9.738557628e-05
-146.717561 -2.498426295e-05 16.13367061
92.885815 -51.98567673 -9.738557628e-05
32.468268 -17.39142635 -9.738557628e-05
221.969068 -2.498426295e-05 69.64810461
-274.382122 -2.498426295e-05 249.8740436
346.46145 -2.498426295e-05 53.23722161
280.810143 -2.498426295e-05 135.6027096
-248.52525 -2.498426295e-05 144.6752346
47.268747 -45.88057319 -9.738557628e-05
-113.31592 -2.498426295e-05 12.32211461
-259.823032 -2.498426295e-05 55.77077861
280.220722 -54.88602402 242.1761926
-388.242952 -2.498426295e-05 17.07437061
-340.849492 -41.03113032 -9.738557628e-05
89.21112 -35.65510493 251.1902866
408.499971 -103.3025092 155.3279046
-412.500029 -42.84379742 30.50391861
124.804884 -2.498426295e-05 160.3029596
-224.04371 -19.91869213 -9.738557628e-05
-411.783405 -70.00002402 139.7173546
412.499971 -144.4944714 100.0107256
-304.517469 -2.498426295e-05 113.2561796
313.730448 -22.72528485 233.5202136
329.519602 -2.498426295e-05 109.0099156
-71.585136 -2.498426295e-05 42.36519561
429.785961 -95.93504935 52.99990261
261.608226 -2.498426295e-05 147.1260046
320.202358 -50.82081392 239.0295786
408.499971 -14.06958067 36.50156561
360.301305 -2.498426295e-05 138.5802236
384.282528 -2.498426295e-05 38.82647161
-44.415358 -2.498426295e-05 171.1006576
-138.223315 -2.498426295e-05 152.6811816
-412.500029 -61.02159752 181.4784906
182.501759 -14.61235903 243.8481466
-412.500029 -62.86094237 54.28912461
-382.852297 -2.498426295e-05 201.5836246
-408.500029 -11.3788292 106.6362606
44.884025 -2.498426295e-05 102.5647106
240.932812 -30.60791459 239.2495176
-348.582556 -2.498426295e-05 230.4423806
-72.241842 -2.498426295e-05 229.9010066
-260.975532 -2.498426295e-05 127.2957566
-231.906321 -2.498426295e-05 175.4894276
-120.3273 -2.498426295e-05 251.7301676
81.751123 -2.498426295e-05 76.27167761
-331.880822 -2.498426295e-05 215.2346576
416.499971 -85.25315494 105.3136536
-281.224826 -2.498426295e-05 84.93444461
112.168037 -11.06756784 249.3835356
201.957788 -2.498426295e-05 41.70868561
-137.284201 -2.498426295e-05 90.83197261
-411.894086 -88.34475928 86.46498061
-98.793195 -2.498426295e-05 248.8554486
412.499971 -120.7111506 123.5973696
423.630261 -2.498426295e-05 42.31299661
-13.021185 -55.57342654 -9.738557628e-05
-415.67834 -18.52802751 -9.738557628e-05
46.733918 -2.498426295e-05 10.18786661
413.130263 -48.23667259 227.9999026
412.725837 -199.6397966 202.4257906
10.019373 -2.498426295e-05 18.54470161
344.672636 -51.68752048 237.1037306
416.499971 -211.3741866 103.6573846
-353.933884 -14.64484037 -9.738557628e-05
335.688525 -26.60061038 -9.738557628e-05
-37.600297 -2.498426295e-05 135.3180496
315.023435 -52.09848988 -9.738557628e-05
-408.500029 -68.18421877 118.0365046
236.192845 -2.498426295e-05 31.52527061
260.216437 -2.498426295e-05 70.71421261
18.751984 -2.498426295e-05 143.8350626
384.182811 -2.498426295e-05 144.1089146
416.499971 -184.4664103 97.48946961
-218.655372 -2.498426295e-05 59.10489961
374.865352 -2.498426295e-05 79.23114661
297.118656 -2.498426295e-05 125.8538306
-398.511038 -45.79379971 -9.738557628e-05
412.499971 -115.4504443 191.8652656
391.77782 -19.61535342 -9.738557628e-05
-408.500029 -77.78916847 249.4423856
408.499971 -38.08160174 184.4204446
-299.342868 -2.498426295e-05 95.05844961
415.364646 -135.8966646 50.89891161
-191.72155 -67.37065306 -9.738557628e-05
243.49958 -16.62824377 -9.738557628e-05
379.294335 -2.498426295e-05 12.56478861
-374.669593 -15.53507839 -9.738557628e-05
-13.585089 -19.92381224 -9.738557628e-05
414.888169 -211.6307869 51.30052061
411.979317 1.261915546 -9.738557628e-05
412.499971 -9.817655044 155.2129346
219.252401 -63.76319147 246.9744906
416.499971 -84.47872076 124.6405216
-214.043232 -39.36497567 -9.738557628e-05
416.499971 -141.7411801 183.2548256
-104.056499 -47.05037569 -9.738557628e-05
-78.70611 -2.498426295e-05 145.5284926
387.983295 -2.498426295e-05 62.50789961
416.499971 -91.86174533 187.8696006
-283.931566 -17.42363326 -9.738557628e-05
-336.590157 -2.498426295e-05 192.1749686
408.499971 -41.3005514 51.75917161
10.043779 -2.498426295e-05 199.2518826
151.877784 -2.498426295e-05 218.3317656
197.389825 -2.498426295e-05 178.5182536
349.602013 -2.498426295e-05 71.68960461
-135.628966 -2.498426295e-05 127.6427156
146.259816 -2.498426295e-05 174.6173246
87.042691 -2.498426295e-05 189.3189626
-75.353123 -2.498426295e-05 61.49123061
348.465741 -2.498426295e-05 26.23138761
412.499971 -105.4843751 135.2579146
-47.618054 -39.3952677 -9.738557628e-05
422.666484 -251.8114326 208.9999026
392.864512 -68.00002402 -2.017265386
343.451822 -20.9257339 231.1810876
-75.675269 -2.498426295e-05 196.6813486
-165.171214 -2.498426295e-05 193.4456836
211.444456 -43.75141511 241.5703036
-412.500029 -93.37688224 62.43498261
412.499971 -161.6720645 68.55753761
428.690204 -62.8119936 -9.738557628e-05
30.738 -2.498426295e-05 212.8594246
416.499971 -200.1953965 138.5009316
251.857027 -52.38923955 -9.738557628e-05
334.221502 -47.44326459 -9.738557628e-05
408.499971 -78.55287626 54.05580661
249.858674 -54.78614582 238.5470366
-313.442671 -2.498426295e-05 179.0917326
161.16825 -2.498426295e-05 98.03065661
-365.202134 -2.498426295e-05 91.19032761
416.499971 -237.8551128 180.3946536
-366.534482 -2.498426295e-05 68.27175661
-242.154231 -2.498426295e-05 190.7901436
-412.500029 -30.72565854 76.94184461
412.499971 -239.9464555 63.06634361
329.770565 -2.498426295e-05 135.5037116
316.674738 -2.498426295e-05 194.6647966
-227.813692 -60.32200818 -9.738557628e-05
-321.944228 -2.498426295e-05 151.1898776
416.499971 -180.1902508 171.6103216
323.215874 -2.498426295e-05 81.23459961
430.630989 -2.498426295e-05 170.7333896
281.180498 -32.46021533 236.0819526
-17.294345 -2.498426295e-05 21.54941161
144.945284 -57.7802878 246.8039076
72.493571 -2.498426295e-05 135.8016246
69.724209 -23.10521556 -9.738557628e-05
-39.18344 -2.498426295e-05 83.30072561
358.763838 -2.498426295e-05 156.9976076
-206.622537 -2.498426295e-05 200.8606026
416.499971 -157.1547785 118.0642656
-4.24164 -2.498426295e-05 209.7839596
-384.241271 -2.498426295e-05 163.7157796
432.971877 -213.7573333 52.99990261
192.029094 -47.06246458 -9.738557628e-05
316.297866 -2.498426295e-05 31.69182661
-405.90759 -2.498426295e-05 174.5463006
202.222143 -2.498426295e-05 66.78743361
171.286846 -2.498426295e-05 18.46401761
168.030186 -2.725249724 251.0057556
203.436046 -2.498426295e-05 156.6490906
-100.516886 -2.498426295e-05 116.5316576
412.499971 -237.0579492 200.2133956
31.975362 -2.498426295e-05 73.20136161
-98.981141 -2.498426295e-05 220.8289376
408.499971 -72.34449597 162.6179636
-48.218792 -2.498426295e-05 121.1588166
-109.218097 -14.57367377 -9.738557628e-05
-75.136856 -3.331226084 -9.738557628e-05
412.499971 -138.0690288 155.1103216
-52.808752 -2.498426295e-05 22.21657561
-29.418199 -3.646579634 -9.738557628e-05
-408.500029 -63.1361435 87.59584961
-319.879345 -2.498426295e-05 251.5134206
324.189069 -7.710870964 -9.738557628e-05
-412.996479 0.008552875737 66.48665361
-169.726151 -2.498426295e-05 157.9125966
227.968359 -2.498426295e-05 208.8685936
323.880608 -2.498426295e-05 157.3148776
61.42314 -2.498426295e-05 165.0059326
1.855092 -46.1905539 -9.738557628e-05
139.615814 -17.24849301 -9.738557628e-05
-342.092937 -0.4184707643 -9.738557628e-05
-412.500029 -17.39542859 87.95989361
-340.370585 -2.498426295e-05 103.5761946
412.499971 -201.1185903 64.78329361
19.219147 -55.43071286 -9.738557628e-05
412.499971 -247.7271919 91.29425961
408.499971 -62.05314641 209.1849896
413.278523 -2.498426295e-05 204.7963646
130.368503 -2.498426295e-05 36.27787961
-367.286476 -2.498426295e-05 212.6199856
-195.830778 -2.498426295e-05 35.88008961
278.228096 -68.00002402 -2.080828386
430.287143 0.3313254657 227.9999026
-264.59388 -2.498426295e-05 181.0275936
-6.3201 -2.498426295e-05 85.74225661
-20.847355 -2.498426295e-05 138.9756016
-22.012757 -2.498426295e-05 95.35232261
-408.546565 -145.000025 54.59654161
-257.544389 -2.498426295e-05 240.5997136
229.199228 -40.45311838 -9.738557628e-05
-21.129521 -2.498426295e-05 175.0660876
-307.606212 -2.498426295e-05 237.2293986
141.099741 -2.498426295e-05 19.64363061
13.610608 -2.498426295e-05 49.37039861
-412.500029 -54.31913016 197.1779156
107.5148 -2.498426295e-05 126.8781096
420.87747 -148.1299751 204.9999026
-171.293223 -2.498426295e-05 16.01062661
370.62367 1.497105326 235.0613456
88.520628 -2.498426295e-05 218.7792616
184.792743 -57.39929917 243.6678416
120.892598 -2.498426295e-05 221.8900936
418.398106 -118.8985918 208.6671666
-408.500029 -76.97023907 40.64452161
-119.231504 -2.498426295e-05 96.76264861
-81.186143 -21.2471623 -9.738557628e-05
416.499971 -204.3375849 186.4200166
288.080813 -2.498426295e-05 170.6412306
412.499971 -47.45084206 9.276027614
-311.269344 -7.499218534 -9.738557628e-05
64.854423 -2.498426295e-05 76.05970961
157.526506 -42.24369704 -9.738557628e-05
412.499971 -30.80266627 213.2617926
250.74009 -2.498426295e-05 92.55828461
-110.51859 -2.498426295e-05 166.8513416
416.499971 -135.1409414 138.9901576
278.672989 -12.68638729 -9.738557628e-05
-100.797814 -2.498426295e-05 66.42541661
-428.871689 -2.498426295e-05 231.1160356
-431.880007 -49.84784913 -9.738557628e-05
-408.500029 -24.53071538 50.23134561
85.551539 -2.498426295e-05 171.1536886
414.92843 -188.7651225 51.26647761
408.499971 -58.19526393 191.0260006
-408.500029 -128.3809104 217.7014056
-408.500029 -126.3651696 77.43362861
200.731625 -16.46043035 -9.738557628e-05
-66.107311 -2.498426295e-05 214.2993196
412.499971 -100.643655 61.23027661
-22.290179 -2.498426295e-05 234.5005246
-408.500029 -37.33361367 135.5731616
-408.500029 -53.95071038 18.60404161
84.305929 -2.498426295e-05 15.22963361
-167.664398 -2.498426295e-05 70.50378461
-223.126691 -2.498426295e-05 117.9156046
-274.852966 -2.498426295e-05 69.51609361
170.631135 -19.34321308 -9.738557628e-05
361.031193 -2.498426295e-05 45.17388261
61.129492 -2.498426295e-05 239.9690986
89.324231 -33.6637518 -9.738557628e-05
-353.050649 -52.32460526 -9.738557628e-05
51.212147 -2.498426295e-05 66.56339561
-285.980445 -2.498426295e-05 236.4964956
83.206574 -68.00002402 -1.987837386
301.521598 -39.64790477 -9.738557628e-05
-396.576953 -20.73514469 -9.738557628e-05
224.629729 -2.498426295e-05 189.8371216
-349.129755 0.1466565057 36.09121161
-232.206333 -2.498426295e-05 141.7592136
-188.441822 -15.25425907 -9.738557628e-05
-34.768131 -2.498426295e-05 41.52007961
-265.060064 -54.05786978 -9.738557628e-05
387.44799 -26.95958522 233.9999026
416.499971 -175.3552251 82.45888061
-44.468589 -2.498426295e-05 154.3136446
424.880611 -60.21123013 48.99990261
-74.911922 -2.498426295e-05 178.4988886
-410.017784 -49.66701673 236.4127616
356.44202 -18.72615731 -9.738557628e-05
8.527852 -2.498426295e-05 235.6506566
-108.862893 -2.498426295e-05 36.14493061
-408.500029 -89.4511167 207.1066876
-203.637016 -2.498426295e-05 8.796988614
429.257732 -14.35302657 -9.738557628e-05
413.944442 -164.1835864 205.5386726
-415.913782 0.04625688574 -9.738557628e-05
147.792594 -56.98644237 -9.738557628e-05
-383.944017 -2.498426295e-05 50.26487261
-279.377798 -35.49834046 -9.738557628e-05
59.919684 -2.498426295e-05 203.2260176
-232.936713 -2.498426295e-05 4.708072614
24.976971 -2.498426295e-05 228.0364606
110.392698 -2.498426295e-05 35.01146661
156.918143 -2.498426295e-05 48.92570461
123.660261 -2.498426295e-05 198.2879896
-408.500029 -103.1512846 234.2750756
-383.121661 0.8420530057 -9.738557628e-05
416.499971 -207.9003301 170.6323546
123.945687 -27.73627594 -9.738557628e-05
254.532716 -4.680626554 -9.738557628e-05
50.157005 -2.498426295e-05 49.55591061
408.499971 -73.32399838 133.1457756
-412.500029 -18.73659588 202.3636666
408.499971 -53.80351952 80.60483961
-372.378272 -2.498426295e-05 175.0772276
425.90986 -2.498426295e-05 58.98395361
416.499971 -59.56865506 128.6441686
-315.112136 -2.498426295e-05 213.0979256
412.499971 -20.39000794 22.29010561
-86.974253 -2.498426295e-05 13.39170261
265.566894 -2.498426295e-05 224.4631486
416.499971 -150.6634488 57.23045061
-65.636173 -2.498426295e-05 74.22901761
403.966529 -2.498426295e-05 191.7598196
-197.469705 -2.498426295e-05 73.91727661
-411.068904 -2.498426295e-05 36.28107861
188.040818 -2.498426295e-05 77.96256861
412.499971 -51.73962868 114.2803476
-400.376232 -2.498426295e-05 138.4478986
254.37046 -23.60172384 244.2106466
289.750864 -2.498426295e-05 89.27253761
-212.059266 -2.498426295e-05 183.6281066
416.499971 -117.9582941 164.1901366
8.887993 -2.498426295e-05 119.5628716
128.728868 -50.37037897 -9.738557628e-05
-186.018262 -2.498426295e-05 100.5259316
414.098571 -101.8116623 205.7730636
-199.061621 -2.498426295e-05 136.6385686
373.588045 -2.498426295e-05 177.4316976
206.003885 -2.498426295e-05 125.1751286
-38.255513 -52.08393004 -9.738557628e-05
-261.576668 -18.22900013 -9.738557628e-05
235.158667 -2.498426295e-05 177.1559836
-83.672726 -2.498426295e-05 115.0980656
-123.26577 -2.498426295e-05 157.6504096
408.499971 -106.6603372 82.00550661
-53.371969 -2.498426295e-05 106.2082366
38.133963 -2.498426295e-05 144.4086226
-324.901288 -2.498426295e-05 30.11250261
-248.398696 -2.498426295e-05 96.57562261
-266.327596 -2.498426295e-05 25.72397161
-161.468662 -2.498426295e-05 99.56006961
-304.187138 -2.498426295e-05 143.9304296
-112.215662 -2.498426295e-05 210.0468026
-245.814696 -2.498426295e-05 70.39096861
-260.893968 -2.498426295e-05 213.2421666
-408.670054 -110.4791088 39.99990261
283.051646 -2.498426295e-05 8.088495614
416.499971 -186.3845754 145.7904276
-8.245771 -2.498426295e-05 117.8154946
-108.835941 -2.498426295e-05 132.9930306
-412.500029 -20.61984987 17.27706361
412.499971 -34.83826905 106.4159986
416.499971 -14.23783665 69.64820161
-250.555062 -2.498426295e-05 42.70602561
-415.43497 -53.5589916 -9.738557628e-05
-292.661844 -68.00002402 -2.229361386
340.852417 -2.498426295e-05 189.3283926
416.499971 -29.99905466 69.21771261
264.931533 -43.49884249 -9.738557628e-05
395.087022 -2.498426295e-05 155.3941426
409.034325 -115.4364033 106.1048096
408.499971 -131.1045084 79.30831861
217.17948 -12.03568177 247.1376326
416.499971 -232.317276 134.6044566
414.952716 -31.17424809 -9.738557628e-05
412.499971 -87.52559656 87.69623061
98.25491 -2.498426295e-05 44.56806861
348.647173 -68.00002402 236.6178396
348.811002 -66.2241916 -9.738557628e-05
-120.126844 -27.59721164 -9.738557628e-05
-412.500029 -88.08224447 237.8833616
81.923256 -2.498426295e-05 115.7970686
162.862351 -2.498426295e-05 155.5913216
393.66686 -42.31117817 227.9999026
369.173161 -51.00739505 235.1755026
79.025619 -2.498426295e-05 91.71071161
416.499971 -213.1391903 118.9171626
397.725105 -14.40014249 227.9999026
107.247116 -2.498426295e-05 15.76228961
408.499971 -50.8547867 159.4157606
361.084385 -2.498426295e-05 85.93580161
-14.285324 -35.22412002 -9.738557628e-05
257.323975 -2.498426295e-05 195.5572796
285.588526 -68.00002402 236.5255146
61.452978 -51.46385809 -9.738557628e-05
-367.941049 -48.92518436 -9.738557628e-05
432.404782 -167.0349424 52.99990261
412.499971 -235.2244716 78.90936461
-351.290712 -2.498426295e-05 121.1193326
178.079489 -2.498426295e-05 129.3041646
366.708055 -38.04045744 -9.738557628e-05
-126.914479 -2.498426295e-05 238.0466066
-408.500029 -29.33074732 183.9785346
-60.442666 -2.498426295e-05 58.68055861
117.996264 -2.498426295e-05 240.8022396
-247.206127 -2.498426295e-05 9.835227614
-372.601946 -2.498426295e-05 119.7677436
265.502253 -2.498426295e-05 51.29417861
54.0234 -2.498426295e-05 187.0328166
-292.141667 -2.498426295e-05 57.87771861
413.333428 -1.799884974 227.9999026
121.641813 1.859810866 -9.738557628e-05
360.351727 -23.71439448 235.8697626
313.031587 -2.498426295e-05 215.6351946
-6.835548 -2.498426295e-05 50.09029761
337.286658 2.352725916 237.6850186
290.715942 1.120144046 241.3502036
181.440173 -60.89935148 -9.738557628e-05
408.499971 -34.05630115 14.91935261
-408.500029 -136.0592079 231.8300936
-313.973208 -32.78352171 -9.738557628e-05
-193.203792 -2.498426295e-05 229.8598636
408.499971 -43.009042 140.5351346
416.499971 -165.2470983 177.3174476
-68.921574 -2.498426295e-05 132.1945836
-309.895418 -2.498426295e-05 60.23792061
-191.401253 -2.498426295e-05 21.52525161
-132.096924 -2.498426295e-05 46.88801061
180.939608 1.811668796 243.9710506
-145.068747 -3.533800634 -9.738557628e-05
385.146452 1.685241996 227.9999026
-173.06175 -5.242601924 -9.738557628e-05
-412.500029 -48.58606884 91.96709161
-412.500029 -57.93240848 40.15581461
-239.502832 -2.498426295e-05 156.6157926
-209.757631 -2.498426295e-05 22.44865261
227.913663 -2.498426295e-05 134.9717786
-429.509567 -2.498426295e-05 162.5001296
377.752623 -2.498426295e-05 200.5749906
-412.500029 -37.22965288 110.0914106
62.513252 -2.498426295e-05 91.64047061
408.560391 -155.9331044 83.07616761
123.942909 -2.498426295e-05 128.0243486
285.60399 -2.498426295e-05 71.56514661
416.499971 -174.2105333 194.0963346
303.398832 -32.13560303 240.3520406
-203.531705 -51.25291386 -9.738557628e-05
-234.488898 -2.498426295e-05 40.86624961
339.062963 -2.498426295e-05 14.74946961
52.402422 -9.174630634 -9.738557628e-05
101.576257 -43.79073869 250.2171286
85.83387 1.825629436 -9.738557628e-05
129.27977 -2.498426295e-05 70.67949061
416.732599 -2.498426295e-05 13.96799861
93.256487 -2.498426295e-05 145.2698996
412.499971 -6.951624914 111.1579896
-161.81933 -2.498426295e-05 121.0601826
185.874892 -22.87787762 -9.738557628e-05
-42.316158 -2.498426295e-05 8.761112614
-150.996453 -2.498426295e-05 234.1588786
-295.369726 -2.498426295e-05 207.8541556
235.153824 1.012794656 239.7043346
-233.354719 -2.498426295e-05 209.5779766
412.499971 -61.50605216 102.0895076
-388.936154 -68.00002402 -1.837364386
-326.588962 -2.498426295e-05 14.72391361
-408.500029 -54.49993048 163.6183466
-59.996388 -49.62163523 -9.738557628e-05
412.499971 -67.2840814 15.53212961
412.499971 -48.84393184 39.87794361
-203.270238 -2.498426295e-05 49.75486961
116.802577 -2.498426295e-05 173.3372286
177.632393 -2.498426295e-05 149.8154766
-366.899412 -2.498426295e-05 227.5289836
317.757371 -68.00002402 -0.1504403856
-353.494587 0.8750188557 158.8331676
-408.500029 -10.13806091 250.7643776
421.383922 -32.65381024 48.99990261
393.047961 -51.45130578 -9.738557628e-05
137.211264 -2.498426295e-05 98.26062561
-104.849955 -2.498426295e-05 183.3524836
289.841978 -59.47867418 -9.738557628e-05
-412.500029 -74.61233837 213.9100176
153.676058 -13.6299885 -9.738557628e-05
-135.514858 -24.06788066 -9.738557628e-05
-310.746351 -2.498426295e-05 78.80786761
408.499971 -38.14276813 86.82564861
108.377048 -2.498426295e-05 96.61842061
312.624592 -16.44576103 -9.738557628e-05
-201.456776 -2.498426295e-05 152.7244186
408.499971 -31.06693745 121.1677386
416.982425 -109.0066459 49.82491161
-182.543292 -2.498426295e-05 205.7918596
-164.652382 -2.498426295e-05 224.2585786
110.933198 -2.498426295e-05 77.27766861
-380.94531 -2.498426295e-05 239.9341796
412.499971 -0.9806978743 127.8301216
416.499971 -128.871833 63.46778061
211.40388 -2.498426295e-05 223.0071146
-132.350145 -2.498426295e-05 14.78258961
-408.500029 -82.29398675 54.10347961
217.465629 -8.329404464 -9.738557628e-05
-301.835577 -2.498426295e-05 190.7022336
-351.578385 -2.498426295e-05 192.2583836
122.821584 -2.498426295e-05 99.61091961
-412.500029 -10.73324431 123.2865106
416.499971 -21.73303524 99.21270161
-86.573324 -2.498426295e-05 230.9536996
-17.423317 -2.498426295e-05 193.0613496
183.817667 -2.498426295e-05 109.3332776
282.506501 -2.498426295e-05 116.1757026
416.499971 -23.66272474 156.5143256
197.867455 -2.498426295e-05 192.8217036
-331.978009 -2.498426295e-05 85.14608261
159.107149 -32.67446077 245.6893436
30.513532 -2.498426295e-05 242.3079076
322.303418 -2.498426295e-05 45.85357161
-181.875679 -2.498426295e-05 69.12906261
244.171207 -43.40796352 245.0133436
52.428538 -68.00002402 -0.6248293856
-408.500029 -14.86279277 162.0215186
-306.51196 -2.498426295e-05 33.31988561
391.259416 -2.498426295e-05 106.3585116
412.499971 -237.7443733 102.1855766
-420.521862 -40.03579416 -9.738557628e-05
431.53518 -176.1087767 208.9999026
-373.270942 -2.498426295e-05 40.13577761
199.189866 -53.49632317 242.5347626
366.690434 -2.498426295e-05 115.8830466
286.589179 -2.498426295e-05 37.66276661
19.603996 -2.498426295e-05 66.29902461
297.795721 -2.498426295e-05 195.0565766
-408.500029 -42.98800121 210.1252156
409.231998 -2.498426295e-05 37.62466961
253.365772 -2.498426295e-05 216.9022436
-32.828188 -2.498426295e-05 225.1090786
74.103985 -32.48716455 252.3792446
-408.815664 -114.4076731 249.9999026
412.499971 -214.1344793 150.1168516
412.499971 -5.619415324 59.13067461
-155.281485 -2.498426295e-05 153.6940986
-426.567306 -2.498426295e-05 135.3513326
-90.931324 -41.98835752 -9.738557628e-05
284.538173 -2.498426295e-05 210.5724006
105.108899 -2.498426295e-05 64.50644561
-272.450173 -7.687744224 -9.738557628e-05
-168.676419 -2.498426295e-05 209.3126476
416.499971 -151.6966628 132.1751966
163.93686 -2.498426295e-05 81.71117961
413.770847 -13.33782579 178.9984376
-408.689879 -134.000025 64.37979361
-278.161461 -2.498426295e-05 17.50141261
-293.040403 -2.498426295e-05 121.2573336
247.079893 -68.00002402 -2.385413386
104.773272 -17.8048996 -9.738557628e-05
223.805761 -2.498426295e-05 164.4035206
10.265556 -2.498426295e-05 169.5783176
316.773142 -68.00002402 234.3963306
412.499971 -27.91397418 197.5154146
339.791519 -2.498426295e-05 203.2590696
375.553254 -2.498426295e-05 49.70160761
-32.087693 -24.30878395 -9.738557628e-05
-394.981716 -2.498426295e-05 77.52499961
312.999585 -40.22291774 233.5777336
302.170375 -2.498426295e-05 13.17598761
-174.935391 -39.1656162 -9.738557628e-05
-143.261401 -2.498426295e-05 139.2812306
302.242828 -54.06613566 240.4430206
-143.492127 -2.498426295e-05 205.8022016
412.499971 -250.8536386 123.3275216
342.928693 -2.498426295e-05 103.9372586
-191.726532 -2.498426295e-05 177.6923206
300.033687 -2.498426295e-05 62.80552161
-155.342174 -58.70539096 -9.738557628e-05
-327.361413 -2.498426295e-05 114.0397436
-94.258274 -15.98020112 -9.738557628e-05
125.782076 -8.684785514 248.3120866
310.088223 -2.498426295e-05 111.4436966
-396.839658 -2.498426295e-05 199.4782706
408.499971 -43.90974924 215.2595976
255.68115 -2.498426295e-05 163.7069326
178.43838 -27.83674459 244.1679416
412.499971 -75.12295934 41.26509761
-187.973074 -2.498426295e-05 114.8794336
416.499971 -126.9761872 185.4234176
-412.500029 -64.05290797 73.86691261
-162.279866 -2.498426295e-05 26.40838161
255.687956 -2.498426295e-05 128.3213436
-417.570806 -2.498426295e-05 182.3076196
-399.060707 -2.498426295e-05 51.34418061
-408.500029 -31.37499795 164.4251516
-137.242105 -2.498426295e-05 33.93702361
-236.766608 -2.498426295e-05 232.5102486
416.499971 -132.5805865 105.4130586
86.936828 -8.646144054 251.3692776
-412.500029 -107.8697394 65.28510961
-129.51854 -2.498426295e-05 64.78721361
-249.412907 -24.37676299 -9.738557628e-05
115.833022 -62.63355209 249.0950956
417.715675 -33.41148978 227.9999026
152.116704 -29.76299126 -9.738557628e-05
265.059808 -52.03741284 243.3693796
-133.709939 -2.498426295e-05 77.71409561
272.241293 -54.95070714 -9.738557628e-05
-374.105438 -2.498426295e-05 103.9274596
292.303759 -5.777041354 -9.738557628e-05
-211.863848 -2.498426295e-05 105.4219056
419.497699 -2.498426295e-05 139.7699896
196.23482 -2.498426295e-05 7.403772614
209.767602 -28.56752424 247.7209586
412.499971 -37.44651591 167.3734386
408.499971 -158.5551402 157.2320776
-23.625626 -2.498426295e-05 33.82147361
315.996616 -5.134848334 239.3605766
416.499971 -118.9719741 81.12061361
331.063848 -46.60711516 232.1560436
-60.872448 -2.498426295e-05 237.2225346
-334.04642 -11.34291866 -9.738557628e-05
-71.931872 -2.498426295e-05 88.21269761
-101.94829 -2.498426295e-05 79.87213761
171.709228 -51.18979154 -9.738557628e-05
426.648837 -48.06947002 227.9999026
255.82959 -2.498426295e-05 112.0671816
-29.084584 -2.498426295e-05 65.82161161
-150.097069 -2.498426295e-05 50.36984961
416.499971 -243.8606143 148.7835576
-40.701194 -2.498426295e-05 53.58526161
-417.02918 -2.498426295e-05 203.0188476
-53.032279 -2.498426295e-05 220.4057846
412.499971 -212.3394127 80.37954761
234.030408 -2.498426295e-05 49.65338861
38.041978 0.01299558574 -9.738557628e-05
356.818425 1.051475056 104.6060366
416.499971 -81.34837577 64.39469861
416.499971 -229.4572611 168.4846666
380.246382 -2.498426295e-05 93.13016661
-408.500029 -79.66189818 228.2124786
150.928725 -2.498426295e-05 141.6242206
346.971114 -2.498426295e-05 138.7922156
-327.522557 -40.73035108 -9.738557628e-05
412.499971 -166.1611674 143.4460516
233.938465 -2.498426295e-05 119.3648926
41.641495 -2.498426295e-05 39.34201561
-78.167627 -2.498426295e-05 165.5928256
-348.592505 -2.498426295e-05 136.2333296
4.24889 -2.498426295e-05 77.71342961
-408.500029 -10.38461146 54.74078261
-412.500029 -9.616804894 9.822229614
-59.615481 -2.498426295e-05 177.5862316
-419.836142 -2.498426295e-05 151.5236806
47.344108 -2.498426295e-05 115.5863586
-273.678731 -2.498426295e-05 123.5515616
202.707967 -2.498426295e-05 97.07444061
182.09002 -2.498426295e-05 177.2847706
365.916237 -36.12896495 235.4318276
293.693025 -2.498426295e-05 153.0201666
242.804447 -2.498426295e-05 204.4421046
412.499971 -156.9095634 105.4828436
29.485381 -2.498426295e-05 22.26438061
412.499971 -181.4515572 119.4440146
-164.950055 -2.498426295e-05 41.16293661
178.304203 -68.00002402 248.0762396
-408.500029 -6.921969404 76.75968361
335.073906 -2.498426295e-05 121.9537966
-195.239573 -2.498426295e-05 209.2963286
-343.045284 -28.04540447 -9.738557628e-05
267.015536 -1.305047614 243.2154606
-242.266793 -47.14423998 -9.738557628e-05
-267.919487 -2.498426295e-05 160.1453966
10.100223 -2.498426295e-05 32.20522761
278.273257 -28.06764747 -9.738557628e-05
-248.597793 -2.498426295e-05 203.6987206
151.91705 -2.498426295e-05 186.4803346
118.249565 -62.39709422 -9.738557628e-05
-408.500029 -96.15510259 76.46016861
-180.719825 -2.498426295e-05 233.9220536
175.608662 -2.498426295e-05 202.0104876
230.463434 -59.55809071 240.0734766
-408.500029 -32.45704214 23.55346961
-408.500029 -25.41249128 234.1125756
-420.234487 -2.498426295e-05 221.2653566
-109.040234 1.180999626 -9.738557628e-05
-372.641055 -2.498426295e-05 11.79586161
-16.797139 -68.00002402 -1.573229386
-328.354505 -2.498426295e-05 202.6368406
1.332497 -2.498426295e-05 8.122343614
375.832644 1.075508246 -9.738557628e-05
-394.734197 -2.498426295e-05 155.8215986
152.879547 -10.6919629 252.1981336
-158.003581 -13.04803237 -9.738557628e-05
-171.214345 -2.498426295e-05 142.7572626
133.249277 -35.85807912 247.7244046
268.671451 -28.34016358 243.0851376
-320.386699 -63.76263235 -9.738557628e-05
21.763443 -7.611627814 -9.738557628e-05
238.624288 -2.498426295e-05 148.6644996
136.783996 -2.498426295e-05 141.5143336
179.315648 -2.498426295e-05 7.577368614
32.169959 -2.498426295e-05 99.93737361
-268.064376 -2.498426295e-05 92.30518161
408.499971 -141.1883904 87.45214661
159.91343 -2.498426295e-05 24.68074361
417.59227 -50.92503036 54.29179061
131.360011 -2.498426295e-05 50.53123561
416.499971 -189.3132578 81.97486161
-121.288526 -2.498426295e-05 225.8351896
408.499971 -82.51477873 191.8075276
416.499971 -64.22304473 175.3142276
-248.633699 -2.498426295e-05 131.1063266
105.770888 -51.34696157 -9.738557628e-05
225.511376 -2.498426295e-05 222.6065736
395.72871 -2.498426295e-05 72.91717461
-99.840542 -2.498426295e-05 12.65813061
-76.625715 -2.498426295e-05 30.50735461
408.499971 -90.01351543 133.0771656
-49.098065 -26.6071787 -9.738557628e-05
-411.90309 -2.498426295e-05 130.3939616
-140.48896 -2.498426295e-05 171.9855666
408.575533 -172.867681 98.16265261
416.499971 -238.8572994 120.9587126
387.957052 -31.89930109 -9.738557628e-05
44.759413 -2.498426295e-05 159.9246576
-247.63717 -2.498426295e-05 109.8804666
419.517072 -64.62016682 233.9999026
420.994072 -82.63751159 48.99990261
-419.354986 -2.498426295e-05 81.44770461
-154.881585 -2.498426295e-05 69.21785561
-258.571146 2.064565896 -9.738557628e-05
-288.535588 -2.498426295e-05 39.92292661
209.514343 -2.498426295e-05 187.4443126
-322.910244 -2.498426295e-05 58.82558161
252.943051 -2.498426295e-05 183.5087736
148.331064 -2.498426295e-05 233.7996646
416.499971 -250.5300404 175.2251626
-412.500029 -44.48555268 188.9807576
150.712416 -67.76327144 252.3686896
-408.500029 -43.63490595 120.4154796
-190.823252 -2.498426295e-05 164.5629926
210.049571 -2.281400584 241.6800836
-219.716133 -2.498426295e-05 171.6935266
-408.500029 -111.663428 224.7600356
-215.860118 -2.498426295e-05 209.6656086
230.977905 -2.498426295e-05 17.26651161
-203.214829 -11.41863978 -9.738557628e-05
272.300191 -2.498426295e-05 74.76139961
416.499971 -73.87048234 75.61507261
399.390349 -2.498426295e-05 217.2493426
412.499971 -65.4160326 32.07628161
-114.569529 -68.00002402 -0.7582663856
238.862729 -48.6832168 -9.738557628e-05
355.149551 -49.5898973 230.2604556
136.839633 -2.498426295e-05 246.3366016
-407.362549 -29.22273273 -9.738557628e-05
209.257557 -2.498426295e-05 30.16880461
-390.303937 -2.498426295e-05 91.21213761
-412.500029 -15.78762233 188.0136866
-226.081974 -2.498426295e-05 88.72251661
-339.585433 -2.498426295e-05 162.4483956
-57.103422 -2.498426295e-05 155.0010506
420.648784 -50.17322888 -9.738557628e-05
138.099137 -2.498426295e-05 191.6689866
151.133863 -2.498426295e-05 70.82962161
408.499971 -77.45444798 99.42339761
18.474053 -68.00002402 -0.9721053856
398.642192 -2.498426295e-05 167.5084996
-412.500029 -13.89546371 150.0906466
-361.605285 -2.498426295e-05 168.5180956
83.406908 -2.498426295e-05 242.0001686
35.955102 -2.498426295e-05 86.37338161
-274.330755 -2.498426295e-05 56.45071061
417.158226 -69.46494783 54.93883861
7.247647 -2.498426295e-05 182.8636266
246.920755 -7.560288484 244.7969496
416.499971 -98.34277746 77.02156761
333.87205 0.4347383557 -9.738557628e-05
31.757025 -2.498426295e-05 198.2471826
-86.967446 -2.498426295e-05 191.1804306
46.571332 -2.498426295e-05 128.1212606
-79.3583 -54.38416486 -9.738557628e-05
416.499971 -198.8221435 103.9130086
-403.681931 -2.498426295e-05 11.09955461
419.749195 -2.498426295e-05 158.1427026
408.499971 -81.73429129 115.3926786
374.448859 -26.98826565 234.7602976
21.058031 -2.498426295e-05 122.6059576
-92.810285 -2.498426295e-05 105.8629976
-282.608805 -2.498426295e-05 145.5994646
-300.658938 -56.43180957 -9.738557628e-05
-408.500029 -42.23716555 251.7545766
-279.200374 -2.498426295e-05 29.95223261
-428.063722 -15.92859498 -9.738557628e-05
194.592374 -8.551057554 248.9152716
70.844875 -2.498426295e-05 216.4427076
412.499971 -31.88954078 136.5175716
382.56423 -10.2781203 -9.738557628e-05
416.499971 -175.1102316 59.29239361
408.499971 -88.47029069 157.8571946
-164.08102 -2.498426295e-05 181.0522616
-231.926998 -2.498426295e-05 65.34168661
281.448027 -15.26404386 236.0608976
416.499971 -73.73025669 143.7410186
233.65278 -27.82078485 -9.738557628e-05
-408.500029 -21.82153134 140.6570916
274.904112 -2.498426295e-05 195.9044946
123.1447 -26.84824061 248.5196526
-113.605044 -2.498426295e-05 149.2617416
199.937059 -2.498426295e-05 211.6715166
415.202624 -239.4549318 51.03598761
416.499971 -82.53463422 179.7911526
403.113293 -7.315773864 -9.738557628e-05
155.442992 -2.498426295e-05 8.891602614
67.514594 -10.81299871 -9.738557628e-05
-398.193753 -2.498426295e-05 186.9074446
-3.071417 -2.498426295e-05 148.3923846
428.640155 -2.498426295e-05 92.21029361
408.958522 -19.45030705 227.9999026
412.499971 -212.7052024 198.5755406
276.619992 -43.12298839 242.4595756
-368.41888 -2.498426295e-05 144.5578786
408.499971 -25.54399982 45.41213561
355.491032 -2.498426295e-05 226.1153756
354.338566 -2.498426295e-05 15.43341261
-412.500029 -10.34963663 222.9224366
351.853385 -2.498426295e-05 200.9483296
33.754835 -46.72248812 -9.738557628e-05
-116.303361 -2.498426295e-05 187.7549756
-44.765542 -2.498426295e-05 33.55835761
416.499971 -9.637860164 85.91663361
431.658595 -113.7051471 208.9999026
304.269408 -27.07389645 -9.738557628e-05
-408.500029 -32.28011788 38.24552261
401.089268 -2.498426295e-05 179.8499276
-295.171913 -2.498426295e-05 14.43798261
-25.256361 -50.17436919 -9.738557628e-05
341.955874 -39.47966887 231.2988216
-390.844742 -2.498426295e-05 210.8531536
408.499971 -58.55806568 59.54796861
429.688076 -224.0757059 208.9999026
319.511858 -2.498426295e-05 227.0968136
-178.206991 -2.498426295e-05 193.2749686
325.436469 -2.498426295e-05 96.70964361
416.499971 -56.74496039 89.61391061
195.097676 -2.498426295e-05 56.84747961
-223.993537 -2.498426295e-05 250.2586506
408.499971 -92.32785896 98.20349461
161.296588 -56.24250153 245.5170316
-408.500029 -105.3110939 51.11081561
70.627035 -2.498426295e-05 120.6658186
412.499971 -196.0348187 127.7298406
172.903424 -2.498426295e-05 163.1465096
345.623704 2.432553436 41.29816561
272.084925 -2.498426295e-05 165.6311096
21.031325 -2.498426295e-05 204.5741156
250.056014 -68.00002402 238.9402926
186.385864 -36.24907106 -9.738557628e-05
82.982113 -2.498426295e-05 103.6472396
56.773217 -2.498426295e-05 217.5645316
176.054408 -2.498426295e-05 75.72279661
-46.845441 -2.498426295e-05 248.3194856
268.623914 -2.498426295e-05 135.4574126
-399.533363 -2.498426295e-05 106.4448456
-353.103719 -2.498426295e-05 65.61779761
408.499971 -69.17578467 196.3039726
72.312758 -57.49540188 -9.738557628e-05
-425.944736 -2.498426295e-05 109.0906546
-105.20895 -2.498426295e-05 53.85523961
-26.903519 -2.498426295e-05 11.32166561
-273.659303 -2.498426295e-05 103.0885566
278.076246 -2.498426295e-05 95.76295461
-412.500029 -73.34779407 82.38570661
399.643795 -58.4926612 227.9999026
-1.234749 -2.498426295e-05 173.3916196
390.508709 -2.498426295e-05 50.35670861
302.739643 -16.32059908 234.3852096
412.499971 -18.03441576 204.5098846
-408.500029 -65.23034994 249.6144656
-259.370349 -2.498426295e-05 67.86567061
59.523977 -2.498426295e-05 18.69579561
250.510732 -2.498426295e-05 28.48188461
192.438946 -2.498426295e-05 151.6424966
431.285268 -184.1734043 52.99990261
334.592734 -2.498426295e-05 55.48562461
269.527681 -2.498426295e-05 108.1178786
416.499971 -63.44118788 161.0454416
-14.520085 -2.498426295e-05 154.0706416
-347.31755 2.104912336 47.85770561
77.412774 -2.498426295e-05 54.54829761
-215.461682 -53.01398241 -9.738557628e-05
328.465117 -2.498426295e-05 197.1900366
-408.500029 -122.0456328 43.31687261
132.530932 -2.498426295e-05 169.5228886
408.499971 -116.3151298 179.3955296
-136.231211 -2.498426295e-05 185.8420286
408.499971 -25.77509071 185.1949006
28.215744 -2.498426295e-05 136.4502526
418.212502 -200.370107 53.79093161
-408.500029 -27.03677599 105.1853816
-132.783217 -2.498426295e-05 248.8190196
408.499971 -26.1727341 147.9674586
55.963879 -37.65230272 -9.738557628e-05
-317.935646 -2.498426295e-05 225.7346716
-412.500029 -11.48808031 27.16034261
96.817632 -26.46206686 250.5916406
78.923231 -44.21113651 251.9999616
184.109148 -40.67056023 243.7216416
-419.63433 -68.00002402 -0.1014793856
432.262237 -155.0281651 52.99990261
-44.426691 -2.498426295e-05 190.8509296
-180.841611 -2.498426295e-05 46.86006861
-158.678759 -32.99312108 -9.738557628e-05
317.825659 -2.498426295e-05 147.0571416
416.499971 -184.7111368 158.2871776
-417.410099 -2.498426295e-05 244.7772626
412.499971 -43.64104622 20.73022561
-83.480913 -2.498426295e-05 42.69389261
432.648658 -244.3268831 48.99990261
416.419395 -17.95090238 50.74708461
12.881364 -22.23845244 -9.738557628e-05
270.214866 -2.498426295e-05 62.96328361
258.247571 -11.02905514 243.9055126
-412.500029 -119.3273157 68.74125061
98.389929 -2.498426295e-05 192.8298946
-381.357467 -2.498426295e-05 62.05409761
-412.312439 -100.5606131 208.8187936
3.043146 -2.498426295e-05 93.03254561
-409.394228 -137.6707324 210.3748996
-408.500029 -11.60888245 39.54722261
189.472093 -2.498426295e-05 119.7605266
-294.71282 -33.98440348 -9.738557628e-05
-277.571889 -2.498426295e-05 176.3365876
362.022822 -2.498426295e-05 207.2023266
-293.034781 -2.498426295e-05 176.9003816
422.307633 -2.498426295e-05 117.4774646
-220.275921 -2.498426295e-05 47.10803561
-244.843387 -35.58608384 -9.738557628e-05
206.174711 -2.498426295e-05 137.0144266
-355.624836 -2.498426295e-05 99.22675861
-139.19544 -2.498426295e-05 235.0587876
190.503757 -2.498426295e-05 44.68030561
307.051934 1.936462886 158.0188976
430.228908 -26.14022895 -9.738557628e-05
-111.898252 -2.498426295e-05 87.48579161
416.499971 -105.3852443 146.8759076
-187.257557 -32.36569911 -9.738557628e-05
142.190476 -28.15887351 247.0207166
-99.057163 -2.498426295e-05 208.7349456
382.187478 -2.498426295e-05 113.9032956
298.337751 -2.498426295e-05 223.9899856
288.751021 -33.46778224 -9.738557628e-05
-236.567929 -2.498426295e-05 100.9277596
428.156447 -124.3789617 204.9999026
-408.500029 -67.00427572 150.6186656
413.556289 -226.5948436 53.09339661
112.812754 -2.498426295e-05 202.8390216
208.697076 -63.74236267 241.7865276
198.321068 -2.498426295e-05 229.4678496
171.054223 -2.498426295e-05 57.46602861
-216.723797 -2.498426295e-05 12.99108161
-412.2173 -2.498426295e-05 113.5145236
337.245326 -60.76213 231.6695506
14.848466 -2.498426295e-05 7.850574614
217.784943 -37.75542923 -9.738557628e-05
416.499971 -51.18400601 149.7796286
232.550995 -35.35922347 245.9278716
205.836386 -2.498426295e-05 17.85828961
-395.501138 -2.498426295e-05 167.4958796
-48.590703 -5.101936884 -9.738557628e-05
-416.181393 -2.498426295e-05 99.08540161
431.47924 -16.31303895 233.9999026
-206.343696 -2.498426295e-05 235.5856426
337.277701 -2.498426295e-05 169.0990096
128.191808 -2.498426295e-05 9.451047614
225.491443 -16.72747272 240.4647806
-412.500029 -71.77861076 187.8976926
56.43097 -2.498426295e-05 175.5220166
64.280933 -2.498426295e-05 39.36108761
166.01249 -2.498426295e-05 184.9983866
159.848377 -42.64046992 251.6496766
-350.425203 -2.498426295e-05 11.86799161
206.941348 -2.498426295e-05 167.7385076
58.3647 -2.498426295e-05 135.9149266
408.499971 -85.56529601 38.12267061
90.183885 2.444929696 156.1909716
416.499971 -31.90454398 92.46130561
-243.13182 -2.498426295e-05 178.4149206
408.499971 -149.3004948 174.5817716
73.313006 -2.498426295e-05 168.4131626
412.499971 -190.7813207 174.0299156
369.26381 -2.498426295e-05 152.1355016
242.676307 -2.498426295e-05 41.09606561
281.124554 -5.287829834 242.1050596
-317.196917 -17.41678153 -9.738557628e-05
-426.658486 -2.498426295e-05 20.68301261
424.441845 -189.9248923 208.9999026
-87.14911 -6.908442234 -9.738557628e-05
366.290535 -2.498426295e-05 168.5146166
333.81752 -2.498426295e-05 146.3860956
-208.080064 -2.498426295e-05 63.66684861
-178.876949 -50.5674187 -9.738557628e-05
309.281922 -2.498426295e-05 22.23339761
56.878153 -2.498426295e-05 229.2722596
181.654836 -2.498426295e-05 30.43598661
255.675311 -2.498426295e-05 58.87775161
-408.500029 -31.61873919 211.8888156
243.764266 -2.498426295e-05 3.262994614
-431.826572 -2.498426295e-05 86.23241161
416.499971 -45.53877904 80.49918061
216.936057 -2.498426295e-05 131.5503106
-298.463288 -7.093679394 -9.738557628e-05
290.617716 -2.498426295e-05 51.95023161
-196.275942 -2.266603144 -9.738557628e-05
211.225503 -21.12503894 -9.738557628e-05
-429.151518 -2.498426295e-05 196.7194936
-408.500029 -127.3588782 249.6683626
420.975435 -2.498426295e-05 219.6222036
412.499971 -249.8620477 57.06632561
416.499971 -107.147112 184.6238896
372.660967 -62.10815639 228.8822756
-390.260939 -2.498426295e-05 126.2773236
-97.089919 -2.498426295e-05 237.5228656
417.698531 -231.0209961 208.4407556
412.499971 -142.3606145 194.5799746
-283.302905 -2.498426295e-05 220.2611716
-136.864121 -2.498426295e-05 103.6007996
421.735342 -2.498426295e-05 31.04027261
79.315935 -7.554583004 -9.738557628e-05
-410.590121 -2.498426295e-05 144.8196076
177.465491 -2.498426295e-05 46.91482261
-90.80016 -2.498426295e-05 156.9438306
329.420102 -17.30354498 238.3041276
228.07292 -2.498426295e-05 39.54289961
-140.180722 -45.43197261 -9.738557628e-05
220.785625 -2.498426295e-05 107.8011486
-408.500029 -40.39504595 85.11314261
-278.934439 1.690578636 -9.738557628e-05
103.766147 -2.498426295e-05 174.7046346
360.894307 -2.498426295e-05 73.21634861
-139.65009 -2.498426295e-05 116.9818586
-341.12786 -55.14698438 -9.738557628e-05
-396.697234 -33.18732596 -9.738557628e-05
416.499971 -24.6177568 177.1980826
226.571868 -2.498426295e-05 59.25164261
-385.330987 -2.498426295e-05 114.7296006
371.516307 -2.498426295e-05 140.9937586
94.426765 -8.912004174 -9.738557628e-05
-88.948902 -60.47966839 -9.738557628e-05
-408.500029 -60.84521581 102.4289366
408.499971 -37.44450497 72.29704861
-171.249935 -2.498426295e-05 127.3722346
-395.334619 -56.67597558 -9.738557628e-05
426.150856 -213.6609378 204.9999026
-238.58902 -2.498426295e-05 18.21754861
416.499971 -38.08272466 117.2782056
429.781612 -127.6021052 52.99990261
387.595394 -2.498426295e-05 28.00144061
412.499971 -174.9360271 181.5828386
160.213889 -2.498426295e-05 35.99238661
412.499971 -7.903072744 143.8458706
-353.072553 -2.498426295e-05 244.8402336
416.499971 -116.0599441 134.8969756
34.135118 -2.498426295e-05 156.0473596
-226.688243 -2.498426295e-05 185.5203126
-335.044267 -2.498426295e-05 67.10816361
271.75432 -2.498426295e-05 16.93831961
408.499971 -123.9659569 158.9477656
-2.175986 -2.498426295e-05 18.85460261
97.10654 -2.498426295e-05 121.7257756
368.014768 -2.498426295e-05 12.91485561
132.158247 -2.498426295e-05 222.4627006
292.186878 -32.92712796 241.2344386
-405.942891 -2.498426295e-05 242.2115766
-335.257912 -2.498426295e-05 39.97735461
-254.171637 -2.498426295e-05 188.1443656
351.051087 -2.498426295e-05 94.99289461
412.499971 -226.2876674 196.9579906
12.085676 -35.53278577 -9.738557628e-05
-22.392605 -12.42018782 -9.738557628e-05
257.508542 -2.498426295e-05 81.61669861
416.499971 -96.23647102 159.2103096
234.343636 -2.498426295e-05 100.9710536
142.331646 -2.498426295e-05 44.45919261
-11.031164 -2.498426295e-05 72.70371861
412.499971 -163.9781486 126.0207706
-17.180958 -2.498426295e-05 62.18048661
412.499971 -216.1042801 164.1127676
-213.53604 -25.66014607 -9.738557628e-05
-16.471054 -2.498426295e-05 223.8674036
-304.02547 -2.498426295e-05 172.0807986
60.891634 -2.498426295e-05 110.4304816
216.769382 -52.86296529 247.1699076
387.533065 -11.73536763 233.9999026
291.336245 -2.498426295e-05 15.93262961
-362.333162 -2.498426295e-05 179.9832616
-408.548208 -144.8343301 241.2583526
408.499971 -163.3316475 169.7496006
-408.500029 -68.33796216 174.0349786
416.499971 -107.209239 107.2902156
-69.183602 -27.55959058 -9.738557628e-05
-412.500029 -8.802857354 211.8672336
412.499971 -182.1096511 107.6398206
-124.703813 -2.498426295e-05 6.658027614
432.109902 -31.90526005 52.99990261
-227.388337 -2.498426295e-05 32.26680161
-408.500029 -57.16760615 224.9869876
73.845419 -2.498426295e-05 193.8939946
412.499971 -207.2403732 127.4837086
-124.19212 -2.498426295e-05 125.2365146
-199.460803 -2.498426295e-05 185.7123206
339.67776 -12.55980213 237.4968346
412.499971 -212.8764494 93.37392161
272.590805 -2.498426295e-05 42.70666561
-69.923642 -2.498426295e-05 245.7247656
-285.809372 -2.498426295e-05 74.78769761
408.499971 -75.06800529 83.26114661
412.499971 -186.3826875 200.6908026
-259.671293 -2.498426295e-05 151.6448766
-314.25869 -2.498426295e-05 89.35560661
112.060358 -2.498426295e-05 215.1516866
299.67079 -7.213853084 240.6454436
357.28517 -2.498426295e-05 32.96818761
139.53723 -2.498426295e-05 74.90976261
412.499971 -58.18496688 218.7755916
305.472652 -2.498426295e-05 133.1416266
137.559406 -2.498426295e-05 86.00187361
124.325339 -2.498426295e-05 149.2315306
65.216228 -2.498426295e-05 251.7600836
224.604355 -3.851697184 246.5532836
-412.500029 -84.90459316 75.96567261
361.230948 -14.52592881 229.7818386
-338.033394 -2.498426295e-05 227.1364606
412.499971 -5.488069624 187.3805616
-169.746558 -2.498426295e-05 83.37791961
-365.047668 -2.498426295e-05 80.14788261
91.085754 -2.498426295e-05 201.2623136
-275.490673 -25.17517843 -9.738557628e-05
-337.563423 -2.498426295e-05 136.4186206
183.981846 -2.498426295e-05 17.56826561
-36.873974 -2.498426295e-05 162.7256086
-289.649083 -56.69905449 -9.738557628e-05
416.499971 -76.47238975 169.6410856
-408.500029 -46.90809622 5.356946614
394.910732 -2.498426295e-05 10.58795461
412.499971 -113.7427884 95.80441361
392.791425 -2.498426295e-05 137.2748756
-412.500029 -21.07472677 130.4529756
412.499971 -91.86186412 113.9474726
262.623605 -2.498426295e-05 29.72356361
-136.428937 -2.498426295e-05 197.3949766
33.929534 -2.498426295e-05 176.8917416
408.499971 -9.247184224 24.41074461
-144.849748 -2.498426295e-05 223.6004976
47.126906 -57.74347846 -9.738557628e-05
412.499971 -108.0949285 166.8538306
-173.988145 -2.498426295e-05 247.9449986
356.449352 -34.1601081 -9.738557628e-05
-408.500029 -53.71143306 58.81803061
93.082542 2.208135176 96.28796361
408.499971 -110.7158592 59.58157561
7.222105 -2.498426295e-05 246.7762056
119.531454 -2.498426295e-05 65.71214761
270.592245 -58.90402407 236.9152676
113.860597 -2.498426295e-05 153.8231266
361.623198 -2.498426295e-05 127.7373136
-15.739302 -2.498426295e-05 109.8698236
-347.30881 -2.498426295e-05 219.5694486
51.793435 -2.498426295e-05 93.67603261
-218.725066 -10.39197421 -9.738557628e-05
-116.807144 -37.98527562 -9.738557628e-05
340.9367 -2.498426295e-05 79.91854761
412.499971 -10.41882324 100.8263176
-251.628838 -2.498426295e-05 120.6294966
238.283459 -50.69678888 239.4580266
-414.424739 -2.498426295e-05 165.5933506
417.077515 -118.5552983 55.05703261
-285.022938 -2.498426295e-05 247.5883496
-248.533363 -2.498426295e-05 246.6817096
373.69554 -29.7152052 -9.738557628e-05
275.362074 -2.498426295e-05 183.9673646
416.999971 2.238434896 79.27182761
416.499971 -128.0762336 130.7391456
-117.858185 -7.601486574 -9.738557628e-05
241.411932 -18.52775153 239.2118096
148.455492 -2.498426295e-05 206.5436026
309.892123 -2.498426295e-05 203.1264286
412.499971 -104.593266 194.3703426
-358.029759 -2.498426295e-05 221.3019976
412.499971 -3.622346644 47.30069261
408.499971 -93.77194783 177.7488846
-334.615593 -2.498426295e-05 240.8375836
137.87272 -27.93601269 -9.738557628e-05
-56.447827 -2.498426295e-05 10.46159761
77.721804 -30.39320736 -9.738557628e-05
416.499971 -108.8802617 124.8530316
412.499971 -202.3704272 76.17922261
215.37497 -2.498426295e-05 88.55366261
249.179774 -2.498426295e-05 172.3515596
-357.652024 -3.823074674 -9.738557628e-05
-384.202636 -2.498426295e-05 34.21466461
194.111036 -2.498426295e-05 90.53513861
-71.323423 -2.498426295e-05 107.7447816
371.860264 -2.498426295e-05 39.56088461
-203.255761 -39.42107274 -9.738557628e-05
408.499971 -155.8992378 94.53647361
408.499971 -31.68814792 175.6670946
398.616209 -2.498426295e-05 39.51888661
-365.056445 -23.4301522 -9.738557628e-05
345.016644 -21.21660568 -9.738557628e-05
94.302024 -2.498426295e-05 75.86673261
-412.500029 -18.52532317 99.66571061
412.499971 -129.7275016 117.7360996
211.251369 -2.498426295e-05 60.94690961
111.331007 -2.498426295e-05 2.389360614
-125.25072 -68.00002402 -1.928356386
387.019522 -48.23210572 233.9999026
-48.902009 -2.498426295e-05 132.6844386
302.833749 -2.498426295e-05 38.59600161
400.489189 -2.498426295e-05 127.6574906
-122.737533 -17.15739098 -9.738557628e-05
12.518248 -2.498426295e-05 158.2631516
408.499971 -55.96875508 134.8165926
-411.789348 -70.00002402 128.9939286
416.499971 -204.202592 149.5676866
-125.28908 -2.498426295e-05 209.3520256
-12.735371 -2.498426295e-05 131.9812246
332.59177 -36.8577895 -9.738557628e-05
-151.003692 -2.498426295e-05 117.3158716
-272.414129 -2.498426295e-05 135.2573046
-35.836294 -2.498426295e-05 239.7279616
252.998373 -21.53517286 -9.738557628e-05
408.499971 -29.54984909 160.4488316
416.499971 -154.0543602 181.4928166
-40.834891 -2.498426295e-05 113.4383556
416.499971 -183.6379444 132.1948126
408.499971 -59.13787477 180.2281716
