# .PCD v0.7 - Point Cloud Data file format
VERSION 0.7
FIELDS x y z
SIZE 4 4 4
TYPE F F F
COUNT 1 1 1
WIDTH 1269
HEIGHT 1
VIEWPOINT 0 0 0 1 0 0 0
POINTS 1269
DATA ascii
21.671569 -2.498436606e-05 102.1934746
34.723047 26.12861609 143.9999026
239.430565 -2.498436606e-05 10.06147961
99.348379 -2.498436606e-05 -133.6390334
149.409727 12.04269043 149.9999026
131.552338 -2.498436606e-05 -63.15247639
217.271192 -2.498436606e-05 -13.87414839
232.36211 -2.498436606e-05 -82.20773939
-2.088449 -2.498436606e-05 132.6848616
-2.899999208e-05 49.63462589 88.32555461
242.225912 -2.498436606e-05 49.00967161
170.868267 34.98541499 -144.0000974
130.707069 15.19600999 143.9999026
73.652264 31.90313149 -144.0000974
90.168899 19.47184149 -144.0000974
180.558759 23.18519679 -144.0000974
101.706251 -2.498436606e-05 84.54979561
91.932515 -2.498436606e-05 -96.87802439
175.840308 26.71519779 143.9999026
208.162479 -2.498436606e-05 108.0392996
199.052764 38.85943899 -144.0000974
119.691244 -2.498436606e-05 28.81334061
249.902664 49.73922209 -150.0000974
44.998194 10.83124653 -150.0000974
33.630835 51.12064459 143.9999026
103.063412 9.473501586 143.9999026
206.90181 24.66839349 143.9999026
118.677075 -2.498436606e-05 -116.1114224
127.970415 5.607147956 -144.0000974
217.917526 42.33414389 -150.0000974
193.408094 -0.1108837744 -150.0000974
45.818707 -2.498436606e-05 -76.02550639
70.403432 0.9937958856 -144.0000974
12.87372 63.06978669 -144.0000974
20.66422 -2.498436606e-05 -94.40024339
238.547644 -2.498436606e-05 32.93665161
61.948608 -2.498436606e-05 66.55345861
221.234501 -2.498436606e-05 -141.7000994
141.007295 28.53455599 -144.0000974
-0.425906 -2.498436606e-05 52.87271661
168.138102 -2.498436606e-05 -16.64745539
72.466162 41.84471579 -150.0000974
-2.899999208e-05 10.03561344 102.4050706
78.671036 -2.498436606e-05 -23.07969939
8.251728 -2.498436606e-05 -54.62457439
153.348591 -2.498436606e-05 -88.96201839
187.845451 9.682354096 143.9999026
153.780494 -2.498436606e-05 46.06043261
168.128369 -2.498436606e-05 139.4998216
206.795755 5.527041826 -150.0000974
208.742967 -2.498436606e-05 -126.1759254
186.406572 -2.498436606e-05 -16.15806139
148.30267 33.63716199 143.9999026
37.020558 20.60327179 -144.0000974
86.567809 57.28506459 149.9999026
56.655629 -2.498436606e-05 29.45920261
236.648196 41.77594159 143.9999026
91.33166 60.80518839 -150.0000974
34.791077 -2.498436606e-05 -47.28640239
215.791762 -2.498436606e-05 121.6708366
-2.899999208e-05 22.22982899 51.37100661
148.557486 -2.498436606e-05 -50.08925239
206.177312 42.28446329 143.9999026
6.195611 -2.498436606e-05 -124.9061324
81.77491 -2.498436606e-05 53.49363461
84.159326 -2.498436606e-05 -119.9209594
69.240231 -2.498436606e-05 -44.50328339
117.651221 21.79264899 149.9999026
191.693793 -2.498436606e-05 74.24332961
159.714041 11.53837989 143.9999026
205.028822 -2.498436606e-05 -56.49815139
153.862257 -2.498436606e-05 71.36373161
150.116929 -2.498436606e-05 36.88042061
-2.899999208e-05 40.39663239 33.31038561
166.452307 22.16381459 143.9999026
241.280079 10.82112977 -144.0000974
123.684843 46.51297129 149.9999026
125.137689 41.62058669 -150.0000974
177.724659 -2.498436606e-05 38.77880561
7.180983 -2.498436606e-05 -110.2228834
159.158892 -2.498436606e-05 103.1130356
172.581179 39.03269729 143.9999026
75.2641 -2.498436606e-05 68.18535561
187.062415 67.99997499 148.0739056
14.36879 -2.420147594 -144.0000974
154.687042 60.61069919 149.9999026
72.037571 34.30722079 149.9999026
17.188566 -2.498436606e-05 12.91778961
251.652149 -0.4230825044 143.9999026
-2.899999208e-05 2.807806546 4.784642614
93.612817 30.70439279 -144.0000974
196.659494 26.98098629 -150.0000974
26.171847 12.53898879 143.9999026
60.610915 -2.498436606e-05 -134.3061744
222.271193 28.12014529 143.9999026
89.341766 66.76969449 149.9999026
56.974771 58.22707959 -144.0000974
5.960327 61.02156509 143.9999026
-1.989502 7.690062336 143.9999026
132.531038 25.19155799 149.9999026
209.341856 57.87821109 143.9999026
92.958467 -2.498436606e-05 37.09543761
228.097669 -2.498436606e-05 -26.04597739
139.833396 -2.498436606e-05 -136.6449434
121.067227 31.80140429 -150.0000974
48.525854 -2.498436606e-05 -6.602160386
27.909776 60.27933289 143.9999026
68.586246 -2.498436606e-05 138.1405126
250.361276 20.47683949 -144.0000974
64.891531 20.65527489 149.9999026
-2.899999208e-05 34.18575539 52.35083461
138.638592 -2.498436606e-05 91.86367561
185.721581 -2.498436606e-05 -73.78485339
16.743781 -2.498436606e-05 -20.06656039
75.023715 12.47122699 149.9999026
57.409124 -2.498436606e-05 -82.90231539
-2.899999208e-05 40.76806849 -8.952733386
23.48663 -2.498436606e-05 -117.1853514
119.616954 60.86900959 -150.0000974
134.918358 55.26365229 -144.0000974
166.358381 -2.498436606e-05 -122.5812844
-2.899999208e-05 23.52737759 0.2452606142
248.128232 37.09122169 -150.0000974
-2.899999208e-05 7.176437436 -124.4566124
6.125406 30.51810619 149.9999026
122.138232 -2.498436606e-05 139.2250446
156.548729 -2.498436606e-05 -72.42343739
205.90943 -2.498436606e-05 63.82880561
181.302809 30.44143279 -150.0000974
68.754646 -2.498436606e-05 -75.54892739
71.678576 54.50002659 149.9999026
248.824034 26.18034069 143.9999026
139.862457 -2.498436606e-05 39.59686161
22.900567 24.96753329 143.9999026
170.158986 64.85198059 149.9999026
136.525508 -2.498436606e-05 73.23671461
210.873148 31.49496609 -150.0000974
112.532363 -2.498436606e-05 0.3882096142
112.490608 -2.498436606e-05 61.02983761
-2.899999208e-05 9.464281646 89.79176261
33.094334 -2.498436606e-05 71.23499161
146.21536 -2.498436606e-05 -110.1650424
236.08477 63.19262629 149.9999026
103.243074 59.11137009 -150.0000974
246.509545 15.33911579 143.9999026
111.66311 -2.498436606e-05 -77.18097539
26.458699 -2.498436606e-05 29.40308861
139.693628 -1.828713534 143.9999026
148.618527 -2.498436606e-05 -23.07255839
150.743824 -2.498436606e-05 54.85415361
207.378944 -2.498436606e-05 31.22660661
163.476264 41.77158019 -150.0000974
56.368175 57.05752089 149.9999026
-2.899999208e-05 10.90722886 117.2120626
-2.899999208e-05 36.63057709 130.2895856
141.497736 21.50094979 -150.0000974
197.16731 -2.498436606e-05 117.7041616
36.1884 -2.295238664 -144.0000974
236.370627 45.23355689 -150.0000974
90.093583 41.19505219 143.9999026
-2.899999208e-05 41.95519219 -59.90791039
83.642059 50.10835179 -144.0000974
42.222866 -2.498436606e-05 54.44048961
97.518265 -2.498436606e-05 -75.81528739
101.202494 -2.498436606e-05 114.7485456
97.388842 -2.498436606e-05 103.5185986
-2.899999208e-05 27.62661819 62.74298761
-2.899999208e-05 41.70413089 -127.8038764
174.554877 -2.498436606e-05 99.59110361
15.121471 16.46621069 -144.0000974
226.376478 25.53894479 -144.0000974
26.290059 -2.498436606e-05 -61.13286439
218.385046 -2.498436606e-05 18.80103461
245.488895 27.62457479 -150.0000974
204.429597 -2.498436606e-05 -111.7406974
168.288639 -2.498436606e-05 118.1709146
94.463196 9.406596316 149.9999026
224.252854 41.29628459 149.9999026
27.482703 64.15378399 -144.0000974
76.720601 3.705254306 -150.0000974
142.318459 -2.498436606e-05 -76.52785339
181.738546 -2.498436606e-05 29.46514161
106.201012 57.19235239 143.9999026
233.278865 13.51587509 143.9999026
5.720511 -2.498436606e-05 -86.04026739
104.46208 -2.498436606e-05 -11.48835839
225.413821 -2.498436606e-05 103.3690946
95.69111 -2.498436606e-05 -62.78665239
220.992474 56.53273519 -150.0000974
144.52179 37.01038079 -144.0000974
157.923413 34.01669839 -150.0000974
106.2848 39.32456619 -144.0000974
40.483466 -2.498436606e-05 2.317869614
45.897182 23.18495819 143.9999026
190.455388 -2.498436606e-05 -125.1653864
-2.899999208e-05 27.50391909 102.4782336
205.262965 -2.498436606e-05 22.21125761
-2.899999208e-05 11.90718784 71.69185361
38.249673 -2.498436606e-05 -111.0570194
61.538363 10.97865399 -144.0000974
21.567582 42.19406969 -150.0000974
143.745493 8.843652316 -144.0000974
105.556953 19.67222949 -150.0000974
114.937391 48.97418389 143.9999026
98.249981 -2.498436606e-05 66.92674061
-2.899999208e-05 41.26698679 -141.5940804
63.333206 67.99997499 144.3253676
21.766847 -2.498436606e-05 -4.175515386
245.056171 61.53812769 149.9999026
158.687677 -2.498436606e-05 -127.1631614
239.389317 33.88844909 149.9999026
48.930084 14.39081499 143.9999026
241.990665 -2.498436606e-05 -42.47942539
246.80906 67.99997499 -145.3764964
48.534287 62.22189099 149.9999026
128.276006 -2.498436606e-05 38.51591361
114.483289 16.06661979 -150.0000974
41.811172 -1.876538224 149.9999026
3.803541 15.85137839 143.9999026
49.30409 -2.498436606e-05 78.20961161
78.101842 -2.498436606e-05 112.0080366
26.126776 15.47925439 -150.0000974
164.282991 -2.498436606e-05 29.59506161
183.376997 -2.498436606e-05 -53.93833039
50.11487 -2.498436606e-05 -95.69704539
93.981631 23.36978449 149.9999026
150.631553 -2.498436606e-05 84.69192361
209.49395 -2.498436606e-05 -21.92586439
4.712096 -2.498436606e-05 -37.70022439
8.670882 67.99997499 148.6619456
-2.899999208e-05 25.65460799 93.83919261
5.788969 43.22988899 149.9999026
5.619935 27.94027109 -144.0000974
246.912864 -2.498436606e-05 98.39743961
113.675771 -2.498436606e-05 -94.86419739
-2.899999208e-05 47.43414179 -40.56869639
127.252047 33.48428539 -144.0000974
169.68294 58.33644059 -150.0000974
243.778783 59.53838449 -150.0000974
134.967199 67.99997499 148.1693176
62.181847 -2.498436606e-05 120.0883726
-2.899999208e-05 33.68175069 -109.9053774
29.203433 -2.498436606e-05 142.0551426
55.961508 47.39732789 -144.0000974
58.091149 -2.498436606e-05 -24.20275539
-2.899999208e-05 17.32021359 41.33207761
20.817316 -2.498436606e-05 -134.8149144
67.689119 -2.498436606e-05 -101.4463224
194.534925 63.93717359 149.9999026
156.109483 -2.498436606e-05 -54.44226339
-2.899999208e-05 12.55156669 -2.561646386
-2.899999208e-05 44.04049529 20.59670861
202.079329 16.54854099 149.9999026
138.879822 -2.498436606e-05 -42.75790839
36.296246 35.29801449 -144.0000974
217.350687 23.32344279 -144.0000974
178.155853 -0.2514895744 -144.0000974
226.453658 -2.498436606e-05 15.67726161
154.794549 -2.498436606e-05 -142.9781334
224.707446 11.40211148 -150.0000974
177.169263 -2.498436606e-05 -77.53183939
39.030574 55.38222259 149.9999026
149.195787 23.52285969 149.9999026
197.954437 -2.498436606e-05 91.53638061
163.482565 -2.498436606e-05 -23.90783639
153.165423 -2.498436606e-05 135.4481996
-2.899999208e-05 8.451682986 -115.9373934
128.073508 -2.498436606e-05 106.4908046
124.741891 58.09851739 149.9999026
51.534282 -2.498436606e-05 -36.02041039
168.928813 20.47334289 -144.0000974
167.137911 55.37801029 149.9999026
89.793132 -2.498436606e-05 125.6752776
84.93979 -2.498436606e-05 140.7910156
182.601008 12.84425899 149.9999026
114.667921 -2.498436606e-05 122.9592206
44.38988 53.09796979 -144.0000974
18.870674 -2.498436606e-05 111.0685876
81.340913 8.979022746 143.9999026
100.837809 65.93144409 143.9999026
138.962936 54.64020759 143.9999026
191.275948 9.423936526 -144.0000974
20.670912 -2.498436606e-05 -39.58740739
250.949424 -2.498436606e-05 -101.3177364
75.513516 -2.498436606e-05 13.20788861
7.064879 10.73382341 149.9999026
-0.988113 49.99997499 44.07539761
111.027912 -2.498436606e-05 -62.35082239
18.923709 -2.498436606e-05 -28.26617539
99.722801 -2.498436606e-05 -86.82704839
172.310228 -2.498436606e-05 18.93995561
197.198479 44.55090209 -150.0000974
-2.899999208e-05 28.62372279 73.15562661
29.90903 47.98559039 -144.0000974
67.423228 19.62992909 -150.0000974
67.45282 -2.498436606e-05 -122.4661664
99.579651 -2.498436606e-05 -100.4856774
-2.899999208e-05 19.45883689 -119.0535534
217.283345 3.679377546 -150.0000974
62.945703 3.508042136 143.9999026
64.436335 35.23168339 143.9999026
108.411669 21.50592989 143.9999026
178.615334 -2.498436606e-05 -13.00191539
233.054117 20.63970749 -150.0000974
104.810809 -2.498436606e-05 133.3970476
219.675193 -2.498436606e-05 49.47841861
22.332403 62.01673809 149.9999026
104.51702 11.38171608 -150.0000974
157.663026 63.69121279 -150.0000974
251.056506 35.68316919 149.9999026
43.335815 23.04442859 -150.0000974
132.925704 -2.498436606e-05 123.3121066
18.01526 10.08389912 -150.0000974
65.907015 55.06543969 143.9999026
182.808787 -2.498436606e-05 -118.0244204
-2.899999208e-05 40.26749129 89.89440861
30.101773 56.48036969 -150.0000974
-2.899999208e-05 37.29164609 75.32835661
48.257683 -2.498436606e-05 -130.0944644
-2.899999208e-05 8.284255186 -67.70889839
12.556934 -2.498436606e-05 96.09089161
233.110008 28.44982929 149.9999026
225.02313 12.92767249 143.9999026
167.211561 40.94131489 149.9999026
134.906872 -2.498436606e-05 -8.526341386
203.153331 -2.498436606e-05 -72.24010639
55.680288 30.80822229 -150.0000974
179.598012 5.238867256 -150.0000974
48.422109 47.63261919 149.9999026
223.1424 -2.498436606e-05 93.90999861
144.277612 -2.498436606e-05 -99.66918139
105.13546 -2.498436606e-05 -38.89931239
19.013399 -2.498436606e-05 25.31868161
56.901992 45.69760169 149.9999026
250.815326 67.99997499 147.5454746
160.218099 50.79933419 143.9999026
149.343301 -2.498436606e-05 -136.7804064
-2.899999208e-05 13.62130309 -38.27669539
94.543043 32.46338379 149.9999026
10.848644 51.02659309 -144.0000974
197.74935 8.723225696 -150.0000974
193.787037 -2.498436606e-05 98.60286961
216.0983 55.06549809 149.9999026
243.452844 17.16440499 -150.0000974
170.878735 8.389548116 149.9999026
207.129308 -2.498436606e-05 80.52803761
247.809258 4.585200226 -144.0000974
96.844553 -2.498436606e-05 21.31767461
119.697928 19.03773839 -144.0000974
162.782547 16.16215959 149.9999026
244.90929 -2.498436606e-05 16.12077461
108.096162 3.995213036 -150.0000974
118.332263 29.57530169 143.9999026
225.092666 42.74666799 -144.0000974
47.844037 -2.498436606e-05 -65.52073839
172.473784 -2.498436606e-05 -40.44693639
65.8968 -2.498436606e-05 111.1184876
170.974647 12.68066599 -150.0000974
225.227642 -2.498436606e-05 -55.36613739
163.449316 -2.498436606e-05 -109.8879734
186.435599 57.27449449 -150.0000974
42.62188 50.70310599 143.9999026
63.399154 -2.498436606e-05 -38.21900839
-2.899999208e-05 41.78534779 -75.87900539
22.442424 23.57852259 -150.0000974
96.36032 -2.498436606e-05 -14.54504139
18.266922 40.80100429 149.9999026
183.547407 -2.498436606e-05 6.511533614
-2.899999208e-05 25.84652369 84.13538261
65.036611 67.51244779 -150.0000974
50.85589 -2.498436606e-05 -119.4044714
54.903714 15.62583069 -144.0000974
245.906941 -2.498436606e-05 80.61436561
211.321817 0.003614035634 -144.0000974
3.696371 -2.498436606e-05 -140.6132054
19.859908 -2.498436606e-05 76.04038361
216.893307 18.20722419 143.9999026
-0.573741 60.01670969 149.9999026
19.06129 7.467192916 143.9999026
72.066974 67.99997499 147.4472686
138.94627 6.534643456 -150.0000974
237.156416 47.07460079 149.9999026
208.049915 -2.498436606e-05 -7.576637386
49.102148 65.30033369 -150.0000974
124.119027 -2.498436606e-05 73.39033061
85.744786 16.55649729 -150.0000974
219.114318 67.99997499 149.1827346
84.37751 44.86506169 -150.0000974
131.642025 -2.498436606e-05 -134.5026954
78.95049 45.81973239 143.9999026
23.286269 32.41592709 -144.0000974
149.558953 59.39816079 143.9999026
209.574944 53.84985989 -144.0000974
197.68517 -2.498436606e-05 -24.93196339
-2.899999208e-05 34.17255059 -93.20109139
5.461833 21.32979839 -150.0000974
6.276123 40.56904199 -150.0000974
71.305846 -2.498436606e-05 -12.78984639
5.945882 -2.498436606e-05 15.51920561
204.657752 -2.498436606e-05 -103.7902574
203.122406 -2.498436606e-05 -136.6238134
246.504185 46.81803809 143.9999026
105.048728 -2.498436606e-05 -127.6842094
43.209933 2.322451996 -144.0000974
71.578258 -2.498436606e-05 127.5196926
142.870997 -2.498436606e-05 -58.88696939
143.037899 -2.498436606e-05 20.41695161
0.267873 12.19263359 -150.0000974
178.72545 -1.796240214 149.9999026
113.048001 42.22628029 -150.0000974
235.047378 -2.498436606e-05 -11.35324339
176.745375 46.86242119 143.9999026
221.607123 -2.498436606e-05 128.4046096
240.104085 -2.498436606e-05 -91.54146639
202.454507 58.30864059 -144.0000974
14.891927 -2.498436606e-05 -64.17245239
173.084442 -2.498436606e-05 69.69185361
202.822224 35.60492249 149.9999026
186.512429 22.06140349 -150.0000974
148.171792 2.851963396 -150.0000974
241.34617 -2.498436606e-05 119.2396296
164.443313 -2.498436606e-05 -72.19904039
80.165478 35.20532529 -150.0000974
161.228132 7.279372086 -150.0000974
24.620943 -2.498436606e-05 10.29771061
4.856575 20.85020129 149.9999026
153.64999 23.98584919 -150.0000974
186.245079 50.06544229 143.9999026
13.299454 -2.498436606e-05 -36.15674039
-2.899999208e-05 30.97605309 -11.76476039
37.543929 35.13658429 149.9999026
87.154734 19.45732759 149.9999026
55.529428 -1.975379424 -150.0000974
53.652563 -2.498436606e-05 136.8599086
238.259751 50.58656359 -144.0000974
190.798976 -2.498436606e-05 -84.03037639
108.751137 -2.498436606e-05 67.93381061
1.499749 -2.498436606e-05 86.22950061
207.720022 -2.498436606e-05 94.11829461
218.146764 28.31099719 -150.0000974
203.939726 19.82343409 -144.0000974
135.545892 -2.498436606e-05 -29.58295739
173.931247 55.68728329 -144.0000974
85.952446 31.12190879 149.9999026
-2.899999208e-05 27.07171949 -114.0539804
224.558106 -2.498436606e-05 -102.0427514
132.735673 36.71620319 143.9999026
199.069677 -2.498436606e-05 -91.54351839
35.582356 66.69088709 143.9999026
80.900165 29.11173019 -144.0000974
22.426087 67.99997499 144.2034166
-2.899999208e-05 8.014520056 -10.93044739
-1.797696 9.580851546 128.3736636
213.815872 39.62157829 -144.0000974
77.199333 -0.6580763244 149.9999026
154.169908 67.91147039 -144.0000974
91.003092 -2.498436606e-05 15.83614461
43.481922 45.22551839 -144.0000974
130.336988 7.460888506 143.9999026
97.976107 20.19161509 143.9999026
197.618073 -2.498436606e-05 -108.0622684
5.227071 -2.498436606e-05 29.10394061
41.127627 -2.498436606e-05 37.67611661
125.880848 -2.498436606e-05 -113.3146314
73.56344 17.11138659 143.9999026
220.427526 14.87808799 149.9999026
147.259337 40.35240889 149.9999026
222.882319 33.70843409 149.9999026
175.916884 -2.498436606e-05 128.0010446
11.871068 -2.498436606e-05 143.3391936
88.41306 -2.498436606e-05 -133.7667294
179.07053 18.59130949 -150.0000974
-2.899999208e-05 7.383855466 18.31573561
134.179614 43.09267009 -144.0000974
34.906992 -2.498436606e-05 -83.11530039
118.474055 5.649707596 -144.0000974
54.661237 26.77859909 149.9999026
132.9655 28.38734949 -144.0000974
176.998377 34.20228519 149.9999026
50.500764 -2.498436606e-05 92.35709461
169.801094 44.49256119 -144.0000974
137.553642 67.99997499 -147.6413244
-2.899999208e-05 18.93790739 -136.4622344
26.556629 -2.498436606e-05 -83.59337139
163.282088 -2.498436606e-05 -89.09718039
-2.899999208e-05 38.79330119 15.05807961
206.356928 -2.498436606e-05 137.7435276
89.823212 67.99997499 -147.9794024
8.040154 -2.498436606e-05 -17.09767039
151.218881 -2.498436606e-05 -66.87478739
234.992515 -2.498436606e-05 -101.7480744
217.655803 59.80886559 -144.0000974
104.739753 -2.498436606e-05 -2.695457386
46.238395 -2.498436606e-05 -20.95825339
-2.899999208e-05 24.84278469 19.67782961
-0.998528 -2.498436606e-05 -82.48866039
216.431329 32.96673689 143.9999026
237.59609 -2.498436606e-05 -23.52009239
221.808993 0.4401344656 143.9999026
84.161352 61.24353969 143.9999026
244.236539 -2.498436606e-05 -34.35638239
5.62018 -2.498436606e-05 -47.30762639
102.421778 23.72777379 -144.0000974
121.785916 -2.498436606e-05 14.55865961
240.91184 28.01614919 -144.0000974
116.280387 -2.498436606e-05 109.4071476
124.584641 30.76984099 149.9999026
69.427159 -2.498436606e-05 96.63463261
87.171413 -2.498436606e-05 -65.46379839
217.121231 43.69933699 149.9999026
6.45543 35.41356029 -144.0000974
180.182022 -2.498436606e-05 -106.2228214
30.041507 -2.498436606e-05 120.8358426
94.650382 -2.498436606e-05 -55.34223939
169.544073 -2.498436606e-05 79.92479261
240.634683 37.53978099 -150.0000974
-0.724947 49.99997499 -62.77343839
162.644115 3.045943356 -144.0000974
6.274856 50.68020629 149.9999026
-2.899999208e-05 25.12932319 -130.2637484
177.580283 22.65116779 149.9999026
40.215221 60.30436829 -150.0000974
183.951508 6.716296336 -144.0000974
63.289261 -2.498436606e-05 -107.4386054
4.877416 -2.498436606e-05 140.5349896
162.302393 55.17693039 -150.0000974
224.10985 38.24631849 -150.0000974
62.50301 -2.498436606e-05 -48.91188139
204.192265 36.59014629 -150.0000974
5.63465 64.60309539 -144.0000974
58.109648 -2.498436606e-05 78.69440361
-2.899999208e-05 16.16117709 -26.31409339
-2.899999208e-05 5.181186476 58.12850261
62.329748 13.35958649 149.9999026
146.07853 47.76619389 -150.0000974
89.410356 51.99954189 143.9999026
79.181288 -2.498436606e-05 124.1425896
-2.899999208e-05 43.61496969 56.09744861
195.250301 36.93140719 -150.0000974
74.416549 -2.498436606e-05 39.72115561
147.772187 55.15788989 -150.0000974
96.68391 -2.498436606e-05 54.40616961
118.867875 -2.498436606e-05 -78.61591139
190.56561 62.46006069 143.9999026
14.033358 33.07716019 -144.0000974
194.301245 5.517983066 143.9999026
20.235419 61.35743379 -144.0000974
129.240658 -2.498436606e-05 95.22571961
-2.899999208e-05 18.13380239 57.45252061
199.624335 23.79674569 143.9999026
155.07719 13.39292799 -144.0000974
87.343719 23.70648089 -150.0000974
-2.899999208e-05 40.47842519 7.790804614
119.067694 -2.498436606e-05 -33.51946739
127.096072 -2.498436606e-05 -128.7758854
50.074267 3.574678626 -150.0000974
39.932174 37.33035039 -150.0000974
33.01236 6.613390446 143.9999026
106.819375 25.71424009 149.9999026
185.127136 1.790549476 149.9999026
162.56388 -2.498436606e-05 113.6439136
160.776205 27.91492209 143.9999026
-2.899999208e-05 31.83208079 -3.453837386
212.103675 -2.498436606e-05 142.8394766
93.021469 -2.498436606e-05 7.175434614
35.152966 -2.498436606e-05 -63.93858539
198.928626 -2.498436606e-05 75.05053361
-2.899999208e-05 17.36437009 -81.05077639
175.589455 41.84286869 149.9999026
98.470354 52.44060879 -150.0000974
247.265142 -2.498436606e-05 -53.89377539
225.235289 52.33668459 -144.0000974
-2.899999208e-05 47.41352379 105.7268216
62.498198 51.86057779 -150.0000974
61.079399 64.22234719 -144.0000974
-1.300981 44.81306019 149.9999026
218.673855 -2.498436606e-05 -64.87978639
160.564345 -2.498436606e-05 -10.23282439
202.614433 -2.498436606e-05 -42.28480139
71.18647 50.13387969 143.9999026
237.312711 11.40531194 -150.0000974
223.577677 -2.498436606e-05 -20.42156939
228.114982 67.99997499 -145.8367604
187.375316 -2.498436606e-05 37.23655361
247.325231 -2.498436606e-05 68.29890661
142.80989 9.713741536 143.9999026
106.832995 44.74184029 143.9999026
6.493803 47.95164199 -150.0000974
152.334121 -2.498436606e-05 29.90068061
24.370746 -2.498436606e-05 55.49767661
89.20628 -2.498436606e-05 134.9616626
141.805167 -2.498436606e-05 -123.2470594
-2.899999208e-05 39.02804289 118.3451726
203.005843 4.577460966 -144.0000974
100.404407 46.38603459 149.9999026
191.934189 16.04525359 149.9999026
69.558385 39.26034569 -144.0000974
207.469774 -2.498436606e-05 -94.71014139
-2.899999208e-05 9.236617306 41.95180661
31.301123 -2.498436606e-05 129.4950326
147.972811 16.79983859 -150.0000974
5.888608 -2.498436606e-05 8.377622614
207.753807 -2.498436606e-05 -0.2556443858
163.244115 -2.498436606e-05 -54.25823439
57.079614 67.99997499 149.3546386
242.059917 -2.498436606e-05 -10.05257639
192.764422 47.18996329 143.9999026
119.613174 -2.498436606e-05 61.14141361
69.785692 60.02287129 -144.0000974
3.988387 -2.498436606e-05 113.8503116
136.205 -2.498436606e-05 -116.4115634
71.52941 -2.498436606e-05 -63.77612139
71.783953 -2.498436606e-05 -27.64642039
237.354762 -2.498436606e-05 -108.4443844
153.36653 44.74783279 -150.0000974
95.384309 -2.498436606e-05 -45.15058539
10.221106 49.13844419 143.9999026
201.505864 51.82350999 149.9999026
43.365807 -2.498436606e-05 111.0255076
109.158785 -2.498436606e-05 40.12020961
165.191692 37.78476349 143.9999026
188.273723 18.75919419 -144.0000974
44.999628 -2.498436606e-05 83.81836061
161.95756 24.09855949 -150.0000974
152.246261 9.626460786 143.9999026
30.372775 29.68629949 149.9999026
79.880608 5.671481666 -144.0000974
-2.899999208e-05 48.51943399 28.68796961
118.336191 -2.498436606e-05 -127.1840704
59.325587 29.45445639 143.9999026
116.811137 -2.498436606e-05 20.29267261
141.591145 -2.498436606e-05 54.99223561
228.891913 47.21871959 143.9999026
139.782101 2.961028726 -144.0000974
163.9493 47.17166849 149.9999026
128.968823 -2.498436606e-05 -16.46915539
65.253519 -2.498436606e-05 -31.10625539
235.283596 -2.498436606e-05 74.31693361
112.61632 -2.498436606e-05 78.50962261
239.458133 -2.498436606e-05 -53.97450939
77.120826 67.99997499 -149.8043554
91.405373 -2.498436606e-05 -8.642873386
-2.899999208e-05 2.752297236 -93.20950239
-2.899999208e-05 20.62906549 28.48324161
28.740188 -2.498436606e-05 -54.55835239
240.155389 -2.498436606e-05 100.2806916
3.570031 33.11248899 -150.0000974
44.991466 -2.498436606e-05 68.23738761
184.204782 -2.498436606e-05 -132.4960234
49.092193 -1.100482964 143.9999026
198.124327 59.00494979 143.9999026
45.543991 25.86750019 -144.0000974
-2.899999208e-05 31.63058249 36.38123661
190.800167 7.658957386 149.9999026
203.53156 30.77976779 143.9999026
141.061637 36.15853059 -150.0000974
251.388727 -2.498436606e-05 113.5842206
104.313042 -2.498436606e-05 47.38327161
72.168721 22.73886039 149.9999026
103.256212 47.36470769 -150.0000974
156.321099 3.497252516 149.9999026
126.989161 -2.498436606e-05 79.74715761
1.102805 -2.498436606e-05 -101.1036534
34.283533 28.62457779 -144.0000974
75.589481 62.55487639 149.9999026
58.990669 -2.498436606e-05 41.95432361
182.244851 44.16164799 -144.0000974
108.397086 54.42600589 -150.0000974
76.939422 -2.498436606e-05 2.363592614
-0.526667 49.99997499 -96.69680839
204.25529 67.00557779 149.9999026
54.136622 -2.498436606e-05 -111.0914164
143.174108 62.15803119 143.9999026
109.302098 58.85244469 149.9999026
82.883606 -2.498436606e-05 61.61947661
134.819247 -2.498436606e-05 108.1564626
129.515866 -2.498436606e-05 -55.66137939
244.320723 1.287039776 143.9999026
225.913411 4.566991686 -144.0000974
146.388701 51.36298229 -144.0000974
168.681205 29.06089999 143.9999026
28.70982 46.24626749 143.9999026
110.618883 18.86124129 149.9999026
103.652383 62.97629019 -144.0000974
-2.899999208e-05 43.21441459 -21.31284539
-2.210849 -2.200021934 -9.999978386
177.912309 -2.498436606e-05 -58.44885439
127.012649 -2.498436606e-05 -68.35629339
237.88098 3.132419096 149.9999026
119.063762 -1.991835554 -144.0000974
58.521072 -2.498436606e-05 109.7262076
145.867383 -2.498436606e-05 -92.10852939
238.939682 -2.498436606e-05 -80.16360339
6.124213 6.365670616 -150.0000974
-2.899999208e-05 38.14809519 -28.58042439
92.761938 48.17231229 -144.0000974
226.022394 -2.498436606e-05 -73.85257639
130.164577 18.72991099 149.9999026
92.631935 9.336946956 -150.0000974
213.223137 -2.498436606e-05 44.23219961
192.856453 41.81535199 -144.0000974
212.854756 6.825535096 149.9999026
174.394552 64.42178119 -144.0000974
252.395173 10.25253624 -144.0000974
42.416093 39.74816199 143.9999026
189.343969 55.20743059 149.9999026
148.662651 -0.6473833444 143.9999026
-2.899999208e-05 24.29301579 -105.6039444
26.969606 -2.498436606e-05 -74.93656339
30.50528 -2.498436606e-05 85.94960261
57.021495 14.61056579 143.9999026
196.745767 -2.498436606e-05 -16.39741639
122.598126 -2.498436606e-05 91.82226061
-2.198927 -0.7768637644 -144.0000974
20.18075 -2.498436606e-05 69.20488961
118.633672 -2.498436606e-05 -99.57925539
5.664653 -2.498436606e-05 38.79495761
197.103161 -2.498436606e-05 40.44325661
120.286296 5.051807086 149.9999026
67.592514 14.31245589 -144.0000974
37.993824 8.447852466 149.9999026
234.282009 38.42320499 149.9999026
115.01901 -2.498436606e-05 -110.3458524
121.203676 67.99997499 144.6837916
33.960293 -2.498436606e-05 -13.58444239
62.280373 24.30150399 -150.0000974
201.161279 -2.498436606e-05 28.42916061
130.685751 -2.498436606e-05 114.0208106
28.170301 67.55638979 -150.0000974
142.791342 41.08299459 143.9999026
64.382135 -2.498436606e-05 51.24510761
197.112107 57.13783279 -150.0000974
209.556777 -2.498436606e-05 6.951366614
245.48348 -2.498436606e-05 -86.21235439
89.166394 7.590730756 -144.0000974
-1.659058 52.28353389 -144.0000974
16.618332 -2.498436606e-05 61.20404961
105.353879 15.32811509 -144.0000974
147.402029 20.77647919 143.9999026
24.194955 17.98438209 -144.0000974
-2.899999208e-05 21.57694459 11.61277461
215.112149 -2.498436606e-05 -95.03320339
130.606807 -2.498436606e-05 -98.42220639
176.022973 -2.498436606e-05 -28.14680439
130.284916 67.99997499 -145.1225154
115.873656 -0.2313826244 143.9999026
153.156882 -2.498436606e-05 -12.48868439
219.693883 -2.498436606e-05 -134.8372224
224.610509 61.26556459 -144.0000974
228.2083 -2.498436606e-05 -33.12201239
178.370071 31.34219299 -144.0000974
-2.899999208e-05 10.51781799 -78.58032039
153.654268 -2.498436606e-05 -5.535187386
127.188388 -2.498436606e-05 134.7771146
13.190849 24.83560409 149.9999026
156.250136 -2.498436606e-05 -133.4328944
95.228141 63.51941509 149.9999026
99.476731 32.84294309 -150.0000974
-2.899999208e-05 24.34576069 -140.4527964
47.934117 -2.498436606e-05 50.90802061
204.17335 -2.498436606e-05 -118.4434524
124.001281 14.08928029 143.9999026
82.114021 -2.498436606e-05 -39.94893539
44.134561 -2.498436606e-05 -30.74562239
-2.899999208e-05 27.00619329 -24.34115239
99.05456 -2.498436606e-05 141.4340646
-2.899999208e-05 5.412870426 -25.80760639
16.911066 55.56474969 -144.0000974
121.154008 37.58518669 149.9999026
134.97918 19.95250309 -144.0000974
74.769096 22.80368699 -144.0000974
136.746231 -2.498436606e-05 -80.19056239
115.592436 -2.498436606e-05 88.95735861
17.216652 -2.498436606e-05 131.3755546
101.072092 -2.498436606e-05 6.593779614
213.414588 -2.498436606e-05 -111.4348784
112.251494 0.3469464356 149.9999026
32.577552 -2.498436606e-05 20.17319161
241.744701 0.5215005456 -150.0000974
36.498249 12.26925529 143.9999026
239.201106 23.45204829 -150.0000974
224.621273 26.53833759 149.9999026
224.230711 -1.304469124 -150.0000974
-0.615061 -2.498436606e-05 -50.90209739
73.936126 15.55388639 -150.0000974
137.873786 4.548207096 143.9999026
128.932763 -2.498436606e-05 -30.07471439
229.519702 -2.498436606e-05 27.63671261
71.37458 58.80952039 143.9999026
36.56073 24.00492639 149.9999026
213.346302 -2.498436606e-05 28.35082361
232.986154 -2.498436606e-05 17.27386461
86.449543 67.45332649 143.9999026
52.063956 17.83771839 149.9999026
172.220969 -2.498436606e-05 93.36766261
85.822777 -2.498436606e-05 -99.86179039
41.41494 5.287877446 -150.0000974
71.866814 -2.498436606e-05 79.92562161
97.796341 16.20674139 -150.0000974
194.633924 -2.498436606e-05 -143.5290584
73.480254 -2.498436606e-05 -49.54297139
54.794741 -2.498436606e-05 84.37960161
36.85128 45.38681539 143.9999026
220.321632 -2.498436606e-05 1.854781614
2.008032 -2.498436606e-05 20.77489261
-1.393801 49.99997499 -89.96764639
-2.899999208e-05 25.39086819 -49.15688439
147.5867 -2.498436606e-05 129.4295996
179.750761 -2.498436606e-05 103.5951936
188.70094 8.793145806 -150.0000974
53.346767 -2.498436606e-05 73.04386661
168.45123 46.77410999 -150.0000974
48.217533 24.43056149 149.9999026
-2.899999208e-05 5.834338936 32.65055261
-2.899999208e-05 40.89844079 -2.403682386
219.18594 0.5134397456 149.9999026
-2.275794 5.097102296 149.9999026
49.357157 -2.498436606e-05 -105.8346564
96.87142 -2.498436606e-05 80.15170861
252.180483 -2.498436606e-05 -20.99626139
81.038971 19.85511439 143.9999026
-2.899999208e-05 6.084850926 65.03225761
87.033348 -2.498436606e-05 21.29997061
131.738315 9.614181246 149.9999026
49.991906 18.36653819 -150.0000974
140.486567 -2.498436606e-05 -18.96592539
38.230292 -2.498436606e-05 8.432171614
61.876089 -2.498436606e-05 4.671058614
188.266069 -2.498436606e-05 -6.504656386
31.163719 -2.498436606e-05 -131.3886544
-2.899999208e-05 34.21149459 -74.62303939
218.343479 67.99997499 -149.9147364
223.251918 60.87274259 149.9999026
125.284129 -2.498436606e-05 125.8463746
175.878028 40.90266159 -144.0000974
174.978307 -2.498436606e-05 -94.33018439
27.820983 40.84793749 149.9999026
79.697359 -2.498436606e-05 -10.50490839
63.411714 -2.498436606e-05 -7.186660386
84.951142 24.05859409 -144.0000974
119.60241 -2.498436606e-05 -51.32971939
106.779364 -2.498436606e-05 -17.52731739
123.750025 60.29590909 143.9999026
106.632754 -2.498436606e-05 -49.17782439
230.058044 -2.498436606e-05 -88.44281439
158.559149 -2.498436606e-05 122.6754196
101.338943 -2.498436606e-05 -139.7805744
186.000871 -2.498436606e-05 -66.68108839
93.315454 -2.498436606e-05 -103.1818894
165.428431 -2.498436606e-05 18.64966461
11.766012 -2.498436606e-05 28.79454261
216.639909 -2.498436606e-05 69.67364661
-2.899999208e-05 30.37549959 128.7317606
8.289169 2.991675976 -144.0000974
164.92282 -2.498436606e-05 123.9416376
213.229334 9.111167516 -150.0000974
-2.899999208e-05 18.21418719 -54.61745839
125.753215 -2.498436606e-05 32.59501161
-2.899999208e-05 41.86052129 79.85122961
250.257677 5.264413806 -150.0000974
156.650145 -2.498436606e-05 -83.45924439
53.669905 29.74745369 -144.0000974
104.961438 39.83277309 149.9999026
118.788078 49.85386709 -144.0000974
-2.396695 49.99997499 58.84243061
-2.899999208e-05 38.32164519 -105.2866814
145.672894 -2.498436606e-05 59.93221261
245.893827 -2.498436606e-05 -137.1153164
61.808912 61.44936009 -150.0000974
187.002579 38.70638889 143.9999026
-0.99083 35.42245069 -144.0000974
169.568045 36.77053889 -150.0000974
133.939077 -2.498436606e-05 3.796349614
45.916379 59.30425129 -144.0000974
209.986865 64.23622179 143.9999026
6.960638 -2.498436606e-05 -1.570821386
19.403879 42.06593879 -144.0000974
22.277601 17.58549309 143.9999026
133.785768 13.38124769 -150.0000974
90.340351 22.36327669 143.9999026
155.175802 -2.498436606e-05 65.13097561
232.166208 37.04126999 -150.0000974
35.377049 -2.498436606e-05 58.54318461
-2.899999208e-05 27.15921839 -64.61599739
34.099498 63.04977669 -144.0000974
80.836884 -2.498436606e-05 71.60174761
-2.899999208e-05 49.90036929 138.9981226
107.948479 -2.498436606e-05 83.33645861
31.310662 49.55513389 -150.0000974
15.624279 -2.498436606e-05 80.78180461
235.689985 -2.498436606e-05 87.73559561
204.524879 27.80727009 -150.0000974
143.073123 20.18051939 -144.0000974
124.87214 -1.966558284 149.9999026
21.269158 48.19415589 149.9999026
104.319303 62.75794249 149.9999026
246.171841 -2.498436606e-05 -97.12387839
40.101726 -0.8382033544 143.9999026
109.813919 64.75298409 -150.0000974
76.000608 -2.498436606e-05 -73.98468339
182.935748 -2.498436606e-05 43.90872661
179.869089 -2.498436606e-05 86.59809561
136.026608 47.33113809 149.9999026
32.250729 49.75628159 149.9999026
14.359383 -2.498436606e-05 -109.5098844
62.182529 -0.1902187144 -150.0000974
172.028792 65.34558919 143.9999026
-2.899999208e-05 10.65921775 -110.0331414
80.31083 58.71904509 -144.0000974
189.357421 24.97140279 143.9999026
200.573065 45.17668349 143.9999026
147.567271 -2.498436606e-05 -80.45881439
207.592489 40.49737909 -144.0000974
-2.899999208e-05 18.68336339 -13.28457839
-2.899999208e-05 16.11722839 -67.83493139
172.56877 -2.498436606e-05 111.1390516
46.513981 -2.498436606e-05 -14.19946839
55.746598 59.58675459 -150.0000974
94.249717 17.10207609 149.9999026
117.480093 -2.498436606e-05 -17.57451439
14.061802 41.53690179 143.9999026
111.472733 -2.498436606e-05 -132.2442624
7.381708 25.38466619 143.9999026
7.383365 27.71443029 -150.0000974
148.141089 60.46763619 149.9999026
5.272582 46.66626589 -144.0000974
208.617366 63.95436719 -150.0000974
151.833726 45.58826409 -144.0000974
61.574525 -2.498436606e-05 60.31797561
207.2298 62.84044869 -144.0000974
231.5974 -2.498436606e-05 135.4054576
3.464366 -2.498436606e-05 126.7146156
195.474389 51.12081709 -150.0000974
30.299393 -2.498436606e-05 -38.84704639
-2.899999208e-05 44.92439979 -102.9535844
83.97251 -2.498436606e-05 -113.6910254
122.028724 13.26064749 -144.0000974
92.029132 -2.498436606e-05 -112.5331614
-2.899999208e-05 38.93698519 -85.19897639
105.200917 33.01114399 143.9999026
5.098528 -2.498436606e-05 -133.3504824
-2.899999208e-05 11.69887 -89.04594039
-2.899999208e-05 16.49811349 82.00731661
147.835268 61.37694959 -150.0000974
188.410461 15.87493099 143.9999026
-2.899999208e-05 4.851269366 115.8060946
-2.899999208e-05 14.99124319 -8.279689386
100.087866 38.87894109 -144.0000974
124.306957 23.68256579 -144.0000974
229.334367 -2.498436606e-05 143.0479096
110.587152 -0.1738008244 -144.0000974
249.221749 27.66853549 149.9999026
237.173474 35.18756029 -144.0000974
124.330442 -2.498436606e-05 8.913727614
112.123258 10.345094 -150.0000974
244.86082 44.81198289 -150.0000974
183.82531 14.63458819 -150.0000974
75.39812 35.39827769 143.9999026
179.046997 60.35562639 -144.0000974
130.86047 38.84689699 -150.0000974
185.346385 36.22146879 -150.0000974
245.088992 50.46638659 -144.0000974
210.856286 37.65706279 -150.0000974
25.089522 -2.498436606e-05 -98.68257839
55.290782 -1.138460744 149.9999026
131.918296 21.22706929 143.9999026
241.934639 51.86169379 149.9999026
221.331503 21.35961269 149.9999026
116.761656 22.70315029 143.9999026
166.016974 54.78727479 143.9999026
223.263449 31.69004149 -150.0000974
23.238665 -2.498436606e-05 -88.83650839
-1.042576 31.23881919 142.9999026
-2.899999208e-05 34.66744799 -116.6724994
24.657952 -2.498436606e-05 -26.11542939
67.71703 20.86239859 143.9999026
6.642454 37.17319299 149.9999026
134.91069 -1.363430094 -144.0000974
-2.899999208e-05 25.16309169 6.134136614
133.9409 53.73717639 -150.0000974
-2.899999208e-05 28.50492829 -79.01279039
144.819635 8.622716546 -150.0000974
15.520335 10.38056454 -144.0000974
145.504128 40.33685649 -150.0000974
133.830374 36.47900779 149.9999026
197.391307 39.37266379 149.9999026
251.301957 20.01990209 -150.0000974
39.061167 49.77840659 -144.0000974
191.224868 42.25261469 149.9999026
15.523176 62.96086099 149.9999026
140.626549 59.47752189 -144.0000974
80.120154 -2.498436606e-05 -78.46072839
128.594494 41.16829909 143.9999026
129.726834 45.83147109 149.9999026
242.820451 59.35845259 -144.0000974
65.684542 -2.498436606e-05 13.27443861
57.249416 57.46075289 143.9999026
154.243555 51.90641269 143.9999026
202.275374 15.61903809 143.9999026
83.00396 50.80902259 -150.0000974
-2.899999208e-05 31.85630049 -29.02194839
115.371954 58.83023359 149.9999026
103.15859 8.592256186 149.9999026
239.571168 -2.498436606e-05 38.91254661
181.150447 53.35180459 143.9999026
112.012363 23.63698359 -150.0000974
133.890936 -2.498436606e-05 -68.73930639
84.45355 27.32689079 143.9999026
24.175139 34.78950709 -150.0000974
240.027089 -2.498436606e-05 -114.5384424
-2.899999208e-05 26.35412989 -124.3353354
169.076368 -2.498436606e-05 56.91619961
78.537953 54.45828169 149.9999026
12.609416 23.60691409 -144.0000974
62.593508 42.08813749 -144.0000974
138.412826 13.85713389 143.9999026
190.449243 -2.498436606e-05 81.80857361
-2.899999208e-05 36.23393909 -57.97409139
191.868118 -2.498436606e-05 5.469661614
209.043689 -2.498436606e-05 -73.55496139
56.106035 -2.498436606e-05 -54.00501739
214.75538 63.16543999 149.9999026
26.734759 12.82683659 149.9999026
-2.899999208e-05 7.379403886 0.8531206142
92.382441 -2.498436606e-05 -2.371490386
107.30438 32.97281719 -144.0000974
64.311243 -2.498436606e-05 -128.2114174
-2.899999208e-05 42.61848849 27.52788961
-2.899999208e-05 39.90489689 -135.7384674
29.745224 -2.498436606e-05 135.3005826
25.775825 3.307348766 149.9999026
182.021116 44.33794989 -150.0000974
-2.899999208e-05 12.32769779 63.68133261
30.060551 -2.498436606e-05 -123.7981084
67.393089 -0.5604863144 143.9999026
172.857833 -2.498436606e-05 -63.70879439
56.02242 21.77070759 -144.0000974
-2.899999208e-05 44.43683519 85.32908461
18.368982 16.06943279 -150.0000974
123.845652 47.47385409 -150.0000974
65.719242 26.92066429 -144.0000974
-2.899999208e-05 3.711725946 48.18693461
112.951899 -2.498436606e-05 114.3874546
138.322007 -2.498436606e-05 45.38522661
-2.899999208e-05 27.97500869 -71.24000939
16.579392 -2.498436606e-05 118.9685176
84.797243 -2.498436606e-05 44.76297461
154.788201 2.761038206 -150.0000974
178.954729 24.93639639 -150.0000974
-2.899999208e-05 14.38642229 -122.2263614
199.706718 -2.498436606e-05 8.755120614
188.975557 -2.498436606e-05 -51.84180339
199.079383 23.29823459 -144.0000974
5.043702 -2.498436606e-05 134.5345856
124.720219 38.88790889 -144.0000974
236.006616 55.92957339 143.9999026
231.877499 4.600953006 -144.0000974
183.854821 63.36216119 149.9999026
172.433314 -1.885528714 -144.0000974
-2.899999208e-05 9.738119026 -61.93857239
204.821004 -2.498436606e-05 74.22327561
121.790771 -2.498436606e-05 119.9905546
-2.899999208e-05 4.919645176 105.4419826
113.023811 35.20549169 -150.0000974
121.376619 -2.498436606e-05 66.81744761
84.880516 -2.498436606e-05 4.163487614
207.479737 35.21294739 143.9999026
184.25855 1.562126336 -150.0000974
172.618102 19.56718509 -150.0000974
-2.899999208e-05 13.64894139 93.99733661
-2.899999208e-05 5.774931926 -73.08347439
-2.899999208e-05 36.19367979 29.13327261
0.964147 -2.498436606e-05 -75.71841139
221.884159 -2.498436606e-05 66.92065061
156.829332 55.08923669 149.9999026
165.984506 0.7111226956 -150.0000974
231.884007 -2.498436606e-05 119.0082446
99.368108 -2.498436606e-05 -126.0237134
-2.899999208e-05 27.59413649 -17.75834539
55.879778 6.086673696 149.9999026
164.526588 63.03880799 149.9999026
221.278795 -2.498436606e-05 119.4573736
210.625669 -2.498436606e-05 124.5453486
40.341652 -2.498436606e-05 101.0352716
163.771082 -2.498436606e-05 3.535404614
150.301517 39.87924119 -144.0000974
17.853557 -2.498436606e-05 93.46854961
170.911133 14.90773879 -144.0000974
231.229475 -2.498436606e-05 -70.96763339
172.717522 -2.498436606e-05 -12.73561139
7.089868 -2.498436606e-05 55.80933461
99.756308 7.831539746 -144.0000974
79.579345 -2.498436606e-05 -101.2113764
126.202823 3.298778696 -150.0000974
-2.899999208e-05 16.36734369 -93.25269439
86.585539 -2.498436606e-05 -43.76619539
222.572935 46.91727409 149.9999026
205.338687 17.89618339 -150.0000974
62.043166 55.58359769 149.9999026
183.850385 -2.498436606e-05 -39.86230939
-2.899999208e-05 41.32126509 135.9090116
198.517265 21.19833129 149.9999026
216.011912 59.03730009 143.9999026
245.187536 -2.498436606e-05 127.6117056
173.127933 -2.498436606e-05 136.4642656
130.349787 27.29218649 -150.0000974
19.27626 5.677215736 -144.0000974
61.069292 2.040515166 149.9999026
146.829515 28.16736349 -144.0000974
93.757008 -2.498436606e-05 -81.33541539
31.068419 -2.498436606e-05 -109.2038664
172.560545 50.02316689 -144.0000974
24.65617 58.55397719 -150.0000974
-2.899999208e-05 44.16575669 94.22253861
-2.899999208e-05 30.87776289 -47.20193039
94.374802 30.03261979 -150.0000974
226.777121 -2.498436606e-05 77.41071361
245.537197 -2.498436606e-05 4.580308614
76.442698 43.77255289 149.9999026
163.126392 18.35217119 -144.0000974
74.391943 42.21182449 143.9999026
134.391556 37.28648629 -144.0000974
-2.899999208e-05 16.68205289 117.8349096
120.951322 3.078613336 143.9999026
69.174249 39.34806909 149.9999026
-2.899999208e-05 19.00440439 -48.76178239
63.858085 -2.498436606e-05 -83.20501339
-1.635346 50.59466699 149.9999026
30.324553 58.65963539 -144.0000974
191.337911 -2.498436606e-05 68.46457461
34.031342 -2.498436606e-05 95.82617261
154.599518 -2.498436606e-05 -94.61052539
65.608953 -2.498436606e-05 33.67090461
-0.152802 49.99997499 -15.68491739
177.32931 66.65567209 -150.0000974
151.106605 -2.498436606e-05 -116.0181524
125.836889 12.69992899 -150.0000974
-1.710735 -2.498436606e-05 74.52898861
188.043412 -2.498436606e-05 135.5682396
171.171528 -2.498436606e-05 49.44129261
156.048712 -2.498436606e-05 52.59280361
-2.899999208e-05 44.60496179 120.2408636
172.501965 29.45973389 -144.0000974
56.929399 -2.498436606e-05 -120.0533124
85.529601 -2.498436606e-05 -2.750120386
248.145558 35.17990819 -144.0000974
98.399745 -2.498436606e-05 -106.6901754
195.563619 28.46137859 143.9999026
119.810018 54.15379569 143.9999026
251.97662 5.319397376 143.9999026
31.571774 -2.498436606e-05 43.15353661
74.682156 -2.498436606e-05 -39.35566339
230.32655 -2.498436606e-05 -59.97124539
61.476087 42.75682639 143.9999026
108.248492 62.55705479 143.9999026
2.605399 -2.498436606e-05 120.0893616
197.203588 -2.498436606e-05 133.9399956
212.544537 23.39806339 149.9999026
-1.816557 49.99997499 -78.48162039
53.487948 -2.498436606e-05 -3.739420386
175.823842 -2.498436606e-05 -109.9377474
216.693044 -2.498436606e-05 139.4222146
8.084368 53.44310789 -150.0000974
-2.899999208e-05 31.71476739 -88.04225839
7.675979 -2.498436606e-05 71.50093961
-2.899999208e-05 29.32453839 -96.21447739
158.622298 62.99599969 -144.0000974
-2.899999208e-05 16.57263549 -43.15774439
97.937476 4.293310616 149.9999026
86.109455 41.39503329 -144.0000974
225.093468 34.91962929 -144.0000974
249.273183 61.03149319 -150.0000974
177.514435 -2.498436606e-05 74.11371161
-2.899999208e-05 38.28739779 108.4708436
147.249162 -2.498436606e-05 16.59691561
184.389803 -2.498436606e-05 76.54774761
-2.899999208e-05 15.16895479 99.96424661
107.659023 3.919698396 149.9999026
31.960613 14.47958019 -144.0000974
21.575942 -2.498436606e-05 -103.1465504
-2.899999208e-05 3.063366706 -109.9442304
43.050948 -2.498436606e-05 48.01279961
209.561367 -2.498436606e-05 99.48800861
194.837255 59.89273719 -144.0000974
134.276257 14.81719169 149.9999026
185.59394 64.48355929 -150.0000974
93.020945 13.14166429 -144.0000974
22.101601 62.34165929 143.9999026
194.473793 27.63250909 -144.0000974
105.75699 -2.498436606e-05 -133.3567694
-2.899999208e-05 3.460785886 -64.73755939
-2.899999208e-05 39.78578869 -40.38714739
237.325816 9.554202596 143.9999026
8.316531 31.31798379 143.9999026
246.412644 54.53638389 -150.0000974
166.381132 31.55470019 -144.0000974
195.039229 -2.498436606e-05 -38.26945239
44.090985 47.34952119 -150.0000974
27.89883 -2.498436606e-05 67.00382961
119.540035 41.00709779 -150.0000974
38.128726 20.90057729 -150.0000974
80.165108 17.31459119 -150.0000974
162.517006 -2.498436606e-05 69.41068061
38.904149 30.25108209 -150.0000974
34.625033 -2.131815754 143.9999026
108.245036 39.29718569 -150.0000974
217.532573 -2.498436606e-05 -76.69107539
110.853302 18.20935299 -144.0000974
87.102271 46.87708489 143.9999026
186.279232 -2.498436606e-05 53.53063161
176.486534 -0.3013939644 -150.0000974
-2.899999208e-05 24.66299319 133.4085106
219.413538 -2.498436606e-05 -122.5451144
-2.899999208e-05 20.62864469 71.32448161
230.353011 63.20592459 -144.0000974
-2.899999208e-05 14.52234329 126.4468466
156.440306 -2.498436606e-05 91.63852961
10.090317 -2.498436606e-05 -99.12587939
23.043597 67.56404859 149.9999026
-1.20946 17.41021609 142.0884056
-2.899999208e-05 19.20509969 -38.21687939
-2.899999208e-05 31.67873859 -131.0072044
93.209907 53.34739189 149.9999026
107.000302 58.51806609 -144.0000974
227.706086 29.34700019 143.9999026
51.626225 -2.498436606e-05 -19.39800039
42.094202 -2.498436606e-05 129.8906996
44.567996 -2.498436606e-05 74.20801061
128.369136 43.08435849 -144.0000974
105.552746 39.33030059 143.9999026
-2.899999208e-05 38.58517879 -99.04910039
227.006546 7.736230446 143.9999026
-2.899999208e-05 13.30918879 25.58213761
99.724559 67.99997499 149.0345026
-2.899999208e-05 31.94243539 59.26274961
-2.899999208e-05 13.57509869 108.7519466
-2.899999208e-05 0.2913284956 32.69989861
-2.899999208e-05 6.598767936 -20.39282539
96.872769 1.606861616 -144.0000974
-2.899999208e-05 8.067747846 -99.90835039
220.207352 -2.498436606e-05 -115.4140054
42.053182 -2.498436606e-05 94.35940661
87.583225 -2.498436606e-05 39.98009461
4.064458 66.15601749 -150.0000974
116.503598 28.67187239 -150.0000974
149.439092 48.10762669 149.9999026
201.282343 48.28379039 -150.0000974
207.498515 38.61055819 149.9999026
5.973334 -2.498436606e-05 -24.04116539
97.474588 -2.498436606e-05 40.28621461
152.527041 -2.498436606e-05 60.27779561
105.476182 -2.498436606e-05 -86.15906039
2.74754 47.13853379 143.9999026
-2.899999208e-05 39.71781449 70.07581761
32.154078 -2.498436606e-05 -141.0119244
-2.899999208e-05 19.56913699 112.7815726
-2.899999208e-05 45.29721419 38.44977161
39.123653 40.03584479 -144.0000974
11.707694 -2.498436606e-05 -125.1366514
245.129955 10.00238172 143.9999026
245.136004 24.48040269 -144.0000974
81.810534 -2.498436606e-05 -64.20343039
156.247437 5.846905576 143.9999026
18.84507 -2.498436606e-05 -120.1429264
27.729722 18.29171139 143.9999026
-2.899999208e-05 41.70708219 -46.41764639
80.485594 -0.2628577244 143.9999026
77.067692 -2.498436606e-05 117.4032006
202.32004 -2.498436606e-05 -51.72186139
