# .PCD v0.7 - Point Cloud Data file format
VERSION 0.7
FIELDS x y z
SIZE 4 4 4
TYPE F F F
COUNT 1 1 1
WIDTH 1208
HEIGHT 1
VIEWPOINT 0 0 0 1 0 0 0
POINTS 1208
DATA ascii
-73.14730218 -2.498427818e-05 248.7804886
99.50048382 -55.38962165 123.0551336
-53.13044218 -2.498427818e-05 48.57623661
108.4671498 -2.498427818e-05 106.4448456
95.50048382 -40.03910858 92.14803961
-85.19633518 -2.498427818e-05 181.8224016
-1.500329179 -2.498427818e-05 189.7831556
99.50048382 -136.0592079 231.8300936
-100.1926852 -2.498427818e-05 201.9234336
-99.50049318 -84.9310765 224.5082816
-82.91906118 -2.498427818e-05 129.0115326
107.3506208 -2.498427818e-05 55.76606361
85.65016182 -2.498427818e-05 55.04614161
99.50048382 -10.13806091 250.7643776
-21.19202718 -21.27957738 -9.738558356e-05
-3.265147179 -33.01772946 -9.738558356e-05
-17.58545818 -2.498427818e-05 238.5220266
-99.50049318 -43.9220305 192.1504826
80.15022182 -2.498427818e-05 221.8462476
62.68485082 -2.498427818e-05 96.38395461
-93.61380618 -2.498427818e-05 82.84557661
-14.72777218 -2.498427818e-05 179.3462736
22.02857982 -21.93970122 -9.738558356e-05
-67.88701818 -28.5772677 -9.738558356e-05
-95.50049318 -21.8623888 174.0579236
69.84089982 -36.83021569 -9.738558356e-05
79.72056982 -2.498427818e-05 71.06113161
-95.50049318 -12.93573442 127.1208856
-95.50049318 -55.97792899 158.9856866
-40.52887318 -2.498427818e-05 83.29377861
-95.50049318 -57.93910525 214.6229396
87.47865082 -40.03579416 -9.738558356e-05
5.357868821 -2.498427818e-05 24.03328661
95.50048382 -2.872360754 196.2901996
-95.50049318 -65.8208845 227.1418896
-107.1727912 -2.498427818e-05 58.31255861
-99.50049318 -14.39646999 185.3631486
103.1921988 -64.86160347 -9.738558356e-05
99.18484882 -114.4076731 249.9999026
23.99933982 -2.498427818e-05 208.6028666
-47.62688918 -2.498427818e-05 174.1757506
53.33273982 -2.498427818e-05 162.8798906
119.2145488 -54.08071287 -9.738558356e-05
-95.50049318 -39.02383588 32.01382561
99.31063382 -134.000025 64.37979361
-14.08799518 -53.20034367 -9.738558356e-05
-59.34454818 -2.498427818e-05 231.1974426
3.371684821 -2.498427818e-05 55.36593561
-95.50049318 -65.47604351 186.3785676
99.50048382 -11.32987879 214.8803236
-95.50049318 -56.18377171 123.3803136
-32.11163518 -2.498427818e-05 124.6350276
-107.2800132 -2.498427818e-05 11.63284661
99.50048382 -59.40726933 54.15245561
-119.1963762 -2.498427818e-05 160.4145536
99.50048382 -29.33717872 193.4077256
-7.849706179 -2.498427818e-05 213.7744626
-99.50049318 -29.61056474 128.7378906
-99.50049318 -10.84068469 215.7782576
98.59785082 -70.00002402 168.0710906
-6.297380179 -2.498427818e-05 73.85842261
95.50048382 -45.30306551 79.12990561
-80.22271118 -2.498427818e-05 58.05419461
-99.50049318 -49.2403095 145.7425956
9.971440821 -2.498427818e-05 130.1552296
53.52279082 -2.498427818e-05 236.8864756
96.66436382 -2.498427818e-05 7.358001614
81.14209282 -11.5097323 -9.738558356e-05
-99.50049318 -33.12555748 143.8083896
10.22455282 -2.498427818e-05 5.174840614
95.50048382 -30.07081822 143.8573166
77.47160582 -2.498427818e-05 247.8666106
-66.86586318 -2.498427818e-05 85.88602261
-82.91131418 -2.498427818e-05 38.75999261
99.50048382 -14.68239204 95.49823861
-96.30876118 -2.498427818e-05 33.61890561
-9.211255179 -6.323984994 -9.738558356e-05
-29.75832718 -2.498427818e-05 12.71709161
-99.50049318 -83.75945268 202.1549096
67.48211382 -2.498427818e-05 150.0191806
-99.50049318 -9.301682704 144.6182746
-95.50049318 -67.89050312 164.6934566
-83.49217518 -2.498427818e-05 107.9269186
50.27549082 -2.498427818e-05 14.05307261
-44.41482018 -2.498427818e-05 22.89678661
-65.11354018 -15.4212741 -9.738558356e-05
-95.50049318 -44.88776177 62.75050961
-99.50049318 -17.10084465 15.58635761
99.50048382 -6.439884364 119.6888746
-99.50049318 -68.06551165 250.2473116
106.8699878 -2.498427818e-05 216.9957546
65.80673382 -2.498427818e-05 205.7225906
99.19574382 -31.72045946 237.4015656
45.89225682 -38.05359181 -9.738558356e-05
99.42223982 -2.498427818e-05 97.07171161
41.68664582 -2.498427818e-05 208.6998686
106.4789638 -21.0371406 -9.738558356e-05
-32.82815618 -2.498427818e-05 203.4519846
-40.85327018 -2.498427818e-05 59.38030461
-95.50049318 -27.89678031 206.9965836
-3.412752179 -2.498427818e-05 86.47697661
83.42089582 -2.498427818e-05 148.5450846
98.85231782 -2.498427818e-05 173.3059306
99.50048382 -79.66189818 228.2124786
-106.8186682 -2.498427818e-05 41.17260461
60.11089982 -55.56250267 -9.738558356e-05
-119.1065902 -2.498427818e-05 209.7206696
-99.50049318 -82.65931368 176.6920756
-10.59422618 -2.498427818e-05 130.9257756
103.3571528 -2.498427818e-05 76.16189261
99.50048382 -0.4639686443 147.8797586
66.65103582 -17.61263467 -9.738558356e-05
99.50048382 -111.663428 224.7600356
108.9457318 -2.498427818e-05 163.1193266
-80.66701018 -2.498427818e-05 237.0063096
69.27078382 -2.498427818e-05 63.87597061
51.06140182 -2.498427818e-05 120.5750876
99.33045882 -110.4791088 39.99990261
38.55045182 -11.0461519 -9.738558356e-05
-95.50049318 -34.89413079 77.95724561
-95.50049318 -43.59217963 9.976229614
-22.22066418 -2.498427818e-05 77.53376461
-65.26079818 -2.498427818e-05 162.6543506
-75.44485718 -61.01460973 -9.738558356e-05
55.45877782 -2.498427818e-05 65.70946761
95.50048382 -63.72260223 242.3271076
95.50048382 -13.66998011 17.85560861
-99.50049318 -36.58205693 102.5763356
-99.50049318 -94.72749695 239.7154866
85.27745882 -2.498427818e-05 233.4849606
-99.50049318 -13.78802921 38.24419161
-29.87732318 -2.498427818e-05 31.29007861
-109.0321462 -12.55439048 -9.738558356e-05
52.74745982 -2.498427818e-05 103.8774556
-117.3046862 -2.498427818e-05 131.8611226
-99.50049318 -75.40321216 152.4110356
-116.6021542 -51.9370035 -9.738558356e-05
99.50048382 -57.16760615 224.9869876
-99.50049318 -30.51508549 164.6959866
14.16626782 -2.498427818e-05 248.3278136
50.98268582 -64.41007112 -9.738558356e-05
95.50048382 -48.8038669 101.3360416
99.50048382 -59.27350531 25.16156061
37.47287882 -2.498427818e-05 180.6943406
12.19580882 -52.22299732 -9.738558356e-05
-99.50049318 -70.04908423 137.3875726
15.07149182 -2.498427818e-05 222.0963776
120.3185008 -2.498427818e-05 103.6078556
25.56914982 -2.498427818e-05 49.69012061
82.05577682 -2.498427818e-05 109.0906546
-38.82336518 -2.498427818e-05 164.0045636
-15.31845818 -2.498427818e-05 166.8339746
99.50048382 -41.68652314 246.5253806
-51.17287018 -13.40919682 -9.738558356e-05
-95.50049318 -72.25205583 198.1817226
99.50048382 -41.26188039 162.9667566
-68.64888518 -2.498427818e-05 13.36802161
-104.2420342 -54.83862454 -9.738558356e-05
61.15483582 -2.498427818e-05 172.7188176
99.50048382 -118.2709166 64.76374061
95.50048382 -34.83110524 123.1924096
76.51185182 -66.66727767 -9.738558356e-05
95.50048382 -105.4958417 60.70327061
95.50048382 -84.06764346 63.18311761
91.79285682 -2.498427818e-05 32.04265361
93.00006082 -29.15661713 -9.738558356e-05
-106.7936082 2.413372146 -9.738558356e-05
95.68807382 -100.5606131 208.8187936
98.60628482 -137.6707324 210.3748996
95.50048382 -23.22275579 112.6644166
-107.2770082 -2.498427818e-05 101.5863736
71.39975182 -2.498427818e-05 47.50233461
-95.50049318 -51.21255551 182.0941316
-60.46747518 -2.498427818e-05 135.5436106
-95.50049318 -9.301643504 251.8528296
99.50048382 -59.14591846 160.9300376
102.0576218 -2.498427818e-05 242.2115766
24.05256182 -2.498427818e-05 113.6263946
-55.71708718 -36.77006037 -9.738558356e-05
-95.50049318 -36.17978515 248.8738866
99.50048382 -100.6950814 80.57665361
25.68154482 -2.498427818e-05 187.1501456
99.50048382 -25.32462568 172.7231476
99.50048382 -69.8714429 132.0661116
-88.40423818 -20.21469392 -9.738558356e-05
77.21801482 -2.498427818e-05 208.0861406
95.50048382 -126.6659298 48.12190861
-15.87461218 -31.63408491 -9.738558356e-05
-30.00547718 -2.498427818e-05 88.22192861
-99.50049318 -49.6745211 238.8155176
-99.50049318 -13.59468133 112.8069596
-95.50049318 2.176501116 65.61680061
4.913482821 -2.498427818e-05 237.2780986
-60.63115218 -2.498427818e-05 219.0663966
-81.84907518 -2.498427818e-05 152.5146906
95.50048382 -7.690942364 57.88898861
-99.50049318 -38.63945508 220.3145616
-99.50049318 -53.58351257 108.9814116
-94.99951618 0.9247525157 228.1660366
76.17394082 -2.498427818e-05 86.23241161
99.50048382 -127.3588782 249.6683626
-118.5369072 -2.498427818e-05 14.19841361
41.33233182 -2.498427818e-05 32.41717561
-95.50049318 -33.87812593 197.0507126
114.1698638 -2.498427818e-05 10.87126961
-4.978147179 -60.11613908 -9.738558356e-05
-59.26605118 -2.498427818e-05 198.4229376
-99.39084318 -60.52922952 74.02305761
28.32199282 -39.49323672 -9.738558356e-05
-1.616916179 2.102470526 -9.738558356e-05
95.50048382 -79.60178617 214.2029956
-72.04102418 -2.498427818e-05 132.0864306
-9.932098179 -2.498427818e-05 25.37989961
95.50048382 -58.40044994 78.18601661
95.50048382 -21.9691403 213.1646456
-99.50049318 -32.25131614 43.77100961
95.50048382 -7.522530724 236.9677456
-104.7841152 -2.498427818e-05 174.1450706
36.78584682 -2.498427818e-05 143.2709426
-40.50343718 -2.498427818e-05 188.8188106
-8.053643179 -2.498427818e-05 143.5025486
99.50048382 -39.61857129 148.1907026
-91.41888818 -2.498427818e-05 241.0470346
-24.99173018 -64.59230529 -9.738558356e-05
98.71887582 -2.498427818e-05 48.62007261
-26.53383918 -2.498427818e-05 112.1232536
21.79429182 -68.00002402 -1.345130386
-108.8581432 -2.498427818e-05 120.4934686
99.45230482 -144.8343301 241.2583526
-74.50894918 -2.498427818e-05 46.12213961
-99.50049318 -24.39281439 232.0405686
117.1557708 -2.498427818e-05 210.8531536
-28.64937118 -2.498427818e-05 239.8849506
9.493023821 -2.498427818e-05 178.5135186
95.50048382 -72.61537211 39.68476661
-95.50049318 -71.56309845 175.1319186
-96.46435518 -2.498427818e-05 106.9041966
99.50048382 -32.45704214 23.55346961
99.50048382 -45.63879228 202.9652966
52.53154482 -2.498427818e-05 225.9278686
-42.86280118 -58.49552933 -9.738558356e-05
-23.60283818 -2.498427818e-05 100.4394286
110.4084718 -2.498427818e-05 129.2608956
-38.74842518 -28.05050553 -9.738558356e-05
-95.50049318 -17.80034882 61.68637061
58.96022782 -35.66368804 -9.738558356e-05
0.8044918207 -2.498427818e-05 104.6721066
-91.91579018 -2.498427818e-05 95.44185061
-109.1028682 -2.498427818e-05 233.2460906
30.05969782 -2.498427818e-05 236.0102686
95.50048382 -91.69577959 49.09529361
31.15347682 -2.498427818e-05 67.40487061
99.50048382 -69.59989486 143.1078536
-94.34596318 -2.498427818e-05 129.6892236
-70.52477118 -2.498427818e-05 102.7486846
-108.2665142 -2.498427818e-05 210.4790766
15.44749282 -2.498427818e-05 80.88238461
84.95566482 -2.498427818e-05 134.2019556
119.7136368 -7.440049354 -9.738558356e-05
-99.50049318 -23.51815282 103.1187686
-63.32494318 -2.498427818e-05 45.06852161
-10.86343818 -41.17964045 -9.738558356e-05
110.4983798 -46.89208152 -9.738558356e-05
99.50048382 -50.96320018 32.01564861
95.50048382 -103.9853563 48.13352561
-99.50049318 -7.907516174 53.45640061
-95.50049318 -50.30779284 170.3004096
-99.50049318 -11.46078938 6.473327614
-81.44432718 -2.498427818e-05 220.2534356
-95.50049318 -18.92114652 94.05188361
-43.68160618 -5.796318574 -9.738558356e-05
-99.50049318 -12.21783628 27.68116561
45.80797382 -2.498427818e-05 61.15499961
-99.50049318 -25.40635106 80.60300561
95.50048382 -19.95741152 251.4521316
18.95199182 -2.498427818e-05 31.20142461
-99.34698318 -56.97476902 53.51314161
-54.63430618 -68.00002402 -2.101455386
76.83565682 -2.498427818e-05 180.4160876
-57.86307618 -2.498427818e-05 120.9419556
-95.50049318 -26.62147799 151.0949736
6.620579821 -29.33015833 -9.738558356e-05
71.67846882 -2.498427818e-05 126.8743166
67.81914682 -2.498427818e-05 26.02778361
-74.57844018 -2.498427818e-05 1.918183614
113.5286738 -2.498427818e-05 33.82927961
57.34438982 -11.48989067 -9.738558356e-05
-82.91572618 -31.03265508 -9.738558356e-05
-99.50049318 -33.51635815 5.726952614
58.03604482 -2.498427818e-05 6.360660614
96.83657582 -71.17505204 110.5916936
95.50048382 -36.49223418 42.52781861
99.50048382 -65.42972364 63.55677361
100.8244738 -2.498427818e-05 204.8523996
99.50048382 -44.36582473 124.9194576
78.84899482 -2.498427818e-05 196.7194936
-99.50049318 -48.18435193 216.0128926
104.4783698 -9.053342334 -9.738558356e-05
-95.50049318 -56.46949372 133.9801296
95.50048382 -11.09276271 128.8314116
65.68579182 -2.498427818e-05 222.7730396
14.33879482 -2.498427818e-05 117.4743506
99.50048382 -100.211591 218.5875426
32.13273382 -2.498427818e-05 95.33719661
30.97220182 -2.498427818e-05 6.029919614
35.33423382 -52.85877244 -9.738558356e-05
-99.50049318 -51.68942051 34.80002661
99.50048382 -13.00935391 154.7136746
88.64552682 -2.498427818e-05 81.44770461
-9.345726179 -2.498427818e-05 116.3239116
99.50048382 -89.34062236 247.3519356
95.50048382 -16.65005559 82.37107761
-62.84025118 -53.14264798 -9.738558356e-05
-53.12398318 -2.498427818e-05 142.8079576
95.50048382 -131.7432869 240.3084766
-75.42250318 -2.498427818e-05 178.5087136
30.37297082 -2.498427818e-05 169.6206006
99.50048382 -76.07769899 68.43461861
-105.2149892 -2.498427818e-05 68.42549161
-95.50049318 -23.70297388 23.88023261
99.50048382 -16.0643223 42.56368761
35.25368582 -2.498427818e-05 123.9505796
-80.61978718 -2.498427818e-05 118.9979716
51.72585582 -2.498427818e-05 82.48701961
95.50048382 -16.41145566 227.4723806
-43.95146118 -2.498427818e-05 98.20800161
-99.33714918 -63.8542756 -9.738558356e-05
76.38083482 -2.498427818e-05 6.406066614
99.50048382 -76.16029358 205.4204976
95.50048382 -59.93331566 205.2233116
-86.52934018 1.978801676 -9.738558356e-05
37.01377682 -2.498427818e-05 84.24813561
-7.978278179 -2.498427818e-05 97.18536561
95.50048382 -23.33379082 64.80440261
99.50048382 -48.06330298 183.3600836
-95.50049318 -20.38180241 192.5510246
58.51723882 -2.498427818e-05 140.2351096
-95.50049318 -38.77426301 87.32848061
95.50048382 -110.383701 240.1479636
-6.638046179 -2.498427818e-05 52.34270361
-4.546137179 -2.498427818e-05 164.6967796
-68.42429918 -2.498427818e-05 31.81002261
-95.50049318 -86.20973794 233.7078786
99.50048382 -99.03328393 68.85261061
15.37035382 -2.498427818e-05 141.6236866
-76.67934418 -50.33337165 -9.738558356e-05
-95.50049318 -75.83235837 226.1476896
104.1136368 -2.498427818e-05 29.74958761
-110.6906582 -2.498427818e-05 155.0757286
99.50048382 -135.1524271 52.65185261
95.50048382 -68.61655821 86.75897061
95.50048382 -3.393956594 186.2697256
-77.74634818 2.386430686 204.9900276
99.50048382 -68.25258242 198.2920016
-1.048130179 -2.498427818e-05 153.8426466
99.50048382 -24.80464964 90.39968861
-102.6405642 -2.498427818e-05 142.1061286
-25.08821818 -2.498427818e-05 148.4620796
-6.373090179 -2.498427818e-05 237.3171806
5.147808821 -2.498427818e-05 199.9610066
-20.78013518 -2.498427818e-05 130.0926436
-95.50049318 -61.40642492 97.37818861
95.50048382 -40.73205849 18.97377061
-99.50049318 -7.241764224 86.20190261
-99.50049318 -85.19347774 214.5997256
78.49094582 -2.498427818e-05 162.5001296
28.05461982 -13.47033764 -9.738558356e-05
95.50048382 -72.98625775 221.5570716
-68.76937718 -2.498427818e-05 235.8784276
95.50048382 -53.18291721 145.9290896
99.50048382 -17.15529115 135.9409466
-40.73015118 -2.498427818e-05 216.3221346
-120.3219102 -2.498427818e-05 189.5956756
-14.19505618 -2.498427818e-05 189.1752186
95.50048382 -45.36701337 172.7350446
-95.50049318 -81.68586163 245.6383256
91.16721582 -2.498427818e-05 16.64819361
-79.56867118 -2.498427818e-05 80.82816561
99.50048382 -62.59530151 95.80013761
99.50048382 -10.16578388 205.1531006
95.50048382 -76.60241902 236.5982456
11.65722182 -2.498427818e-05 150.6662496
-101.3805382 -2.498427818e-05 92.48931861
99.50048382 -60.43695788 184.9590606
95.73137482 -81.93271901 33.91189861
29.27283982 -2.498427818e-05 134.1313986
37.65296182 -43.29497815 -9.738558356e-05
91.70682882 -2.498427818e-05 110.5183186
62.20424582 -2.498427818e-05 231.8767406
40.57167682 -2.498427818e-05 249.6502206
83.20521382 -2.498427818e-05 187.9538536
95.50048382 -48.02179428 116.8358746
-99.50049318 -6.618975814 178.9240406
-54.31801218 -4.222876484 -9.738558356e-05
99.50048382 -50.85045196 45.50943561
99.13639982 -122.5755315 209.9999026
-34.62616418 -2.498427818e-05 250.6247676
95.50048382 -50.55284002 131.1449686
-55.43212618 -2.498427818e-05 209.7128616
-99.50049318 -35.07600674 114.3902696
-95.50049318 -41.69170585 123.5168476
0.2773498207 -2.498427818e-05 66.73458261
99.50048382 -22.12868865 15.60497861
-51.74218218 -2.498427818e-05 38.79855761
-99.50049318 -37.63268877 184.8388986
114.7094738 -2.498427818e-05 182.6428796
-95.50049318 -13.92131302 167.7549176
-42.56145518 -2.498427818e-05 71.99973561
99.50048382 -121.2438961 224.9784606
-95.50049318 -35.39736376 64.01997561
99.50048382 -28.74984176 52.01474861
-99.50049318 -101.334436 246.6381376
-75.17785918 -36.66092689 -9.738558356e-05
95.50048382 -11.48808031 27.16034261
-95.50049318 -10.71612785 193.2114126
-99.50049318 -64.25080113 208.7080206
-74.75100618 -2.498427818e-05 66.21216561
-10.43930018 -23.83031034 -9.738558356e-05
46.87613482 -28.6008234 -9.738558356e-05
-95.50049318 -48.01606945 203.8808536
-99.50049318 -48.26547294 87.44623261
95.50048382 -43.5617922 7.518472614
10.39338482 -2.498427818e-05 103.3588986
-95.50049318 -63.89905689 117.9118186
-26.69164318 -2.498427818e-05 56.68073661
-99.50049318 -94.64413229 218.0148306
-19.99317118 -2.498427818e-05 228.2649156
-99.50049318 -87.87188994 193.6454426
99.50048382 -29.33074732 183.9785346
57.70854882 -2.498427818e-05 19.85235461
99.50048382 -9.390450984 173.3351106
-84.98031818 -2.498427818e-05 169.5100366
-118.2743802 -10.88580376 -9.738558356e-05
-36.70660018 -2.498427818e-05 116.3164566
68.84481182 -2.498427818e-05 244.1627246
95.50048382 -136.3664267 223.3472956
-20.61872918 -2.498427818e-05 32.72620661
-90.55204318 -2.498427818e-05 155.9532626
107.0521358 -2.498427818e-05 84.73448961
-108.8754972 -2.498427818e-05 187.1878346
-73.58994818 -2.498427818e-05 145.5255886
-40.22630518 -46.93344511 -9.738558356e-05
-99.50049318 -41.30899608 18.60637261
-52.94491518 -2.498427818e-05 241.3617896
-48.68002118 -2.498427818e-05 106.1999936
-99.50049318 -66.8958132 156.0798866
95.50048382 -79.88322017 76.35363061
-13.12001718 -2.498427818e-05 5.486131614
99.50048382 -8.052504534 11.71604061
99.50048382 -40.18779498 100.4465876
99.50048382 -63.46720296 174.8691046
-92.00311218 -28.69004184 -9.738558356e-05
-95.50049318 -52.62148842 70.78969361
-53.28153018 -2.498427818e-05 57.73370661
99.50048382 -37.17995554 199.4593646
-99.50049318 -12.07831653 244.1069536
95.50048382 -32.31852638 131.9790846
-99.50049318 -5.060027524 43.24610861
106.7958658 -2.498427818e-05 193.8567656
116.4556398 -2.498427818e-05 56.01644861
44.60441782 -2.498427818e-05 217.3248756
25.61838582 -2.498427818e-05 160.2196706
-115.1088832 -2.498427818e-05 37.41078661
95.50048382 -68.02613991 51.41314861
-99.50049318 -8.768204934 75.49135661
99.50048382 -18.3123522 103.8143636
99.50048382 -62.30450942 115.3676186
99.50048382 -82.29398675 54.10347961
58.24481882 -2.498427818e-05 198.6245756
-95.50049318 -56.30988287 189.5756896
68.09892882 -26.54292507 -9.738558356e-05
107.1476948 -2.498427818e-05 137.9575786
95.50048382 -103.3319987 226.0749716
95.50048382 -50.1671875 165.0804676
99.50048382 -21.93460368 155.9828096
99.50048382 -58.49077287 215.2287036
18.95303882 -2.498427818e-05 201.1347476
85.22528582 -2.498427818e-05 46.04491561
-5.496263179 -2.498427818e-05 203.3243736
-0.5207801793 -67.91436057 -9.738558356e-05
99.50048382 -31.07542023 115.2027886
-99.50049318 -13.54021143 227.0224436
-99.50049318 -44.19602103 231.6991686
95.50048382 -16.86823118 34.32504861
-68.85668618 -2.498427818e-05 154.4459166
102.1096948 -2.498427818e-05 125.3321106
88.03073582 -2.498427818e-05 164.9529766
95.50048382 -22.24319974 75.39674461
-24.21625318 -2.498427818e-05 167.6661096
95.50048382 -133.9065539 74.83125061
40.00032182 -2.498427818e-05 225.0714906
-92.73721618 -2.498427818e-05 73.98829861
3.140725821 -9.029460664 -9.738558356e-05
99.50048382 -92.18609921 231.0818476
94.06389882 -2.498427818e-05 40.63380861
-95.50049318 -42.75717359 50.80956761
-95.50049318 -8.608606544 134.8772106
-17.50945618 -9.447270304 -9.738558356e-05
99.50048382 -58.4231407 152.0953086
-95.50049318 -56.34001282 252.4511906
95.50048382 -51.54468862 53.62453961
-42.97372118 -2.498427818e-05 124.8839686
42.08598182 -2.498427818e-05 154.7316696
-99.50049318 -4.890214304 222.2827716
95.50048382 -120.8487066 41.49941061
-14.03140718 -2.498427818e-05 69.65098161
31.23281682 -2.498427818e-05 21.73262461
91.80306482 -2.498427818e-05 227.6025386
22.36982782 -2.498427818e-05 7.805343614
-99.50049318 -40.43564623 148.6638656
-99.50049318 -1.640949034 213.8012236
63.48176982 -2.498427818e-05 105.1124966
95.50048382 -67.17515194 190.0264536
95.50048382 -0.1089938843 214.5154646
-93.81441818 -2.498427818e-05 178.5724076
5.642196821 -2.498427818e-05 250.1824936
99.32942782 -58.26700405 16.13175661
76.06335682 -2.498427818e-05 30.95424661
-95.50049318 -7.242404144 154.0510216
-99.50049318 -26.02422418 61.24525361
95.50048382 -10.90554762 190.6808366
99.50048382 -76.98567396 84.92318861
11.53069282 -22.15305213 -9.738558356e-05
95.50048382 -27.62724393 33.25695961
99.50048382 -1.457185654 251.1631816
-95.50049318 -30.53139358 173.7252086
83.68474282 -54.06975217 -9.738558356e-05
-115.1990202 -33.12722966 -9.738558356e-05
-99.50049318 -19.47251185 148.3153926
95.94561382 -38.29851631 -9.738558356e-05
-50.66523318 -2.498427818e-05 196.2143006
-99.50049318 -68.69157181 234.2284756
102.0364858 -28.42621871 -9.738558356e-05
99.50048382 -16.10975771 115.4017936
34.91261682 -2.498427818e-05 75.14586561
-95.50049318 -17.6280079 70.93712661
-19.45347818 -40.97346389 -9.738558356e-05
-39.53925218 -2.498427818e-05 155.4467876
-95.50049318 -44.29429201 164.1835576
-99.50049318 -27.39711303 14.19617961
107.4966808 -2.498427818e-05 39.92143861
-97.14405918 -50.05178509 -9.738558356e-05
92.53962482 -54.04676463 -9.738558356e-05
-33.52451918 -2.498427818e-05 47.93129461
-118.4053312 -2.498427818e-05 225.6697206
-99.50049318 -64.00231705 131.1085916
-108.5199692 -2.498427818e-05 20.08572961
-33.94299418 -2.498427818e-05 194.9873646
-40.12118718 -2.498427818e-05 30.27399361
-99.40016718 -2.498427818e-05 14.89678661
-95.50049318 -9.065050754 13.60408961
104.3185818 -2.498427818e-05 11.09955461
95.50048382 -142.783062 47.38422661
99.50048382 -63.76906608 126.1348186
70.09265382 -61.0893497 -9.738558356e-05
-95.50049318 -13.87919866 177.0602766
-23.10418218 -2.498427818e-05 180.6997546
113.2663158 -2.498427818e-05 155.8215986
-99.50049318 -32.45573372 241.5406446
95.50048382 -96.38412596 242.9646846
-95.50049318 -79.84828523 208.5197856
23.51866782 -2.498427818e-05 221.5015696
-95.50049318 -25.26174574 121.2566776
-95.50049318 -34.62716024 136.5124736
99.50048382 -63.13299029 32.68221561
17.90388582 -2.498427818e-05 93.76549061
99.50048382 -65.23034994 249.6144656
-95.50049318 -20.13998334 238.1460796
-99.50049318 -20.355964 131.4705806
-95.50049318 -48.08168559 103.9824426
-97.22794718 -2.498427818e-05 252.4581196
-116.5992492 -2.498427818e-05 22.64638161
99.50048382 -104.7688454 246.0058356
-89.87946218 -2.498427818e-05 28.21506161
45.83130482 -2.498427818e-05 51.86284661
95.50048382 -13.71223483 64.38968861
-89.39035118 -2.498427818e-05 17.83602061
20.04822982 -2.498427818e-05 241.6391816
59.46940382 -2.498427818e-05 45.42052461
-11.13882518 -15.48418451 -9.738558356e-05
-91.72197218 -2.498427818e-05 189.3978596
95.50048382 -12.79843753 51.25905761
-95.79472118 1.510304056 57.28965961
-55.42920618 -58.55733872 -9.738558356e-05
50.89808282 -2.498427818e-05 185.9750666
95.50048382 -31.83985014 88.41143361
95.50048382 -119.2233784 73.39803861
99.50048382 -70.94342142 243.3578016
95.50048382 -7.209873934 99.41315861
-79.01649418 -2.498427818e-05 136.6096226
-90.89120418 -2.498427818e-05 41.06667161
-99.50049318 -50.66903467 11.65849361
95.50048382 -86.40489556 81.47695761
-96.29827918 -55.83731979 45.89001261
-95.50049318 -43.88272652 93.83436161
-117.1399772 -2.498427818e-05 89.15772661
55.98658582 -2.498427818e-05 37.32258861
-95.50049318 -26.75512454 49.89023261
5.327014821 -2.498427818e-05 15.22133561
96.47945582 -90.44262244 37.04016261
95.50048382 -3.150114694 74.09100261
-95.50049318 -17.12032875 220.2810266
7.324946821 -41.6394745 -9.738558356e-05
25.91413382 -2.498427818e-05 15.24124561
109.1537948 -2.498427818e-05 208.9027916
-21.91745418 -2.498427818e-05 63.63277561
49.39445982 -2.498427818e-05 129.7947306
-28.38941018 -26.38656894 -9.738558356e-05
99.50048382 -2.682246184 110.7486086
66.76643782 -2.498427818e-05 141.8400036
-99.50049318 -93.72199551 226.1651566
-95.50049318 -16.69228767 211.6656556
103.0098698 -2.498427818e-05 64.76310661
99.50048382 -108.5631122 215.9052996
-49.83326518 -2.498427818e-05 75.83809361
99.50048382 -31.37499795 164.4251516
10.01624182 -2.498427818e-05 30.73389761
99.50048382 -26.6873745 206.9164596
98.61831282 -145.000025 233.1619156
95.50048382 -121.1661702 57.02067161
-99.50049318 -58.70018778 151.3655086
-58.70787918 -2.498427818e-05 95.70444861
38.27808182 -2.498427818e-05 39.92314461
99.50048382 -40.39504595 85.11314261
95.50048382 -10.4071566 137.9427096
-73.77399618 -2.498427818e-05 217.6784946
8.205012821 -59.25954136 -9.738558356e-05
-95.50049318 -57.34386747 231.8504686
55.02913282 -2.498427818e-05 208.3785636
94.27361482 -2.498427818e-05 55.76648961
112.6022228 -63.52841386 -9.738558356e-05
95.50048382 -22.06973257 49.31963061
95.50048382 -141.0819756 64.64565261
92.08673082 0.04625688572 -9.738558356e-05
-95.50049318 -41.28343625 40.91448461
72.31476382 -11.91478531 -9.738558356e-05
21.42932982 -31.72697106 -9.738558356e-05
11.39975682 -2.498427818e-05 170.0808826
-99.50049318 -54.02475005 81.86749761
-95.50049318 -29.96617861 105.6954946
99.50048382 -25.62609101 133.8191316
-99.50049318 -59.57752318 221.3627746
-95.50049318 -43.14172717 142.2782646
7.295581821 -2.498427818e-05 220.2061516
99.50048382 -53.65929955 137.5651646
99.50048382 -48.14861586 24.54424861
-95.50049318 -33.28213308 121.0554616
100.2557648 -2.287764524 -9.738558356e-05
47.63672582 -7.281582494 -9.738558356e-05
-63.25314918 -7.534783464 -9.738558356e-05
-95.50049318 -7.476640334 109.4955156
-99.50049318 -9.791504284 119.8082376
-75.36201718 -2.498427818e-05 87.58922261
79.91295982 -2.498427818e-05 173.0774316
-107.0124992 -2.498427818e-05 194.9231716
32.24955482 -2.498427818e-05 149.7986046
75.14957282 -2.498427818e-05 147.9384936
-95.50049318 -76.23977688 183.3096666
95.50048382 -47.08879945 87.42711361
-97.35410518 -87.70025203 186.0091396
18.87582582 -60.72786107 -9.738558356e-05
99.50048382 -65.74201128 40.15811861
92.44891882 -2.498427818e-05 131.6550966
-99.50049318 -44.80316321 28.37802961
-95.50049318 -68.32518952 243.4257896
-1.890616179 -2.498427818e-05 19.09285561
-12.35832818 -2.498427818e-05 244.4484966
-99.50049318 1.699933096 77.70101561
-80.37757218 -67.18524261 -9.738558356e-05
-95.50049318 -42.20329663 238.2129736
-0.5770941793 -25.59740993 -9.738558356e-05
-99.50049318 -18.5464102 251.0136096
-99.50049318 -7.474359284 163.5583036
27.88000582 -2.498427818e-05 106.6995836
7.531081821 -2.498427818e-05 81.08838261
34.40590682 -2.498427818e-05 202.8311656
-15.21606618 -2.498427818e-05 210.9775226
-99.50049318 -55.58574694 116.6240546
91.81911982 -2.498427818e-05 99.08540161
95.50048382 -110.444076 232.2856506
-99.50049318 -61.05857977 105.7973206
-95.50049318 -80.51686789 196.0429276
-43.18766118 -2.498427818e-05 229.0037366
-115.3334942 -2.498427818e-05 104.2682376
84.80712482 -2.498427818e-05 27.72856861
-116.2054262 -2.498427818e-05 240.5460746
59.88482082 -2.498427818e-05 74.05643361
95.50048382 -17.42430996 175.4577656
6.590382821 -2.498427818e-05 187.1084406
-99.50049318 -64.21514705 200.8892016
95.50048382 -55.27329718 180.6667836
9.716793821 -2.498427818e-05 61.59939161
19.36094082 -2.498427818e-05 107.3790456
-60.96661918 -2.498427818e-05 183.8418056
13.44422982 -7.594998774 -9.738558356e-05
-95.50049318 -33.1473479 224.1597996
-30.82955118 -45.48934136 -9.738558356e-05
-8.110308179 -2.498427818e-05 183.4600356
-16.84745518 -2.498427818e-05 150.4606506
66.82734982 -2.498427818e-05 213.4451686
95.50048382 -52.04363152 108.3990436
-95.50049318 -58.45938007 142.9333066
95.50048382 -57.20528506 231.6404416
114.1253488 -2.498427818e-05 19.63398661
-99.50049318 -55.82808712 245.1480546
-95.50049318 -22.13327297 181.8026256
45.65959282 -2.498427818e-05 68.88843661
-99.50049318 -59.93153102 182.1964806
-14.69530018 -2.498427818e-05 79.29264161
53.78894082 1.098654886 -9.738558356e-05
99.50048382 -7.429754584 144.5407256
95.56667682 -2.498427818e-05 235.2278066
77.46418682 -4.723145694 -9.738558356e-05
99.26170282 -52.13304886 7.526362614
99.50048382 -37.00840731 183.2251586
95.50048382 -23.22769419 190.9281246
89.35766182 -2.498427818e-05 199.9222206
99.50048382 -15.88466439 196.4526756
-99.50049318 -16.16379374 105.3496846
-98.87430118 -104.3282265 235.8749646
99.50048382 -34.86661299 107.2402516
99.50048382 0.9659001257 85.68099661
-110.4912892 -2.498427818e-05 75.55356561
95.50048382 -117.3256905 219.7437376
-95.50049318 -50.10923453 196.5090296
-95.50049318 -67.19129714 219.6022126
-95.50049318 -5.190091374 205.0395716
-99.50049318 -51.50313497 153.9477906
26.60506582 -2.498427818e-05 194.7372636
-113.9429912 -2.498427818e-05 66.56734761
45.64238782 -2.498427818e-05 139.9565036
99.50048382 -42.98800121 210.1252156
-96.24275518 -76.31898424 145.5684266
95.50048382 -25.24528705 162.2669486
76.15017582 -2.498427818e-05 113.9081746
-102.4284302 -2.498427818e-05 161.2908126
95.50048382 -7.529870794 151.2600766
107.9038518 -2.498427818e-05 120.3957246
-79.50918118 2.318846956 193.7081916
1.110086821 -2.498427818e-05 208.6969936
77.36684682 -35.73999286 -9.738558356e-05
-59.51547118 -30.17456072 -9.738558356e-05
-49.56601318 -2.498427818e-05 249.7103656
-84.37818018 -2.498427818e-05 51.71131761
39.15503582 -2.498427818e-05 189.0572716
-95.50049318 -10.35318262 46.91264361
95.50048382 -10.34963663 222.9224366
-99.50049318 -56.12428999 167.5783906
95.50048382 -43.16701687 155.0310886
-80.13027518 -2.498427818e-05 229.1520836
-67.31673418 -2.498427818e-05 244.0137696
94.34566982 -2.498427818e-05 91.51381361
-21.87478318 -2.498427818e-05 40.14694961
95.50048382 -81.87825575 198.6079136
95.50048382 -22.81501181 149.6715816
95.50048382 -65.81796223 158.9174336
99.50048382 -64.73472136 78.77211961
87.76602582 -2.498427818e-05 221.2653566
-37.64279118 -2.498427818e-05 137.6590916
30.29074482 -2.498427818e-05 87.57617361
106.8378138 -2.498427818e-05 151.9600486
99.50048382 -115.1433382 78.25407361
95.50048382 -68.59986537 103.2619166
21.54337582 -2.498427818e-05 85.23409261
-21.71730918 -52.5034284 -9.738558356e-05
113.0187968 -2.498427818e-05 77.52499961
99.50048382 -63.15026754 234.8127896
80.88214782 -2.498427818e-05 125.5862026
-74.68779718 -25.51537221 -9.738558356e-05
-35.80021618 -20.34099411 -9.738558356e-05
95.50048382 -5.125282054 23.16584261
44.69557382 -2.498427818e-05 105.0027736
-95.50049318 -22.71496947 161.9491546
95.50048382 -5.427107564 246.3135286
-99.50049318 -4.322936834 126.5332496
-99.50049318 -76.96589913 219.9903916
99.50048382 -30.80419257 246.0554276
64.46779082 -2.498427818e-05 187.0182616
95.50048382 -61.33022368 168.2642216
-33.18111618 -59.36989378 -9.738558356e-05
-53.18263918 -2.498427818e-05 26.41367361
-95.50049318 -63.50647402 137.3314516
-99.50049318 -32.19193282 157.4763306
-110.1156562 -40.17376585 -9.738558356e-05
99.50048382 -83.26360192 71.11895261
95.50048382 -60.52575062 69.89460661
-114.1853872 -2.498427818e-05 7.772152614
-31.93370218 -2.498427818e-05 38.54414861
60.87402182 -28.10597148 -9.738558356e-05
99.50048382 -76.37873795 49.74342861
-99.50049318 -75.1610056 248.3633906
95.50048382 -55.65765637 61.12316861
-95.50049318 -30.23239507 84.42128161
83.98791282 -62.11936608 -9.738558356e-05
47.67891182 -2.498427818e-05 167.5476246
50.50056482 -2.498427818e-05 113.2686476
97.09272982 -2.498427818e-05 140.4379136
97.58242082 1.999975016 221.2155006
58.52964882 -2.498427818e-05 179.5551886
-99.50049318 -33.44564961 69.82597161
99.50048382 -13.66429889 123.2770746
104.9803888 -2.498427818e-05 92.33576461
99.50048382 -27.51225627 216.8397296
62.59981882 -2.498427818e-05 83.49386161
-99.50049318 -18.21233273 77.21691661
-118.8731852 -2.498427818e-05 182.4497006
-99.75361918 -2.498427818e-05 194.3587386
-58.67868818 -2.498427818e-05 62.61846661
95.50048382 -10.09401365 78.89921761
-99.50049318 -31.60148543 180.7661006
101.4735828 -43.03177249 -9.738558356e-05
21.96091282 0.8566107757 -9.738558356e-05
-99.50049318 -35.87963178 169.5716026
99.50048382 -47.19311089 251.2357136
99.50048382 -61.37008187 45.93361861
-63.59382718 -2.498427818e-05 126.1983516
95.50048382 -48.25831146 40.06331861
112.4731248 -2.498427818e-05 96.21934161
-99.50049318 -26.95139455 137.0250796
99.50048382 -32.28011788 38.24552261
99.50048382 -104.9893951 74.41302261
66.06188982 -2.498427818e-05 252.3186506
-20.75310918 -2.498427818e-05 161.2378726
86.59248682 -2.498427818e-05 74.55520661
93.25433182 -2.498427818e-05 151.3875696
18.41573282 -2.498427818e-05 185.2084556
-99.50049318 -25.59100086 144.5652766
-95.50049318 -23.4380967 214.0769246
98.18211482 -9.531736604 3.999902614
-99.50049318 -65.15056829 192.3116266
99.50048382 -96.91665069 225.4630276
95.50048382 -83.43150882 246.9085356
-99.50049318 -24.04899189 40.52211661
46.68262382 -2.498427818e-05 7.874599614
34.15638882 -2.498427818e-05 246.5007076
75.29433982 -2.498427818e-05 104.5417406
-101.1115062 -13.98009563 -9.738558356e-05
-61.91212718 -61.52669682 -9.738558356e-05
70.14421682 -53.95930311 -9.738558356e-05
-21.70542018 -2.498427818e-05 195.8736926
-95.50049318 -73.70489349 158.0602956
38.08788782 -2.498427818e-05 2.984270614
99.50048382 -25.41249128 234.1125756
-74.35511118 -2.498427818e-05 73.32096261
-114.1127552 -2.498427818e-05 56.18169961
99.50048382 -5.985023394 66.35305761
-95.50049318 -6.856897694 31.89301361
93.15215882 -2.498427818e-05 118.4842446
-25.03381618 -2.498427818e-05 123.9800476
-99.50049318 -46.75334416 70.50537061
-95.50049318 -6.276731484 94.76549561
-95.50049318 -44.55184923 179.6255376
99.50048382 -48.88781279 95.48024261
-40.45000018 -2.498427818e-05 2.500571614
-95.50049318 -19.74239386 111.5759046
86.62398382 -32.24557466 -9.738558356e-05
-95.50049318 -7.385220824 2.283435614
-95.50049318 -39.2812085 70.09383061
-97.50353918 -2.498427818e-05 146.9776706
99.50048382 -79.53615905 221.1443706
110.1401548 -2.498427818e-05 200.0816936
-95.50049318 -37.86842659 214.5407876
-99.50049318 -46.20841036 158.6858286
-95.50049318 -37.42551971 13.38430261
-94.61255718 -35.23301052 -9.738558356e-05
-46.79782418 -2.498427818e-05 90.16927961
-50.85448518 -2.498427818e-05 121.6298126
98.93596082 -50.39319002 75.68661961
-109.8186152 -2.498427818e-05 243.5039546
-95.50049318 -12.95031538 149.1121356
-99.50049318 -0.1354947043 233.4643106
-48.42776418 -2.498427818e-05 210.3247776
95.50048382 -37.77792264 139.7945506
95.50048382 -89.47177523 216.1584866
112.2748268 -2.498427818e-05 170.6016126
81.78220282 -2.498427818e-05 140.7343636
95.72420782 -34.59475153 51.09954361
-95.50049318 -6.945735884 59.14044661
-95.50049318 -16.03123095 118.0236266
-16.92081218 -2.498427818e-05 50.95391261
-59.73165618 -2.498427818e-05 239.6096796
35.47296282 -2.498427818e-05 116.9484226
95.50048382 -58.62421283 128.7055526
-13.63157518 -2.498427818e-05 32.35101961
99.50048382 -68.51010584 217.9632236
99.50048382 -7.483931654 44.94099661
-99.50049318 -0.1435033943 100.6368256
95.50048382 -26.13564714 11.55057961
-48.59638418 -29.90068198 -9.738558356e-05
-95.50049318 -4.367784994 198.1290566
-77.40522218 -2.498427818e-05 171.8420816
13.10474682 -2.498427818e-05 214.6347966
-105.3048072 -6.689529614 -9.738558356e-05
-29.20562518 -2.498427818e-05 142.5252946
-8.114959179 -2.498427818e-05 123.1537806
-95.50049318 -42.60454951 199.5382996
-95.50049318 -97.18035928 233.1774306
95.50048382 -21.07472677 130.4529756
106.3992348 -2.498427818e-05 113.0601876
-95.50049318 -18.15400448 230.2983316
44.41807782 -2.498427818e-05 118.6276186
-99.50049318 -38.59770364 24.97298261
-99.50049318 -88.28524208 207.3868236
-60.10705118 -46.79050151 -9.738558356e-05
95.50048382 -54.92818 117.1682646
-95.50049318 -20.41256919 200.0866396
-97.02880118 -2.498427818e-05 138.0679846
42.43575582 -2.498427818e-05 126.3841236
-3.755210179 -2.498427818e-05 58.61898861
114.8820448 -2.498427818e-05 63.70959761
-95.98432418 -99.58067343 222.5359556
-35.05700418 -2.498427818e-05 79.13997361
-95.50049318 -1.443734044 160.4937006
89.13726082 -2.498427818e-05 62.91869861
-95.50049318 -29.8634413 218.1324236
-68.71901518 -2.498427818e-05 179.9756456
-54.24500418 -2.498427818e-05 129.1066976
112.6658938 -56.67597558 -9.738558356e-05
-10.36044318 -2.498427818e-05 174.0720586
-31.31300418 -2.498427818e-05 233.5780376
95.50048382 -98.98296432 75.29249561
64.28964982 -2.498427818e-05 124.2603806
95.50048382 -23.41823002 178.7524006
-99.50049318 -11.73871468 93.79593961
99.50048382 -63.1361435 87.59584961
-41.54313518 -12.28944625 -9.738558356e-05
-95.50049318 -100.5821078 241.1478026
95.50048382 -135.9757078 46.85869161
117.7395738 -2.498427818e-05 126.2773236
-35.95107218 -2.498427818e-05 225.2849006
-99.50049318 -6.262594794 240.5645496
95.50048382 -72.36613125 250.3534546
102.2995998 -2.498427818e-05 164.5468786
95.50048382 -31.76552881 150.4358006
95.50048382 -33.92240549 95.08396861
95.50048382 -38.92498284 26.37838561
-88.50648218 -2.498427818e-05 125.1721736
95.50048382 -10.26382048 167.6550196
49.69399182 -2.498427818e-05 33.68291461
79.01222782 -2.498427818e-05 236.0406196
99.50048382 -86.19775508 223.7381176
-44.80357418 -2.498427818e-05 53.89000561
43.80432682 -2.498427818e-05 16.01662161
-99.50049318 -36.10188011 95.83473761
-55.60535618 -2.498427818e-05 179.7373756
95.50048382 -112.8409503 64.48884261
69.71145682 -2.498427818e-05 9.584954614
-45.39961718 -2.498427818e-05 42.68133161
99.50048382 -5.126439664 90.52208061
-94.99951618 1.683084866 210.0768396
95.50048382 -50.66547639 188.0933496
-99.26802418 -30.01802543 -9.738558356e-05
9.382149821 -2.498427818e-05 137.6719506
-99.50049318 -17.42094213 87.89337761
-107.9118562 -61.938373 -9.738558356e-05
83.89412382 -2.498427818e-05 245.9342306
-95.50049318 -47.26071441 225.0617256
45.86195482 -60.10394087 -9.738558356e-05
-56.72276218 -2.498427818e-05 71.50056661
11.34787582 -2.498427818e-05 242.2819706
99.50048382 -105.1243942 66.02708061
-95.50049318 -36.42347313 107.9066166
97.98252182 -31.87565586 3.999902614
95.50048382 -67.33997311 203.5359016
-29.39229718 -2.498427818e-05 74.82135161
-99.06074618 -69.57387077 117.8805796
-99.50049318 -56.82453345 207.1587416
91.39184082 -2.498427818e-05 173.8781886
95.50048382 -55.35357729 102.4181536
99.50048382 -21.82153134 140.6570916
9.977656821 -2.498427818e-05 54.75627361
-61.14144018 -2.498427818e-05 37.77559561
-48.93409718 -20.66628396 -9.738558356e-05
67.67518682 -2.498427818e-05 171.5343346
99.50048382 -58.95296834 240.0540066
-71.41316518 -13.38461834 -9.738558356e-05
95.50048382 -16.60266141 220.7512166
-95.50049318 -49.73050112 124.8209716
99.50048382 -9.739616824 183.3082616
95.50048382 -116.026969 45.99877461
99.50048382 -138.8173209 237.8163236
-99.50049318 -50.54926356 52.05479061
95.50048382 -44.02139277 130.1449086
36.47953282 -2.498427818e-05 25.71958261
-99.50049318 -50.53662363 163.6522176
-68.98736118 -59.71258852 -9.738558356e-05
69.64075482 -2.498427818e-05 112.9032556
95.50048382 -117.0389054 228.0926156
95.50048382 -25.39619681 19.69086761
79.51790582 -2.498427818e-05 49.30898761
-30.33263818 -2.498427818e-05 117.8928346
95.50048382 -83.43308694 208.8757026
-120.2196492 -2.498427818e-05 203.2587976
95.50048382 -19.78781143 233.4023356
95.50048382 -123.3271888 216.5132716
59.89659982 -2.498427818e-05 245.7956086
95.50048382 -139.7373286 55.07336161
114.3308248 -27.38359372 -9.738558356e-05
99.50048382 -36.48263188 168.5146616
-99.50049318 -1.658170804 62.15342961
-99.50049318 -9.919536684 207.1047416
-99.50049318 -18.66541929 170.0129786
99.50048382 -48.6228993 195.6681066
-95.50049318 -18.23384368 10.56579561
-99.50049318 -4.296160154 7.103265614
-108.0160222 -2.498427818e-05 168.4964086
-99.50049318 -63.90494664 215.2043976
-90.06538218 -2.498427818e-05 234.6838206
-46.47471418 -2.498427818e-05 62.64864061
-27.26233118 -2.498427818e-05 95.07084761
-95.50049318 -10.34907554 220.8737346
-114.3375382 -2.498427818e-05 164.7254396
95.50048382 -44.50998189 146.7307236
-0.5706331793 -2.498427818e-05 196.9113646
-95.50049318 -63.46772642 252.4500886
95.50048382 -132.9501663 215.4434876
1.375029821 -2.498427818e-05 161.3782836
-67.47046518 -2.498427818e-05 141.0478206
73.74544482 -2.498427818e-05 221.0107946
95.50048382 -89.60529524 66.50391761
-99.50049318 -34.0714025 29.57185161
-99.50049318 -55.87011512 92.13625661
99.50048382 -23.20064971 35.69467061
99.50048382 -9.859703694 243.8924156
-95.50049318 -23.87003911 127.5431176
-95.50049318 -36.05206147 130.2372646
99.50048382 -31.61873919 211.8888156
-95.50049318 -20.57653502 153.2920516
-99.50049318 -76.30563091 173.4619946
-99.50049318 -85.16388506 238.6246366
99.50048382 -50.10299239 171.0542406
95.50048382 -14.71448611 11.17742061
95.50048382 -38.4681599 188.0201996
-99.49986618 -2.498427818e-05 113.2653226
99.50048382 -29.28221502 201.0532866
-99.50049318 -41.54496315 130.8734136
95.99406382 -70.00002402 148.4591836
-9.485946179 -2.498427818e-05 84.44384361
70.47290782 -2.498427818e-05 89.15009561
-95.50049318 -36.1271743 191.0600746
-0.7347971793 -53.19043278 -9.738558356e-05
-104.3079652 -24.53367171 -9.738558356e-05
99.50048382 -4.843528154 168.8472236
113.3327288 -7.711536304 -9.738558356e-05
30.23929882 -2.498427818e-05 31.80118261
99.50048382 -45.89500276 11.91347761
95.50048382 -118.5529476 241.6817416
-13.28149418 -59.52727637 -9.738558356e-05
-95.50049318 -59.08600816 113.1112646
-95.50049318 -28.07872839 239.2181766
-99.50049318 -43.2487427 243.0545786
95.50048382 -51.36659956 158.7617346
53.22786682 -47.89585362 -9.738558356e-05
43.35663282 -2.498427818e-05 146.3491436
-30.13238918 -2.498427818e-05 246.1287896
95.50048382 -98.7981071 230.5240376
96.93352882 -2.498427818e-05 13.98796961
-9.773596179 -2.498427818e-05 0.07255461442
108.7386748 -2.498427818e-05 61.95853661
-99.04661118 -2.498427818e-05 23.39038061
-72.92397518 -2.498427818e-05 8.685223614
-64.06064318 -2.498427818e-05 27.21401261
-59.40308818 -18.16497792 -9.738558356e-05
95.50048382 -100.5601325 53.46188061
-98.32261418 -83.11889837 170.4867036
92.32217282 -18.52802751 -9.738558356e-05
-99.50049318 -40.10642457 61.66301961
53.94493882 -2.498427818e-05 248.2756666
99.50048382 -55.35955752 209.7315046
-117.4731922 -2.498427818e-05 125.5370886
-99.50049318 -57.39072584 129.1728526
97.89570182 -106.4066055 209.7644936
99.10617382 -134.2674759 79.99990261
71.04620582 -2.498427818e-05 82.55241761
-10.08447918 -2.498427818e-05 137.5301606
95.50048382 -77.53741122 94.47136861
-95.50049318 -50.61147307 39.54411961
95.50048382 -5.800815874 162.9186186
-95.50049318 -17.15267379 20.44887861
-82.99212518 -2.498427818e-05 207.5260786
95.50048382 -48.50242785 242.0768086
98.01016782 1.999975016 78.80298161
95.50048382 -35.39547342 194.9487416
-95.50049318 -16.18885146 99.71439561
-99.50049318 -18.90613672 44.13424461
24.69368682 -2.498427818e-05 28.65136861
-95.50049318 -7.047482654 38.17078061
99.50048382 -9.223340224 32.17087561
-99.50049318 -67.07537336 181.8256516
-95.50049318 -34.14590357 206.5124806
-90.98236218 -2.498427818e-05 171.3147556
5.217561821 -2.498427818e-05 153.9635046
-95.50049318 -50.77989484 60.62212161
41.19788182 -2.498427818e-05 47.65158561
-95.50049318 -52.97286609 30.15892661
-95.27440518 -2.498427818e-05 245.9733136
95.50048382 -13.41682032 100.1918616
-95.50049318 -5.908527144 115.8746316
95.50048382 -30.72565854 76.94184461
-30.79482818 -66.91767424 -9.738558356e-05
-95.50049318 -78.85723896 231.6185206
-95.50049318 -40.94713528 224.5241346
-100.9377862 0.2351116857 -9.738558356e-05
-14.24531818 -2.498427818e-05 112.4570256
51.58328182 -2.498427818e-05 54.28388761
-95.50049318 -22.96615857 16.01513261
18.74986382 -2.498427818e-05 227.1370576
-48.39595618 -1.711471524 -9.738558356e-05
95.50048382 -70.2068394 63.85351161
-109.2761582 -2.498427818e-05 178.4710636
-95.50049318 -24.39855258 225.1100726
-13.70324318 -2.498427818e-05 94.71500461
67.27586282 -2.498427818e-05 238.0883116
-95.50049318 -68.74138564 131.7048726
-97.17735818 -92.97613871 203.0032716
-112.2937672 -56.42752393 -9.738558356e-05
99.50048382 -65.13392927 136.5281446
-95.50049318 -13.04098088 238.5684426
99.50048382 -135.523486 245.2901576
99.50048382 -75.06570972 211.5411616
86.54203482 -2.498427818e-05 114.2736506
99.50048382 -37.64047721 157.9188226
95.50048382 -14.69594477 211.5318626
25.34638582 -2.498427818e-05 55.88990861
-99.50049318 -20.11743227 120.4233476
-76.49062218 -2.498427818e-05 104.4370666
73.43661982 -2.498427818e-05 153.8963816
99.50048382 -2.422758694 33.10221961
-95.50049318 -22.82203286 76.15514361
99.50048382 -20.72215719 70.31427861
-33.57673918 -2.498427818e-05 110.9716106
-95.50049318 -1.627372654 88.51121261
119.7575608 -2.498427818e-05 17.07437061
65.90912382 -2.498427818e-05 4.267019614
99.50048382 -63.95711113 211.4079196
-95.50049318 -11.05652159 88.96548661
-95.50049318 -62.31911145 167.3665226
95.50048382 -42.65736207 35.54657161
95.50048382 -98.96676714 60.07832561
99.50048382 -45.71207257 111.3155646
-1.822759179 -41.64694723 -9.738558356e-05
-104.6639842 -2.498427818e-05 46.94862361
95.50048382 -61.22131734 122.2040156
-99.50049318 -42.41000248 168.6710006
99.50048382 -108.6571328 47.91506161
99.50048382 -5.401508954 209.0477126
47.53549682 -2.498427818e-05 238.2993296
-99.50049318 -33.54801594 201.7122826
84.82230582 -2.498427818e-05 227.3601076
59.07131182 -5.417504434 -9.738558356e-05
99.50048382 -24.58931755 250.9430816
95.50048382 -119.3119986 249.7258556
-81.47331518 -2.498427818e-05 87.00837261
-99.37567418 -2.498427818e-05 171.1568976
-88.22826918 -2.498427818e-05 220.9796356
99.50048382 -90.60988905 54.06827961
-95.50049318 -55.35799761 223.5503046
16.93428182 -2.498427818e-05 40.56157161
103.1592788 -2.498427818e-05 222.7383056
99.50048382 -4.675047194 233.3192756
-94.23590318 -22.05713426 -9.738558356e-05
99.50048382 -1.356536984 153.9297766
-85.39372518 -2.498427818e-05 113.7388166
99.50048382 -83.26273504 233.1389296
99.50048382 -122.8197653 245.5995896
-99.50049318 -29.21916261 22.03271961
5.265884821 -2.498427818e-05 214.2861076
-36.73426818 -2.498427818e-05 65.13051261
40.83202682 -2.498427818e-05 160.6867146
-99.50049318 -40.90298454 138.2769146
97.85919782 -64.43576098 22.39150361
-85.95521318 -2.498427818e-05 33.49232961
114.4156168 -2.498427818e-05 105.1920986
95.50048382 -13.71870417 233.0946856
99.50048382 -32.69529654 136.5379196
-99.50049318 -41.60161638 55.22933661
-95.50049318 -16.2444095 29.82554561
99.50048382 -72.89382094 100.7125896
-99.50049318 -58.44215888 227.3149256
95.50048382 -114.6955323 58.72040161
-95.50049318 -34.42725013 162.3860696
-59.82047418 -2.498427818e-05 205.1532466
99.50048382 -39.10894978 241.0569556
100.8467688 -18.85906055 -9.738558356e-05
95.50048382 -30.49933762 106.0699316
24.00521782 -43.70973328 -9.738558356e-05
-99.50049318 -39.86441331 161.4794626
-99.50049318 -8.062858744 173.0671316
27.18270982 -6.143629604 -9.738558356e-05
-99.50049318 -48.23900382 113.1313456
-99.50049318 -52.09496558 132.8892826
-99.50049318 -63.84702633 243.9212416
-36.36227618 -2.498427818e-05 236.8621376
95.50048382 -13.46976248 239.3880976
99.50048382 -8.770652074 72.81049061
-99.50049318 -33.07010305 12.18994261
-95.50049318 -62.65705428 153.4960846
-42.41443318 -64.80131987 -9.738558356e-05
-99.50049318 -43.51716957 186.1489246
99.50048382 -128.803843 44.17679461
98.21725582 -61.49438185 -9.738558356e-05
95.50048382 -96.25777447 81.16082861
95.50048382 -17.97106193 158.0537046
82.56929082 -43.48428688 -9.738558356e-05
53.01784682 -2.498427818e-05 142.6275736
-114.5691372 -2.498427818e-05 205.8006656
-75.75646318 -2.498427818e-05 233.2528546
97.33568182 -26.66716637 71.79745561
