# .PCD v0.7 - Point Cloud Data file format
VERSION 0.7
FIELDS x y z
SIZE 4 4 4
TYPE F F F
COUNT 1 1 1
WIDTH 1177
HEIGHT 1
VIEWPOINT 0 0 0 1 0 0 0
POINTS 1177
DATA ascii
-118.8385282 -33.42910735 -9.738611016e-05
-7.849706179 -2.498422509e-05 -74.22553739
-54.98563018 -2.498422509e-05 -222.0355864
99.13639982 -122.5755315 -78.00009739
19.35017482 -2.498422509e-05 -116.7888034
-55.55818818 -2.498422509e-05 -59.54626739
5.020301821 -2.498422509e-05 -179.5807694
-26.02069118 -2.498422509e-05 -231.7565564
4.974683821 -2.498422509e-05 -52.91497939
-99.50049318 -64.42558342 -136.7370094
-99.50049318 -62.95255538 -117.0514674
88.03073582 -2.498422509e-05 -123.0470234
-13.04248718 -73.62913171 -9.738611016e-05
-98.65267418 -118.420165 -15.47080439
58.24481882 -2.498422509e-05 -89.37542439
10.16611082 -106.1209618 -9.738611016e-05
-82.91131418 -2.498422509e-05 -249.2400074
-64.44276118 -2.498422509e-05 -182.2004594
-99.50049318 -32.6825215 -12.57270839
-88.42259918 -89.51603992 -9.738611016e-05
99.50048382 -6.992688834 -174.3290994
65.82798982 -14.56279988 -9.738611016e-05
-95.50049318 -34.49311604 -233.9298854
-16.62694918 -2.498422509e-05 -211.2785584
37.98324282 -2.498422509e-05 -32.84506639
-99.21373618 -2.498422509e-05 -159.7205424
-69.48157018 -75.28108526 -9.738611016e-05
-72.36352018 -2.498422509e-05 -46.17152239
95.00048382 0.2756376358 -205.4343044
52.46071782 -2.498422509e-05 -127.2169304
16.40053982 -17.8435222 -9.738611016e-05
-95.50049318 -44.89343769 -201.5316754
95.50048382 -68.60579218 -106.6154454
-97.03580018 -68.537866 -174.6801344
-32.11163518 -2.498422509e-05 -163.3649724
-112.2730352 -98.28262221 -9.738611016e-05
-77.74634818 2.386430686 -83.00997239
-0.5706331795 -2.498422509e-05 -91.08863539
-17.02693818 -127.8634372 -9.738611016e-05
-105.3420892 -68.32886031 -9.738611016e-05
-99.50049318 -77.12834166 -81.59645439
-99.50049318 -31.88551346 -81.45082539
-95.50049318 -47.31855741 -148.6358504
-63.66345718 -118.8300163 -9.738611016e-05
26.76956982 -79.64109515 2.442773614
99.50048382 -27.74818488 -211.6836654
80.83128682 -2.498422509e-05 -220.3431894
10.75594682 -41.89991643 -9.738611016e-05
-120.4890912 -2.498422509e-05 -234.9854454
-100.6189352 -129.336917 1.307290614
30.05969782 -2.498422509e-05 -51.98973139
-97.35410518 -87.70025203 -101.9908604
95.50048382 -77.56395519 -249.5280764
95.50048382 -59.33795079 -196.0010904
90.42970682 -2.498422509e-05 -105.6923804
-95.50049318 -31.28270348 -137.5679684
95.50048382 -103.6060187 -56.12019439
99.50048382 -47.98156925 -22.03457039
99.50048382 -16.82906006 -15.35084139
99.50048382 -50.3414596 -154.3344794
-10.09863518 -55.99551552 -9.738611016e-05
95.50048382 -40.92795385 -93.19108339
-99.58428518 -2.498422509e-05 -101.4759244
-6.033520179 -97.11778259 -9.738611016e-05
-99.50049318 -100.4797903 -23.92129439
-40.09600218 -70.02205285 -9.738611016e-05
95.50048382 -12.79843753 -236.7409424
-95.50049318 -33.97325868 -117.9242044
-95.50049318 -54.02045098 -6.554113386
99.50048382 -8.386420104 -59.15818639
95.50048382 -39.45695563 -123.0855944
99.45394782 -145.000025 -233.4034584
83.41161982 -2.498422509e-05 -156.2354494
10.68206082 -2.498422509e-05 -206.2650114
8.969670821 -2.498422509e-05 -11.51333739
49.42247782 -54.16943448 -9.738611016e-05
-61.61302618 -2.498422509e-05 -108.7435744
-43.95146118 -2.498422509e-05 -189.7919984
-108.4849192 -2.498422509e-05 -7.046560386
-21.14570918 -2.498422509e-05 -107.7417494
-99.50049318 -12.34308354 -34.22133839
91.81911982 -2.498422509e-05 -188.9145984
-89.54574418 -24.83787377 -9.738611016e-05
17.99607482 -2.498422509e-05 -232.9773294
-90.30992618 -4.787925304 -9.738611016e-05
-99.50049318 -0.7128076542 -123.6233744
-35.78424518 -2.498422509e-05 -96.49403639
-95.50049318 -73.77641573 -65.74601739
-23.55996818 -39.97388111 -9.738611016e-05
-75.20047118 -53.83214111 1.614863614
-48.97197218 -42.12511392 -9.738611016e-05
-82.79395318 -2.498422509e-05 -127.9557344
41.19788182 -2.498422509e-05 -240.3484144
99.50048382 -70.94342142 -44.64219839
-62.94061018 -2.498422509e-05 -76.14018539
-95.50049318 -17.12032875 -67.71897339
99.50048382 -126.3651696 -210.5663714
-99.50049318 -52.26418854 -60.99249339
95.50048382 -70.21494147 -72.30756439
-28.64937118 -2.498422509e-05 -48.11504939
99.50048382 -56.70884221 -94.30097639
63.77629282 -67.76575183 -9.738611016e-05
99.50048382 -35.36350677 -11.63077139
57.96050382 -0.3305051842 -9.738611016e-05
29.27283982 -2.498422509e-05 -153.8686014
7.687441821 -2.498422509e-05 -128.0722254
62.68485082 -2.498422509e-05 -191.6160454
-85.39372518 -2.498422509e-05 -174.2611834
-44.87060218 -2.498422509e-05 -22.94173839
-0.1629361795 -2.498422509e-05 -32.60926539
-99.50049318 1.699933096 -210.2989844
112.1263368 -2.498422509e-05 -142.0226164
82.85959682 -2.498422509e-05 -29.22373339
-95.50049318 -28.07872839 -48.78182339
95.50048382 -11.09276271 -159.1685884
26.28989082 -63.60583431 -9.738611016e-05
-40.84569218 -7.467591194 -9.738611016e-05
99.50048382 -122.8197653 -42.40041039
98.96770782 -27.82396698 -231.6385584
-95.50049318 -29.07062842 -198.7683584
-97.91091418 -2.498422509e-05 -187.7582844
-99.50049318 -16.19647754 -143.2940634
101.1184358 -2.498422509e-05 -243.9818604
-20.42735718 -2.498422509e-05 -64.45760639
61.82374582 -2.498422509e-05 -157.3567894
-68.42708218 -2.498422509e-05 -167.1917644
72.94502882 -28.33365303 -9.738611016e-05
116.1913888 -44.39405463 -9.738611016e-05
-95.50049318 -102.2219789 -54.86789039
34.72277182 -2.498422509e-05 -127.7313384
34.38787782 -2.498422509e-05 -93.04861339
-22.14748018 -2.498422509e-05 -151.7616844
95.50048382 -71.26590869 -217.6822544
40.83298882 -11.46716488 -9.738611016e-05
-70.72396918 -2.498422509e-05 -96.32547039
43.48901482 -2.498422509e-05 -211.6537884
95.50048382 -42.65736207 -252.4534284
-99.50049318 -48.05953716 -113.9640924
-40.85327018 -2.498422509e-05 -228.6196954
-10.00323218 2.272601906 -9.738611016e-05
-95.50049318 -26.6491945 -173.9970134
99.50048382 -9.390450984 -114.6648894
-99.50049318 -53.58351257 -179.0185884
99.50048382 -136.0592079 -56.16990639
95.50048382 -18.69864826 -93.21120139
32.48243782 -2.498422509e-05 -67.38078039
84.19791882 -39.25989345 -9.738611016e-05
-58.23288018 -10.61381552 -9.738611016e-05
-50.01444318 -2.498422509e-05 -134.9578684
53.83923082 -2.498422509e-05 -30.25381539
113.7607498 -2.498422509e-05 -13.40714839
95.50048382 -85.05734302 -74.07260739
95.50048382 -56.24426545 -233.5186414
70.96345282 -2.498422509e-05 -246.3582114
-116.0198902 -2.498422509e-05 -157.7382274
-95.50049318 -63.46772642 -35.54991139
-73.58994818 -2.498422509e-05 -142.4744114
112.2130228 -2.498422509e-05 -77.19741239
102.7241158 -13.37012006 -9.738611016e-05
-102.5791842 -82.90439515 -9.738611016e-05
67.27586282 -2.498422509e-05 -49.91168839
-53.13044218 -2.498422509e-05 -239.4237634
-46.11223518 -2.498422509e-05 -155.1833964
-41.17624918 -2.498422509e-05 -82.77430739
-103.5473982 -2.498422509e-05 -41.11481239
-1.677502179 -25.15614329 -9.738611016e-05
99.50048382 -54.49993048 -124.3816534
-95.50049318 -67.35331646 -12.58338539
50.89808282 -2.498422509e-05 -102.0249334
95.50048382 -34.83110524 -164.8075904
77.27682382 -2.498422509e-05 -190.3171104
-84.03082618 -2.498422509e-05 -234.5490024
103.6327258 -68.00002402 2.396943614
99.50048382 -69.59989486 -144.8921464
-95.50049318 -7.047482654 -249.8292194
-10.18150118 -2.498422509e-05 -231.1887264
-114.3375382 -2.498422509e-05 -123.2745604
-61.34869618 -133.000025 0.05511461389
99.50048382 -39.25590867 -182.1111944
99.50048382 -84.89665724 -237.9079334
-95.50049318 -17.6280079 -217.0628734
24.30378482 -2.498422509e-05 -21.20994539
-99.50049318 -45.99405384 -78.40523839
50.46843182 -39.40493638 -9.738611016e-05
-95.50049318 -95.32059551 -38.12013539
95.50048382 -37.77792264 -148.2054494
-99.50049318 -58.83465144 -207.4528104
-31.19480018 -133.000025 1.748161614
95.50048382 -96.25777447 -206.8391714
-90.06538218 -2.498422509e-05 -53.31617939
95.50048382 -22.18795994 -68.37197339
95.50048382 -28.94938962 -40.52412639
-95.50049318 -51.89959073 -232.8737014
-99.50049318 -56.78862517 -101.4662264
99.31063382 -134.000025 -223.6202064
-66.61794118 -2.498422509e-05 -33.42229739
93.32056082 -2.498422509e-05 -226.6273724
-8.452171179 -2.498422509e-05 -57.26462539
-108.2665142 -2.498422509e-05 -77.52092339
102.0576218 -2.498422509e-05 -45.78842339
27.79555482 -25.75879716 -9.738611016e-05
-108.3786862 -2.498422509e-05 -228.2684994
99.50048382 -10.16578388 -82.84689939
95.50048382 -105.4958417 -227.2967294
99.50048382 -54.25952809 -183.8456794
-33.57673918 -2.498422509e-05 -177.0283894
114.7094738 -2.498422509e-05 -105.3571204
99.50048382 -69.22090999 -204.5072694
54.64496482 -2.498422509e-05 -75.13150139
-118.2177182 -17.1036056 -9.738611016e-05
-13.97441118 -10.73552971 -9.738611016e-05
-96.24275518 -76.31898424 -142.4315734
-12.96549618 -2.498422509e-05 -187.2514264
-106.6926182 -43.02794449 -9.738611016e-05
-42.95267918 -2.498422509e-05 -51.14613539
-95.50049318 -12.93573442 -160.8791144
99.50048382 -90.52880626 -47.17741539
-61.14144018 -2.498422509e-05 -250.2244044
-36.43217518 -95.70142846 -9.738611016e-05
99.50048382 -12.47753489 -146.4205874
-99.50049318 -22.92890068 -91.41156139
-95.50049318 -98.00768528 -11.40237039
95.50048382 -112.2357947 -70.34568139
-95.50049318 -21.62142247 -229.8020784
-77.88323918 -119.9477898 -9.738611016e-05
-95.50049318 -22.33522866 -20.07679239
-49.92042118 -2.498422509e-05 -115.5429474
23.99933982 -2.498422509e-05 -79.39713339
-99.50049318 -42.45336879 -31.65366039
-21.87478318 -2.498422509e-05 -247.8530504
52.53154482 -2.498422509e-05 -62.07213139
-99.50049318 -96.31617718 -65.97382139
-99.50049318 -42.86673053 -220.4145984
83.42089582 -2.498422509e-05 -139.4549154
13.28498682 -2.498422509e-05 -146.3189354
64.46779082 -2.498422509e-05 -100.9817384
-10.74090718 -2.498422509e-05 -158.3018684
-98.60455218 -2.498422509e-05 -28.23260839
23.88742782 -2.498422509e-05 -179.4347044
-95.50049318 -8.741095714 -110.2600434
-64.96958918 0.5564303858 -9.738611016e-05
-12.95552718 -112.2245187 -9.738611016e-05
-99.49986618 -2.498422509e-05 -174.7346774
-46.31111318 -2.498422509e-05 -70.79407639
107.6602358 -25.65928062 -9.738611016e-05
30.29074482 -2.498422509e-05 -200.4238264
119.2950998 -2.498422509e-05 -117.4734274
74.28151982 -1.280833404 -9.738611016e-05
74.94784882 -51.11982196 -9.738611016e-05
99.50048382 -9.243874654 -129.5759794
95.50048382 -45.30306551 -208.8700944
44.46431582 -2.498422509e-05 -180.2911484
76.43853582 -2.498422509e-05 -128.6472034
99.50048382 -37.00840731 -104.7748414
95.50048382 -59.36716087 -36.98138339
96.52127782 -57.96434387 -13.73733339
76.83565682 -2.498422509e-05 -107.5839124
99.50048382 -84.38900047 -86.34581339
-13.14372418 -2.498422509e-05 -29.02456139
80.15022182 -2.498422509e-05 -66.15375239
-99.50049318 -75.47842767 -109.9076104
59.88482082 -2.498422509e-05 -213.9435664
-95.50049318 -73.37877674 -23.74062439
106.3093028 -2.498422509e-05 -196.9508064
70.15853182 -2.498422509e-05 -228.0430744
99.33045882 -110.4791088 -248.0000974
-111.2551222 -2.498422509e-05 -96.62504939
1.053602821 -74.52026141 -9.738611016e-05
1.050115821 -49.96848701 -9.738611016e-05
42.29710482 1.789471146 -9.738611016e-05
-95.50049318 -44.84046883 -15.08307739
83.89412382 -2.498422509e-05 -42.06576939
36.24537582 -56.04384758 -9.738611016e-05
-99.84694818 -100.4149576 -9.738611016e-05
99.50048382 -62.30450942 -172.6323814
-99.50049318 -55.9734711 -87.43222939
99.19344882 -2.498422509e-05 -163.9932004
95.50048382 -132.8613487 -67.85233639
117.7351578 -2.498422509e-05 -88.27990339
-110.8239032 -2.498422509e-05 -30.04559539
14.65374982 -71.85690284 -9.738611016e-05
-40.24147818 -2.498422509e-05 -201.9794374
3.557662821 -2.498422509e-05 -78.80228039
-95.50049318 -87.97896619 -28.03955239
-56.97177518 -2.498422509e-05 -24.93194339
-104.0606402 -2.498422509e-05 -61.05838739
11.47139582 -3.249479654 -9.738611016e-05
99.50048382 -11.60888245 -248.4527774
99.16151182 -2.498422509e-05 -31.18991239
-18.96286118 -2.498422509e-05 -17.56281839
-95.50049318 -49.39168333 -190.2032704
-72.70927618 -2.498422509e-05 -115.7213084
95.50048382 -15.2275348 -182.3461664
-86.15274418 -2.498422509e-05 -15.80134439
-83.14814318 -2.498422509e-05 -93.63665939
6.590382821 -2.498422509e-05 -100.8915594
99.50048382 -28.00501348 -188.7738414
-99.50049318 -13.1952163 -238.4607924
-74.76144018 -2.498422509e-05 -207.2329964
-76.49062218 -2.498422509e-05 -183.5629334
95.50048382 -38.88774531 -81.25023739
99.50048382 -34.10802015 -137.4218364
99.50048382 -118.2709166 -223.2362594
-95.50049318 -21.46567912 -189.4507024
68.65877982 -2.498422509e-05 -78.22297939
-8.110308179 -2.498422509e-05 -104.5399644
-99.50049318 -33.41380643 -101.6026424
7.468407821 -2.498422509e-05 -193.6455944
90.72171882 -2.498422509e-05 -90.10095139
-65.26279318 -47.45201847 -9.738611016e-05
-59.73165618 -2.498422509e-05 -48.39032039
-96.78038318 -15.8607205 -8.771625386
99.50048382 -101.0223933 -237.5381474
-79.59993118 0.3210436058 -9.738611016e-05
-99.50049318 -35.30993096 -248.2184024
18.74986382 -2.498422509e-05 -60.86294239
45.80797382 -2.498422509e-05 -226.8450004
-97.20849618 -91.32685507 -90.30922739
-65.37175518 -86.35714991 -9.738611016e-05
3.371684821 -2.498422509e-05 -232.6340644
-95.50049318 -36.05206147 -157.7627354
95.50048382 -12.6923357 -25.62215939
48.75411682 -2.498422509e-05 -168.2460524
-41.62511918 -51.29116962 -9.738611016e-05
95.50048382 -72.0296454 -60.70663939
-92.74687018 -2.498422509e-05 -200.3411324
-51.95589218 -118.1967475 -9.738611016e-05
-17.17666318 -2.498422509e-05 -198.9039384
110.0583038 -2.498422509e-05 -24.50962039
99.50048382 -66.78924482 -242.7649294
102.0291758 -38.38419018 -9.738611016e-05
-36.01765318 -2.498422509e-05 -15.30399939
99.50048382 -83.26360192 -216.8810474
-40.11323118 -2.498422509e-05 -128.7537114
-99.50049318 -84.82518011 -68.01486939
71.53050582 -2.498422509e-05 -23.32272139
-95.78017018 -2.498422509e-05 -238.2295064
95.50048382 -126.6659298 -239.8780914
97.98272882 -49.66701673 -51.58723839
83.84557082 -7.904425784 -9.738611016e-05
103.6830898 -2.498422509e-05 -65.98544939
-54.17426418 -73.35432385 -9.738611016e-05
108.5384428 -2.498422509e-05 -176.0731004
62.98390382 -2.498422509e-05 -238.0290034
95.50048382 -62.34725902 -135.1087304
-95.50049318 -76.21208213 -51.63335339
95.50048382 -77.53741122 -193.5286314
12.58810182 -2.498422509e-05 -243.1219874
20.04822982 -2.498422509e-05 -46.36081839
104.4148398 -2.498422509e-05 -218.0584174
95.50048382 -32.58625821 -242.1257614
99.50048382 -29.33717872 -94.59227439
-95.50049318 -39.41614158 -54.28588539
-106.0998792 -2.498422509e-05 -114.3256374
-32.17276018 -20.4400791 -9.738611016e-05
-55.71527918 -95.60248568 -9.738611016e-05
35.00555982 -2.498422509e-05 -17.31451339
-67.08408218 -2.498422509e-05 -215.6165734
-47.22866118 -17.79377501 -9.738611016e-05
59.19925382 -2.498422509e-05 -20.25451639
90.91510382 -58.55946038 -9.738611016e-05
29.52964882 -12.3365421 -9.738611016e-05
99.50048382 -93.27043873 -67.16373839
10.87272282 -2.498422509e-05 -26.93401639
98.60628482 -137.6707324 -77.62510039
-95.95264818 -119.3682741 -1.500097386
-81.92419918 -2.498422509e-05 -26.78939539
16.29820882 -32.05531238 -9.738611016e-05
-99.50049318 -52.19906934 -138.8690564
95.50048382 -22.5581441 -143.3421134
-55.18721318 -2.498422509e-05 -189.0402804
-16.84745518 -2.498422509e-05 -137.5393494
99.50048382 -24.75470239 -119.6789064
-107.8075482 -2.498422509e-05 -202.6874574
95.50048382 -61.443204 -115.2698164
6.816334821 -2.498422509e-05 -41.84006739
95.50048382 -22.86385045 -166.7848954
-35.63885918 -122.3535661 -9.738611016e-05
99.50048382 -6.401249704 -8.168576386
-73.75433018 -38.98124541 -9.738611016e-05
-95.50049318 -85.5450289 -45.44592739
-16.44584818 -101.4321798 -9.738611016e-05
-95.50049318 -10.35756325 -191.2347014
-95.50049318 2.176501116 -222.3831994
-108.8581432 -2.498422509e-05 -167.5065314
99.45230482 -144.8343301 -46.74164739
-114.6496502 -6.101313044 -9.738611016e-05
-34.62616418 -2.498422509e-05 -37.37523239
95.50048382 -60.56789686 -150.1143254
-99.50049318 -108.4547772 -7.720789386
-49.83326518 -2.498422509e-05 -212.1619064
117.0959818 -2.498422509e-05 -199.6774404
-88.51570818 -2.498422509e-05 -210.7203784
-52.06617318 -2.498422509e-05 -80.56690939
-99.50049318 -55.82808712 -42.85194539
47.34067382 -2.498422509e-05 -91.42412439
-29.86355018 -2.498422509e-05 -132.9937844
-95.50049318 -80.51686789 -91.95707239
14.33879482 -2.498422509e-05 -170.5256494
-99.50049318 -19.8805018 -42.56567739
-64.01700918 -20.6183715 -9.738611016e-05
95.50048382 -16.65005559 -205.6289224
-27.20614718 -73.38300526 -9.738611016e-05
-69.27458318 -2.498422509e-05 -156.2201084
22.61619282 -48.50114172 -9.738611016e-05
95.50048382 -38.52372409 -33.18893839
-100.1926852 -2.498422509e-05 -86.07656639
-83.15946518 -77.77211745 -9.738611016e-05
99.50048382 -39.10894978 -46.94304439
99.50048382 -112.80307 -50.31094739
91.70682882 -2.498422509e-05 -177.4816814
35.16082182 -2.498422509e-05 -230.7311564
-87.03868718 -56.49710311 -9.738611016e-05
-95.62020318 -114.5749676 -25.13505039
-99.50049318 -59.95402267 -168.5533074
-105.7219502 -2.498422509e-05 -20.07594639
11.53857582 -2.498422509e-05 -224.3035974
-107.6379012 -2.498422509e-05 -137.2791154
99.50048382 -30.12200049 -201.1498234
-88.50648218 -2.498422509e-05 -162.8278264
-19.34144018 -2.498422509e-05 -53.56301239
-52.11607818 -2.498422509e-05 -103.6848324
95.50048382 -59.22739436 -223.1906774
-95.50049318 -6.465969524 -215.9616904
115.8759058 -2.498422509e-05 -168.2793614
-99.50049318 -42.77953951 -176.6991034
59.89659982 -2.498422509e-05 -42.20439139
-99.50049318 -71.12328433 -126.9681044
-1.048130179 -2.498422509e-05 -134.1573534
95.50048382 -98.77371225 -217.1734534
103.5541018 -2.498422509e-05 -104.2395244
95.50048382 -21.77320958 -31.98355739
-99.50049318 -26.25012533 -128.3191064
-95.50049318 -20.50491742 -206.7857874
-95.50049318 -55.97792899 -129.0143134
71.67846882 -2.498422509e-05 -161.1256834
95.50048382 -70.29493559 -33.53863439
-81.28424418 -97.62800092 -9.738611016e-05
-99.50049318 -15.2878261 -79.71902639
99.50048382 -58.49077287 -72.77129639
-95.50049318 -33.87812593 -90.94928739
-41.52588418 -110.9688129 -9.738611016e-05
-99.50049318 -71.69212484 -43.06348439
100.0004838 1.504626126 -84.13464539
-98.14615318 -2.498422509e-05 -5.407704386
99.50048382 -3.095380394 -153.7510114
99.50048382 -87.45573865 -248.0156254
79.85698482 -18.90982488 -9.738611016e-05
-95.50049318 -72.72254078 -152.8390234
-99.50049318 -94.72749695 -48.28451339
86.33200682 -2.498422509e-05 -167.5124414
-8.008538179 -2.498422509e-05 -123.5520264
95.50048382 -79.02508923 -225.4605814
-62.70416818 -2.498422509e-05 -13.80487139
99.50048382 -55.38962165 -164.9448664
95.50048382 -63.9646862 -80.55736339
95.50048382 -131.7432869 -47.69152339
-95.50049318 -7.242404144 -133.9489784
-95.50049318 -37.86842659 -73.45921239
30.37297082 -2.498422509e-05 -118.3793994
-74.22701418 -26.30205933 -9.738611016e-05
-95.50049318 -8.827500184 -43.08368039
51.72585582 -2.498422509e-05 -205.5129804
-95.50049318 -36.17978515 -39.12611339
-87.00680418 -124.633384 -9.738611016e-05
-99.50049318 -44.47354281 -239.0025714
-95.50049318 -15.74150278 -97.46446039
-105.2350932 -2.498422509e-05 -151.4798844
99.50048382 -48.88781279 -192.5197574
-99.50049318 -31.25027343 -148.1902734
8.702722821 -95.7274924 -9.738611016e-05
95.50048382 -23.33379082 -223.1955974
97.74032482 -2.498422509e-05 -120.0282894
32.24955482 -2.498422509e-05 -138.2013954
58.51723882 -2.498422509e-05 -147.7648904
-99.50049318 -40.43564623 -139.3361344
-110.4912892 -2.498422509e-05 -212.4464344
-95.50049318 -77.43691001 -4.732377386
-95.50049318 -52.17171873 -157.5063874
102.4423438 0.3015524558 0.8314486139
-31.45363018 -47.70151661 -9.738611016e-05
-24.01659818 -9.702062204 -9.738611016e-05
-115.3334942 -2.498422509e-05 -183.7317624
99.50048382 -58.95296834 -47.94599339
-16.74538618 -64.2582902 -9.738611016e-05
40.10510782 -27.89848968 -9.738611016e-05
-95.50049318 -108.5589981 -16.96513939
-96.29827918 -55.83731979 -242.1099874
-95.50049318 -18.15400448 -57.70166839
49.39445982 -2.498422509e-05 -158.2052694
-95.63383318 -38.55304258 -1.500097386
-5.184898179 -2.498422509e-05 -171.4416174
99.50048382 -135.1524271 -235.3481474
88.29534282 -2.498422509e-05 -212.8775704
30.03047682 -2.498422509e-05 -189.2500614
48.82222482 -2.498422509e-05 -111.8180984
-95.50049318 -70.18557708 -75.59942139
-99.50049318 -20.11743227 -167.5766524
-99.50049318 -63.37258405 -146.6700724
63.95720282 -32.67073529 -9.738611016e-05
99.50048382 -9.739616824 -104.6917384
-99.50049318 -9.639919634 -150.7914594
-95.50049318 -48.68285561 -213.3898164
-62.30557218 -67.60838979 -9.738611016e-05
99.50048382 -6.921969404 -211.2403164
-47.84826618 -2.498422509e-05 -144.6528344
92.34831682 -33.60701164 -9.738611016e-05
113.2663158 -2.498422509e-05 -132.1784014
69.64075482 -2.498422509e-05 -175.0967444
21.05546782 -2.498422509e-05 -11.86513139
-4.495269179 -107.098961 -9.738611016e-05
49.01486882 -2.498422509e-05 -138.7458534
59.00366182 -2.498422509e-05 -109.2216914
53.91511182 -68.00002402 0.6260306139
-16.00261018 -46.33188035 -9.738611016e-05
-96.68224118 -66.35645089 -184.2831904
95.50048382 -26.89370292 -8.598401386
99.50048382 -10.42915356 -49.56300639
99.50048382 -11.32987879 -73.11967639
-27.77079518 -2.498422509e-05 -118.2728864
-95.50049318 -85.36080765 -77.97108039
25.06222682 -2.498422509e-05 -162.6800804
95.50048382 -0.9999980642 -54.21184439
-109.4890122 -2.498422509e-05 -48.83059439
99.50048382 -44.36582473 -163.0805424
-95.50049318 -52.24177653 -51.50411539
92.96990682 -68.00002402 1.081417614
-25.11340318 -2.498422509e-05 -98.38890139
-6.297380179 -2.498422509e-05 -214.1415774
14.92801482 -2.498422509e-05 -82.80419539
95.50048382 -76.60241902 -51.40175439
99.50048382 -50.85045196 -242.4905644
99.50048382 -52.0484017 -32.10096939
95.50048382 -77.01591823 -79.42805539
99.50048382 -31.94092538 -113.2235054
-10.36044318 -2.498422509e-05 -113.9279414
-95.63519018 -64.83432379 -1.500097386
-95.50049318 -9.089012294 -73.49632339
-24.99908618 -2.498422509e-05 -36.77565839
-36.65413718 -2.498422509e-05 -5.679984386
59.05905182 -53.92386756 -9.738611016e-05
-27.61042918 -31.22651483 -9.738611016e-05
15.00700582 -2.498422509e-05 -183.1332474
-99.50049318 -68.10921979 -84.90214539
99.50048382 -49.0989411 -11.55158339
-80.66701018 -2.498422509e-05 -50.99369039
-3.223195179 -2.498422509e-05 -9.097541386
-95.50049318 -33.28213308 -166.9445384
56.32280882 -13.64186364 -9.738611016e-05
99.50048382 -42.83788196 -131.2321684
-88.09374818 -2.498422509e-05 -120.0474774
99.50048382 -1.248286294 -234.6851674
-11.90679818 -89.63181247 -9.738611016e-05
95.50048382 -13.89546371 -137.9093534
99.50048382 -60.43695788 -103.0409394
99.18484882 -114.4076731 -38.00009739
27.16715382 -2.498422509e-05 -235.8534364
-0.8753901795 -2.498422509e-05 -206.3573914
-95.50049318 -8.877509584 -119.7318374
95.50048382 -22.06973257 -238.6803694
95.50048382 -15.88340901 -124.1350964
-103.2486622 -59.09549675 -9.738611016e-05
99.50048382 -67.56674505 -95.50711839
-27.13678918 -2.498422509e-05 -216.2992524
34.15638882 -2.498422509e-05 -41.49929239
-118.2828662 -90.40118134 -9.738611016e-05
-99.50049318 -53.18459058 -199.3607644
-51.74218218 -2.498422509e-05 -249.2014424
-95.50049318 -20.57653502 -134.7079484
26.13894082 -2.498422509e-05 -208.8835744
-95.50049318 -36.31603573 -205.4017584
-66.86586318 -2.498422509e-05 -202.1139774
99.50048382 -42.98836163 -113.6170894
1.941158821 -33.82494546 -9.738611016e-05
99.50048382 -120.2479103 -67.51856739
100.2443558 -2.498422509e-05 -131.0149824
-66.14996018 -2.498422509e-05 -228.2325234
-104.6137382 -109.95196 -9.738611016e-05
-41.01108018 -60.69661077 -9.738611016e-05
72.67516482 -2.498422509e-05 -59.84202939
-99.50049318 -65.3805155 -20.81174639
-54.17825118 -2.498422509e-05 -162.0526694
-45.85885818 0.4267368058 -9.738611016e-05
-99.50049318 -9.851844724 -63.40618639
77.83520582 -2.498422509e-05 -79.94951839
-95.50049318 -65.8208845 -60.85811039
-104.6639842 -2.498422509e-05 -241.0513764
-65.30450718 -2.498422509e-05 -85.14885939
-4.090794179 -2.498422509e-05 -49.03654639
-83.83207618 -2.498422509e-05 -60.79502639
-95.50049318 -89.26279757 -6.038345386
95.50048382 -55.33872195 -204.4018534
-95.50049318 -21.8623888 -113.9420764
-95.50049318 -51.34793443 -71.94700039
-48.68002118 -2.498422509e-05 -181.8000064
-14.73282218 -2.498422509e-05 -80.45472439
99.50048382 -16.10975771 -172.5982064
-95.50049318 -30.06676051 -109.2638104
35.44565082 -2.498422509e-05 -8.059607386
-77.12574618 -2.498422509e-05 -11.76937739
-45.44127518 -91.11125369 -9.738611016e-05
95.50048382 -19.46455406 -48.05058139
-70.44531718 -61.58972006 -9.738611016e-05
-120.3219102 -2.498422509e-05 -98.40432439
-27.46820018 -99.20640512 -9.738611016e-05
95.50048382 -33.45143086 -251.8119314
-99.50049318 -42.37158021 -106.7109664
99.50048382 -79.53615905 -66.85562939
82.66791082 -27.66590506 -9.738611016e-05
-95.50049318 -35.39736376 -223.9800244
83.20521382 -2.498422509e-05 -100.0461464
-55.81393018 0.9322166758 -9.738611016e-05
99.50048382 -77.78916847 -38.55761439
-89.57886518 -2.498422509e-05 -145.5904864
-71.03677318 -2.498422509e-05 -105.4592424
-82.00672318 -16.3066401 -9.738611016e-05
7.399366821 -2.498422509e-05 -214.7918364
67.30974982 -2.498422509e-05 -87.25810939
11.65722182 -2.498422509e-05 -137.3337504
52.74745982 -2.498422509e-05 -184.1225444
44.60441782 -2.498422509e-05 -70.67512439
25.61838582 -2.498422509e-05 -127.7803294
-99.50049318 -5.480774334 -166.9842944
95.50048382 -3.361801474 -197.1044094
-90.08763218 -2.498422509e-05 -99.52736339
-99.50049318 -59.57752318 -66.63722539
-75.22026318 -2.498422509e-05 -227.7537774
9.493023821 -2.498422509e-05 -109.4864814
95.50048382 -16.41145566 -60.52761939
99.50048382 -4.815405744 -188.7032534
95.50048382 -8.027597934 -90.67584239
107.1476948 -2.498422509e-05 -150.0424214
79.57932782 -2.498422509e-05 -249.0639724
99.50048382 -105.3148336 -64.01402939
85.65016182 -2.498422509e-05 -232.9538584
-32.43145918 -2.498422509e-05 -88.13419539
-95.50049318 -39.6533432 -83.61559339
-109.8871092 -32.48880293 -9.738611016e-05
-99.50049318 -92.97958924 -18.94675139
-95.50049318 -35.21829221 -23.88209739
-64.31905918 -2.498422509e-05 -134.2948364
99.50048382 -25.9255921 -16.59337739
-81.63491618 -109.2256937 -9.738611016e-05
-95.50049318 -37.29155595 -195.1432034
-95.50049318 -70.97609906 -117.6267114
51.58328182 -2.498422509e-05 -233.7161124
99.50048382 -15.91097858 -227.8671964
-57.93453618 -42.00630675 -9.738611016e-05
-99.50049318 -29.06987099 -4.383493386
95.99866482 -76.32522083 -96.55399639
-94.26319718 -2.498422509e-05 -79.38003239
-93.81441818 -2.498422509e-05 -109.4275924
95.50048382 -61.89627398 -181.4732354
-16.92081218 -2.498422509e-05 -237.0460874
95.50048382 -133.9065539 -213.1687494
47.99278682 -5.080909814 -9.738611016e-05
-99.50049318 -67.07537336 -106.1743484
2.758794821 -2.498422509e-05 -146.8697224
-99.50049318 -8.901181994 -101.5478634
70.50082882 -58.82350428 -9.738611016e-05
104.2159898 -2.498422509e-05 -208.2585834
98.04158682 -24.97304495 -9.738611016e-05
-34.46769218 -2.498422509e-05 -185.8642834
-95.50049318 -105.1679079 -46.49374339
43.89071682 -45.35784127 -9.738611016e-05
-21.32552818 -116.0959092 -9.738611016e-05
-105.2149892 -2.498422509e-05 -219.5745084
105.5102398 -2.498422509e-05 -16.64389439
-95.50049318 -23.4380967 -73.92307539
-95.50049318 -15.34093008 -246.0609134
102.4814678 -54.57632098 -9.738611016e-05
42.08598182 -2.498422509e-05 -133.2683304
95.50048382 -120.8487066 -246.5005894
96.93160882 -2.498422509e-05 -251.7189214
-95.50049318 -26.75512454 -238.1097674
33.05556582 -69.22387109 -9.738611016e-05
95.50048382 -50.66547639 -99.90665039
-95.50049318 -82.33167053 -113.6621244
99.50048382 -54.97306598 -144.6596594
-49.15057818 -2.498422509e-05 -231.4831164
95.50048382 -75.45953146 -209.9778004
-90.55204318 -2.498422509e-05 -132.0467374
63.48176982 -2.498422509e-05 -182.8875034
95.50048382 -68.89771617 -196.7335144
86.08741882 -51.26824019 -9.738611016e-05
84.77462082 -2.498422509e-05 -20.69314939
40.00032182 -2.498422509e-05 -62.92850939
95.44154682 -2.498422509e-05 -97.44678539
-99.50049318 -26.4077132 -60.01450539
95.50048382 -34.65032741 -20.71185139
99.50048382 -45.63879228 -85.03470339
99.50048382 -76.72140592 -29.24630739
95.50048382 -66.46312353 -50.93594439
-7.600062179 -2.498422509e-05 -85.97635539
67.79640982 -2.498422509e-05 -125.1542384
-95.50049318 -21.21002794 -149.1412444
-95.50049318 -21.15543191 -31.57469639
-95.50049318 -50.10946609 -30.99810039
-110.7327062 -80.04367663 -9.738611016e-05
95.50048382 -0.2732677042 -63.23465739
71.34893982 -2.498422509e-05 -135.6247614
-19.04578618 -32.29612314 -9.738611016e-05
99.50048382 -93.16271606 -76.90953439
95.50048382 -101.3835137 -45.14607439
-95.50049318 -55.93042682 -149.0593224
99.50048382 -95.58362333 -38.41193339
34.91261682 -2.498422509e-05 -212.8541344
-95.50049318 -57.72379206 -188.0596384
-95.50049318 -79.34139459 -101.2095674
-99.50049318 -28.14237563 -183.7962954
-17.69271118 -2.498422509e-05 -3.085338386
-13.26085418 -2.498422509e-05 -148.6469434
99.50048382 -69.86058294 -134.0015284
99.50048382 -19.35440316 -213.4241744
6.220067821 -2.498422509e-05 -19.62776739
-31.98626618 -65.08309385 -9.738611016e-05
-33.52451918 -2.498422509e-05 -240.0687054
40.83165982 -2.498422509e-05 -248.8877444
-120.4669752 -2.498422509e-05 -54.03658239
-99.50049318 -69.43664659 -163.4867714
-42.97372118 -2.498422509e-05 -163.1160314
120.0423118 -20.91058803 -9.738611016e-05
95.50048382 -142.783062 -240.6157734
-92.13799918 -2.498422509e-05 -45.05861139
-96.64047218 -48.70971601 -9.738611016e-05
-108.8014942 -2.498422509e-05 -88.48506339
62.59981882 -2.498422509e-05 -204.5061384
85.38631282 -2.498422509e-05 -114.9704284
-101.3805382 -2.498422509e-05 -195.5106814
-107.2770082 -2.498422509e-05 -186.4136264
95.50048382 -47.08879945 -200.5728864
-71.36500218 -2.498422509e-05 -75.17592339
-99.50049318 -13.13976318 -224.6880044
75.70803082 -2.498422509e-05 -49.12677639
-13.11286718 -2.498422509e-05 -94.15724639
-95.50049318 -4.167291664 -35.13519139
-84.93056218 -31.92228846 -9.738611016e-05
99.50048382 -29.71587345 -128.7133464
-21.91745418 -2.498422509e-05 -224.3672244
3.491168821 -2.498422509e-05 -3.990025386
95.50048382 -57.64057624 -86.96339739
-66.34157318 -2.498422509e-05 -53.58643539
95.50048382 -43.12312593 -7.196908386
-98.15932618 -7.796759054 -9.738611016e-05
-87.86374818 -132.8736789 1.433882614
11.59104782 -2.498422509e-05 -92.43447639
95.50048382 -94.44935408 -53.41072639
-99.50049318 -15.45705633 -26.44681339
95.50048382 -7.690942364 -230.1110114
-97.02880118 -2.498422509e-05 -149.9320154
-114.9386832 -44.32335575 -9.738611016e-05
-9.485946179 -2.498422509e-05 -203.5561564
95.50048382 -62.9839617 -208.3257524
99.50048382 -22.96661159 -99.95938739
95.50048382 -119.2233784 -214.6019614
-34.38397618 -103.8274587 -9.738611016e-05
108.9398058 -2.498422509e-05 -236.6558194
-55.77867018 -21.68706912 -9.738611016e-05
-90.89120418 -2.498422509e-05 -246.9333284
-95.50049318 -65.20832585 -92.50675539
108.2127558 -46.69236953 -9.738611016e-05
99.50048382 -64.48164656 -232.6088344
47.67891182 -2.498422509e-05 -120.4523754
95.50048382 -17.20339662 -81.12348539
99.50048382 -34.5639125 -175.3339364
28.54145282 -2.498422509e-05 -28.27656139
-99.50049318 -53.12017941 -15.60378539
99.50048382 -39.772857 -245.8662904
-94.99951618 0.9247525158 -59.83396339
35.32188182 -21.21405429 -9.738611016e-05
-61.67347418 -79.01693104 -9.738611016e-05
99.50048382 -18.28838874 -161.2748884
-1.194436179 -2.498422509e-05 -61.08208439
25.68154482 -2.498422509e-05 -100.8498544
-95.50049318 -50.10923453 -91.49097039
2.962097821 -2.498422509e-05 -170.7856614
-95.50049318 -51.21255551 -105.9058684
112.5558038 -55.72758272 -9.738611016e-05
-33.07404118 -4.643471424 -9.738611016e-05
99.50048382 -90.67797417 -213.4680364
-60.81947318 -2.498422509e-05 -68.25949739
95.53034282 -54.78217424 -61.06667939
98.61831282 -145.000025 -54.83808439
95.50048382 -121.1661702 -230.9793284
38.75126882 -2.498422509e-05 -143.0942524
62.70215982 -22.0689616 -9.738611016e-05
-67.68569318 -104.3419593 -9.738611016e-05
92.44891882 -2.498422509e-05 -156.3449034
-53.86831418 -2.498422509e-05 -16.42309839
95.50048382 -69.54168889 -115.9065444
95.93333482 -2.498422509e-05 -40.45188639
49.95169882 -2.498422509e-05 -245.2531824
90.54080082 -2.498422509e-05 -31.83636839
64.24581582 -2.498422509e-05 -250.9061154
98.70090282 -2.498422509e-05 -110.7376454
99.50048382 -76.37873795 -238.2565714
-25.08821818 -2.498422509e-05 -139.5379204
99.50048382 -40.39504595 -202.8868574
95.50048382 -3.710238284 -219.7647614
-95.50049318 -63.39608015 -125.7675824
-95.50049318 -39.37787525 -131.0103104
95.53051382 -70.00002402 -167.0632954
99.50048382 -41.15852443 -26.67620339
-99.50049318 -43.8665655 -6.196313386
99.50048382 -111.0089619 -58.28598139
95.50048382 -36.38116287 -188.4817554
99.50048382 -108.6571328 -240.0849384
95.50048382 -141.0819756 -223.3543474
-99.50049318 -79.04660416 -61.17387039
-74.50894918 -2.498422509e-05 -241.8778604
11.39975682 -2.498422509e-05 -117.9191174
62.20424582 -2.498422509e-05 -56.12325939
95.50048382 -32.31852638 -156.0209154
-95.50049318 -20.13998334 -49.85392039
107.9038518 -2.498422509e-05 -167.6042754
96.29215982 -122.3547462 -50.98798939
95.50048382 -9.745912304 -14.22613839
19.94408582 -58.74877865 -9.738611016e-05
-95.50049318 -56.04014226 -117.3093084
81.78220282 -2.498422509e-05 -147.2656364
-99.50049318 -35.07600674 -173.6097304
95.50048382 -30.49933762 -181.9300684
99.50048382 -20.36114091 -6.391937386
-99.50049318 -43.32369134 -69.24361039
95.50048382 -91.69577959 -238.9047064
99.50048382 -53.61709977 -132.2724604
-99.50049318 -79.90709513 -25.84388339
-116.4199892 -25.86752567 -9.738611016e-05
-99.50049318 -5.969959134 -93.43632839
-94.70991318 -83.92861517 -9.738611016e-05
19.93158182 -4.888152944 -9.738611016e-05
-105.5701232 -119.7199522 -9.738611016e-05
-72.25296418 -2.498422509e-05 -3.057486386
-99.50049318 -63.84702633 -44.07875839
-41.15455618 -2.498422509e-05 -102.3018164
-95.50049318 -25.86989744 -12.39793039
99.50048382 -18.72929622 -114.5774314
49.63841782 -2.498422509e-05 -18.93409039
99.50048382 -48.6228993 -92.33189339
34.40590682 -2.498422509e-05 -85.16883439
-99.50049318 -83.75945268 -85.84509039
-95.69266118 -2.498422509e-05 -19.95531839
-95.50049318 -60.60711186 -108.1456354
99.50048382 -50.10299239 -116.9457594
-43.18766118 -2.498422509e-05 -58.99626339
95.50048382 -27.48019362 -136.1059854
-114.2582632 -2.498422509e-05 -15.32881039
95.50048382 -34.6133989 -88.53996639
-13.44618918 -2.498422509e-05 -11.99022839
37.20553482 -35.18139934 -9.738611016e-05
67.24439582 -2.498422509e-05 -3.199376386
-55.26059818 -49.35797903 -9.738611016e-05
7.054033821 -12.3750495 -9.738611016e-05
-99.50049318 -42.41000248 -119.3289994
-10.91028718 -2.498422509e-05 -132.4960764
-111.6069222 -2.498422509e-05 -130.5696374
-24.63305418 -2.498422509e-05 -201.1553294
-88.92850818 -2.498422509e-05 -8.540183386
-44.38670318 -2.498422509e-05 -221.6989694
-95.50049318 -46.48770964 -22.67694139
-99.50049318 -5.943054684 -208.9151824
99.50048382 -45.80053169 -148.0345464
99.50048382 -41.69111525 -17.48078139
-22.70984118 -50.24517157 -9.738611016e-05
-49.83630318 -2.498422509e-05 -199.3206534
95.50048382 -91.6338604 -60.63771739
116.3043028 -2.498422509e-05 -244.0163374
42.43575582 -2.498422509e-05 -161.6158764
95.50048382 -104.1814388 -70.55000039
45.65959282 -2.498422509e-05 -219.1115634
58.90603382 -2.498422509e-05 -168.3128994
-95.50049318 -91.66293402 -61.29274339
-99.50049318 -108.299907 -27.39917639
99.50048382 -27.83024807 -161.5734644
-80.98081818 -2.498422509e-05 -140.2745874
58.61736482 -38.99162177 -9.738611016e-05
1.297552821 -18.05758761 -9.738611016e-05
108.7386748 -2.498422509e-05 -226.0414634
-42.70731418 -119.3309278 -9.738611016e-05
-0.4435871795 -2.498422509e-05 -122.1961504
-7.668942179 -5.046615164 -9.738611016e-05
-116.0975192 -2.498422509e-05 -6.028923386
-91.91579018 -2.498422509e-05 -192.5581494
-99.50049318 -30.27306393 -207.9174754
-95.79472118 1.510304056 -230.7103404
0.03597782054 -92.43147169 -9.738611016e-05
-95.50049318 -68.20318106 -29.39729039
95.50048382 -45.78162341 -182.4173084
95.50048382 -25.68268304 -246.2672904
21.54337582 -2.498422509e-05 -202.7659074
-107.5633772 -2.498422509e-05 -69.90810139
95.50048382 -17.76792056 -104.1000484
26.60506582 -2.498422509e-05 -93.26273639
-95.50049318 -102.3868715 -35.21059339
95.50048382 -58.62421283 -159.2944474
-99.50049318 -45.76671055 -158.6671634
-113.9429912 -2.498422509e-05 -221.4326524
-99.50049318 -40.90298454 -149.7230854
87.76602582 -2.498422509e-05 -66.73464339
-28.75050518 -2.498422509e-05 -7.241254386
-99.50049318 -75.40321216 -135.5889644
95.50048382 -84.04983693 -47.68939239
-88.22826918 -2.498422509e-05 -67.02036439
95.50048382 -50.27413693 -252.4328384
-20.20515818 -57.47470251 -9.738611016e-05
99.50048382 -56.65571322 -26.03867739
95.50048382 -104.2564458 -210.9018884
-99.50049318 -48.23734557 -225.7945554
19.70521582 -25.26057132 -9.738611016e-05
46.26643082 -2.498422509e-05 -29.69530639
-57.15489818 -2.498422509e-05 -38.36020239
16.09272682 -2.498422509e-05 -53.75504039
-99.50049318 -29.38180482 -19.40292339
-67.47046518 -2.498422509e-05 -146.9521794
39.15503582 -2.498422509e-05 -98.94272839
-105.7543612 0.5972431658 -9.738611016e-05
107.4966808 -2.498422509e-05 -248.0785614
-99.50049318 -5.932804044 -179.9623734
99.50048382 -86.77082617 -230.5709824
95.50048382 1.769542016 -214.3831874
95.50048382 -30.07081822 -144.1426834
99.50048382 -29.33074732 -104.0214654
-95.50049318 -59.08600816 -174.8887354
-100.3593972 -2.498422509e-05 -134.0419144
-95.50049318 -72.25205583 -89.81827739
-14.03140718 -2.498422509e-05 -218.3490184
-99.50049318 -79.51003306 -43.37680039
-16.17716318 -2.498422509e-05 -164.2143924
-3.873287179 -2.498422509e-05 -39.15215439
-95.50049318 -23.59852705 -222.5499444
-70.67227918 -122.0698414 -9.738611016e-05
-37.64279118 -2.498422509e-05 -150.3409084
-99.50049318 -16.16379374 -182.6503154
37.01377682 -2.498422509e-05 -203.7518644
106.8378138 -2.498422509e-05 -136.0399514
99.50048382 -115.1433382 -209.7459264
95.50048382 -18.93494721 -21.32521339
99.50048382 -65.42972364 -224.4432264
95.50048382 -19.9028552 -151.4944604
115.7463328 -2.498422509e-05 -217.4403064
-99.50049318 -24.33455516 -67.67295639
7.626435821 -78.06714503 -9.738611016e-05
40.24671482 -2.498422509e-05 -48.08587039
-64.43566318 -111.417555 -9.738611016e-05
95.50048382 -67.27756377 -249.0313484
-95.50049318 -6.091838264 -157.5812014
67.70159782 -2.498422509e-05 -151.4390524
-99.50049318 -96.1154842 -29.93905039
95.50048382 -21.52466894 -40.88003939
99.50048382 -7.390604174 -20.02040439
-99.50049318 -12.77568226 -131.0346284
69.14533582 -2.498422509e-05 -95.21725439
70.38101182 -2.498422509e-05 -220.6321914
-99.50049318 -101.334436 -41.36186239
-95.50049318 -40.94713528 -63.47586539
-0.7957081795 -2.498422509e-05 -100.2966494
95.50048382 -10.34963663 -65.07756339
-92.59744618 -98.88958591 -9.738611016e-05
77.63914982 -2.498422509e-05 -182.5561504
-97.76806118 -2.498422509e-05 -249.9737624
-113.9672532 -60.55661374 -9.738611016e-05
95.50048382 -23.80587838 -60.88260239
59.51873882 -2.498422509e-05 -82.08937239
-81.62074818 -50.5358799 -9.738611016e-05
-31.93370218 -2.498422509e-05 -249.4558514
-99.50049318 -25.59100086 -143.4347234
51.03352082 2.248808306 -9.738611016e-05
89.08704982 -2.498422509e-05 -79.42981339
-99.50049318 -71.71515964 -8.157075386
23.51866782 -2.498422509e-05 -66.49843039
-99.50049318 -54.48221037 -249.7131014
99.50048382 -46.17935989 -123.1967884
-38.13822618 -2.498422509e-05 -168.6762544
99.50048382 -66.49659443 -213.4124424
82.74140082 0.7570556458 -9.738611016e-05
-51.33063618 -126.0846866 -9.738611016e-05
-95.50049318 -34.42725013 -125.6139304
-15.01555918 -119.8118259 -9.738611016e-05
-95.50049318 -26.1468894 -96.63281839
108.8984208 -2.498422509e-05 -4.874947386
-95.50049318 -19.74239386 -176.4240954
-99.50049318 -57.91724974 -32.95066839
103.4526258 -2.498422509e-05 -143.7340574
-42.95769818 -2.498422509e-05 -136.8670984
99.50048382 -88.87497454 -206.4002864
-95.50049318 -36.37527016 -143.8855534
-102.0753932 -90.16482267 -9.738611016e-05
-95.50049318 -41.28343625 -247.0855154
116.6015178 -2.498422509e-05 -41.31611339
82.26621582 -61.07276533 -9.738611016e-05
-99.50049318 -25.78050551 -38.33132539
-95.50049318 -48.01606945 -84.11914639
-99.50049318 -13.43832862 -19.14144039
-31.54081818 -40.44240576 -9.738611016e-05
-95.50049318 -41.48223005 -188.9759694
-75.27022118 -112.7062472 -9.738611016e-05
93.43670282 -4.031360354 -9.738611016e-05
62.67279382 -2.498422509e-05 -74.14659739
95.50048382 -10.90554762 -97.31916339
-63.59382718 -2.498422509e-05 -161.8016484
-11.01937518 -82.44743922 -9.738611016e-05
99.50048382 -65.23034994 -38.38553439
16.47480582 1.975063616 -9.738611016e-05
-25.07542218 -2.498422509e-05 -58.91860339
99.50048382 -27.51225627 -71.16027039
95.50048382 -3.060909314 -240.6364754
-99.50049318 -52.55423409 -163.4892534
95.50048382 -44.38454651 -103.4358154
14.16626782 -2.498422509e-05 -39.67218639
-99.50049318 -102.5764682 -16.77291239
-95.50049318 -44.91043645 -230.7688714
34.80857282 -2.498422509e-05 -149.2738374
99.50048382 -11.98631052 -31.55388839
35.14057682 -2.498422509e-05 -178.2247354
-99.50049318 -45.65704361 -195.6181034
95.50048382 -113.2769801 -77.44150039
-75.66298118 -91.57566117 -9.738611016e-05
95.50048382 -10.32126727 -3.704242386
-37.71293418 -2.498422509e-05 -23.14203239
-99.50049318 -27.65616656 -115.2108204
-106.2973932 -52.63652741 -9.738611016e-05
95.50048382 -29.83752603 -122.7981864
99.50048382 -41.4911599 -156.5461764
18.41573282 -2.498422509e-05 -102.7915444
60.36787482 -2.498422509e-05 -35.08171239
-26.53383918 -2.498422509e-05 -175.8767464
10.03405282 -21.05684371 -9.738611016e-05
95.50048382 -112.9677577 -44.42173639
99.19574382 -31.72045946 -50.59843439
-99.50049318 -88.16277673 -33.92697239
-86.10632218 -2.498422509e-05 -241.3551524
95.50048382 -87.39413828 -66.90053839
93.44742082 -40.63439819 -9.738611016e-05
93.15215882 -2.498422509e-05 -169.5157554
-25.03381618 -2.498422509e-05 -164.0199524
-80.61978718 -2.498422509e-05 -169.0020284
-95.50049318 -67.19129714 -68.39778739
7.295581821 -2.498422509e-05 -67.79384839
-95.50049318 -89.72104203 -14.09020339
-95.50049318 -53.44021704 -222.5775764
-36.73426818 -2.498422509e-05 -222.8694874
-99.50049318 -4.866180404 -80.99427239
110.1401548 -2.498422509e-05 -87.91830639
99.50048382 -21.26370802 -202.0725294
-95.50049318 -6.279804444 -27.31843239
99.50048382 -5.190231054 -139.3702504
-19.69278718 -2.498422509e-05 -46.51251639
101.1967968 -2.498422509e-05 -227.9485904
99.50048382 -63.1361435 -200.4041504
89.80688282 -2.498422509e-05 -247.3212534
-63.32494318 -2.498422509e-05 -242.9314784
-8.114959179 -2.498422509e-05 -164.8462194
14.24112182 -99.62633956 1.908107614
-99.50049318 -0.1354947042 -54.53568939
76.41072182 -2.498422509e-05 -32.01215639
112.2748268 -2.498422509e-05 -117.3983874
-115.1088832 -2.498422509e-05 -250.5892134
-27.01194818 -2.498422509e-05 -125.2469394
4.235668821 -102.3813006 -9.738611016e-05
-23.22389518 -2.498422509e-05 -240.1139874
-52.94491518 -2.498422509e-05 -46.63821039
-99.50049318 -35.98602021 -241.2445994
35.25368582 -2.498422509e-05 -164.0494204
99.50048382 -63.76906608 -161.8651814
-99.50049318 -39.93923092 -18.08650939
-73.14730218 -2.498422509e-05 -39.21951139
99.50048382 -45.71207257 -176.6844354
-76.42555118 -2.498422509e-05 -31.10267139
-36.13214318 -2.498422509e-05 -123.0135924
99.50048382 -34.29817287 -38.48848939
-99.50049318 -49.78138006 -207.7745154
-99.50049318 -13.93088754 -112.6680744
95.50048382 -57.06181678 -174.9155634
99.50048382 -132.3600307 -38.21909839
-58.64839118 -88.18363583 -9.738611016e-05
-97.11281818 -106.8176171 -9.738611016e-05
89.16382882 -2.498422509e-05 -219.7831184
17.73326582 -2.498422509e-05 -25.76537439
-68.53447818 -2.498422509e-05 -64.48118739
-95.50049318 -81.15271594 -19.90280939
-95.50049318 -60.70390563 -10.55151839
-95.50049318 -38.17431188 -47.45019239
-99.50049318 -60.11767238 -199.7741614
-29.20562518 -2.498422509e-05 -145.4747054
99.50048382 -84.72479797 -38.84822839
-99.50049318 -3.139972084 -111.8730184
-99.50049318 -12.87922995 -209.0479274
33.78767982 -2.498422509e-05 -1.323373386
95.50048382 -5.800815874 -125.0813814
95.50048382 -30.65312949 -170.3252514
41.94409982 -2.498422509e-05 -154.7244234
-30.33263818 -2.498422509e-05 -170.1071654
-5.658507179 -32.12901768 -9.738611016e-05
-95.50049318 -57.34386747 -56.14953139
-99.50049318 -21.83958286 -6.658752386
-99.50049318 -9.301682704 -143.3817254
117.3677688 -37.60012651 -9.738611016e-05
-99.50049318 -22.85429374 -194.8680584
-99.20224918 -74.10044092 -9.738611016e-05
-88.84365018 -16.98055819 -9.738611016e-05
-59.26605118 -2.498422509e-05 -89.57706239
-95.50049318 -29.8634413 -69.86757639
-83.71636118 -2.498422509e-05 -85.40868439
93.25433182 -2.498422509e-05 -136.6124304
-35.44500118 -75.06142552 -9.738611016e-05
-116.2054262 -2.498422509e-05 -47.45392539
95.50048382 -74.55721987 -200.5979504
9.210229821 -2.498422509e-05 -187.0208364
-62.55671318 -60.7633782 -9.738611016e-05
-75.36201718 -2.498422509e-05 -200.4107774
-31.31300418 -2.498422509e-05 -54.42196239
-5.515568179 -76.44508955 -9.738611016e-05
64.28964982 -2.498422509e-05 -163.7396194
-95.50049318 -37.9549008 -10.84472639
-23.25249318 -66.36264829 -9.738611016e-05
95.50048382 -18.52532317 -188.3342894
-48.92447818 -51.9190376 -9.738611016e-05
-32.03060918 -13.6116172 -9.738611016e-05
95.50048382 -135.9757078 -241.1413084
95.50048382 -37.66316054 -133.1715934
95.50048382 -61.24694604 -238.1527384
117.7395738 -2.498422509e-05 -161.7226764
-95.50049318 -92.46136882 -72.94232039
95.50048382 -127.1781165 -74.53701539
120.3185008 -2.498422509e-05 -184.3921444
95.50048382 -27.44333102 -194.2462464
-44.88144318 -2.498422509e-05 -88.47553739
95.50048382 -64.77171837 -62.16048639
95.50048382 -74.04230303 -243.2206934
-95.50049318 -4.955124874 -51.72361839
95.50048382 -116.0515963 -54.89389139
57.77876882 -2.498422509e-05 -123.0019884
-99.50049318 -55.10931656 -213.1226704
-80.06143518 -126.3677246 -9.738611016e-05
-95.50049318 -12.95031538 -138.8878644
-99.50049318 -7.569704834 -195.9397264
99.50048382 -107.3562488 -46.29669839
-99.50049318 -5.060027524 -244.7538914
-96.46435518 -2.498422509e-05 -181.0958034
95.50048382 -112.8409503 -223.5111574
-114.1127552 -2.498422509e-05 -231.8183004
-99.50049318 -43.593594 -50.81825639
-1.906624179 0.5822209658 -9.738611016e-05
-45.39961718 -2.498422509e-05 -245.3186684
95.50048382 -65.86547068 -89.64205939
15.31233482 -2.498422509e-05 -196.4047634
50.50056482 -2.498422509e-05 -174.7313524
77.47160582 -2.498422509e-05 -40.13338939
-99.50049318 -57.39072584 -158.8271474
-95.50049318 -59.53419173 -138.9801754
99.50048382 -84.68530282 -199.0276314
-95.50049318 -39.27509852 -102.3285974
97.12689882 -61.04657918 -9.738611016e-05
-99.50049318 -25.26538175 -82.42261739
-99.50049318 -47.60739732 -182.0272874
-99.50049318 -36.66356968 -212.5695254
80.88214782 -2.498422509e-05 -162.4137974
-3.755210179 -2.498422509e-05 -229.3810114
-99.50049318 -50.88795267 -120.0097674
-53.93903618 -36.6603004 -9.738611016e-05
99.50048382 -105.1243942 -221.9729194
-95.50049318 -36.42347313 -180.0933834
25.84220882 -2.498422509e-05 -35.50924839
95.50048382 -99.97153024 -65.39387939
-98.45967818 -24.17185976 -9.738611016e-05
99.50048382 -42.98800121 -77.87478439
-99.50049318 -16.88291215 -152.2111964
-95.50049318 -18.49520556 -238.2214654
99.50048382 -57.43424637 -191.0555094
9.977656821 -2.498422509e-05 -233.2437264
95.50048382 -4.542902594 -131.9952174
70.47290782 -2.498422509e-05 -198.8499044
-95.50049318 -92.35670841 -54.04311939
-81.44432718 -2.498422509e-05 -67.74656439
-95.50049318 -47.10224051 -140.1041004
95.50048382 -116.026969 -242.0012254
99.50048382 -138.8173209 -50.18367639
