# .PCD v0.7 - Point Cloud Data file format
VERSION 0.7
FIELDS x y z
SIZE 4 4 4
TYPE F F F
COUNT 1 1 1
WIDTH 1271
HEIGHT 1
VIEWPOINT 0 0 0 1 0 0 0
POINTS 1271
DATA ascii
151.428428 43.95663298 149.9999026
7.346602 52.89918168 149.9999026
180.259168 -2.498604306e-05 100.4944416
68.298649 15.17986488 -144.0000974
0.0002150000173 11.17697841 -66.61570839
157.841088 -2.498604306e-05 136.8993916
216.438284 -2.498604306e-05 44.40654961
44.773873 60.83851988 -150.0000974
224.89584 -2.498604306e-05 -29.64092739
116.020058 -2.498604306e-05 107.3188496
139.806433 -2.498604306e-05 -54.94904239
124.131966 10.00953391 143.9999026
56.459776 6.239933924 -144.0000974
148.528328 -2.498604306e-05 -137.3004254
225.166698 -2.498604306e-05 -124.5918554
200.540161 -2.498604306e-05 -68.91999439
130.780019 -2.498604306e-05 -118.1655964
235.640705 -2.498604306e-05 82.35846861
18.414475 50.51779448 143.9999026
91.776266 -2.498604306e-05 122.4643346
0.0002150000173 32.89332888 -34.85385239
168.446444 31.83321508 143.9999026
68.867295 -2.498604306e-05 -77.10127439
251.093677 -2.498604306e-05 -83.57167239
159.121549 -2.498604306e-05 -67.78020139
67.375722 26.21906458 143.9999026
214.528037 -2.498604306e-05 77.33237461
0.0002150000173 49.35427298 -24.00600239
164.897634 41.60213958 -144.0000974
240.654313 -2.498604306e-05 55.20862761
135.100923 56.62508228 149.9999026
83.943782 -2.498604306e-05 -116.4618814
34.420845 -2.498604306e-05 143.4078856
162.035861 1.704703934 -150.0000974
197.62952 -2.498604306e-05 -125.2707064
183.956173 -2.498604306e-05 22.42929661
0.0002150000173 11.94228834 113.6146656
42.862321 51.10949078 149.9999026
139.508902 -2.498604306e-05 -16.74968939
0.0002150000173 34.05926448 127.7778856
5.168429 -2.498604306e-05 131.7258906
119.762521 48.97503708 -150.0000974
186.859784 -0.195447606 -144.0000974
216.644735 -2.498604306e-05 102.7106466
114.495146 -2.498604306e-05 77.51242961
228.591265 41.34744958 -144.0000974
241.768197 47.63904768 -150.0000974
188.266753 38.21325598 -144.0000974
0.0002150000173 11.57782466 -1.544726386
211.738664 -2.498604306e-05 -76.68439639
83.065493 44.85197788 143.9999026
68.760515 59.75421168 -150.0000974
198.884596 -2.498604306e-05 -93.63468639
0.0002150000173 42.89230548 38.08927261
5.623125 -2.498604306e-05 -91.70132439
225.415618 -2.498604306e-05 -86.55199639
146.293406 55.27088328 -150.0000974
28.21635 -2.498604306e-05 -39.85397139
68.297834 -2.498604306e-05 107.4211226
2.984049 -2.498604306e-05 -48.30488939
51.561396 -2.498604306e-05 -117.6589924
252.352255 -2.498604306e-05 47.70416861
0.892653 54.06747068 -150.0000974
214.446743 -2.498604306e-05 118.9345016
231.703701 67.65961768 -144.0000974
66.203294 27.08882228 -144.0000974
250.903043 39.70021468 -144.0000974
113.397794 -2.498604306e-05 -134.5470394
21.278862 -2.498604306e-05 140.4173346
227.600729 -1.817757576 -150.0000974
0.0002150000173 36.10196038 -1.442718386
-0.418145 49.99997498 62.23570961
248.535445 -2.498604306e-05 -140.1719424
83.686352 -2.498604306e-05 89.57428561
243.941485 66.93793168 149.9999026
0.0002150000173 33.87894238 100.8803546
234.730154 26.55764348 149.9999026
69.55277 -2.498604306e-05 36.05506661
11.219283 -2.498604306e-05 103.9996716
175.609983 1.702155214 149.9999026
223.294254 61.23475668 149.9999026
211.58488 56.67080728 -150.0000974
139.47702 -2.498604306e-05 109.1819646
213.150871 11.52524878 -144.0000974
128.463505 47.30881688 143.9999026
0.0002150000173 7.495128514 16.53090861
117.688079 1.247228614 -150.0000974
0.0002150000173 49.92461528 -47.74981539
15.712211 28.80882978 149.9999026
168.681723 12.30752368 -144.0000974
174.35066 -2.498604306e-05 86.24793561
0.0002150000173 15.02862338 98.83356261
147.223512 34.84714098 143.9999026
126.740011 -2.498604306e-05 -130.6023294
15.525826 -2.498604306e-05 8.712281614
-2.044299 49.99997498 -127.0818464
27.54282 -2.498604306e-05 44.58782361
169.772957 41.68072358 149.9999026
188.784905 -2.498604306e-05 132.5867326
213.784728 -2.498604306e-05 137.3108336
73.092757 -2.498604306e-05 -33.80100439
124.937542 -2.498604306e-05 -90.62833539
104.472989 39.13191648 149.9999026
92.02663 42.25632818 -150.0000974
227.793816 -2.498604306e-05 -98.96448539
28.927529 14.99818238 143.9999026
0.0002150000173 15.37363528 -42.81533639
67.043132 61.04193458 149.9999026
-0.58751 9.923174524 128.6140656
60.574804 -2.498604306e-05 95.31022861
86.296876 21.34341378 -150.0000974
159.269321 60.58698158 149.9999026
0.0002150000173 7.367651154 -110.0711254
32.01149 -2.498604306e-05 -18.79618339
208.711718 -2.498604306e-05 52.74590761
0.0002150000173 24.50958468 -59.57922339
25.275288 46.45245478 -144.0000974
242.65314 -2.498604306e-05 -54.76773439
175.979142 -2.498604306e-05 43.90283161
163.346079 67.06663188 -144.0000974
49.58029 -2.498604306e-05 -31.36319239
134.352519 -2.043645216 149.9999026
242.496598 45.32019908 149.9999026
90.075659 57.37870728 149.9999026
35.710959 -2.498604306e-05 64.18447361
69.634774 39.87664478 -144.0000974
125.227722 -2.498604306e-05 17.70498261
66.794079 15.50537188 149.9999026
22.793556 59.08705088 -144.0000974
146.378808 40.60636418 -144.0000974
54.533496 -2.498604306e-05 136.4940686
196.722838 32.74702928 -150.0000974
70.115079 -2.498604306e-05 -117.4855824
130.395828 49.62714738 -144.0000974
33.769193 -2.498604306e-05 127.3229756
-2.127582 49.99997498 -61.63438639
66.491899 -2.498604306e-05 -100.1150144
155.296797 -2.498604306e-05 -0.3189663858
162.641365 -2.498604306e-05 -39.73778039
80.012317 -2.498604306e-05 103.5721756
156.953741 -2.498604306e-05 30.81384561
-0.478752 49.99997498 -108.8458824
75.559764 -2.498604306e-05 -8.402337386
150.583886 54.69984648 143.9999026
0.0002150000173 10.76460536 -78.65563039
204.875672 31.00767118 143.9999026
-1.628862 -2.200021936 -4.115474386
180.152939 -2.498604306e-05 140.0998216
236.661601 -2.498604306e-05 -22.69260039
110.526108 31.67255948 143.9999026
89.026714 -2.498604306e-05 35.32364961
98.016095 -2.498604306e-05 62.05284561
197.257508 -2.498604306e-05 27.02297161
107.500018 18.65143958 -144.0000974
104.864666 3.275458234 143.9999026
218.458946 -2.498604306e-05 24.85064061
234.762939 -2.498604306e-05 104.9500346
54.661595 -2.498604306e-05 18.36082061
244.972074 -2.498604306e-05 -44.13677139
12.376119 -2.498604306e-05 -18.22904639
33.034674 -2.498604306e-05 -0.1761203858
97.353154 12.37129328 -150.0000974
103.646096 -2.498604306e-05 77.80144361
81.613171 38.99625948 -150.0000974
194.234745 -2.498604306e-05 -60.10833139
245.429291 -2.498604306e-05 -71.24393539
146.633101 -2.498604306e-05 133.7911996
70.292794 -2.498604306e-05 121.3330606
178.441061 15.42006048 -150.0000974
33.623443 67.99997498 144.8384146
49.808107 -2.498604306e-05 -103.8124404
62.811093 -2.498604306e-05 -64.88645439
52.17014 -2.498604306e-05 48.85267161
85.576199 -2.498604306e-05 -143.1870894
177.837632 54.76668588 -150.0000974
9.592539 -2.498604306e-05 31.26739961
55.534088 56.85459028 -150.0000974
24.503667 -2.498604306e-05 -97.04454439
193.23609 -2.498604306e-05 -135.4080534
103.129687 -2.498604306e-05 103.4235956
223.900057 3.945595644 149.9999026
147.39975 5.895781044 149.9999026
126.637979 66.30771648 -144.0000974
0.0002150000173 10.78496555 69.77012061
207.732834 -2.498604306e-05 -86.56269939
250.617204 -2.498604306e-05 -23.23096939
211.210651 -2.498604306e-05 32.62383761
250.582305 28.09461208 -144.0000974
24.150134 -0.931739396 -144.0000974
72.210663 44.52540688 143.9999026
0.0002150000173 25.68124648 -85.92046739
182.253263 -2.498604306e-05 -31.55796839
13.063581 7.283300094 143.9999026
0.0002150000173 9.739170994 -24.34975939
144.555922 67.91074318 -144.0000974
186.342259 -2.498604306e-05 -10.57203939
100.340894 -2.498604306e-05 -59.15081939
30.528866 -2.498604306e-05 92.31805461
125.829174 21.35482068 143.9999026
9.426805 13.18305918 -150.0000974
111.163286 55.47752108 143.9999026
204.408235 61.40780138 149.9999026
138.116138 1.466245044 -150.0000974
172.74779 58.52409558 143.9999026
243.691057 -2.498604306e-05 98.75039661
92.784092 -2.498604306e-05 -125.7968744
72.353836 -2.498604306e-05 7.723014614
65.884403 49.32774768 -150.0000974
233.827709 8.045971154 149.9999026
204.438701 -2.498604306e-05 -133.5551884
23.789732 -2.498604306e-05 -12.49400539
200.735424 47.94916418 149.9999026
50.818176 -2.498604306e-05 99.79504561
108.908691 67.99997498 -149.1536974
200.715776 -2.498604306e-05 -14.34999539
92.880452 -2.498604306e-05 -66.66933739
201.834022 49.81689788 -150.0000974
148.10576 24.24925318 143.9999026
27.692894 49.91907778 149.9999026
71.418531 -2.498604306e-05 -137.7490914
222.322318 6.482941294 -144.0000974
42.49502 40.08149468 149.9999026
164.160155 -2.498604306e-05 -5.593844386
159.233908 -2.498604306e-05 -100.4466564
240.786468 -2.498604306e-05 44.56535661
224.878479 -2.498604306e-05 57.21371761
83.095016 -2.498604306e-05 11.01777061
124.894057 -2.498604306e-05 142.2113056
0.0002150000173 41.30313558 -131.9823504
94.679574 20.51134568 143.9999026
189.241113 -2.498604306e-05 -77.04484839
170.628929 10.57724532 149.9999026
97.391104 -2.498604306e-05 49.35310061
105.550598 -2.498604306e-05 -111.7282154
1.976665 -2.498604306e-05 110.3651716
7.438592 29.13443358 143.9999026
45.639363 6.910741214 143.9999026
119.111123 36.65689898 149.9999026
0.0002150000173 35.76763058 -140.4387714
250.485892 21.72243268 149.9999026
188.292239 -2.498604306e-05 67.44548961
166.201865 -2.498604306e-05 143.0772946
150.203337 -2.498604306e-05 12.38770561
78.243197 -2.498604306e-05 66.09525261
154.730682 59.87412668 -144.0000974
204.536184 -2.498604306e-05 -37.66342839
80.228429 58.14523108 -144.0000974
64.42203 -2.498604306e-05 70.55172661
111.382512 -2.498604306e-05 11.22582061
6.518615 -2.498604306e-05 -111.8977034
115.686744 -2.498604306e-05 -7.442633386
136.508709 5.636056904 143.9999026
0.0002150000173 27.78337288 -118.5650464
47.531852 -2.498604306e-05 -72.78961039
215.96027 -2.498604306e-05 -132.8962924
11.588408 -2.498604306e-05 -36.41564439
227.876477 31.56784298 -150.0000974
134.520322 -2.498604306e-05 81.64598861
106.713017 -2.498604306e-05 53.34402261
242.635913 65.78424338 -144.0000974
232.012493 -2.498604306e-05 -36.55917339
167.3328 -2.498604306e-05 -81.50149839
190.642834 49.24901918 143.9999026
223.445032 53.83686228 -144.0000974
247.444638 -2.498604306e-05 12.22424461
211.567231 -2.498604306e-05 -52.88840339
47.903068 22.30118788 -150.0000974
0.0002150000173 19.15904728 -104.5298344
246.687123 35.02159578 149.9999026
236.870653 20.88590858 -150.0000974
99.51789 51.52023458 -150.0000974
210.379816 24.29335928 -144.0000974
23.49034 36.13140028 149.9999026
239.953547 5.119538334 -144.0000974
41.409423 -1.859957876 149.9999026
135.15048 -2.498604306e-05 -101.5382824
230.191571 42.56366378 149.9999026
174.103757 -2.498604306e-05 -134.4114074
155.078589 6.212480684 -144.0000974
9.761885 -2.498604306e-05 -77.01803339
0.0002150000173 48.92366998 -87.97828739
35.005702 -2.498604306e-05 38.03280761
140.641216 49.97525428 -144.0000974
32.636546 -2.498604306e-05 115.0443806
208.070114 0.409300894 -150.0000974
30.471454 -2.498604306e-05 -87.53082139
13.420096 -2.498604306e-05 118.4760356
58.55965 51.04256278 143.9999026
55.916761 6.243340414 143.9999026
46.85402 21.27403558 149.9999026
118.013834 -2.498604306e-05 -50.35422939
142.129866 34.37092088 -150.0000974
81.261642 -2.498604306e-05 -43.17868739
69.591828 -2.498604306e-05 -24.29515039
77.349344 19.20131008 -144.0000974
66.109252 -2.498604306e-05 24.65941461
172.429019 -2.498604306e-05 -65.32211939
196.240302 67.99997498 -145.5428004
236.502178 66.68671948 143.9999026
171.455039 -2.498604306e-05 -116.3725764
177.614767 -2.498604306e-05 7.173607614
200.360452 -2.498604306e-05 -27.06685839
217.031457 37.55268848 143.9999026
101.681853 -0.06588518604 -144.0000974
-0.657383 49.99997498 -12.35343339
217.863369 -2.498604306e-05 87.86629961
37.142578 -2.498604306e-05 21.25316361
0.0002150000173 40.78209218 -75.57187539
190.918805 60.27578828 -150.0000974
192.712139 15.23350958 143.9999026
249.482187 -2.498604306e-05 -95.37993739
205.383042 36.66129758 -150.0000974
51.239229 -2.498604306e-05 -137.0141514
172.406923 25.62628148 149.9999026
240.108511 58.21157358 149.9999026
86.611544 18.45998998 149.9999026
238.742841 -2.498604306e-05 -128.6870624
9.318413 5.936102424 -144.0000974
86.182599 -2.498604306e-05 -15.02232539
24.745523 67.99997498 -146.1801924
124.552819 21.66641958 -144.0000974
228.718532 -2.498604306e-05 122.3285346
0.0002150000173 37.82078048 53.18909661
241.82644 23.53608198 143.9999026
102.589301 -2.498604306e-05 -5.854411386
25.526259 -2.498604306e-05 -53.14325139
67.602087 5.815028634 -144.0000974
0.0002150000173 36.07493568 79.68104661
0.0002150000173 39.51704788 -24.58940139
14.456341 -2.498604306e-05 132.7606396
52.006662 12.98939998 -150.0000974
39.707681 36.82821348 -150.0000974
38.580432 28.82911778 149.9999026
34.473747 -2.498604306e-05 -124.2468944
47.094145 -2.498604306e-05 111.4174646
204.114582 -2.498604306e-05 20.72981361
177.550246 -2.498604306e-05 31.34245161
204.846233 12.30371718 -150.0000974
0.0002150000173 44.04559998 111.8868656
27.373496 37.18990968 -144.0000974
139.284896 -2.498604306e-05 4.931510614
174.149295 -2.498604306e-05 -46.85297539
189.827365 45.12321488 -150.0000974
130.379468 -2.498604306e-05 -44.77890939
7.885981 27.56143958 -150.0000974
18.174448 57.58702188 149.9999026
93.351151 -2.498604306e-05 -135.0492054
50.742885 -2.498604306e-05 126.7928026
215.143378 -2.498604306e-05 -104.3468404
209.165901 -2.498604306e-05 -115.6467334
36.003283 11.05612235 149.9999026
67.680576 66.68947228 -144.0000974
160.246846 15.02333118 149.9999026
34.48525 20.15560938 -144.0000974
204.886356 -2.498604306e-05 99.21139261
141.927541 65.30195408 143.9999026
171.833616 -2.498604306e-05 64.94987361
217.25912 57.73012178 143.9999026
162.303558 41.54730518 143.9999026
153.362451 9.444022304 143.9999026
18.206096 15.83148768 -150.0000974
49.113273 65.54683108 149.9999026
167.946862 -2.498604306e-05 13.21532561
61.31723 -2.498604306e-05 -139.3847064
0.0002150000173 24.48034368 -41.94084339
0.0002150000173 26.69544538 15.90303361
135.924881 27.38992898 -144.0000974
183.416749 21.04148768 149.9999026
0.0002150000173 8.870845954 7.169040614
15.096315 -2.498604306e-05 -114.9921464
0.0002150000173 8.498350704 -89.92646739
143.632363 8.696536284 -150.0000974
172.665394 29.80146058 -150.0000974
124.967596 -2.498604306e-05 -72.82627639
131.810303 -2.498604306e-05 -21.56058739
241.960459 -2.498604306e-05 -1.960203386
139.396706 -2.498604306e-05 -45.73453039
184.649701 -2.498604306e-05 49.79267861
45.840168 49.33118258 -150.0000974
189.7139 57.25599798 149.9999026
250.937244 -2.498604306e-05 -114.6026714
136.685403 9.097731824 -144.0000974
34.594577 59.01162278 143.9999026
166.409682 32.61249558 -144.0000974
213.311585 44.34956498 -144.0000974
42.411246 -2.498604306e-05 1.069708614
221.428508 38.24788448 -150.0000974
62.632923 19.87490838 -150.0000974
45.963866 67.43547358 -144.0000974
73.566877 11.07407458 -150.0000974
117.546404 31.99372008 -150.0000974
23.804065 22.72768458 143.9999026
0.0002150000173 7.238108974 79.93876761
131.401245 39.88368078 -144.0000974
61.146914 -2.498604306e-05 -121.8489614
173.364366 -2.498604306e-05 -24.61236339
134.594465 -2.498604306e-05 -134.8925814
111.086948 42.46632098 -144.0000974
23.487368 67.99997498 148.4565126
73.0594 12.59742928 143.9999026
217.558178 23.52502608 143.9999026
175.482492 64.80655058 -144.0000974
8.514021 -2.498604306e-05 139.9890096
49.434524 37.79393658 -150.0000974
205.464895 -2.498604306e-05 -4.720156386
-1.595299 -2.498604306e-05 -115.5354914
20.84003 -2.498604306e-05 -69.39882639
94.887583 57.63217958 -144.0000974
78.68018 -2.498604306e-05 -81.58045939
72.046297 -2.498604306e-05 52.42361061
139.139306 -2.498604306e-05 95.89182561
125.267541 -2.498604306e-05 -3.799921386
0.491468 -1.648169086 17.53822361
-0.542266 66.75341368 149.9999026
96.555458 57.59689828 143.9999026
37.139502 -2.498604306e-05 -41.79178139
88.641525 -2.498604306e-05 -49.19895939
72.06293 -0.453565876 143.9999026
0.0002150000173 36.14847638 -67.04328339
155.243377 -2.498604306e-05 -89.11164339
248.744986 51.95348718 143.9999026
25.855069 -2.498604306e-05 132.0399136
47.246261 -2.498604306e-05 80.58612861
14.680003 -2.498604306e-05 -93.48167339
150.533395 -2.498604306e-05 -117.0781304
91.873325 -2.498604306e-05 -103.5016954
0.0002150000173 29.76592858 -96.54234039
8.364661 -2.498604306e-05 59.28027861
105.558372 45.98038118 143.9999026
101.008986 -2.498604306e-05 8.840859614
60.548237 11.19190014 -150.0000974
160.957986 -2.498604306e-05 -49.45791539
117.189514 -2.498604306e-05 -94.61598339
78.139394 -2.498604306e-05 34.57417561
47.144345 -2.498604306e-05 -7.007652386
114.378237 -2.498604306e-05 -110.5745044
190.670652 -2.498604306e-05 59.08908961
0.0002150000173 17.22626698 75.59953261
231.92202 51.07047338 149.9999026
228.957535 -2.498604306e-05 12.95276361
0.0002150000173 20.47758278 34.39584661
241.900225 -2.498604306e-05 -104.6292484
39.964779 -2.498604306e-05 -137.6651274
0.0002150000173 23.38728898 -138.4626644
49.460503 55.33470628 -144.0000974
158.470757 -2.498604306e-05 7.862354614
180.520153 -2.498604306e-05 -55.59497039
187.660253 -2.498604306e-05 -113.0805214
82.447862 -2.498604306e-05 -95.21272939
115.603257 -2.498604306e-05 -83.40332939
198.511779 32.79501108 149.9999026
12.243395 -2.498604306e-05 -53.80172439
89.840668 -2.498604306e-05 26.71725161
0.0002150000173 27.48554788 120.1569076
133.22258 -2.498604306e-05 69.98029761
166.907911 52.25067768 149.9999026
118.065683 11.27160671 149.9999026
217.039176 -2.498604306e-05 -84.52738439
19.360733 -2.498604306e-05 -135.2908364
197.010032 -2.498604306e-05 3.706463614
142.157379 19.74316318 149.9999026
173.06875 49.24621868 143.9999026
0.0002150000173 8.366317844 105.7990756
17.822464 -2.498604306e-05 33.73392261
-2.424381 54.24379128 149.9999026
117.599182 -2.498604306e-05 4.544041614
111.822604 -0.544391016 -144.0000974
16.586532 40.09144178 -144.0000974
0.0002150000173 8.484195764 47.81956361
173.05768 -2.498604306e-05 -12.16418839
88.139954 46.97263798 -144.0000974
5.287447 39.76419298 149.9999026
167.106951 -2.498604306e-05 46.84340461
24.942468 52.54758728 -150.0000974
113.292994 -2.498604306e-05 -23.68954539
146.073455 -2.498604306e-05 -83.44961439
248.895297 63.38565958 143.9999026
137.340346 -2.498604306e-05 44.85700361
126.337559 -2.498604306e-05 102.9246106
137.84709 36.83039658 143.9999026
51.736988 -2.498604306e-05 -64.64905839
0.0002150000173 7.379015704 95.05387061
79.892328 -2.498604306e-05 -136.7679514
158.321311 24.51404498 143.9999026
228.379569 67.99997498 146.2141926
57.848697 -2.498604306e-05 -48.73019939
28.999445 10.61689179 -150.0000974
130.321237 25.38179738 149.9999026
0.0002150000173 23.30275208 87.48114961
229.20176 -2.498604306e-05 -18.61564239
155.402235 -2.498604306e-05 66.97425961
168.615726 20.00494918 -150.0000974
0.0002150000173 20.98510308 -123.6590134
0.0002150000173 19.80121338 48.24975561
0.0002150000173 35.27897018 -125.9992944
61.166643 -2.498604306e-05 -40.42655139
177.004221 -1.330421616 -144.0000974
0.0002150000173 18.69334848 -23.79593839
227.905258 57.79927948 -150.0000974
177.663695 39.18484138 -150.0000974
51.675835 49.20062968 149.9999026
0.0002150000173 31.61023318 -79.04590339
88.43503 6.455833564 143.9999026
154.846381 -2.498604306e-05 -20.34997539
0.0002150000173 27.09171658 132.8500066
118.504594 46.05972708 149.9999026
210.775436 -2.498604306e-05 127.3746206
202.473152 -1.495873546 -144.0000974
226.768619 -2.498604306e-05 -50.62801639
129.3423 57.80360448 143.9999026
120.385531 67.99997498 148.0308236
218.944079 61.74703338 -144.0000974
86.620105 67.25031078 149.9999026
23.901785 -2.498604306e-05 9.187151614
26.099763 -2.498604306e-05 100.5778736
108.037212 47.46107608 -150.0000974
0.0002150000173 8.100094434 -100.1945754
118.759441 -2.498604306e-05 -17.35410639
72.597031 -2.498604306e-05 72.30825761
215.010916 -2.498604306e-05 2.244807614
79.048046 -2.498604306e-05 -58.01914539
3.922128 -2.498604306e-05 37.38247161
187.678293 41.05192558 143.9999026
69.195482 -2.498604306e-05 -107.9861604
240.748069 -2.498604306e-05 7.282721614
176.249512 7.865134244 143.9999026
221.282637 32.37867018 -144.0000974
0.0002150000173 4.774003214 -8.327268386
146.50033 -2.498604306e-05 -2.569629386
-0.652315 7.966977884 -144.0000974
207.551617 -2.498604306e-05 72.82947561
152.046846 -0.983393676 149.9999026
0.0002150000173 19.02993268 -78.01050839
204.783988 42.95843318 143.9999026
91.714766 -2.498604306e-05 -27.91665839
193.349664 19.03203648 -144.0000974
169.070116 67.99997498 -149.9080974
104.428712 -2.498604306e-05 111.5955686
106.456891 -2.498604306e-05 -53.53803039
223.95125 15.78927568 -150.0000974
90.896779 -2.498604306e-05 -82.87455439
72.658676 67.91973168 149.9999026
239.561607 2.492680564 143.9999026
103.737127 -2.498604306e-05 -37.38948639
85.152024 39.59252938 149.9999026
127.809853 -2.498604306e-05 86.56724161
10.054092 22.26155878 149.9999026
-2.326487 17.36768028 141.6564566
92.470636 -2.498604306e-05 -2.503005386
44.786742 -2.498604306e-05 11.55013061
142.229493 -2.498604306e-05 -117.6898664
235.008356 -2.498604306e-05 28.01735461
224.130748 -2.498604306e-05 -133.3701094
0.0002150000173 42.46785038 -92.99898639
6.633898 67.64920368 143.9999026
128.778362 -1.230051466 -150.0000974
228.364022 19.78953338 143.9999026
22.358035 40.38652578 -150.0000974
146.840746 -2.498604306e-05 98.60052861
142.402709 -2.037065556 -144.0000974
0.0002150000173 35.17736358 35.42464861
74.063672 29.74099078 149.9999026
90.092102 -2.498604306e-05 6.849899614
135.255517 67.99997498 -146.8965674
83.503277 -2.498604306e-05 136.0763816
197.475152 -2.498604306e-05 36.10802061
181.326952 59.15414738 -144.0000974
60.24753 9.593378224 149.9999026
150.872026 -2.498604306e-05 51.78051561
219.995131 -2.498604306e-05 -118.3388714
205.338999 26.39573288 -150.0000974
99.6044 35.17978888 -150.0000974
243.115827 -2.498604306e-05 -88.62674839
19.971767 12.85883998 143.9999026
0.0002150000173 26.56237078 -18.55629339
192.183142 -2.498604306e-05 123.0639486
0.0002150000173 44.02865028 -103.3986774
130.733622 20.36243268 -150.0000974
90.293245 -2.498604306e-05 43.31944761
21.075914 -2.498604306e-05 53.24879161
84.809702 10.5751554 149.9999026
0.0002150000173 36.40106808 -111.8067994
138.693923 -2.498604306e-05 -75.08586239
105.422309 11.81995058 149.9999026
248.650621 -2.498604306e-05 125.3005876
245.205949 8.702338654 143.9999026
134.335729 -2.498604306e-05 22.51108261
96.252001 4.672025384 149.9999026
135.770652 25.18828388 143.9999026
0.0002150000173 26.76469028 52.42880061
76.598128 -1.218570746 -144.0000974
113.908765 -2.498604306e-05 -125.7543244
37.516814 -2.498604306e-05 -25.05277039
57.936961 -2.498604306e-05 65.83026061
34.916117 -2.498604306e-05 -62.98265339
165.257632 -2.498604306e-05 2.342027614
80.991489 -2.498604306e-05 -67.83541639
0.0002150000173 37.07651538 -41.68291539
28.779315 35.77897898 143.9999026
38.224908 11.13255514 -144.0000974
84.19054 61.64605028 143.9999026
0.0002150000173 15.91368168 134.1533756
233.383399 -2.498604306e-05 -85.97983139
250.281731 -2.498604306e-05 -38.18572839
26.475856 22.02226358 -150.0000974
224.560486 -2.498604306e-05 -62.39529239
0.0002150000173 23.72505598 99.22401161
236.413581 -2.498604306e-05 61.93985661
125.509444 12.60459068 -144.0000974
8.82646 63.24636688 -144.0000974
0.0002150000173 4.029632864 -70.08226539
224.673792 -2.498604306e-05 140.3852546
123.134686 -2.498604306e-05 25.83503361
6.955104 -2.498604306e-05 -128.8424434
129.884647 62.25804548 -150.0000974
0.0002150000173 0.177128284 -26.39595139
238.168513 63.19551558 -150.0000974
172.239039 45.09531308 -150.0000974
163.653267 18.40648158 -144.0000974
3.80557 34.31965188 -150.0000974
53.373852 -2.498604306e-05 85.55515961
46.657665 36.56232228 143.9999026
0.0002150000173 23.36382198 -49.73995539
41.192187 57.22237858 -144.0000974
118.282333 16.91504788 -144.0000974
243.48217 -2.498604306e-05 20.55444561
43.134842 -2.498604306e-05 -16.35547539
162.284393 -2.498604306e-05 -29.92880239
56.025277 39.11647668 149.9999026
139.961612 -2.498604306e-05 63.99722861
252.251089 -2.498604306e-05 -4.800124386
164.081508 34.29830338 149.9999026
16.570644 -2.498604306e-05 -8.197353386
-0.914484 -2.498604306e-05 59.54662661
233.287201 -2.498604306e-05 36.20662461
205.944582 -2.498604306e-05 -96.95164539
85.065 -2.498604306e-05 109.5120136
110.731285 18.17226128 149.9999026
131.346658 -2.498604306e-05 -108.3349674
248.173688 -2.498604306e-05 141.0256096
56.979346 26.58592678 -150.0000974
232.835686 -2.498604306e-05 135.8381556
72.200279 -2.498604306e-05 43.34940361
57.230591 42.08459528 -150.0000974
228.931499 10.53925951 -144.0000974
128.185749 42.41449968 149.9999026
142.878241 55.45586488 143.9999026
106.797246 36.02124358 -144.0000974
114.432172 -2.498604306e-05 85.24652361
71.601811 35.42660908 -150.0000974
0.0002150000173 7.601007634 -124.6984174
205.193877 -2.498604306e-05 137.9231506
215.323328 43.91438078 149.9999026
218.62799 9.631066404 -150.0000974
179.277776 32.39756008 149.9999026
123.854822 41.09597258 -150.0000974
133.072986 35.98984898 149.9999026
61.923694 20.77062408 143.9999026
-2.074867 -2.498604306e-05 -92.07884739
3.352248 29.24836478 -144.0000974
0.0002150000173 41.48290348 -13.57295139
146.866661 45.38032928 -150.0000974
32.610961 61.08525458 -144.0000974
186.411333 -2.498604306e-05 11.94809861
69.677539 57.06494478 143.9999026
7.494207 -2.498604306e-05 75.47549861
163.757756 36.97443008 -150.0000974
163.013151 -2.498604306e-05 39.77121061
2.545517 35.02238878 143.9999026
0.0002150000173 9.001148714 -32.97801639
117.951698 59.49870028 143.9999026
67.946132 -2.498604306e-05 136.1114456
202.790938 26.47155818 149.9999026
156.565596 54.88435608 -150.0000974
113.254815 59.69741478 149.9999026
87.497531 51.05017628 143.9999026
70.109068 21.34117478 -150.0000974
241.161157 51.23394598 143.9999026
0.0002150000173 3.802347154 0.2754976142
9.682336 33.45529238 149.9999026
100.038988 40.63774948 143.9999026
233.49932 -2.498604306e-05 -3.298425386
120.165889 28.11380158 -144.0000974
8.847157 57.11103978 -150.0000974
236.191787 41.43487588 -144.0000974
25.970178 -2.498604306e-05 -32.59466439
239.8797 -2.498604306e-05 -37.89343639
10.67763 58.90255918 143.9999026
160.88443 67.99997498 149.7489886
0.0002150000173 10.27757664 34.72408961
86.266433 13.76180828 -150.0000974
118.089775 -2.498604306e-05 -31.94127839
25.733655 45.72435518 143.9999026
5.226802 47.61824048 143.9999026
0.822427 24.74182198 149.9999026
215.964128 2.961371404 143.9999026
21.545842 -2.498604306e-05 66.34724361
148.672806 17.51847278 -150.0000974
247.163223 59.73687518 -144.0000974
65.218491 -2.498604306e-05 -50.37711339
39.545054 59.19861528 149.9999026
212.337123 67.99997498 -148.1565194
111.445267 5.637195574 149.9999026
175.542172 -2.498604306e-05 54.27286861
158.6396 -2.498604306e-05 -130.6552904
221.852681 -2.498604306e-05 49.61207361
15.749274 11.26332456 149.9999026
151.777892 61.04235168 149.9999026
0.0002150000173 8.401456994 -16.46578439
72.925642 40.09645268 149.9999026
81.820314 49.16129958 149.9999026
100.62508 -2.498604306e-05 131.0726006
190.841178 -2.498604306e-05 -46.10550339
245.175568 22.59634048 -150.0000974
105.470392 62.15076728 143.9999026
134.449781 12.41913908 149.9999026
147.256766 60.05072968 -144.0000974
194.438983 10.41949397 149.9999026
93.784138 64.33529158 -150.0000974
11.604046 -2.498604306e-05 125.7214536
95.811224 -2.498604306e-05 94.42082661
106.04893 25.97448548 -144.0000974
0.0002150000173 41.95209668 -51.84577439
113.745639 -2.498604306e-05 69.46569361
32.47387 8.405898454 143.9999026
230.093363 1.822811944 -144.0000974
156.909026 -2.044545036 143.9999026
114.76245 30.44456248 149.9999026
216.419286 51.11431518 -144.0000974
54.965528 27.91357758 143.9999026
54.586498 -2.498604306e-05 29.93143161
2.551118 -2.498604306e-05 -84.92665139
0.0002150000173 32.97725408 -9.451144386
83.256064 64.92562328 -144.0000974
245.724063 41.35594738 -150.0000974
114.067346 55.78673178 -144.0000974
122.074524 -2.498604306e-05 91.65211161
66.34361 52.16026478 149.9999026
123.403819 -2.498604306e-05 -80.07521439
56.98121 -2.498604306e-05 -101.9422904
32.101639 -2.498604306e-05 107.4913026
4.641455 47.66763728 -150.0000974
101.37291 -2.498604306e-05 -21.07258839
21.094597 -2.498604306e-05 24.17618361
119.984463 50.13476668 143.9999026
51.350512 61.84867868 143.9999026
-0.384355 49.99997498 107.5242616
210.297518 48.81538048 143.9999026
149.337094 -2.498604306e-05 -48.18631039
181.836952 10.80240809 -144.0000974
0.0002150000173 35.82227598 72.32278861
180.964671 -2.498604306e-05 66.73224061
0.0002150000173 49.76048658 35.44066761
0.0002150000173 43.69758338 -142.8511744
92.63367 25.06089978 -150.0000974
118.584016 -2.498604306e-05 -141.1800184
123.308153 -2.498604306e-05 -113.7162974
0.500215 -1.863898766 -11.42037739
121.627732 57.11917358 -150.0000974
0.0002150000173 8.265086464 -117.3540864
-0.960369 49.99997498 78.96192161
220.341258 57.76336958 -150.0000974
60.477145 -2.498604306e-05 103.4589446
0.0002150000173 40.42499808 66.31951961
30.303032 -2.498604306e-05 18.64297361
57.49364 -2.498604306e-05 43.82839161
50.302272 25.72423118 -144.0000974
78.413151 -2.498604306e-05 -121.7949804
131.853901 -2.498604306e-05 118.7349216
4.76412 -2.498604306e-05 -62.47960639
234.114818 37.82297758 -150.0000974
206.301373 -2.498604306e-05 65.44198561
123.576541 28.96475118 143.9999026
20.572383 -2.498604306e-05 -121.0976144
92.935539 14.98390728 -144.0000974
60.857031 36.91768388 -144.0000974
214.714542 -2.498604306e-05 95.27732561
123.781824 5.905068444 149.9999026
73.270376 63.85075838 143.9999026
249.449905 -2.498604306e-05 82.27921361
41.363647 -2.498604306e-05 59.61157661
231.549151 -2.498604306e-05 -130.5623734
148.28226 -2.498604306e-05 -32.49376639
194.151463 52.49707248 -150.0000974
238.821482 30.57984038 143.9999026
109.574045 46.79053498 149.9999026
-1.925748 15.97477418 149.9999026
103.536815 -2.498604306e-05 68.85112461
126.355481 55.65465578 -144.0000974
5.652347 -2.498604306e-05 95.98491861
0.0002150000173 0.613496274 52.37918261
225.891342 55.73600938 143.9999026
122.796388 -2.498604306e-05 -124.4974114
50.63205 -2.498604306e-05 -128.7841804
158.80077 -2.498604306e-05 23.69844961
41.50088 -2.498604306e-05 -102.2647424
14.358879 -1.446200166 143.9999026
132.650872 15.80008668 -144.0000974
154.397638 27.43331228 -150.0000974
225.543397 -2.498604306e-05 19.32284461
243.34589 31.51096348 -144.0000974
94.511428 31.45239828 149.9999026
23.344623 -2.498604306e-05 -88.71224439
93.377697 -2.498604306e-05 -118.4436644
235.844208 14.00296388 -144.0000974
135.559715 -2.498604306e-05 -124.8532104
49.03956 8.944385784 149.9999026
45.714419 55.22528578 143.9999026
191.177087 31.64669408 -144.0000974
120.578923 40.30218298 143.9999026
224.274038 -2.498604306e-05 99.89938261
242.843077 37.51492048 143.9999026
130.003018 -2.498604306e-05 11.83090161
178.350145 11.89715249 149.9999026
164.274509 -1.682794836 149.9999026
96.243847 -2.498604306e-05 79.80328961
147.00637 3.444132964 -144.0000974
90.543354 14.53321928 143.9999026
186.039851 46.01522178 -144.0000974
176.319175 45.51573328 149.9999026
209.914217 17.32638198 -150.0000974
9.48924 -2.498604306e-05 -98.37029939
86.706205 32.64010798 149.9999026
109.774087 -2.498604306e-05 -79.31342739
0.0002150000173 22.39825348 2.211632614
64.038321 45.43831818 -144.0000974
0.0002150000173 26.42309318 65.75655061
9.865088 -2.498604306e-05 0.7163156142
161.158506 45.19542458 149.9999026
183.566227 35.24608078 143.9999026
180.98393 -2.498604306e-05 -70.04570239
58.9248 -2.498604306e-05 -88.47280739
66.847291 -2.498604306e-05 -59.03330639
0.0002150000173 45.13248488 17.39664361
3.772644 21.38522038 143.9999026
112.959534 -2.498604306e-05 30.08490361
156.6006 34.22189018 143.9999026
139.482658 -2.498604306e-05 -23.84962339
0.0002150000173 8.633686114 -45.03959039
7.066856 -1.512287576 -144.0000974
137.734214 21.45874118 -150.0000974
113.859172 22.31751918 143.9999026
42.103306 -2.498604306e-05 49.64201761
11.126654 36.91648478 143.9999026
43.84029 -2.498604306e-05 -37.43092339
0.0002150000173 45.28320798 91.52322261
187.082463 15.00071918 149.9999026
187.184216 -2.498604306e-05 101.8967336
97.154761 8.292229164 143.9999026
13.472881 49.18951138 -144.0000974
184.506585 52.43522908 -150.0000974
141.271486 -2.498604306e-05 83.71604161
169.334582 59.99286198 149.9999026
238.371643 34.56793738 149.9999026
7.624411 -2.498604306e-05 43.38821361
220.642752 -2.498604306e-05 -47.13007139
19.802481 28.95343758 -144.0000974
59.945935 -2.498604306e-05 1.963798614
153.367413 41.54193778 -144.0000974
23.662067 -2.498604306e-05 -111.6342434
104.22452 51.24619258 -144.0000974
72.081484 -2.498604306e-05 28.36894361
0.0002150000173 26.26093448 -111.7052764
225.041615 33.12654498 143.9999026
221.345571 -2.498604306e-05 -23.58153539
208.541849 47.76545278 -150.0000974
0.0002150000173 13.88571108 -85.44396639
77.912078 12.83743728 149.9999026
5.406641 -2.498604306e-05 -41.73458139
0.0002150000173 44.09601158 -64.71692339
27.481821 64.39361798 143.9999026
189.737337 67.99997498 -148.0967744
149.478436 -2.498604306e-05 -124.2778974
0.0002150000173 22.77152668 24.92419661
231.812547 -2.498604306e-05 -28.77197139
223.097506 42.19074378 149.9999026
57.668472 34.98300108 143.9999026
223.568056 7.467533244 143.9999026
207.524694 7.426715154 -144.0000974
11.847414 62.23130748 149.9999026
0.0002150000173 44.88924998 131.0051806
195.003135 43.82731768 143.9999026
139.296607 61.80227508 -150.0000974
210.312437 57.53501028 143.9999026
33.951595 -0.313208196 -144.0000974
124.228823 25.13772738 -150.0000974
31.973559 -2.498604306e-05 -9.183423386
31.32066 28.27914408 143.9999026
154.464902 22.50549498 149.9999026
155.981554 -2.498604306e-05 85.82509461
75.521302 67.80881578 -144.0000974
177.785687 -2.498604306e-05 132.1972626
196.564661 -2.498604306e-05 105.9931606
0.0002150000173 18.09402568 -66.19525139
81.842291 55.10456628 -150.0000974
0.0002150000173 17.95615248 -9.132366386
64.252423 42.00731588 -150.0000974
117.570255 -2.498604306e-05 143.1649386
5.416684 -2.498604306e-05 -71.64536339
246.551613 -2.498604306e-05 73.36927461
66.000724 22.36548098 149.9999026
27.404551 -2.498604306e-05 37.20379961
248.117777 15.31366958 -150.0000974
148.442978 42.30270218 143.9999026
25.909724 52.82858968 143.9999026
47.24175 18.96905758 -144.0000974
55.650435 31.58155098 -144.0000974
193.557315 -0.320783606 143.9999026
154.469991 50.53830318 -144.0000974
98.031084 -2.498604306e-05 108.0491186
86.888675 -2.498604306e-05 99.12799761
79.704379 53.55453958 143.9999026
193.113919 -2.498604306e-05 -11.76805739
60.763691 -2.498604306e-05 36.56908561
150.551969 34.54882498 149.9999026
155.219849 24.20181348 -144.0000974
76.064731 -2.498604306e-05 13.49318861
35.979369 42.58375608 -150.0000974
93.696772 -2.498604306e-05 115.8946816
141.494609 -2.498604306e-05 -39.21975739
83.074204 22.95179948 -144.0000974
80.518429 -2.498604306e-05 27.78274761
0.0002150000173 13.32140778 52.65037961
0.0002150000173 41.33550348 84.04346861
106.48595 10.91543233 -150.0000974
171.858721 39.17905458 143.9999026
169.231235 64.36857708 143.9999026
0.0002150000173 8.593423674 -60.30497239
95.467028 -1.481502536 143.9999026
54.838391 -1.695032536 143.9999026
195.845827 52.69396538 149.9999026
75.540748 19.82263218 149.9999026
214.232498 5.680196074 149.9999026
19.691567 23.28186308 149.9999026
86.101257 40.47677638 -144.0000974
36.24073 -2.498604306e-05 96.01737761
155.779619 -0.556333656 -144.0000974
186.393209 2.978138074 -150.0000974
148.271609 27.45216018 149.9999026
43.917374 4.247337574 -144.0000974
118.674342 45.95925198 -144.0000974
57.780135 59.12229598 -144.0000974
39.402947 1.693936004 -150.0000974
202.684083 -2.498604306e-05 49.62610861
16.008386 59.25116318 -144.0000974
0.0002150000173 20.09417938 93.49471961
142.368027 47.20458988 149.9999026
240.613636 54.31584058 -150.0000974
101.604255 3.080201514 -150.0000974
202.234695 -2.498604306e-05 121.1668056
251.7262 13.99618538 143.9999026
64.034212 61.90928218 143.9999026
237.066728 9.725011064 143.9999026
63.695332 -2.498604306e-05 84.76762761
79.065573 7.134951304 -150.0000974
230.495497 -2.498604306e-05 -92.08882639
234.997541 -2.498604306e-05 119.8542366
234.256259 19.04560118 149.9999026
39.586052 52.41014718 143.9999026
107.691399 -2.498604306e-05 125.9613196
113.369693 10.23755597 -144.0000974
0.0002150000173 25.55007618 -11.89541539
21.967212 29.20924758 143.9999026
0.0002150000173 49.08495608 -81.24454639
0.0002150000173 41.89814988 6.112696614
158.631545 -2.498604306e-05 121.0722916
82.208018 -2.498604306e-05 -51.16125239
243.231265 12.79673478 149.9999026
84.310948 -2.498604306e-05 82.87935861
164.807998 -2.498604306e-05 -61.48418839
17.857762 1.424033924 -144.0000974
-1.786939 -2.498604306e-05 -43.57500739
165.728163 -2.498604306e-05 -98.73286939
203.372838 34.41498098 -144.0000974
215.894644 28.53795328 149.9999026
174.784085 -2.498604306e-05 104.3541646
141.112834 62.45674758 149.9999026
99.292679 15.66873788 143.9999026
194.638739 -2.498604306e-05 -53.43469439
228.797742 34.36090108 -144.0000974
138.993573 -2.498604306e-05 -86.14260639
175.816923 36.91542328 -144.0000974
247.402118 -2.498604306e-05 42.55975961
238.4311 2.626461434 -150.0000974
12.128779 46.81352058 149.9999026
218.082562 54.11635048 149.9999026
170.679086 58.13055998 -144.0000974
174.962727 33.21268038 143.9999026
181.39561 -2.498604306e-05 -107.9504754
34.148141 0.890001624 149.9999026
52.938801 18.19860888 143.9999026
111.800119 -2.498604306e-05 48.19431561
135.570185 0.189413364 -144.0000974
171.982023 -2.498604306e-05 -123.8869854
31.999745 18.34783078 -150.0000974
86.802787 -2.498604306e-05 -21.62666439
89.20796 -2.498604306e-05 49.85201361
200.362052 -2.498604306e-05 -103.0322414
145.67033 -2.498604306e-05 -58.00599539
72.810589 26.97436138 -144.0000974
68.662202 50.53665378 143.9999026
133.084338 -2.498604306e-05 53.46412061
35.746789 -2.498604306e-05 -78.84785739
219.392929 -2.498604306e-05 -10.38908939
141.225864 8.233766374 149.9999026
160.782114 -2.498604306e-05 100.4418796
238.702209 -2.498604306e-05 74.43585261
89.568633 -2.498604306e-05 128.6814096
95.350864 18.87011418 -150.0000974
107.170298 -2.498604306e-05 136.9427446
189.885876 -2.498604306e-05 -39.59046539
235.25754 48.61995328 -150.0000974
129.858769 -2.498604306e-05 -36.33500539
86.557976 32.06198058 -150.0000974
100.460453 42.25917368 -150.0000974
249.895425 -2.498604306e-05 -133.7360104
0.0002150000173 25.11861358 81.16026961
152.014815 -2.498604306e-05 -96.10503939
20.045171 -2.498604306e-05 -62.87714739
122.035723 -2.498604306e-05 109.9494326
224.124125 -2.498604306e-05 -141.9718814
163.026025 25.61680068 -144.0000974
120.306129 67.99997498 -144.1466554
249.396682 44.31408238 149.9999026
50.051081 11.2240213 -144.0000974
73.62333 50.32553048 149.9999026
28.262982 -2.498604306e-05 51.09990761
0.0002150000173 32.70309288 -55.10353239
199.333133 16.39345128 -144.0000974
63.505526 31.47028188 -150.0000974
0.0002150000173 43.46138398 -43.06402139
241.237453 -2.498604306e-05 125.1838336
34.944271 -2.498604306e-05 -70.38131439
48.128253 47.29753118 -144.0000974
0.0002150000173 9.596751554 62.25902361
249.525804 -2.498604306e-05 29.51591161
252.371045 36.87959308 143.9999026
20.955675 52.83918118 -144.0000974
98.689121 21.93504718 149.9999026
202.580378 49.66620078 143.9999026
204.487617 -2.498604306e-05 -74.09157339
0.0002150000173 35.60751798 121.1867986
-0.558719 16.91856048 -138.7774994
123.586032 62.69842888 149.9999026
0.0002150000173 33.40992018 -133.8738034
162.618026 15.74255548 143.9999026
210.463456 -0.472224446 143.9999026
209.880855 -1.247288116 -144.0000974
98.280069 57.88130398 -150.0000974
75.27739 -2.498604306e-05 110.1800866
193.74572 17.45118738 149.9999026
36.147634 -2.498604306e-05 76.25324361
34.672191 36.23880898 -144.0000974
97.846984 39.59997518 149.9999026
99.769898 12.52991538 -144.0000974
226.032179 66.60096958 -150.0000974
141.89041 56.43940658 -144.0000974
125.815271 8.038661214 -150.0000974
0.0002150000173 43.62802198 -29.57660039
232.556487 -2.498604306e-05 98.87715561
209.487935 32.82439968 149.9999026
176.635213 -2.498604306e-05 75.42451661
53.981257 50.59171188 -150.0000974
39.273233 6.015162894 143.9999026
199.831734 12.13709138 143.9999026
141.284705 32.24918968 -144.0000974
91.762749 -2.498604306e-05 63.49874761
137.942349 -2.498604306e-05 -107.5009164
128.456351 48.48655838 -150.0000974
4.971969 -2.498604306e-05 -19.08560639
23.35931 -2.498604306e-05 78.98343761
188.513586 24.86628278 -144.0000974
128.205733 -2.498604306e-05 -84.33310639
63.387299 -2.498604306e-05 -11.52124539
6.255075 -2.498604306e-05 89.62434661
149.137639 62.83326628 -150.0000974
0.0002150000173 36.72225258 138.3929656
69.931712 -2.498604306e-05 -11.42123739
237.878555 -2.498604306e-05 88.34000861
160.708887 46.42231028 -144.0000974
240.692155 4.363825744 149.9999026
0.0002150000173 11.39960131 -7.927176386
179.401859 -2.498604306e-05 -125.7712904
20.760037 5.246180584 143.9999026
26.388431 3.631445954 -150.0000974
0.0002150000173 4.110681794 33.11661261
10.717331 -2.498604306e-05 12.88940061
24.728477 5.410575134 -144.0000974
196.889303 -2.498604306e-05 10.07086461
0.0002150000173 30.58882828 -23.48204339
88.980833 -2.498604306e-05 76.87811461
2.923122 -2.498604306e-05 -106.0158004
219.812455 -2.498604306e-05 111.0476226
95.143034 -2.498604306e-05 37.06061661
201.302683 -2.498604306e-05 113.0872126
25.065124 -2.498604306e-05 89.09620261
6.792474 -2.498604306e-05 -32.26476839
109.188724 -2.498604306e-05 105.2987106
-0.295938 -2.498604306e-05 93.78648661
191.867911 20.43378978 -150.0000974
0.0002150000173 48.23267248 140.0247556
66.100905 51.42255678 -144.0000974
46.175105 -2.498604306e-05 -78.97211139
162.05339 -2.498604306e-05 132.1797176
157.579375 36.77595498 149.9999026
211.664577 37.31399898 -150.0000974
169.782146 -2.498604306e-05 -88.64036339
243.726224 47.50029848 -144.0000974
75.091491 8.899287474 -144.0000974
7.2467 -2.498604306e-05 121.1738636
67.622464 -2.498604306e-05 -93.92498739
178.699508 -2.498604306e-05 125.1248156
187.785286 -2.498604306e-05 -28.57564839
228.494094 27.33252678 149.9999026
15.591579 -2.498604306e-05 -74.67442839
92.838918 44.80526808 143.9999026
30.63684 15.70736618 149.9999026
248.605158 24.56213138 143.9999026
228.556455 41.71812338 143.9999026
208.208253 -2.498604306e-05 -47.58745339
184.394739 -2.481713916 143.9999026
87.669575 0.904656184 -150.0000974
113.383941 -2.498604306e-05 57.74941761
36.576724 -2.498604306e-05 135.1103726
174.753579 54.04727328 149.9999026
192.67418 60.47279308 -144.0000974
111.265078 22.12618148 -150.0000974
24.060968 44.83351668 149.9999026
209.96655 -2.498604306e-05 10.60002561
0.0002150000173 49.88322118 27.86300661
0.0002150000173 24.65911398 -25.62844339
0.0002150000173 7.759139494 119.0964726
77.518679 -2.498604306e-05 -75.45825039
200.508511 50.83714218 -144.0000974
74.926926 61.41498418 -144.0000974
94.360913 52.86095108 149.9999026
149.710264 -2.498604306e-05 -67.89321339
246.214478 -2.498604306e-05 -7.340241386
222.384222 28.64257408 -150.0000974
242.710645 -2.498604306e-05 -137.9850494
248.640283 -2.498604306e-05 61.24983761
231.398552 58.46950008 149.9999026
156.801201 63.09687398 143.9999026
9.832326 14.77288578 -144.0000974
162.057007 18.78048348 -150.0000974
68.767842 -2.498604306e-05 127.3608866
216.114063 -2.498604306e-05 -72.26942639
0.0002150000173 29.12731778 36.83869861
-0.555366 49.99997498 119.5201026
233.189569 54.47546268 -150.0000974
42.745265 41.65231928 143.9999026
85.263298 19.29040618 143.9999026
128.076359 -2.498604306e-05 66.51511261
229.925401 22.29172318 -150.0000974
97.865109 -2.498604306e-05 123.6467776
104.27997 10.74726386 143.9999026
-2.321926 -2.498604306e-05 -53.66016139
0.0002150000173 21.35359468 119.2428936
137.135812 23.78051518 149.9999026
21.93995 -2.498604306e-05 -82.67613739
223.514048 22.87685328 -144.0000974
26.056023 -2.498604306e-05 -46.97587539
96.671131 -2.498604306e-05 -7.653541386
125.134464 66.29542298 -150.0000974
172.239285 9.867786594 -150.0000974
189.807691 31.10517968 -150.0000974
210.924324 -2.498604306e-05 58.51391761
139.656705 30.92668038 143.9999026
0.484907 -2.498604306e-05 -139.1235644
168.959237 2.321118344 149.9999026
101.636276 -2.498604306e-05 -31.59612339
0.0002150000173 13.84894478 -36.77578539
58.407947 -2.498604306e-05 71.96818461
152.746543 66.48271928 -144.0000974
0.0002150000173 18.08159748 113.9706086
59.367212 3.509559624 149.9999026
67.826545 4.094455144 143.9999026
42.583426 -1.302630776 143.9999026
130.792046 7.391168204 -144.0000974
111.108627 4.405474004 143.9999026
225.711733 4.018135694 -150.0000974
88.171286 53.10489818 -144.0000974
115.365017 22.30824718 -144.0000974
93.53202 -1.369856706 -144.0000974
21.10533 1.660275334 149.9999026
182.60338 40.54205608 -144.0000974
80.749248 3.679041064 -144.0000974
63.240287 -2.498604306e-05 -79.51232639
0.0002150000173 46.66852938 -17.44071039
27.993347 30.78397228 149.9999026
151.452241 9.182857364 -150.0000974
206.421499 -2.498604306e-05 -67.27303139
47.915544 21.68842428 143.9999026
65.990675 25.84674858 -150.0000974
66.868787 67.99997498 -149.9032084
191.772973 -2.498604306e-05 -90.14613639
208.957164 38.21443068 143.9999026
212.572955 10.33356269 -150.0000974
125.713577 -2.498604306e-05 126.9092536
4.779333 -2.498604306e-05 4.074251614
216.304999 29.52282648 143.9999026
196.157881 -2.498604306e-05 65.50064261
138.176547 -0.226621166 143.9999026
0.0002150000173 41.13164788 43.91416361
200.410734 56.71601238 149.9999026
188.123353 51.38729198 149.9999026
191.817903 45.83270768 149.9999026
87.293888 10.54863731 -144.0000974
171.878146 31.68059778 149.9999026
0.0002150000173 33.10443238 -72.30174139
203.210616 -2.498604306e-05 -114.4420924
0.0002150000173 30.81278488 1.537383614
186.775474 41.16216258 149.9999026
194.101651 24.89166888 149.9999026
0.0002150000173 39.22674898 103.7451016
85.970416 -2.498604306e-05 -104.8854774
140.646747 -2.498604306e-05 -134.5413284
183.792959 21.81282888 143.9999026
229.858145 -2.498604306e-05 84.15859061
0.0002150000173 19.53173958 62.78059461
199.302827 20.28678588 143.9999026
24.243087 11.74072237 149.9999026
112.70567 61.16236368 -150.0000974
0.0002150000173 44.16122568 -110.3505954
161.011628 -2.498604306e-05 -78.32231339
18.539305 56.93757528 143.9999026
205.413812 -2.498604306e-05 34.32166061
133.751912 -2.498604306e-05 98.62202161
40.166573 -2.498604306e-05 108.9994766
39.061929 58.88583728 -150.0000974
249.078145 51.41001598 149.9999026
238.171876 -2.498604306e-05 -7.114715386
103.975208 64.63286648 -150.0000974
60.376708 -2.498604306e-05 -23.54326239
0.0002150000173 40.49910538 117.6616166
46.365703 15.11659488 -150.0000974
-0.378405 67.30494568 143.9999026
133.83433 21.74138338 -144.0000974
55.7507 -2.498604306e-05 -69.12421339
143.314947 -2.498604306e-05 42.86617261
245.093427 -2.498604306e-05 -82.95788439
91.3235 -2.498604306e-05 20.89975861
157.461311 45.72990168 143.9999026
227.270662 63.61289588 -144.0000974
207.781553 -2.498604306e-05 118.8741636
105.539894 -2.498604306e-05 31.05277861
147.188659 -2.498604306e-05 125.6120486
119.929975 -2.498604306e-05 14.89582061
13.488455 23.82317258 143.9999026
87.771241 -2.498604306e-05 -43.26798239
186.739492 28.61612608 143.9999026
0.0002150000173 8.864516634 86.14171961
83.803834 -2.498604306e-05 52.43446961
243.012839 -2.498604306e-05 -60.74615839
87.902518 18.22804998 -144.0000974
109.573991 -2.498604306e-05 23.44354561
0.0002150000173 16.51477288 19.25246061
204.000122 5.509284684 149.9999026
0.0002150000173 15.35697078 -73.29892939
0.0002150000173 25.60984808 58.70058561
209.846716 -2.498604306e-05 -9.965908386
12.357468 42.75578588 143.9999026
51.392293 -2.498604306e-05 65.51663861
168.000602 1.697295934 -150.0000974
116.480953 31.92606548 143.9999026
240.158168 36.54654038 -144.0000974
27.695942 -2.498604306e-05 118.3642166
43.232545 -2.498604306e-05 -46.93734239
57.606629 49.54603658 149.9999026
42.81519 -2.498604306e-05 85.80481861
211.329493 -2.498604306e-05 113.8832966
