# .PCD v0.7 - Point Cloud Data file format
VERSION 0.7
FIELDS x y z
SIZE 4 4 4
TYPE F F F
COUNT 1 1 1
WIDTH 1216
HEIGHT 1
VIEWPOINT 0 0 0 1 0 0 0
POINTS 1216
DATA ascii
-17.991291 -2.498421367e-05 3.856708614
-111.038716 -62.5542794 -46.50009739
-194.96286 -68.00002402 -51.52693939
-52.590556 -2.498421367e-05 -23.74521939
-171.734191 1.929462216 -52.50009739
-177.697543 -60.79709811 -52.50009739
-3.495886 -2.498421367e-05 -0.01179238592
-121.910821 -2.498421367e-05 -8.837233386
-130.226743 -28.06764747 -46.50009739
-2.899983701e-05 -55.00310596 -35.54312239
-101.623288 -2.498421367e-05 46.07834661
-52.535919 -11.35746432 -46.50009739
-148.515676 -20.45148837 -52.50009739
-203.048964 -2.498421367e-05 41.86330661
-2.899983701e-05 -67.34473789 21.66679261
-187.379216 0.2929856658 -52.50009739
-109.725792 -36.35774474 -52.50009739
-174.917495 -2.498421367e-05 -14.73611839
-52.410025 -2.498421367e-05 51.21527561
-139.453269 -64.26001574 -46.50009739
-143.264681 -60.67220833 -52.50009739
-94.605606 -37.20399385 -46.50009739
-180.704659 -2.498421367e-05 -38.01858839
-5.251547 -55.8317103 -46.50009739
-9.962738 -31.15557622 -46.50009739
-147.774681 -2.498421367e-05 -9.712819386
-2.899983701e-05 -64.35186019 -16.67945939
-2.899983701e-05 -41.36138702 43.25738161
-120.279251 -54.00998941 -52.50009739
-87.196661 -25.09730687 -46.50009739
-104.230592 -27.07389645 -46.50009739
-216.353199 -2.498421367e-05 -35.77768239
-241.889536 -63.68114132 -46.50009739
-244.239009 -11.83761547 -46.50009739
-115.16873 -46.89916036 -52.50009739
-125.44821 -9.843340404 -46.50009739
-103.377405 -44.34630773 -52.50009739
-81.007963 -2.498421367e-05 4.360950614
-193.12503 -2.498421367e-05 42.05366261
-174.118691 -51.54260232 -52.50009739
-2.899983701e-05 -44.97155164 -12.42273839
-60.429795 -7.813593154 -52.50009739
-2.432577 -30.33866204 -46.50009739
-2.899983701e-05 -110.3976426 26.13068061
-187.288895 -18.13179 -52.50009739
-30.755293 -6.494454284 -46.50009739
-2.899983701e-05 -93.3038191 23.57668561
-224.65192 -2.498421367e-05 -25.67940039
-238.084018 -2.498421367e-05 30.62383361
-201.098367 2.127326456 -46.50009739
-190.715057 -37.75542923 -46.50009739
-197.517472 -45.82577438 -52.50009739
-243.908277 -4.229406214 -46.50009739
-33.500754 -2.498421367e-05 -32.82450639
-125.381687 -18.1198764 -46.50009739
-2.899983701e-05 -99.90889135 43.44527261
-85.172483 -2.498421367e-05 -15.91004339
-2.899983701e-05 -6.986288334 -7.769698386
-22.495316 -2.498421367e-05 42.63994361
-184.940569 -2.498421367e-05 -6.784898386
-2.899983701e-05 -55.87857574 8.796989614
-2.450713 -35.25358353 -52.50009739
-228.734835 -58.19068851 -52.50009739
-206.809607 -19.52551447 -52.50009739
-103.446548 -20.37658787 -52.50009739
-89.617502 -42.72462424 -46.50009739
-190.109167 -54.64864697 -52.50009739
-146.635707 -66.87811462 -52.50009739
-91.642231 -2.498421367e-05 -7.770639386
-108.791868 -2.498421367e-05 -23.44216439
-24.137389 -23.30864264 -46.50009739
-1.226618 -2.498421367e-05 -31.31175939
-34.197807 -46.00936364 -52.50009739
-2.899983701e-05 -78.55287626 7.555806614
-2.899983701e-05 -43.91432526 16.77242861
-237.259915 -30.09035071 -52.50009739
-163.717843 -28.99097441 -46.50009739
-2.899983701e-05 -45.79818799 -22.94106339
-202.663614 -2.498421367e-05 -28.64171039
-230.236757 -41.07885589 -52.50009739
-67.968756 -44.92563581 -52.50009739
-2.899983701e-05 -39.8544097 -7.296184386
-223.984253 -56.50834802 -46.50009739
-77.384764 -17.17933711 -52.50009739
-207.219683 -2.498421367e-05 53.59293261
-163.20809 -58.11806625 -52.50009739
-216.470906 -47.06246458 -46.50009739
-236.790772 -51.18979154 -46.50009739
-180.254542 -58.43257141 -46.50009739
-247.498176 -42.32369385 -52.50009739
-163.874644 -51.14029298 -52.50009739
-2.899983701e-05 -95.63653915 17.05864561
-37.588174 -3.070147484 -52.50009739
-192.247658 -25.86809655 -46.50009739
-242.554703 -2.498421367e-05 51.05965361
-132.535774 -35.00949388 -52.50009739
-228.494191 -35.01880021 -46.50009739
-228.972192 1.203569376 -46.50009739
-152.414221 -45.01098747 -46.50009739
-247.006698 -35.11916759 -52.50009739
-38.158361 -25.31435532 -46.50009739
-227.296099 -2.498421367e-05 26.19811561
-158.628636 -28.43199986 -52.50009739
1.523245 -95.06180246 -1.029474386
-132.015098 -1.546926444 -52.50009739
-9.789352 -45.29351885 -46.50009739
-90.281468 -24.11081735 -52.50009739
-125.128191 -2.498421367e-05 15.38899861
-93.269914 -2.498421367e-05 43.38931761
-158.797529 -18.17061883 -46.50009739
-2.899983701e-05 -40.54935678 30.48961861
-12.913938 -30.27532935 -52.50009739
-207.768375 -16.46043035 -46.50009739
-78.801832 -67.24251385 -52.50009739
-2.899983701e-05 -23.63497071 11.05601661
-2.899983701e-05 -112.8946088 44.23015561
-24.791481 -0.9957812542 -46.50009739
-145.337116 -14.93536495 -46.50009739
-149.329596 -47.47133606 -52.50009739
-50.239706 -43.63286366 -46.50009739
-2.899983701e-05 -123.9802112 52.04856061
-49.290955 -19.48144415 -52.50009739
1.962232 -63.12119127 -46.50009739
-2.899983701e-05 -166.5166268 53.60733161
-128.065838 -43.1858224 -46.50009739
-70.076244 -21.7936624 -46.50009739
-225.396581 -17.70756375 -52.50009739
-225.69841 -2.498421367e-05 10.51203861
-237.868865 -19.34321308 -46.50009739
-66.808718 -24.98299696 -52.50009739
-73.060048 -2.498421367e-05 -39.79410039
-2.899983701e-05 -159.2185128 43.39383461
-41.218003 -34.96915576 -52.50009739
-44.685601 -2.498421367e-05 32.62792861
-52.257776 -50.38860775 -52.50009739
-1.253845 -24.94360593 -52.50009739
-2.899983701e-05 -1.560424824 -19.37724039
-68.184951 -60.52863755 -46.50009739
-250.622266 -2.498421367e-05 -4.936120386
-78.784316 -2.498421367e-05 -3.638988386
-172.247197 -64.81783455 -52.50009739
-2.899983701e-05 -129.8728523 47.95465661
-224.558716 -2.794638334 -52.50009739
-150.605744 -27.38239519 -46.50009739
-9.436311 -37.14284492 -52.50009739
-33.115665 -2.498421367e-05 53.24173361
-168.025398 -33.87822205 -46.50009739
-53.998076 1.379163186 -46.50009739
-97.95502 -28.77958372 -46.50009739
-197.631067 -4.780716394 -46.50009739
-58.992409 -10.63236698 -46.50009739
-188.11826 -2.498421367e-05 14.35950661
-2.899983701e-05 -20.84143107 -31.92959239
-171.624789 -2.498421367e-05 26.01015961
-2.899983701e-05 -87.36168561 14.20452761
-93.655887 -45.51724373 -52.50009739
-2.899983701e-05 -95.44114714 8.449063614
-196.241731 -2.498421367e-05 -24.67988939
-41.428096 -13.78946944 -52.50009739
-21.450041 -6.953047024 -46.50009739
-17.996477 -2.498421367e-05 -13.72905739
-151.512741 -54.03863108 -52.50009739
-126.371908 -38.97585554 -52.50009739
-2.899983701e-05 -52.47559229 52.27483561
-222.786445 -66.64024271 -52.50009739
-105.420938 -12.72619386 -46.50009739
-139.58057 -36.40217536 -46.50009739
-2.899983701e-05 -70.66589378 -5.134035386
-249.15765 -56.67041792 -52.50009739
-173.1443 -47.13581624 -46.50009739
-155.700685 -2.498421367e-05 41.98446861
-2.899983701e-05 -76.64852589 43.13533861
-7.657556 1.857612356 -46.50009739
-189.579997 0.8650482358 -46.50009739
-157.595404 -7.387367894 -52.50009739
-169.04203 -26.8697334 -52.50009739
-166.466664 -47.14631234 -46.50009739
-148.745497 -2.498421367e-05 -34.62934639
-2.899983701e-05 -110.2079596 19.45068361
-78.009079 -2.498421367e-05 -18.32044339
-2.134784 -53.24967646 -52.50009739
-151.349811 -68.00002402 -46.65767939
-2.899983701e-05 -104.435536 12.01156861
-2.899983701e-05 -19.9753373 -4.181411386
-207.989417 -48.90975931 -52.50009739
-115.407612 -44.8061704 -46.50009739
-199.242443 -2.498421367e-05 -16.33119539
-64.472724 -2.498421367e-05 43.78631161
-19.046804 -33.73047595 -52.50009739
-235.1398 -52.32238954 -52.50009739
-2.899983701e-05 -19.3936094 -13.41063439
-190.663507 -10.19826468 -52.50009739
-120.682589 -27.02324096 -52.50009739
-101.908271 0.8048859958 -46.50009739
-240.855445 -2.498421367e-05 -14.75119839
-152.855311 1.390748906 -46.50009739
-246.387279 -37.9524679 -46.50009739
-2.899983701e-05 -33.56582125 -7.547486386
-29.890859 -19.62284371 -52.50009739
-165.868476 -2.498421367e-05 47.40886761
-2.899983701e-05 -33.48682926 -14.98969539
-16.433086 -57.460959 -52.50009739
-113.795327 -22.02865939 -52.50009739
-243.952992 -51.13629427 -46.50009739
-40.485232 -2.498421367e-05 -33.58514439
-8.47485 -23.44817481 -52.50009739
-82.058132 -3.523906184 -46.50009739
-115.097769 2.131132056 -46.50009739
-89.335073 -59.54792516 -46.50009739
-204.620318 -39.87935881 -46.50009739
-87.83346 -3.853974114 -52.50009739
-219.567869 -40.78427429 -52.50009739
-128.317678 -67.19079954 -52.50009739
-2.899983701e-05 -70.14925687 5.672556614
-158.533071 -2.498421367e-05 14.73224761
-136.542643 -39.69232179 -52.50009739
-164.746004 -17.58165954 -52.50009739
-222.122266 -44.609649 -46.50009739
-169.480686 -8.384688044 -46.50009739
-2.899983701e-05 -26.49896421 33.70905361
-2.899983701e-05 -10.24746222 17.56886461
-2.899983701e-05 -29.31008729 -39.91295439
-185.157244 -2.498421367e-05 -0.6507363859
-185.855685 -42.31373405 -46.50009739
-196.495238 -2.498421367e-05 -36.63679539
-2.899983701e-05 -77.54228917 -18.87432239
-148.567519 -2.498421367e-05 6.801768614
-48.239331 -2.498421367e-05 -19.45127439
-93.476565 -52.09848988 -46.50009739
-157.985087 -26.39941354 -46.50009739
-213.616142 -35.65615608 -52.50009739
-36.981462 -60.65822061 -52.50009739
-180.002394 -46.67383432 -52.50009739
-103.213323 -2.498421367e-05 23.57993461
-140.113895 -2.498421367e-05 -24.48860639
-237.213154 -2.498421367e-05 -28.03598239
-205.590673 -23.12972108 -46.50009739
-178.687302 -7.164449444 -46.50009739
-143.003299 -25.50040429 -52.50009739
-71.262006 -31.21630233 -52.50009739
-229.184352 -2.498421367e-05 -38.92263139
-126.893572 -2.498421367e-05 54.18143361
-195.434716 -54.46218963 -46.50009739
-142.354193 -2.498421367e-05 4.359690614
-250.71065 -5.647426104 -46.50009739
-237.80589 -68.00002402 -47.54188039
-106.618781 -2.498421367e-05 12.31937861
-110.128976 -7.613701924 -46.50009739
-2.899983701e-05 -106.6603372 35.50550661
-88.392633 -2.498421367e-05 18.81334461
-31.403559 -2.498421367e-05 -40.38455239
-233.820242 -11.84175585 -46.50009739
-37.237422 -2.498421367e-05 -13.64643439
-2.899983701e-05 -93.37416522 30.66316461
-81.104959 -55.97586842 -46.50009739
-173.091503 -2.498421367e-05 12.67096561
-2.899983701e-05 -69.58705227 -19.56620539
-10.377624 -61.96282665 -52.50009739
-138.412559 2.070655336 -46.50009739
-80.215886 -55.72185912 -52.50009739
-216.467928 -2.498421367e-05 3.923106614
-237.445777 -2.498421367e-05 10.96602861
-74.423156 -2.498421367e-05 36.11132861
-20.516705 -2.498421367e-05 16.00789961
-58.176469 -50.03188829 -52.50009739
-105.920854 -67.45133323 -46.50009739
-136.311358 -22.81295998 -52.50009739
-165.823693 -2.498421367e-05 -5.403934386
-25.962579 -7.928309084 -52.50009739
-5.746313 -2.498421367e-05 14.69941161
-15.962507 -44.64499856 -46.50009739
-153.980473 -38.01403572 -46.50009739
-51.77011 -7.280249724 -52.50009739
-65.49997 -2.498421367e-05 -18.07393539
-2.899983701e-05 -85.56529601 -8.377329386
-158.126778 -2.498421367e-05 -17.80585639
-24.217472 -2.498421367e-05 -7.673528386
-2.899983701e-05 -24.63754915 5.310668614
-103.20792 -58.98806018 -46.50009739
-217.727533 -19.75152902 -46.50009739
-232.445592 -2.498421367e-05 29.22279661
-244.186539 -2.498421367e-05 18.58346761
-2.899983701e-05 -88.06509563 -0.6493783859
-26.510372 -44.96166959 -46.50009739
-152.477023 -2.498421367e-05 -1.723438386
-213.348042 -12.61140749 -46.50009739
-100.030553 -2.498421367e-05 30.57019761
-157.933774 -18.82372036 -52.50009739
-2.899983701e-05 -54.32333774 -16.56674439
-2.899983701e-05 -17.46632778 -22.37110039
-114.328546 -4.260352934 -52.50009739
-101.963964 -17.977837 -46.50009739
-156.642973 -52.38923955 -46.50009739
-171.565603 -2.498421367e-05 -26.22572439
-2.901446 -14.54477691 -52.50009739
-196.66813 -7.953532844 -52.50009739
-9.06805 -2.498421367e-05 -4.891890386
-131.821801 -50.38570397 -46.50009739
-241.185391 -2.498421367e-05 -4.021545386
-67.5633 -2.498421367e-05 33.41854761
-230.575569 -2.498421367e-05 -22.54358139
-2.899983701e-05 -155.8992378 48.03647361
-170.873914 -23.72652323 -46.50009739
-2.899983701e-05 -20.27989643 23.51709561
-2.899983701e-05 -53.80351952 34.10483961
-213.402324 -2.498421367e-05 10.34747961
-130.992026 -2.498421367e-05 -43.67593739
-35.65333 -18.09849688 -46.50009739
-16.72218 -19.61535342 -46.50009739
-2.899983701e-05 -33.52352151 14.57398261
-219.312816 -34.74171684 -52.50009739
-141.908961 -54.64696886 -46.50009739
1.696847 -41.40933219 -44.50009739
-55.26949 -68.00002402 -50.63310139
-66.368518 -1.909444854 -46.50009739
-161.040613 -2.498421367e-05 -12.90473939
-235.614297 -8.872519704 -52.50009739
-242.875539 -30.49499132 -52.50009739
-2.899983701e-05 -37.44450497 25.79704861
-15.635488 -68.00002402 -48.51726539
-90.666273 -33.1949996 -46.50009739
-2.899983701e-05 -47.20081797 12.21386361
-13.716974 -51.08208012 -52.50009739
-12.460921 -1.808953844 -52.50009739
-71.978162 -60.22774572 -52.50009739
-81.992718 -27.17114512 -46.50009739
-84.088377 -18.13328558 -52.50009739
-2.899983701e-05 -116.994059 25.30528061
-168.20883 -4.064534664 -52.50009739
-59.077425 -3.621156914 -46.50009739
-2.899983701e-05 -23.75307148 -39.30814539
-185.659565 -58.03187859 -52.50009739
-85.475471 -38.97494718 -46.50009739
-20.904606 -2.498421367e-05 -18.49855939
-212.256684 -2.498421367e-05 -23.05655939
-122.752281 -2.498421367e-05 -29.51834839
-1.683192 1.183879716 -52.50009739
-240.275863 -2.498421367e-05 -41.76989639
-158.570078 -37.62101077 -52.50009739
-2.899983701e-05 -126.790163 42.80923561
-111.410266 -63.02530402 -52.50009739
-206.322958 -2.498421367e-05 -17.47238539
-34.80446 -29.7152052 -46.50009739
-2.899983701e-05 -46.22285029 -38.74277839
-248.301749 -2.498421367e-05 28.46449561
-45.127328 -2.498421367e-05 -8.068220386
-62.03855 -2.498421367e-05 6.737221614
0.5496830002 -138.3484551 28.54403061
-2.899983701e-05 -11.34172624 28.77936561
-2.899983701e-05 -31.98251443 33.61748261
-2.899983701e-05 -12.01131888 1.468480614
-133.339996 -15.65820104 -52.50009739
-148.401852 -13.7138849 -52.50009739
-139.44815 -2.498421367e-05 41.13494761
-112.525725 -2.498421367e-05 -19.45439039
-159.900095 -2.498421367e-05 -45.77407239
-2.899983701e-05 -1.557831444 27.16432861
-79.347966 -27.60504958 -52.50009739
-2.899983701e-05 -97.84883013 48.49763361
-133.895114 -2.498421367e-05 10.90021961
-222.650362 -22.40978827 -52.50009739
-80.513075 -45.71516992 -52.50009739
-126.867192 -23.34998064 -46.50009739
-2.899983701e-05 -30.08143318 43.14378861
-188.908644 -17.37555697 -46.50009739
-2.899983701e-05 -82.87268091 52.67623861
-101.858355 -15.19850064 -52.50009739
-2.899983701e-05 -45.61579958 0.6324886141
-2.899983701e-05 -68.00523528 40.98665961
-166.343686 -2.498421367e-05 40.44112061
-2.899983701e-05 -117.4939457 37.53068561
-81.67177 -12.83917681 -46.50009739
-148.267894 1.575053446 -52.50009739
-84.346805 -41.02992973 -52.50009739
-2.899983701e-05 -17.70214196 11.66678961
-124.155238 -31.55709135 -46.50009739
-174.156364 -2.498421367e-05 54.47105361
-2.899983701e-05 -61.30775631 32.76417561
-153.464833 -56.72837756 -46.50009739
-2.899983701e-05 -101.3707302 17.05473061
-38.725562 -2.498421367e-05 32.08347961
-208.908649 -24.46009073 -52.50009739
-2.899983701e-05 -52.41172527 -30.84843039
-182.70007 -25.69494888 -52.50009739
-2.899983701e-05 -39.31041571 -38.07399939
-71.353663 -51.85498035 -52.50009739
-113.998203 -39.65229709 -46.50009739
-33.229201 -6.147196914 -52.50009739
-144.033296 -29.4488742 -46.50009739
-4.450586 -2.498421367e-05 -7.634369386
-162.925122 -35.41958176 -46.50009739
-209.363062 -2.498421367e-05 -31.10050339
-127.838883 -2.498421367e-05 -25.45619439
-2.899983701e-05 -37.99701733 49.55977561
-194.857538 -52.26958125 -52.50009739
-179.300772 -40.45311838 -46.50009739
-47.468807 -2.498421367e-05 -1.326117386
-41.490177 -64.26448002 -52.50009739
-57.689313 -2.498421367e-05 -25.21053439
-15.796497 -4.302548984 -46.50009739
-11.824641 -11.33738037 -52.50009739
-137.800508 -19.22751298 -46.50009739
-37.072125 -65.04103281 -46.50009739
-2.899983701e-05 -28.43929567 -16.54823639
-71.755769 -68.00002402 -46.59787839
-2.899983701e-05 -52.7772065 -40.33317939
-149.486052 -2.498421367e-05 -39.85860839
-2.899983701e-05 -114.8380226 16.91688561
-2.899983701e-05 -63.04732144 -30.85110439
-226.641727 -2.498421367e-05 49.48132461
-195.930725 -61.32317318 -46.50009739
-125.505845 -53.35601727 -52.50009739
-212.26518 -2.498421367e-05 -39.09622739
-2.899983701e-05 -108.0386864 46.62668961
-202.8844 -60.42224196 -52.50009739
-222.622519 -17.62638235 -46.50009739
-2.899983701e-05 -64.19053732 5.731772614
-135.32844 -61.01780963 -46.50009739
-183.981256 -2.498421367e-05 48.91761061
-112.924044 -2.498421367e-05 -26.64513439
-183.251805 -2.498421367e-05 -23.26316439
-2.899983701e-05 -85.77182994 37.85360461
-67.936307 -2.498421367e-05 6.612206614
-71.717382 -48.49030794 -46.50009739
-2.899983701e-05 -70.61947863 31.83972461
-2.899983701e-05 -24.84022617 28.06444061
-2.899983701e-05 -71.15885321 10.99570861
-2.899983701e-05 -55.16850828 1.705722614
-2.899983701e-05 -117.6347438 32.34274061
-13.360422 -2.498421367e-05 47.52039161
-35.594415 -37.78300296 -46.50009739
-2.899983701e-05 -57.8867533 -20.33423339
-155.555297 -2.498421367e-05 -31.11674039
-49.616871 -2.498421367e-05 11.04326861
-95.875408 -16.44576103 -46.50009739
-2.899983701e-05 -62.69723212 -36.44873539
-2.899983701e-05 -81.70905887 3.469098614
-228.178975 -49.19890441 -46.50009739
-2.899983701e-05 -78.42279811 22.88989261
-109.417549 -2.498421367e-05 -11.45061839
-31.446673 -30.55582556 -52.50009739
-2.899983701e-05 -28.81580315 -5.589229386
-219.349928 -58.72048395 -46.50009739
-54.688558 -46.19394734 -46.50009739
-212.02657 -2.498421367e-05 31.74342961
-2.899983701e-05 -66.74801462 45.95797461
-245.784748 -2.498421367e-05 -13.19043139
-69.579921 -2.498421367e-05 44.12961361
-2.899983701e-05 -16.25179485 -34.67420939
-193.512955 -46.79466396 -46.50009739
-54.922981 -57.21336375 -46.50009739
-168.665498 -0.05408791421 -46.50009739
-83.061876 -7.328827234 -52.50009739
-69.940888 -38.34799887 -46.50009739
-205.328336 -2.498421367e-05 -43.59917839
-166.226498 -2.498421367e-05 16.62308461
-130.201352 -42.33557075 -52.50009739
-138.285134 -2.498421367e-05 16.46328361
-38.755677 -2.498421367e-05 24.32483861
-59.084389 -2.498421367e-05 -15.27313639
-115.756587 -2.498421367e-05 30.12740561
-231.034509 -2.498421367e-05 0.4148226141
-120.835855 -2.498421367e-05 -1.483414386
-144.727623 -2.498421367e-05 -22.38378139
-83.677932 -2.498421367e-05 16.94500161
-2.899983701e-05 -123.4877588 26.50272761
-2.899983701e-05 -83.05787719 47.34411361
-2.899983701e-05 -36.49449511 9.461166614
-2.899983701e-05 -4.972388174 -24.78202639
-2.899983701e-05 -107.5114465 30.27391661
-200.736738 -2.498421367e-05 -8.349026386
-2.899983701e-05 -63.89085595 -21.70628439
-31.255787 -2.498421367e-05 37.25535761
-79.87501 -2.498421367e-05 -30.63822239
-2.899983701e-05 -58.55806568 13.04796861
-197.092206 -2.498421367e-05 21.15286961
-85.99545 -2.498421367e-05 24.39273061
-191.260667 -2.498421367e-05 -39.92256039
-115.921002 -13.91199105 -52.50009739
-168.724145 -2.498421367e-05 33.23058361
-33.634648 -2.498421367e-05 32.73114661
-189.929464 -2.498421367e-05 -6.679751386
-165.011402 -2.498421367e-05 6.957309614
-2.899983701e-05 -149.920616 49.94281561
-2.899983701e-05 -24.93956059 39.53158361
-63.106342 -62.60966844 -46.50009739
-206.277857 -2.498421367e-05 20.28743361
-101.481807 -48.40639601 -46.50009739
-206.542212 -2.498421367e-05 -4.791314386
-6.123678 -19.07731328 -52.50009739
-2.899983701e-05 -46.68874666 31.07458861
-237.586924 -56.0824713 -46.50009739
-5.885141 -2.498421367e-05 4.328026614
-2.899983701e-05 -55.58052189 26.64033461
-164.814363 -10.03616099 -46.50009739
-69.158889 -2.498421367e-05 -28.60356839
-2.899983701e-05 -6.908991714 13.91887861
-2.899983701e-05 -105.3009468 22.58895461
-144.293981 -2.498421367e-05 30.07846861
-2.899983701e-05 -6.471176474 29.61829561
-2.899983701e-05 -10.52352151 -4.319374386
-147.886331 -2.498421367e-05 12.37474761
-2.899983701e-05 -39.10659603 14.30403961
-236.125452 -1.248229234 -52.50009739
-214.796072 -16.39147501 -52.50009739
-171.860997 -30.91517045 -52.50009739
-2.899983701e-05 -23.46456399 -16.94003139
-91.311058 -2.498421367e-05 -39.20615139
-100.515021 -23.85523461 -46.50009739
-98.784486 -4.089535924 -52.50009739
-246.300636 -2.498421367e-05 -45.78146139
-2.899983701e-05 -128.4604266 36.94616161
-28.512895 -2.498421367e-05 9.857874614
-2.899983701e-05 -112.4318071 52.60385961
-2.899983701e-05 -78.1312791 -9.048638386
-2.899983701e-05 -89.29075046 26.37823761
-98.378574 -6.306942734 -46.50009739
-2.899983701e-05 -78.99255034 28.69634261
-2.899983701e-05 -57.95738486 -6.967696386
-2.899983701e-05 -66.60271997 1.496103614
-2.899983701e-05 -147.0627626 33.89746561
-2.899983701e-05 -41.3005514 5.259171614
-31.735675 -63.84575098 -52.50009739
-214.532715 -26.04489609 -46.50009739
-19.118491 -63.49922682 -52.50009739
-2.899983701e-05 -52.76742439 -11.85238739
-22.937327 -48.73777557 -52.50009739
-2.899983701e-05 -0.9854594642 19.73392561
-2.899983701e-05 -90.92925947 3.253996614
-90.116304 -2.498421367e-05 39.71750161
-2.899983701e-05 -141.1883904 40.95214661
-29.69884 -24.4519546 -52.50009739
-2.899983701e-05 -49.0953091 38.09691661
-2.899983701e-05 -100.5454073 9.149586614
-176.388781 -61.31198587 -46.50009739
-2.899983701e-05 -61.11545392 27.29533861
-2.899983701e-05 -15.29380214 -2.042194386
-119.748979 -33.46778224 -46.50009739
-102.642157 -2.498421367e-05 -37.98289939
-2.899983701e-05 -17.54757851 -28.38681639
-37.435627 1.609003236 -46.50009739
-188.931675 -5.723970284 -52.50009739
-2.899983701e-05 -38.34965893 -33.35291039
-2.899983701e-05 -88.63659213 46.41495361
-2.899983701e-05 -45.83456214 -27.73149939
-125.815825 -2.498421367e-05 -15.55163839
-2.899983701e-05 -24.57131978 -26.45438639
-47.793067 -10.74849255 -46.50009739
-131.242949 -57.56839141 -46.50009739
-2.899983701e-05 -106.1190889 16.53614261
-2.899983701e-05 -90.40792326 38.91506161
-84.310931 -7.710870964 -46.50009739
-2.899983701e-05 -31.08709064 -0.6130093859
-163.210187 -3.674128214 -52.50009739
-246.922566 -2.498421367e-05 1.540155614
-166.110496 -57.07405176 -46.50009739
-2.899983701e-05 -78.69042663 -0.1670173859
-88.909233 -48.65909187 -46.50009739
-59.929015 -2.498421367e-05 45.16091361
-165.156664 -3.373006244 -46.50009739
-231.444823 -2.498421367e-05 49.91466161
-2.899983701e-05 -61.11573643 -12.12116839
-235.154524 -2.498421367e-05 -42.36594239
-2.899983701e-05 -79.61508432 39.04656661
-2.899983701e-05 -70.38489918 36.90807361
-2.899983701e-05 -39.96843408 -11.97475539
-2.899983701e-05 -100.917108 26.98151761
-2.899983701e-05 -22.17450932 -9.647958386
-107.791805 -2.498421367e-05 19.40107461
-2.899983701e-05 -48.03461774 24.10040461
-2.899983701e-05 -126.1727186 32.68041061
-2.899983701e-05 -35.53169122 -19.58273739
-28.443751 -2.498421367e-05 -11.09048839
-2.899983701e-05 -17.7852656 -43.42366139
-2.899983701e-05 -27.68017366 47.58923161
-111.600686 -2.498421367e-05 -31.37653539
-2.899983701e-05 -70.23348881 18.02353061
-134.839754 -2.498421367e-05 30.37813961
-2.899983701e-05 -34.05630115 -31.58064739
-2.899983701e-05 -167.1407058 49.00540961
-106.378041 -2.498421367e-05 33.26536361
-2.899983701e-05 -41.45009367 -24.57123539
-181.928132 -2.498421367e-05 12.75164261
-163.129941 -36.88944213 -52.50009739
-2.899983701e-05 -61.70173169 9.665991614
-152.177072 -2.498421367e-05 -21.52216839
-32.053259 -1.469545184 -52.50009739
-160.227502 -2.498421367e-05 -3.347055386
-2.899983701e-05 -51.40214022 43.03134761
-2.899983701e-05 -121.1286064 40.93735261
-2.899983701e-05 -153.1160283 41.06947861
-85.729282 -45.17257895 -46.50009739
-74.779977 -2.498421367e-05 -9.223090386
-179.308197 -2.452021004 -52.50009739
-116.933485 -8.829248664 -52.50009739
-77.64571 -2.498421367e-05 46.83987761
-2.899983701e-05 -98.51783205 31.60495361
-2.899983701e-05 -48.63518651 16.81149361
-2.899983701e-05 -47.11427234 -6.410151386
-227.304004 -2.498421367e-05 -34.76276939
-229.201267 -7.260654544 -46.50009739
-191.549599 -2.498421367e-05 28.74078061
-2.899983701e-05 -20.0752819 35.85683661
-12.343114 -2.498421367e-05 -13.75119439
-69.138751 -2.498421367e-05 13.09784361
-131.844956 -2.498421367e-05 18.27413861
-2.899983701e-05 -67.79892679 54.21864661
-2.899983701e-05 -30.82919221 4.525203614
-2.899983701e-05 -62.67248587 20.43892961
-206.993556 -4.118153514 -52.50009739
-13.589268 -2.498421367e-05 -35.91204539
-2.899983701e-05 -2.928801984 10.12890461
-2.899983701e-05 -44.89191232 -16.93051739
-2.899983701e-05 -87.84240219 51.29214461
-2.899983701e-05 -83.42736461 16.39495061
-2.899983701e-05 -73.64189332 -8.976542386
-247.17626 -2.498421367e-05 -8.620420386
-2.899983701e-05 -103.3442419 38.62974661
-51.697363 -2.498421367e-05 24.90601961
-2.899983701e-05 -13.3315433 -14.40748939
-9.849824 -7.408282204 -46.50009739
-194.082617 -40.68384482 -46.50009739
-245.769705 -59.57505503 -46.50009739
-205.398952 -32.29729434 -52.50009739
-130.271904 -68.00002402 -48.58082839
-120.439579 -2.498421367e-05 -20.84346639
-2.899983701e-05 -12.22923342 5.910602614
-2.899983701e-05 -54.74496844 19.32575761
-2.899983701e-05 -147.2048606 42.45864161
-2.899983701e-05 -49.40948714 -35.65477539
-29.205665 -2.498421367e-05 -33.93521139
-188.828994 -4.481163484 -46.50009739
-108.342795 -3.554125034 -46.50009739
-184.819709 -27.12268504 -46.50009739
-2.899983701e-05 -81.75164921 10.62620661
-2.899983701e-05 -19.63015546 16.03636861
-191.637555 1.504390156 -52.50009739
-117.208267 -34.77796568 -52.50009739
-117.715176 -68.00002402 -50.13518739
-7.416951 -58.68068863 -52.50009739
-161.420107 -68.00002402 -48.88541339
-73.907266 -2.498421367e-05 8.985624614
-2.899983701e-05 -13.94230924 -19.72256639
-234.661276 -40.18058999 -46.50009739
-224.24859 -2.498421367e-05 29.37804061
-2.899983701e-05 -9.282928964 -11.51711639
-2.899983701e-05 -116.1646263 47.16085661
-206.857831 -2.498421367e-05 -23.06200639
-2.899983701e-05 -59.12313227 4.819436614
-184.360639 -2.498421367e-05 -28.60781039
-88.572493 -53.94852534 -52.50009739
-177.600986 -2.498421367e-05 0.1158536141
-119.380989 -8.754439784 -46.50009739
-62.518024 -54.55604183 -52.50009739
-239.011105 -63.08229703 -52.50009739
-248.51887 -2.498421367e-05 33.38655761
-65.04208 -65.105436 -52.50009739
-2.899983701e-05 -38.14276813 40.32564861
-2.899983701e-05 -134.4767362 47.49540661
-2.899983701e-05 -84.01094296 29.38100761
-2.899983701e-05 -76.00748107 -13.82556039
-2.899983701e-05 -21.64590164 0.8183116141
-214.388964 -2.498421367e-05 44.03513861
-197.248631 -2.498421367e-05 14.44690961
-169.010844 -65.26892535 -46.50009739
-220.459182 -2.498421367e-05 31.46256861
-123.230107 -52.17666773 -46.50009739
-173.369279 -2.498421367e-05 32.77589261
-2.899983701e-05 -160.1554443 50.21745961
-26.300232 -2.498421367e-05 30.82709361
-134.233815 -45.67738043 -46.50009739
-122.18962 -21.00733904 -46.50009739
-190.501184 -2.498421367e-05 -28.61471639
-104.311072 -2.498421367e-05 49.42455261
-221.241361 -2.498421367e-05 -28.65115139
-121.55736 -58.09725132 -52.50009739
-168.984769 -2.498421367e-05 5.402407614
-2.899983701e-05 -103.7901214 46.28278861
-168.470567 -2.498421367e-05 13.00191161
-241.396347 -16.74119698 -52.50009739
-204.216672 -13.03383844 -52.50009739
-91.81366 -63.00333693 -46.50009739
-35.125703 -22.33803339 -46.50009739
-145.949487 -2.498421367e-05 -44.15422939
-95.505338 -11.69095176 -52.50009739
-202.996265 -2.498421367e-05 37.63015161
-71.562844 -2.498421367e-05 -13.06960739
-248.622183 -2.498421367e-05 44.87587661
-135.91578 -2.498421367e-05 43.41826961
-71.366718 -56.08450976 -52.50009739
-42.746219 -2.498421367e-05 6.201414614
-222.446076 -37.74961934 -52.50009739
-164.631493 -13.40102519 -52.50009739
-149.532622 -41.99009851 -46.50009739
-67.936799 -14.27282413 -52.50009739
0.5321540002 -2.498421367e-05 1.063485614
-137.478404 -2.498421367e-05 51.11867161
-188.375658 -2.498421367e-05 1.991776614
-202.193159 -17.23680113 -52.50009739
-57.448913 -2.498421367e-05 48.49289461
-140.141137 -60.16900074 -46.50009739
-218.675207 -66.16110523 -52.50009739
-179.351291 -28.11903723 -52.50009739
-95.236606 -24.25191999 -52.50009739
-106.902773 -39.36850103 -52.50009739
-211.589648 -60.24219757 -52.50009739
-57.206882 -2.498421367e-05 -40.98670139
-167.346993 -22.08826019 -52.50009739
-47.090654 -13.61869528 -52.50009739
-75.90823 -36.8577895 -46.50009739
-23.429566 -2.498421367e-05 53.91736061
-153.852387 -68.00002402 -49.91045839
-198.964082 -24.86370512 -46.50009739
-30.999355 -43.45141093 -52.50009739
-124.341242 -44.2857295 -52.50009739
-14.135625 -2.498421367e-05 10.41156361
-94.286596 -39.55684158 -52.50009739
1.056486 -2.498421367e-05 -43.15054539
-125.878595 -5.785965014 -46.50009739
-52.127822 -16.55286786 -52.50009739
-181.463809 -31.15920973 -46.50009739
-36.5772 -56.15984026 -52.50009739
-160.364201 -2.498421367e-05 -22.66240339
-108.799997 -68.00002402 -49.29966239
-197.25347 -2.498421367e-05 -46.30236539
-180.028013 -49.76554294 -46.50009739
-72.811475 -26.60061038 -46.50009739
-134.432757 -16.24165681 -46.50009739
-45.389977 -2.498421367e-05 -16.59941139
-151.745314 -43.31972605 -52.50009739
-132.011109 -26.19165274 -52.50009739
-2.914644 -65.01445605 -52.50009739
-83.165235 -35.69478107 -46.50009739
-207.365082 -5.861134324 -46.50009739
-120.027447 -2.498421367e-05 -15.19230039
-78.860521 -30.27714326 -46.50009739
-30.769674 -45.5380731 -46.50009739
-85.284126 -2.498421367e-05 34.73459961
-152.060528 -27.33274067 -52.50009739
-176.451171 -2.498421367e-05 -32.81160839
-32.577141 -9.987087224 -46.50009739
-49.611574 -2.498421367e-05 48.44913061
-124.243969 -26.27943208 -46.50009739
-52.169786 -40.23303686 -52.50009739
-139.353789 -2.498421367e-05 1.132153614
-2.447125 -2.498421367e-05 9.271391614
-69.002295 -41.15722608 -52.50009739
-123.840668 -2.498421367e-05 -43.32250539
-9.845385 -2.498421367e-05 23.83141061
-138.212661 -2.498421367e-05 34.73335161
-163.362112 -2.498421367e-05 24.41547861
-209.931315 -36.90534675 -52.50009739
-4.390301 -11.07522827 -46.50009739
-173.840341 -2.498421367e-05 8.856517614
-147.433101 -68.00002402 -48.87141339
-55.31444 -68.00002402 -46.75310339
-202.449665 -35.28560786 -46.50009739
-218.068866 -2.498421367e-05 14.36843261
-1.165894 -2.498421367e-05 -5.499294386
-153.007288 -2.498421367e-05 -6.996566386
-200.962709 -28.48234086 -52.50009739
-67.774448 -2.498421367e-05 50.76741661
-47.544087 -2.498421367e-05 -12.49964239
-59.827463 -39.77068794 -52.50009739
-76.667054 -45.49205567 -52.50009739
-209.629204 -2.498421367e-05 -15.50169639
-3.834704 -68.00002402 -50.25735839
-108.842756 -2.498421367e-05 38.96304961
-18.397497 -47.61225709 -46.50009739
-149.99373 -31.92192064 -52.50009739
-171.489461 -61.06121785 -52.50009739
-184.654626 -20.90210776 -52.50009739
-155.264818 -42.5004288 -46.50009739
-80.759616 -2.498421367e-05 0.5758676141
-51.21483 -2.498421367e-05 -13.53181239
-54.209633 -53.64006073 -52.50009739
-14.87249 -62.64734283 -46.50009739
-227.224653 -2.498421367e-05 13.95793261
-217.56113 -2.498421367e-05 23.11760761
-244.779531 -2.498421367e-05 -22.12564939
-160.093396 -31.89507891 -52.50009739
1.463319 -59.40036505 -46.50009739
-8.723834 -2.498421367e-05 43.23007761
-2.657368 -2.498421367e-05 -41.31228439
-95.579532 -10.12916294 -46.50009739
-177.522095 -2.498421367e-05 -29.23348839
-230.988035 -3.118120584 -46.50009739
-62.184726 1.524025986 -1.662430386
-91.252792 -48.35302543 -52.50009739
-92.41957 -47.44397958 -46.50009739
-220.080798 -5.258133564 -46.50009739
-238.445941 -37.86509554 -46.50009739
-226.708079 -18.2550345 -46.50009739
-194.619676 -6.928198724 -46.50009739
-25.93577 -10.2781203 -46.50009739
-123.086453 -2.498421367e-05 12.31963961
-124.663539 -8.101337244 -52.50009739
-249.004406 -51.22448716 -52.50009739
-100.471264 -29.29095721 -52.50009739
-17.906738 -7.888700674 -46.50009739
-156.411824 -2.498421367e-05 -27.55865039
-247.33175 -2.498421367e-05 51.53065661
-113.856713 -0.6444206742 -52.50009739
-23.981501 -2.498421367e-05 39.31325361
-177.803971 -2.498421367e-05 -4.390518386
-94.272748 -2.498421367e-05 -17.80548939
-239.60302 -2.498421367e-05 23.06725661
-206.867298 -2.498421367e-05 28.50903961
-87.863742 -2.498421367e-05 -28.80456739
-48.52754 -46.8260224 -46.50009739
-57.61071 1.120713266 -46.50009739
-85.265776 -2.498421367e-05 -12.29593839
-62.320649 -25.44213826 -52.50009739
-56.554277 -2.498421367e-05 22.44236061
-201.761784 -20.82139358 -52.50009739
-103.422907 -2.498421367e-05 -16.93183939
-78.434401 -2.498421367e-05 6.885086614
-136.527503 -2.498421367e-05 -24.80650939
-197.592038 -54.60799075 -52.50009739
-16.583076 -1.793100014 -52.50009739
-86.516675 1.567177156 -46.50009739
-47.465395 -67.3376589 -52.50009739
-116.020463 -2.218133964 -46.50009739
-138.429415 -30.12485552 -52.50009739
-31.002632 -2.047502504 -46.50009739
-130.184585 -2.498421367e-05 -20.74394239
-108.25344 -4.219064484 -52.50009739
-169.637271 -48.6832168 -46.50009739
-27.192415 -51.51698563 -52.50009739
-2.899983701e-05 -2.383383934 -11.35641439
-202.578533 -56.92794236 -52.50009739
-116.82135 -53.43046451 -52.50009739
-19.556718 -2.498421367e-05 -4.334876386
-5.559781 -33.64900891 -52.50009739
-127.216703 -35.58154205 -52.50009739
-223.44602 -68.00002402 -49.34971039
-109.841613 -32.2037322 -46.50009739
-35.910926 -2.498421367e-05 -20.82882239
-165.717035 -52.40373926 -46.50009739
-207.157443 -54.37846658 -52.50009739
-163.8452 -2.498421367e-05 19.67662561
-170.04636 -67.48832223 -52.50009739
-243.834275 -2.498421367e-05 3.095143614
-66.031954 -2.029664834 -52.50009739
-118.629863 -2.498421367e-05 -9.892246386
-49.929115 -2.498421367e-05 -38.99642739
-105.249946 -2.048634414 -46.50009739
-244.88979 -63.22715262 -52.50009739
-100.947029 -2.498421367e-05 50.08259161
-29.243764 -41.50514502 -46.50009739
-63.368231 -58.22616517 -52.50009739
-7.422915 -15.93103078 -52.50009739
-124.921496 -67.19854518 -52.50009739
-2.899983701e-05 -31.25134554 -44.31842439
-72.146152 -1.860986824 -46.50009739
-91.641009 -40.03238108 -46.50009739
-137.151794 -68.00002402 -48.52253139
-192.377919 -1.006579034 -46.50009739
-239.894441 -25.92159704 -46.50009739
-38.90367 -8.457862114 -46.50009739
-178.521894 -2.498421367e-05 -35.46544839
-63.566512 -0.07125795421 -46.50009739
-122.870268 -2.498421367e-05 -13.41949439
-205.792033 -2.498421367e-05 50.57444061
-65.152769 -2.498421367e-05 -5.212022386
-183.694401 -2.498421367e-05 15.56684961
-39.280959 -2.498421367e-05 -4.924546386
-222.114136 -36.24907106 -46.50009739
-107.876366 -15.82249978 -52.50009739
-81.559357 -2.498421367e-05 -5.435599386
-135.288546 -2.498421367e-05 46.80578761
-124.008871 -55.37642733 -46.50009739
-148.283563 -2.498421367e-05 24.21421261
-10.747076 -2.498421367e-05 -21.85216739
-138.119378 -2.498421367e-05 -17.32346339
-122.049131 -47.81757444 -46.50009739
-224.518154 -2.498421367e-05 -28.93173439
-135.909195 -2.498421367e-05 -3.793334386
-93.116771 -2.498421367e-05 36.35631261
-129.827011 -12.68638729 -46.50009739
-236.434288 -4.470206804 -52.50009739
-19.906846 -43.34852066 -46.50009739
-239.080928 -22.3356502 -46.50009739
-83.712568 -2.498421367e-05 6.119655614
-108.924618 -2.498421367e-05 30.19715361
-189.924756 -2.498421367e-05 11.70090561
-68.99768 -61.42719093 -52.50009739
-25.803594 -2.498421367e-05 12.99894261
-69.942376 -25.65310563 -52.50009739
-60.644301 -31.81241301 -52.50009739
-194.07759 -21.24046409 -46.50009739
-211.436279 -68.00002402 -51.30652539
-83.282901 -2.498421367e-05 -1.948485386
-199.011135 -17.1279322 -52.50009739
-165.00042 -16.62824377 -46.50009739
-145.683694 -2.498421367e-05 -32.05585339
-88.878834 -45.46072992 -52.50009739
-141.86252 -66.33024776 -46.50009739
-250.405197 -2.498421367e-05 -0.5240053859
-69.175263 -68.00002402 -48.93704739
-108.466313 -2.498421367e-05 16.30552161
-126.311197 -51.47712446 -46.50009739
-69.437037 -2.498421367e-05 -31.75053039
-244.948467 -64.4336594 -46.50009739
-167.639913 -2.498421367e-05 37.57774361
-207.316456 -2.498421367e-05 0.3427056141
-150.345792 -62.59093856 -46.50009739
-132.697321 -7.268295584 -52.50009739
-74.911335 -2.498421367e-05 12.01543061
-49.289587 -8.004421864 -46.50009739
-79.540964 -1.677530464 -46.50009739
-207.549657 -2.748551294 -46.50009739
-223.16047 -65.40418244 -46.50009739
-121.498825 -11.03979681 -46.50009739
-30.578401 -2.498421367e-05 33.28928661
-248.468372 -35.64830009 -46.50009739
-135.866343 0.1464590558 -46.50009739
-78.200105 -57.0294802 -46.50009739
-160.649634 -2.498421367e-05 -37.59527039
-46.270697 -33.96122935 -46.50009739
-169.452342 -2.498421367e-05 -43.53140439
-136.847314 -57.955572 -46.50009739
-78.114328 -20.15197377 -52.50009739
-234.098146 -23.98321342 -46.50009739
-203.611897 -50.81939661 -52.50009739
-157.646301 -2.498421367e-05 44.75717461
-204.821331 -20.19046604 -46.50009739
-210.539003 -44.57155318 -46.50009739
-12.578243 -58.6237761 -46.50009739
-78.594071 -2.498421367e-05 -15.35290039
-8.824367 -2.498421367e-05 3.625890614
-109.596302 -2.498421367e-05 -18.71379539
-180.381586 -2.498421367e-05 -28.26327339
-83.561102 -2.642734534 -52.50009739
-225.728451 -58.03902669 -52.50009739
-212.897176 -38.79306661 -52.50009739
-61.63751 -10.56780125 -52.50009739
-185.040897 -39.68788971 -52.50009739
-41.791945 -38.04045744 -46.50009739
-223.937803 -10.71125838 -46.50009739
-159.707717 -21.23629016 -52.50009739
-168.869951 1.067940126 -52.50009739
-82.020618 -2.498421367e-05 34.33837761
-244.873462 -40.52093314 -46.50009739
-244.518116 -42.35364654 -52.50009739
-90.740662 -3.204203234 -52.50009739
-126.130733 -40.9337349 -46.50009739
-86.011177 -34.85691711 -46.50009739
-191.004592 -2.498421367e-05 15.04379961
-25.792296 -2.498421367e-05 47.22243761
-19.477364 -39.91534181 -46.50009739
-228.86582 -37.95839927 -46.50009739
-233.210027 -2.498421367e-05 -23.88879039
-116.05403 -67.39109066 -52.50009739
-148.327142 -60.13055828 -46.50009739
-227.157262 -11.65166077 -46.50009739
-52.053678 -56.53284561 -46.50009739
-5.696634 -24.41831823 -52.50009739
-5.867629 -2.498421367e-05 -22.84630739
-235.170069 -60.90964918 -52.50009739
-26.94669 -2.498421367e-05 51.88736761
-211.754767 -28.72227107 -52.50009739
-111.873783 -2.498421367e-05 35.28875161
-171.865884 -2.498421367e-05 4.428000614
-43.449063 -62.13008451 -52.50009739
-227.059827 -60.89935148 -46.50009739
-46.156833 -37.48627855 -46.50009739
-151.394701 -2.498421367e-05 -9.358122386
-211.614477 -2.498421367e-05 2.357739614
-133.10961 -2.498421367e-05 -45.58838239
-150.810911 -55.68300531 -46.50009739
-191.036315 -34.35075121 -52.50009739
0.2085300002 -2.498421367e-05 12.39153161
-93.534884 -44.30327861 -46.50009739
-34.872063 -2.498421367e-05 42.50956461
-27.664644 -22.47146057 -52.50009739
-37.516917 -67.64728706 -52.50009739
-24.579287 -2.498421367e-05 44.55613261
-1.621205 -2.498421367e-05 -10.44883539
-231.023304 -2.498421367e-05 -44.96910339
-193.402762 -62.57178362 -46.50009739
-76.796112 -65.26600203 -52.50009739
-219.878155 -22.29566561 -46.50009739
-154.522299 -2.498421367e-05 -4.636684386
-243.346712 -2.498421367e-05 21.25886761
-155.982713 -38.67534371 -52.50009739
-234.004586 -56.01685302 -46.50009739
-211.749152 -2.498421367e-05 -13.69217439
-246.415499 -57.1576355 -52.50009739
-83.045799 -53.98896252 -46.50009739
-155.501627 -21.53517286 -46.50009739
-74.278498 -47.44326459 -46.50009739
-119.542672 -2.498421367e-05 40.12384661
-13.737522 -16.4715757 -52.50009739
-171.989122 -58.83892186 -46.50009739
-187.152828 -41.45953307 -52.50009739
-167.276936 -59.56780034 -46.50009739
-164.882478 -2.498421367e-05 -0.7818523859
-14.353307 -6.636228324 -46.50009739
-32.599077 -2.498421367e-05 50.54739361
-245.84602 -49.1889608 -46.50009739
-152.356126 -2.498421367e-05 -24.22809539
-228.00546 -55.58250884 -52.50009739
-106.329625 -2.498421367e-05 -33.32401239
-180.42708 -2.498421367e-05 -6.957100386
-85.652766 -20.3371841 -52.50009739
-147.760532 -23.01804592 -52.50009739
-153.967284 -4.680626554 -46.50009739
-11.264945 -2.498421367e-05 14.20201561
-141.983618 -63.42585528 -46.50009739
-239.483616 -11.4507334 -52.50009739
-231.636912 -43.34418756 -52.50009739
-83.994686 -2.498421367e-05 38.97835761
-117.882284 -2.498421367e-05 5.450231614
-64.446004 -2.498421367e-05 7.850995614
-2.589728 -37.90005139 -52.50009739
0.2468370002 -2.498421367e-05 9.750945614
-133.433566 -2.498421367e-05 0.5619816141
-147.856783 -2.498421367e-05 -1.737884386
-172.307155 -2.498421367e-05 -14.97472939
-161.690632 -2.498421367e-05 35.99081161
-26.127212 -0.01876207421 -52.50009739
-109.728304 -13.36042056 -52.50009739
-252.024849 -2.498421367e-05 -42.20030839
-68.466431 -23.00397371 -52.50009739
-20.604038 -2.498421367e-05 40.89036561
-129.971346 -53.14423749 -46.50009739
-18.432516 -2.498421367e-05 1.323591614
-249.926557 -2.498421367e-05 19.33700561
-117.744675 -2.498421367e-05 51.66249461
-16.043168 -13.30885748 -46.50009739
-150.241871 -65.7183155 -46.50009739
-28.253618 -2.498421367e-05 46.63016661
-47.826853 -2.498421367e-05 -44.00949839
-243.202111 -48.7275753 -46.50009739
-88.826716 -2.498421367e-05 -39.62224739
-136.199809 -2.498421367e-05 28.26139961
-130.540965 -2.498421367e-05 -46.13798339
-72.472338 -41.20529429 -46.50009739
-194.364664 -52.20420825 -46.50009739
-189.211442 -52.31936602 -52.50009739
-169.369819 -24.39519034 -52.50009739
-65.946674 -21.53242667 -46.50009739
-197.846001 -2.498421367e-05 -42.02745439
-183.173272 -53.1525187 -52.50009739
-247.266813 -29.28936244 -46.50009739
-180.621373 -20.89499429 -52.50009739
-180.314418 -51.64556 -52.50009739
-209.904679 -2.498421367e-05 -39.80797039
-205.40658 -2.236083234 -52.50009739
-10.038647 1.265863256 -46.50009739
-26.043379 -2.498421367e-05 -15.38072139
-237.391184 -32.53026124 -52.50009739
-112.175464 -20.20075728 -52.50009739
-216.67993 -2.498421367e-05 -18.69658039
-105.100623 -2.498421367e-05 35.89178161
-213.771915 -2.498421367e-05 -24.95297439
-14.169695 -68.00002402 -50.43920539
-33.244734 -38.34809581 -46.50009739
-127.493339 -2.498421367e-05 14.90015161
-234.972359 -2.498421367e-05 -19.07093239
-120.391683 -2.498421367e-05 0.8876046141
-177.505396 -58.39474106 -52.50009739
-69.267372 -65.88318043 -52.50009739
-53.27307 -2.498421367e-05 -26.02735039
-171.901133 -2.498421367e-05 34.65032361
-25.567613 -3.601246984 -52.50009739
-213.742946 -14.26297469 -52.50009739
-125.66035 -20.45976214 -46.50009739
-2.899983701e-05 -1.179247724 -0.8928983859
2.172039 -2.498421367e-05 13.66446661
-235.563322 -19.7025815 -46.50009739
-113.415856 -48.40498797 -52.50009739
-105.622445 -68.00002402 -48.72187839
-153.260945 -2.498421367e-05 14.64216861
-38.502472 -2.498421367e-05 -32.42800739
-231.786299 -2.498421367e-05 52.18398361
-23.736819 -7.112183144 -46.50009739
-126.299114 -65.36965662 -52.50009739
-237.29723 -2.498421367e-05 -41.56587239
-41.448808 -2.498421367e-05 -15.95899539
-107.349205 -6.902718914 -52.50009739
-54.992572 -2.498421367e-05 24.08807461
-41.35127 -32.70805464 -52.50009739
-129.003342 -36.00609849 -46.50009739
-36.284502 -62.93609967 -46.50009739
-219.787468 -2.498421367e-05 8.497146614
-9.883791 -2.498421367e-05 -6.981113386
-15.302509 2.438558536 -46.50009739
-91.191419 -35.34587148 -46.50009739
-188.27544 -2.498421367e-05 16.56113261
-105.364292 -2.498421367e-05 -18.07407939
-211.718805 -47.64030068 -46.50009739
-248.286111 -2.498421367e-05 -10.50761339
-66.998759 -68.00002402 -49.11754239
-44.367143 -10.50087465 -52.50009739
-235.491187 -4.877040444 -46.50009739
-168.807429 -65.71043545 -52.50009739
-87.529295 -53.28571116 -46.50009739
-128.481744 -38.49895065 -52.50009739
-192.766158 -2.498421367e-05 19.05957261
-144.340572 -2.498421367e-05 10.34415061
-237.23699 -7.478018084 -52.50009739
-0.4925289998 -31.22387937 -46.50009739
-226.239306 -2.498421367e-05 30.14052361
-106.978402 -39.64790477 -46.50009739
-130.221316 -13.74903159 -52.50009739
-134.630811 -68.00002402 -49.61309439
-22.566882 -2.498421367e-05 -14.46698339
-214.267228 -2.498421367e-05 -22.41526339
-110.828392 -64.65282482 -46.50009739
-114.643748 -2.498421367e-05 26.76339061
-117.163755 -2.498421367e-05 -30.56737039
-248.726728 -53.28624126 -52.50009739
-15.965316 -48.50768689 -46.50009739
-236.865505 -2.498421367e-05 -10.40609839
-77.051718 -39.60303346 -46.50009739
-166.234257 -2.498421367e-05 -13.32779939
-112.50111 -17.06641541 -52.50009739
-220.46981 -2.498421367e-05 47.12018261
-124.813915 -36.82389986 -46.50009739
-69.725717 -2.498421367e-05 -18.22793239
-117.061674 -2.498421367e-05 41.64558261
-237.178949 -61.1712665 -52.50009739
-103.751426 0.003443765786 -46.50009739
-3.070357 -62.6486441 -52.50009739
-164.725733 -22.02613867 -52.50009739
-231.987851 -11.05855266 -46.50009739
-65.582126 -2.498421367e-05 33.33525761
-244.269816 -2.498421367e-05 52.05236861
-164.419758 -2.498421367e-05 21.56991461
-56.99166 -2.498421367e-05 24.68969261
-168.979369 -62.23987355 -46.50009739
-100.174863 -46.95546438 -46.50009739
-244.517446 0.2963787658 -46.50009739
-8.040479 -28.53378814 -52.50009739
-65.453196 -2.498421367e-05 -33.08982039
-72.99043 -29.85587265 -46.50009739
-114.240304 -6.176382734 -52.50009739
-32.221781 -2.498421367e-05 -23.53844939
-125.254567 -45.97025458 -52.50009739
-199.305982 -36.76635187 -46.50009739
-190.219406 -7.125443084 -52.50009739
-235.018396 -50.43581605 -52.50009739
-192.332388 -50.42599057 -46.50009739
-46.494923 -39.55983598 -52.50009739
-96.613674 -11.69593507 -46.50009739
-131.312956 -2.498421367e-05 -6.459068386
-124.218569 -54.71260622 -52.50009739
-104.341135 -68.00002402 -51.36723839
-29.166824 -46.49492893 -46.50009739
-221.149603 -65.75031075 -52.50009739
-141.444821 -61.64258215 -46.50009739
-136.751239 -30.93191796 -52.50009739
-25.104969 -21.73385281 -46.50009739
-69.797515 -45.13599794 -52.50009739
-132.488509 -2.498421367e-05 21.07704261
-140.02628 -58.34041132 -46.50009739
-148.214859 -15.5329583 -52.50009739
-113.228053 -62.88174834 -52.50009739
-223.909418 -16.6598102 -52.50009739
-137.39571 -53.53155297 -46.50009739
-58.178933 -1.532195754 -52.50009739
-190.934865 -2.498421367e-05 31.71895561
-118.095005 -7.484071244 -46.50009739
-235.391675 -2.498421367e-05 22.08819761
-77.518257 -15.38177612 -52.50009739
-129.218037 -2.498421367e-05 -22.26456939
-218.378408 -42.13690596 -52.50009739
-34.208781 -20.78877695 -46.50009739
-135.33506 1.862443506 -46.50009739
-9.073028 -29.59967409 -46.50009739
-149.675006 -2.498421367e-05 33.92361961
-190.916056 -2.498421367e-05 48.28190261
-203.630655 -2.498421367e-05 49.36373361
-52.854064 -2.498421367e-05 49.50825861
-134.119574 -34.2583552 -52.50009739
-184.706738 -25.38573489 -46.50009739
-33.184328 -30.46699515 -52.50009739
-246.07302 -61.28830587 -46.50009739
-28.105736 -2.498421367e-05 -12.79493539
-110.336268 -68.00002402 -50.08472639
-197.470509 -59.36068037 -52.50009739
-69.339657 -59.73933814 -52.50009739
-174.485409 -2.498421367e-05 -16.40303339
-140.847564 -37.56007192 -46.50009739
-112.604183 -2.498421367e-05 26.17331361
-219.94039 -2.498421367e-05 -29.76376639
-69.493539 -23.39854657 -46.50009739
-191.244005 0.4987216658 -46.50009739
-148.947926 -2.498421367e-05 5.143975614
-44.300337 -67.48356451 -46.50009739
-2.630594 -2.498421367e-05 -4.638928386
-32.729264 -40.34277433 -46.50009739
-153.871844 -41.55778159 -46.50009739
-248.58657 -2.498421367e-05 -21.81925639
-246.038716 -41.5009763 -52.50009739
-128.328095 -2.498421367e-05 -19.94232439
-177.694825 -28.21929216 -52.50009739
-52.299088 -2.498421367e-05 6.693856614
-198.69971 -15.51511352 -52.50009739
-36.540063 -54.52258981 -52.50009739
-25.054522 -2.498421367e-05 38.07923161
-209.297007 -45.82169234 -46.50009739
-223.488095 -16.25201288 -46.50009739
-241.12186 -47.43967269 -52.50009739
-12.049113 -15.35126043 -52.50009739
-189.821468 -2.498421367e-05 16.13372761
-89.75029 -2.498421367e-05 -26.11383339
-66.456181 -65.82582507 -52.50009739
-92.303616 -49.53614667 -52.50009739
-204.785146 -2.498421367e-05 -17.75902939
-50.526657 -20.42725401 -52.50009739
-61.01657 -54.1555129 -52.50009739
-203.592577 -2.498421367e-05 9.225730614
-176.500623 -2.498421367e-05 -7.497074386
