# .PCD v0.7 - Point Cloud Data file format
VERSION 0.7
FIELDS x y z
SIZE 4 4 4
TYPE F F F
COUNT 1 1 1
WIDTH 1230
HEIGHT 1
VIEWPOINT 0 0 0 1 0 0 0
POINTS 1230
DATA ascii
246.8337806 -49.71119355 -139.2500974
220.4996666 -2.49861115e-05 76.24253761
74.95135064 -14.50374782 -145.2500974
0.000263641472 -49.39088404 -10.03073439
0.000263641472 -15.89710282 -126.3466094
0.000263641472 -47.9830075 48.07788561
207.0660566 -2.49861115e-05 16.98645361
77.98697264 -2.49861115e-05 80.93931461
173.4098126 -2.49861115e-05 8.687543614
122.0770936 -61.88265537 -139.2500974
95.50124064 2.259273274 89.21747861
226.7146786 -2.49861115e-05 109.5745956
96.00026364 -32.35487697 87.74694261
14.24921564 -2.49861115e-05 -87.24419739
250.1107846 -2.49861115e-05 -34.19919439
231.9697526 -68.00002403 -141.0206654
0.000263641472 -53.2744402 127.1593946
151.9876666 -15.97328992 148.7499026
0.000263641472 -83.71338118 56.91512961
162.6226126 -2.49861115e-05 -68.37034139
34.86243864 -2.49861115e-05 106.6956696
124.4653376 -2.49861115e-05 48.74940961
89.74968864 -2.49861115e-05 -99.97651839
211.8210226 -32.74982217 -139.2500974
96.00026364 -14.1505797 7.082431614
114.2588626 -26.68095075 -145.2500974
185.9485556 -2.49861115e-05 103.8948736
132.6194046 -24.62924753 148.7499026
163.9946426 -45.62714134 148.7499026
0.5012406415 0.7528486739 -65.26505439
0.000263641472 -20.1293151 8.665882614
73.88508064 -64.23215886 148.7499026
29.63132364 -57.19885138 148.7499026
77.97837664 -41.49181683 148.7499026
245.1359346 1.670149184 -145.2500974
60.09778564 -8.985654136 -139.2500974
116.9121006 -2.49861115e-05 127.8513156
100.0002636 -54.32367332 133.9612536
42.22201164 -2.49861115e-05 1.658212614
19.60871664 -2.49861115e-05 22.34210261
2.739724641 -4.087616016 -139.2500974
100.1312486 -2.49861115e-05 122.1324206
97.38796864 -81.06421901 23.95831061
33.15253364 1.774557944 -145.2500974
125.3474776 -89.03667864 153.5598286
96.00026364 -6.647043476 -67.43524339
172.1451526 -67.82920155 -139.2500974
100.0002636 -68.47511627 101.2961306
242.0715166 -2.49861115e-05 18.29727361
56.87291264 -2.49861115e-05 -52.29407239
0.000263641472 -68.39645714 75.34810261
100.0002636 -29.08199533 -114.9929944
228.1588746 -50.58418132 148.7499026
115.8102926 -2.49861115e-05 -34.95571739
81.45112864 -2.49861115e-05 39.78558061
47.92734664 -2.49861115e-05 147.5997566
16.67557764 -2.49861115e-05 134.8640006
100.0002636 -38.00409411 -76.46751739
170.4049206 -117.3210754 148.7499026
0.000263641472 -86.34983606 105.7543816
155.5688216 -2.49861115e-05 125.2463756
0.000263641472 -65.33724145 21.86684261
166.2014416 -2.49861115e-05 -26.06411239
125.4675936 -2.49861115e-05 -115.8862214
201.0277896 -2.49861115e-05 76.80069261
232.9365316 -2.49861115e-05 -88.20462339
157.9565076 -2.49861115e-05 -104.8829274
231.5763496 -2.49861115e-05 39.45858961
235.8492016 -2.49861115e-05 73.02884361
174.5175586 -29.68875152 148.7499026
97.79761764 -55.05987619 -98.65760439
0.000263641472 -17.38588475 43.23589161
60.50013064 -2.49861115e-05 60.46287561
100.0002636 -48.69662071 85.31187261
18.62037364 -15.89923481 -139.2500974
234.8620156 -33.40298666 -145.2500974
152.1465266 -2.49861115e-05 -14.83765039
152.1957506 -68.00002403 -140.9011134
50.56694764 -61.52187582 148.7499026
0.000263641472 -44.23685037 140.6605656
96.00026364 -40.59509847 20.20382461
96.00026364 -79.96069939 83.73008361
55.94240964 -2.49861115e-05 9.452386614
185.3133496 -2.49861115e-05 122.1400526
71.55756664 -15.14111431 148.7499026
200.4826196 -47.97478476 148.7499026
183.9515196 -8.388371936 148.7499026
0.000263641472 -62.11712098 42.73635661
0.000263641472 -38.43296566 20.89606961
184.9452146 -97.983805 148.7499026
99.66921364 -31.11668786 148.7499026
71.48351264 -93.11906759 154.2692486
0.000263641472 -49.68948504 -90.20493839
100.0002636 -4.094107866 -21.92030339
20.21823264 -2.49861115e-05 83.52966361
82.14224664 -2.49861115e-05 -41.82929239
209.2673446 -2.49861115e-05 126.7815866
176.1852066 -77.2850626 148.7499026
108.3367746 -2.49861115e-05 -74.74010639
200.4777456 -60.77415033 -145.2500974
0.000263641472 -12.44643768 93.18125861
0.000263641472 -15.62694103 -79.09282239
62.56883164 -46.23759434 -145.2500974
44.43162864 -2.49861115e-05 -85.24595739
85.42403864 -92.59625399 148.7499026
235.5163096 -2.49861115e-05 -6.323448386
150.4350866 -2.49861115e-05 -55.61421239
210.0497346 -14.28999484 148.7499026
0.000263641472 -31.00377132 -132.1663604
237.1986306 -14.12690262 -139.2500974
17.01506864 -68.00002403 -139.8029684
34.52195964 -2.49861115e-05 74.76770261
31.33512764 -2.49861115e-05 -54.05237039
151.9963246 -2.49861115e-05 -126.6064344
175.9342026 -25.72216394 -139.2500974
81.63636064 -65.05616141 -145.2500974
148.6257876 -2.49861115e-05 31.74477261
79.56908164 -46.01485481 -139.2500974
187.8161986 -47.91023279 -145.2500974
0.000263641472 -63.34721666 91.65115961
0.000263641472 -33.90272044 107.6621476
174.3192626 -2.49861115e-05 62.57811861
131.0852846 -119.7500609 148.7499026
0.000263641472 -13.92930168 -27.11943239
4.796871641 -2.49861115e-05 -9.191689386
85.49515064 -120.5597091 148.7499026
96.00026364 -21.07404316 -36.53672739
100.0002636 -53.37158348 70.06112661
194.7238906 -2.49861115e-05 134.6429536
100.0002636 -24.57283086 75.38149361
0.000263641472 -41.60537589 -40.32921239
124.1732806 1.959066734 148.7499026
102.7440646 -2.49861115e-05 3.545535614
110.3544036 -128.8049576 148.7499026
147.8501406 -11.28827003 -139.2500974
0.000263641472 -33.87572848 -101.8471204
4.178527641 -2.49861115e-05 66.95185761
175.3135706 -54.51848618 -145.2500974
81.27207664 -2.49861115e-05 110.0154566
203.7219006 -33.0128207 148.7499026
10.67560764 -98.14530173 148.7499026
12.67311764 -2.49861115e-05 48.26527261
96.00026364 -72.40025644 -8.020622386
104.8687426 -2.49861115e-05 23.57772961
96.00026364 -51.83037919 -67.46151839
96.00026364 -53.16318849 45.80868361
96.00026364 -70.44665615 69.91255061
126.9545336 -2.49861115e-05 -43.29859439
95.14340664 0.09231510389 148.7499026
0.000263641472 -77.57255562 144.3518156
103.9812246 -15.009886 -145.2500974
188.2548066 -36.08360818 148.7499026
141.4263676 -2.49861115e-05 135.9148936
96.00026364 -18.01407685 106.5271886
102.1807756 -2.49861115e-05 -132.3317954
82.81716464 -2.49861115e-05 -1.523087386
96.00026364 -102.1038295 129.4009966
0.000263641472 -55.61690981 -63.44570539
100.0002636 -46.4955155 1.952381614
0.000263641472 -64.88773531 -4.134267386
22.51664364 -2.49861115e-05 -40.14724039
205.0654206 -2.49861115e-05 -37.31102239
231.9665486 -2.49861115e-05 -52.54013039
151.7265926 -2.49861115e-05 112.0935636
150.4234486 -70.92832671 148.7499026
111.8566846 -100.9709553 148.7499026
18.78758364 -2.49861115e-05 -69.20093939
208.7810786 -2.49861115e-05 88.75371061
100.0002636 -51.52987027 -48.87625539
100.0002636 -44.34858754 143.2807506
0.000263641472 -119.6985391 140.1879256
86.19607764 -33.9327587 -145.2500974
0.000263641472 -36.06862186 75.12924561
99.59743764 -2.49861115e-05 -109.3092044
212.6260786 -2.49861115e-05 -115.6320384
199.1156756 -82.4505482 148.7499026
100.0002636 -12.66443382 45.70930561
143.0591626 -2.49861115e-05 72.89428261
100.0002636 -26.52037361 -136.3066484
0.000263641472 -28.82262092 134.0411146
0.000263641472 -37.34423528 -75.26929739
105.0570296 -38.24336112 -145.2500974
34.14467664 -2.49861115e-05 -129.3930944
96.00026364 -54.55129362 -18.79705639
100.0002636 -46.95640901 56.87424161
58.75877364 -18.74468855 148.7499026
192.4576166 -4.010889896 -145.2500974
100.0002636 -99.49496958 111.3514216
70.09694264 -2.49861115e-05 -51.18266139
100.0002636 -11.13460771 71.36174261
238.3477986 -2.49861115e-05 121.3437976
63.51902064 -2.49861115e-05 90.43719761
96.00026364 -88.82296733 135.5584356
218.3182506 -6.078348916 -139.2500974
0.000263641472 -53.66227346 60.40869061
87.02634664 -11.1012851 148.7499026
130.9443166 -2.49861115e-05 9.326249614
45.01317464 -10.06328756 -139.2500974
53.65212964 -36.55901789 -145.2500974
207.0194906 -2.49861115e-05 -103.7447814
63.82886464 -22.91283468 -139.2500974
23.29737364 -2.49861115e-05 100.5826266
0.000263641472 -34.94793982 34.14836161
138.8635906 -2.49861115e-05 -129.5861744
0.000263641472 -14.67221316 136.0811536
46.23584064 1.646982064 -32.00554639
96.00026364 -25.84691512 -98.32917539
148.2246116 -120.2211433 148.7499026
0.000263641472 -48.45631293 -116.7297324
84.85363664 -8.712449326 -139.2500974
40.71586264 -2.49861115e-05 -106.8458944
96.00026364 -30.66690146 121.2888816
221.2398306 -2.49861115e-05 47.19016361
85.64332064 -2.49861115e-05 51.99265261
158.0861056 -2.49861115e-05 -38.16309039
191.2515346 -2.49861115e-05 -104.4494954
34.50659664 -52.44346548 -139.2500974
207.2081076 -2.49861115e-05 -58.57650039
0.000263641472 -15.9978931 -49.55546039
85.85731164 -2.49861115e-05 27.01645061
0.000263641472 -48.78163713 108.4835506
22.12017264 -2.49861115e-05 -11.12527439
186.8116116 -2.49861115e-05 -59.14332539
103.0745886 -55.24386023 -139.2500974
176.3887386 -128.3854534 153.0342826
127.2771606 -7.855225356 -145.2500974
193.2285076 -2.49861115e-05 29.85083461
100.0002636 -18.86007743 -4.106824386
33.26094364 -25.37722146 148.7499026
-0.6349323585 -2.49861115e-05 -106.4848994
124.5132756 -2.49861115e-05 92.80994161
103.6747296 -66.36274504 148.7499026
13.32689864 -85.75201579 148.7499026
237.5051316 -12.32358946 148.7499026
93.29612464 -102.5110042 148.7499026
124.4716156 -2.49861115e-05 -101.5865634
25.57459764 -41.8429258 -145.2500974
107.2224396 -2.49861115e-05 101.0168556
123.4824506 -20.48097047 -139.2500974
67.32175064 -2.49861115e-05 -20.08168139
154.3292106 -2.49861115e-05 0.5404826139
105.5385616 -2.49861115e-05 41.90623561
206.2524736 -2.49861115e-05 140.3655956
0.000263641472 -66.65051312 -31.05011239
187.4552666 -2.49861115e-05 -82.35203339
44.58549264 -2.49861115e-05 98.73475761
67.57858064 -2.49861115e-05 -94.27910639
99.79712664 -78.75230104 147.2499026
96.00026364 -39.32207789 -89.71314139
198.3275346 -43.30629231 -139.2500974
34.30472564 -9.463724256 148.7499026
178.4219746 -2.49861115e-05 -11.72084239
246.4753186 -2.49861115e-05 49.12577661
142.2759536 -133.000025 151.5263306
100.0002636 -77.96415359 124.4308886
198.4831176 -2.49861115e-05 98.18285961
233.0668426 -2.49861115e-05 26.94157261
0.000263641472 -99.10736496 128.0429806
51.33179764 -2.49861115e-05 -6.839196386
129.9247886 -2.49861115e-05 110.7076096
17.13444864 -9.177152706 148.7499026
178.6170586 -65.09516257 148.7499026
225.4454106 -2.49861115e-05 140.5923126
100.0002636 -13.37641606 22.35642461
0.000263641472 -17.51119646 -114.0852214
162.1295676 -34.06711626 -139.2500974
-0.06092935853 -106.9143998 103.6488816
195.1689076 -110.8321412 154.0981826
96.00026364 -83.71662949 111.1925626
31.13561464 -81.18972815 148.9618266
10.72178364 -2.49861115e-05 -44.51214739
248.1166976 -42.85864066 148.7499026
154.1336176 -2.49861115e-05 65.88009261
211.9472846 -2.49861115e-05 114.7788126
32.22961964 -2.49861115e-05 -25.97309339
128.5189786 -2.49861115e-05 131.8504156
174.5083146 -14.43196476 -145.2500974
129.2221816 -2.49861115e-05 -2.720751386
85.87693064 -2.49861115e-05 -76.15690439
96.00026364 -40.20182558 -117.8135104
153.3123086 -2.49861115e-05 43.74940361
157.0488756 -46.09729786 -139.2500974
184.7015216 -2.49861115e-05 -45.87320739
222.4577576 -29.53591771 148.7499026
1.414493641 1.969037344 148.7499026
146.1889556 -100.847764 148.7499026
195.6739906 -2.49861115e-05 51.49317761
164.2879536 -102.3240095 148.7499026
136.8801706 -33.27960532 -145.2500974
100.0002636 -9.044714746 97.43094261
100.0002636 -89.83397697 53.74799461
0.000263641472 -10.12285195 21.33481161
94.41981464 -68.00002403 -142.3930034
0.000263641472 -71.8204131 33.08073661
100.0002636 -65.31622351 5.368215614
100.0002636 -30.66082061 -47.75387639
230.5220886 -38.71417109 148.7499026
218.4802456 -40.70981963 -145.2500974
159.5159926 -88.00639292 148.7499026
0.000263641472 -36.26936401 7.970471614
238.7805046 -58.1985268 -145.2500974
65.97417064 -2.49861115e-05 15.95587361
74.84160064 -2.49861115e-05 -124.1300364
183.2274616 -2.49861115e-05 1.873024614
100.0002636 -25.6423102 98.25385961
96.00026364 -31.72329794 64.74660461
96.00026364 -73.47141273 54.78792561
57.56764064 -2.49861115e-05 120.4777256
100.0002636 -10.37415324 -89.39244439
0.000263641472 -44.97958071 -52.02164639
126.4970206 -52.65567813 -145.2500974
61.06359664 -2.49861115e-05 35.57538961
130.2994966 -79.19161681 148.7499026
0.000263641472 -15.87318198 57.05251761
113.1634846 -21.68795641 148.7499026
93.77422364 -2.49861115e-05 136.8081576
68.77972164 -2.49861115e-05 130.1006496
37.42109464 -2.49861115e-05 48.13125461
10.39541864 -25.02685659 -145.2500974
46.27216464 -2.49861115e-05 -46.48093839
211.2390836 -2.49861115e-05 -6.772636386
56.70609964 -2.49861115e-05 -112.9962184
96.00026364 -68.88104081 20.88609861
8.891722641 -123.2487097 154.1154056
0.000263641472 -72.98334433 47.23080461
24.23805064 -2.49861115e-05 11.54660861
119.6520226 -2.49861115e-05 18.72728661
199.9165696 -2.49861115e-05 -9.811943386
96.00026364 -32.57657434 32.09195561
83.25060864 -53.17346282 148.7499026
166.8688456 -2.49861115e-05 45.65569261
36.17449064 -2.49861115e-05 120.3769616
96.00026364 -39.58981146 99.54382961
50.77170364 -49.85659353 148.7499026
221.9649866 -54.30785797 -139.2500974
245.5251906 -68.41960823 153.7091956
41.65418964 -59.38754564 -145.2500974
96.00026364 -8.856677576 128.8927526
89.74403864 -2.49861115e-05 -31.61986739
5.934935641 -54.15884342 -139.2500974
206.4366236 -70.58128365 148.7499026
172.4123566 -4.174568026 148.7499026
0.000263641472 -78.5783341 17.20139761
186.9600736 -2.49861115e-05 -115.6217004
181.8042366 -20.66629951 148.7499026
145.2200406 -57.00500064 -139.2500974
0.000263641472 -32.16545877 95.34562061
0.000263641472 -36.62552755 63.55826261
0.000263641472 -73.65249482 98.40601261
44.01287664 -2.49861115e-05 30.09690161
231.4215116 -2.49861115e-05 -17.13741839
96.29755464 -9.245356366 -137.7500974
66.04799864 -2.49861115e-05 -70.17411239
191.4875196 -2.49861115e-05 -29.78558539
103.8278686 -8.745808266 148.7499026
247.1017556 -2.49861115e-05 70.58170661
11.11492064 -2.49861115e-05 120.5559236
126.1745686 -2.49861115e-05 -29.00420239
151.4404676 -25.38299592 -139.2500974
150.4932776 -2.49861115e-05 88.19378561
195.3123586 -59.871053 148.7499026
220.3402456 -2.49861115e-05 19.55786861
198.6320986 -2.49861115e-05 -126.6662524
14.08821764 -59.15171784 148.7499026
114.6071076 -2.49861115e-05 -132.3672094
100.0002636 -25.3378366 133.9589436
221.2126206 -2.49861115e-05 64.81208061
100.0002636 -44.28884637 -30.92769239
100.0002636 -65.33399585 43.07608661
98.08123564 -66.52618163 -34.78599939
23.65480464 -2.49861115e-05 51.41358461
96.00026364 -55.95227287 26.15834561
0.000263641472 -101.1848377 145.4076566
-1.132208359 -55.60396288 148.7499026
166.5341486 -132.3266051 148.8501106
218.3068726 -70.11420072 148.7499026
-0.9218523585 -112.2746913 148.7499026
30.86874064 -2.49861115e-05 1.240391614
96.00026364 -6.837670806 -120.8694754
25.85931464 -24.86129769 -145.2500974
90.40443664 -41.81188272 148.7499026
0.000263641472 -11.05239819 -39.36633139
216.3854196 -2.49861115e-05 -38.52083639
-0.7359303585 -47.10268698 -145.2500974
7.988596641 -2.49861115e-05 -126.3616584
65.56148064 -67.62107698 -145.2500974
112.5536236 -0.3283017161 148.7499026
96.00026364 -12.08293452 -28.85435539
136.3707336 -11.67266533 -139.2500974
49.75343264 -2.49861115e-05 -74.22620539
67.00801564 -2.49861115e-05 105.6834316
96.69362464 -117.8966056 148.7499026
0.000263641472 -39.3647189 -15.11139639
0.000263641472 -87.93493542 126.8396436
59.10187364 -71.69347036 148.7499026
110.5520666 -2.49861115e-05 56.69002061
251.6060936 -2.49861115e-05 -11.13755939
245.6505686 -2.49861115e-05 -98.18664239
82.04633764 -20.96585908 -139.2500974
172.9337746 -2.49861115e-05 105.0364306
159.3336496 -121.2797431 148.7499026
141.7587776 -59.46768931 148.7499026
96.00026364 -31.68862975 7.144032614
35.28253764 -28.29307808 -139.2500974
209.4929686 -2.49861115e-05 -128.9628514
8.578365641 -2.49861115e-05 21.15483561
176.3046936 -2.49861115e-05 -129.4153134
0.000263641472 -54.97645222 17.92710761
116.7916096 -2.49861115e-05 -81.88034639
96.00026364 -114.4529126 128.8346156
10.16213064 -44.01409447 -139.2500974
0.000263641472 -30.81378883 -52.91226739
128.2768856 -10.31558125 148.7499026
146.4642836 0.6950494539 -26.82800539
114.4551316 -2.49861115e-05 -4.339672386
6.103533641 -67.4983902 -139.2500974
0.000263641472 -68.39054902 130.0895066
0.000263641472 -62.8692219 116.8125256
0.000263641472 -22.77927034 -15.73370639
114.3753456 -14.47005013 -139.2500974
9.514483641 -2.49861115e-05 -74.94340439
126.3308346 -2.49861115e-05 67.08468261
240.5146846 -40.83163427 -139.2500974
129.3556616 -2.49861115e-05 29.10379561
100.0002636 -57.29084481 123.4895936
0.000263641472 -16.37895228 -89.94724139
67.95449564 -2.912301326 148.7499026
43.70970164 -2.49861115e-05 -21.58188439
11.15054564 -2.49861115e-05 77.58060061
183.9653206 -39.74501329 -139.2500974
2.982017641 -2.49861115e-05 43.41400961
105.8589336 -2.49861115e-05 75.26796761
148.7767456 1.291520584 -139.2500974
134.8061016 -2.49861115e-05 -104.7714874
0.000263641472 -3.065970626 -55.18192939
49.89935064 -2.49861115e-05 84.29598661
100.0002636 -5.919733296 -57.44007539
100.0002636 -26.17062958 47.39220861
86.22279764 -2.49861115e-05 -11.74964839
239.8801406 -2.49861115e-05 -37.58338039
108.5053586 -2.49861115e-05 12.64300661
168.3167896 -1.378087776 -145.2500974
102.4025526 -2.49861115e-05 63.69656061
100.0002636 -2.384592666 -96.56956739
9.905064641 -27.01912328 148.7499026
100.0002636 -60.16158687 110.4903616
116.3502356 -37.20161258 -145.2500974
96.00026364 -31.42984826 -127.6540434
252.0109496 -2.49861115e-05 -122.1762774
176.2784136 -2.49861115e-05 94.81180261
125.4429516 -2.49861115e-05 121.3826706
96.00026364 -80.75099891 72.81322661
143.2111576 -26.09112151 148.7499026
0.000263641472 -59.69336667 81.55075061
0.000263641472 -74.41330124 66.51992361
53.14297264 -9.659297716 148.7499026
96.00026364 -77.08611137 35.19917161
0.000263641472 -47.96016537 -74.40514739
66.96880664 -41.51655902 148.7499026
56.47817964 -2.49861115e-05 -65.55326639
42.26303664 -2.49861115e-05 -136.2349524
223.1085136 -82.89245806 150.3688786
231.9097396 -2.49861115e-05 -64.25249439
134.7994356 -88.95245562 148.7499026
0.000263641472 -37.26972488 85.86171361
55.91867064 -2.49861115e-05 -135.4831464
0.000263641472 -23.97060496 -105.7007424
0.000263641472 -84.2635935 76.50616361
33.51366764 -2.49861115e-05 136.7752906
96.00026364 -93.05327292 90.13578961
140.6162156 -15.10249765 148.7499026
229.6720546 -64.45915968 148.7499026
45.30290764 -33.85125638 -139.2500974
0.000263641472 -6.026702596 104.5526966
100.0002636 -14.98593712 -16.61626939
0.000263641472 -15.82477652 83.22666661
205.0064086 -2.49861115e-05 27.29474361
125.9210286 -53.70555742 149.8805176
9.780648641 -2.49861115e-05 90.09429561
110.2560556 -2.49861115e-05 115.2484216
40.09688464 -57.63346445 148.7499026
214.8865676 -16.18245744 -145.2500974
96.00026364 -28.71893104 -79.07978239
180.5623076 2.329964204 148.7499026
213.0070626 -2.49861115e-05 -73.13175139
229.3013596 -2.49861115e-05 -74.90318939
0.000263641472 -8.620321866 -71.38669339
8.313263641 -14.45459122 -139.2500974
134.8566876 -34.79040899 148.7499026
133.1188286 -2.49861115e-05 -81.07249639
56.86827064 -2.49861115e-05 98.39875261
0.000263641472 -41.53925521 -108.8376774
96.00026364 -35.27589064 -64.57195439
96.00026364 -10.57477343 -77.01995039
151.7310616 -2.49861115e-05 134.9576426
249.8975296 -27.60482363 148.7499026
0.000263641472 -3.784510346 -96.51582739
237.8733516 -47.1226805 148.7499026
57.49589464 -2.49861115e-05 -92.12512439
75.54319964 -2.49861115e-05 -13.62925139
27.56285164 -2.49861115e-05 28.88065561
100.0002636 -74.01063222 109.9580936
0.000263641472 -74.57624761 109.6738326
96.41762364 -51.13392143 -128.3327474
229.6448486 -2.49861115e-05 -121.0267384
134.5776946 -2.49861115e-05 -13.11957139
117.9191556 -2.49861115e-05 -48.09613539
173.7904796 -2.49861115e-05 31.24840261
6.488533641 -2.49861115e-05 4.345152614
96.00026364 -25.75455987 -10.45933239
246.7561606 -2.49861115e-05 -61.98545539
37.81542764 0.1035268239 148.7499026
24.06937464 -45.78627955 148.7499026
97.34396664 -63.75393123 -48.53659939
175.9245116 -2.49861115e-05 -61.10027939
100.0002636 -32.70825298 -23.95239539
202.5711986 -34.37887182 -145.2500974
0.000263641472 -85.53094291 115.8525806
90.22251064 -2.49861115e-05 114.7565376
229.0986786 -2.49861115e-05 -42.83109539
107.4179446 -2.49861115e-05 -49.87287239
0.000263641472 -27.28770901 -63.53409439
96.00026364 -48.20641579 -10.91916339
150.3264206 -50.67075936 -145.2500974
60.19615864 -0.8580072361 -145.2500974
170.5041466 -2.49861115e-05 -111.6159974
85.60215764 -2.49861115e-05 73.82251361
10.87171364 -2.49861115e-05 145.8949846
120.5760916 -46.84288411 -139.2500974
92.94978164 -44.27897096 -139.2500974
100.0002636 -24.56636446 113.9964426
225.0276226 -10.56770933 -145.2500974
96.00026364 -75.22908131 92.60006261
166.0850576 -13.98886567 -139.2500974
0.000263641472 -8.305269666 38.51630061
5.639317641 -39.5054662 148.7499026
0.000263641472 -80.83895202 134.8742866
100.5012406 2.141658204 -64.12420239
124.6639066 -2.49861115e-05 81.66799861
96.00026364 -43.28884437 -44.92821139
36.10794664 -2.49861115e-05 -66.50926539
240.5163446 -61.25334704 148.7499026
96.00026364 -6.644420106 79.29714361
206.4223616 -9.817613946 -139.2500974
0.000263641472 -38.07976123 -91.85403339
183.9864946 -6.541948266 -139.2500974
163.2743156 -23.49181054 148.7499026
99.95224464 -92.80810929 63.21203261
243.2943596 -2.49861115e-05 100.2957716
169.1058946 -56.60081707 148.7499026
100.0002636 -56.99739399 35.14989361
5.477344641 -64.65997106 148.7499026
24.21408064 -8.936180666 -145.2500974
67.29576164 -40.00711506 -139.2500974
232.8893356 -2.49861115e-05 -130.3303944
102.5740716 -2.49861115e-05 -13.34016139
129.7685576 -2.49861115e-05 40.45700061
49.66625964 -73.63522987 150.7572086
213.8677136 -49.91870411 148.7499026
100.0002636 -97.5237222 137.7334516
96.00026364 -47.3622424 -106.5926464
37.80452164 -2.49861115e-05 38.33513761
78.69772364 -2.49861115e-05 -32.65206939
61.71654864 -61.19462017 148.7499026
52.14239164 -56.41274654 -145.2500974
96.00604764 -2.49861115e-05 18.52828961
149.1336506 -2.49861115e-05 -85.94220339
140.5181296 -2.49861115e-05 7.337214614
167.1026576 -2.49861115e-05 -132.7216424
96.00026364 -12.543819 116.8938866
192.8909966 -13.25501935 -139.2500974
169.3033276 -2.49861115e-05 -35.89176739
0.000263641472 -38.83705088 131.3836006
95.64645964 -30.08428388 -145.2500974
234.4046666 -2.49861115e-05 -26.50473739
71.81517264 -79.98154799 148.7499026
119.5349306 -122.7443362 148.7499026
213.1641966 -2.49861115e-05 53.58119961
22.42602364 -2.49861115e-05 -105.2051254
189.5571686 -80.66986205 148.7499026
156.1007416 -78.81658837 148.7499026
52.80652664 -11.25540948 -145.2500974
28.04052564 -56.50081138 -145.2500974
214.4969676 -2.49861115e-05 40.22103661
163.0458296 -2.49861115e-05 112.0509546
133.3627236 -2.49861115e-05 73.75371761
100.0002636 -66.46657336 126.5864106
251.8180206 -24.70320588 -139.2500974
0.000263641472 -26.42858348 39.80610161
193.2153496 -53.22991945 -139.2500974
0.000263641472 -5.721538686 -127.7183834
96.00026364 -28.79842836 -56.33733639
96.00026364 -45.48065796 127.8459736
0.000263641472 -50.69536608 87.89403461
0.000263641472 -3.175445496 90.56301461
0.000263641472 -61.71476195 66.73068761
0.000263641472 -36.23414745 44.79679961
151.2677546 -2.49861115e-05 22.48792061
11.62909964 -2.49861115e-05 -117.4069584
82.91439064 0.7060500039 -139.2500974
60.53474064 -2.49861115e-05 -30.10326239
167.9782516 -2.49861115e-05 84.15733061
237.6615626 -2.49861115e-05 3.036400614
0.000263641472 -43.21551483 56.57868561
190.3783086 -2.49861115e-05 -136.3472654
116.1058386 -2.49861115e-05 -113.5372664
104.6947706 -2.49861115e-05 90.69354361
234.3436596 -23.83839086 -145.2500974
0.000263641472 -34.53691753 141.9540416
40.35040864 -2.49861115e-05 82.36550961
43.47519564 -32.36646017 148.7499026
96.00026364 -6.550917886 -48.30429139
178.0671536 -2.49861115e-05 -80.23466239
182.3450616 -29.50088477 -145.2500974
224.6733976 -45.01340649 -139.2500974
88.76120764 -68.51385606 148.7499026
250.4480326 -2.49861115e-05 -78.26051739
250.0210566 -2.49861115e-05 118.1568736
159.6617736 -2.49861115e-05 -57.98136839
100.0002636 -66.77675529 -14.81783439
33.97653964 -5.547700436 -139.2500974
100.0002636 -46.81935555 -94.47056339
62.41214464 -58.4909129 -145.2500974
197.6586986 -2.49861115e-05 15.69645961
100.0002636 -11.40412031 -113.5736004
163.5705996 -2.49861115e-05 66.71793661
244.8503936 -15.2418803 -145.2500974
88.45295864 -2.49861115e-05 -62.55189239
0.000263641472 -8.278140826 68.80043961
237.8481776 1.986111144 -139.2500974
139.3837886 -2.49861115e-05 -62.80152239
45.20858964 -43.17979341 -145.2500974
194.6219876 -2.49861115e-05 -75.75201539
228.5850626 -29.76796984 -139.2500974
122.9606516 -63.9806262 148.7499026
103.7985406 -111.7531396 148.7499026
4.379298641 -90.28602117 148.7499026
0.000263641472 -50.52730859 -35.71345439
27.91766864 -2.49861115e-05 125.0673716
232.2105616 -2.49861115e-05 -102.2600234
32.43026464 -2.49861115e-05 64.98986761
23.91172464 -31.54351901 148.7499026
107.5102596 -21.7626308 -139.2500974
182.3417346 -66.83222043 -145.2500974
96.00026364 -58.82610073 76.51461861
0.000263641472 -104.0167394 135.9962866
45.18664664 -2.49861115e-05 13.63929561
96.00026364 -104.6991524 100.5036776
198.9476466 -2.49861115e-05 62.07135761
163.2453196 -68.00002403 -142.0680094
226.8382286 -2.49861115e-05 7.489530614
15.26675664 -2.49861115e-05 -132.1900914
0.000263641472 -61.88138532 -56.54549039
173.3136546 -2.49861115e-05 -44.66276339
100.0002636 -59.2751083 96.12917861
164.3542906 -44.2129488 -145.2500974
0.000263641472 -42.95764379 -83.80182139
96.00026364 -41.41490394 81.15546161
56.09055464 -2.49861115e-05 129.6456406
207.5655356 -87.71385304 148.7499026
71.07474764 -2.49861115e-05 -115.6527414
194.0731276 -66.72242268 -139.2500974
0.000263641472 -89.6917268 96.71095861
96.11288164 -2.49861115e-05 44.71822561
84.40794364 -2.49861115e-05 136.8513486
57.12480064 -63.15853367 -139.2500974
0.000263641472 -45.42401626 -1.132036386
0.000263641472 -6.816118306 -113.9968134
100.0002636 -9.673175976 -39.02177539
123.8965136 -2.49861115e-05 -16.96355139
206.6841296 -3.800803616 148.7499026
81.20866564 -2.49861115e-05 -106.1517484
86.74242464 -60.29901837 -139.2500974
100.0002636 -43.72362402 -69.15939439
100.0002636 -4.511742336 11.58518561
0.000263641472 -19.71174841 -36.28276239
96.00026364 -14.17550099 34.16484961
100.0002636 -59.20969663 141.9011906
86.06829864 -43.26651999 -145.2500974
0.000263641472 -41.19848879 -122.3595994
116.5998736 -48.45895275 150.1052426
96.00026364 -59.90709443 65.01264761
100.0002636 -27.14874406 56.50414361
93.22893664 -2.49861115e-05 -134.2802214
188.5397506 -2.49861115e-05 -94.34887539
100.0002636 -44.1245951 106.4608426
215.0284426 -25.32393598 -145.2500974
0.000263641472 -87.13706483 48.44325561
104.8024506 -5.197824796 -145.2500974
96.00026364 -17.71035796 96.17323461
24.90713364 -2.49861115e-05 -60.52295339
100.0002636 -119.3752025 137.1837216
199.6196826 -2.49861115e-05 -24.97960339
115.8502256 -92.77937987 148.7499026
0.000263641472 -58.0215874 -12.95005339
53.71786364 -2.49861115e-05 67.12010861
211.3252286 -2.49861115e-05 -93.62252939
207.9977396 -2.49861115e-05 -45.92788739
39.98184464 -23.31754981 -145.2500974
165.2460196 -2.49861115e-05 -99.44174039
214.7584366 -2.49861115e-05 -28.04047639
42.10160764 -2.49861115e-05 -97.85887539
248.8197996 -58.58377609 -139.2500974
0.000263641472 -26.66913078 -78.15430939
159.7160326 -2.49861115e-05 103.3404416
96.00026364 -22.88717742 66.82451361
225.8685626 -62.82818558 -145.2500974
176.8546716 -102.0168602 148.7499026
240.0064186 -20.99875905 148.7499026
96.01449764 -58.77279641 -75.36189639
96.00026364 -10.4639332 60.43880561
12.08360864 -16.65528829 148.7499026
141.7945846 -2.49861115e-05 90.59273361
96.00026364 -99.46313107 83.59077661
0.000263641472 -58.52351589 -27.14594739
180.4811686 -48.05379174 -139.2500974
115.2985366 -55.95047537 -139.2500974
217.0231516 -2.49861115e-05 122.2050716
156.1325206 -2.49861115e-05 -48.02793139
100.0002636 -64.1575797 14.36461561
0.000263641472 -53.52022424 136.1406756
71.83687364 -8.599286116 -139.2500974
209.3763286 -58.72429189 -139.2500974
215.6039966 -2.49861115e-05 95.11041961
80.82793564 -2.49861115e-05 7.800371614
238.8414336 -2.49861115e-05 134.3478986
25.33378264 -2.49861115e-05 -83.92590339
78.19652264 -87.32451224 148.7499026
8.313454641 -2.49861115e-05 56.06619461
0.000263641472 -8.813079956 -14.04351039
100.0002636 -47.67967489 11.52402061
10.93137664 -34.85341762 -139.2500974
96.00026364 -52.38771798 -27.44051639
77.41205364 -52.23378402 -145.2500974
132.6634046 -2.49861115e-05 144.7573196
86.57667364 -2.49861115e-05 -88.36754639
69.52724164 -2.49861115e-05 -29.72981339
177.8819806 -2.49861115e-05 -116.5624754
1.710740641 -2.49861115e-05 126.2730726
0.000263641472 -44.86292849 116.8135686
0.000263641472 -95.20221959 105.3428756
16.90274864 -2.49861115e-05 106.7115686
32.35739264 -41.51413749 -139.2500974
120.5563786 -2.49861115e-05 -63.16456039
137.2986276 -2.49861115e-05 35.50487661
63.18889664 -2.49861115e-05 -106.6817014
152.5223616 -2.49861115e-05 -117.7886334
60.43218664 -2.49861115e-05 -12.30720439
96.00026364 -93.99613148 105.7317126
-1.126467359 -91.85094556 60.12891761
42.45968464 -68.00002403 -140.2245704
111.7064426 -41.67540351 -139.2500974
68.42011864 -48.92219238 -139.2500974
162.4747426 -6.409589156 148.7499026
237.6294556 -2.49861115e-05 64.41210961
96.00026364 -34.03109259 -106.7302884
0.000263641472 -34.19193535 -35.60848839
63.74946964 -2.49861115e-05 81.65661661
157.2515566 -98.10721678 151.8892396
0.000263641472 -23.6263378 97.38861761
140.9520476 -41.05149126 -145.2500974
186.7138556 -106.5774192 148.7499026
15.43009164 -2.49861115e-05 14.63303361
0.000263641472 -28.83221497 67.55805361
100.0002636 -38.97308609 -10.01869739
190.1752976 -52.50554081 148.7499026
0.000263641472 -7.547068666 131.0048156
43.20911264 -2.49861115e-05 73.76357761
128.4452606 -26.0187262 -145.2500974
15.36345564 -2.49861115e-05 -99.46690039
-1.789687359 -2.49861115e-05 -31.97878039
250.4285406 -2.49861115e-05 93.45806461
0.000263641472 -46.92912986 23.66719361
211.3904066 -2.49861115e-05 9.414286614
168.6298806 -2.49861115e-05 55.97232461
8.673810641 -2.49861115e-05 29.87145761
220.2843396 -2.49861115e-05 84.95624661
54.92421564 -30.10840186 148.7499026
56.45684864 1.227505234 148.7499026
151.1615846 -7.325320586 148.7499026
0.000263641472 -21.05671454 -2.489091386
54.89982864 -2.49861115e-05 53.83980061
139.2210006 -2.49861115e-05 53.66059761
8.731082641 -59.75068887 -145.2500974
101.0366006 -2.49861115e-05 -119.2185944
189.7450336 -2.49861115e-05 45.19319761
178.5156646 -2.49861115e-05 20.38211861
221.9933346 1.750044054 -139.2500974
100.0002636 -2.446072816 -73.84485539
132.4868196 -54.27998295 -139.2500974
100.0002636 -104.0725319 120.3080456
96.00026364 -40.7702825 61.36225961
0.000263641472 -10.54680208 30.19333361
142.5168026 -42.90256814 148.7499026
197.4694626 -2.49861115e-05 -58.09506139
153.9773626 -10.72379418 -145.2500974
81.61718764 -29.54225185 -139.2500974
113.1921236 -2.49861115e-05 -67.57827339
5.004464641 -27.96583876 -139.2500974
231.1705376 -2.49861115e-05 86.77711161
0.000263641472 -14.5426077 113.5316966
95.01432164 -14.78980755 148.7499026
91.37371264 -2.49861115e-05 96.38395661
100.0002636 -38.10994082 122.7305976
245.8420936 -26.01908218 -145.2500974
207.3483486 -2.49861115e-05 70.91386561
0.000263641472 -38.46051277 -137.7322474
199.9190096 -8.212619496 -145.2500974
148.6390726 -2.49861115e-05 59.31459061
96.00026364 -72.89774457 42.79287761
176.1578486 -110.5439588 148.7499026
100.0002636 -94.56546966 128.8564626
8.702586641 -8.377092206 -145.2500974
221.4153736 -62.15169449 148.7499026
128.3372246 -109.6669013 148.7499026
216.1383596 -88.11314517 148.7499026
124.7815346 -21.23322644 148.7499026
54.12314864 0.1595899939 -35.74386539
80.31941564 -69.84327559 148.7499026
225.7321916 -35.12650494 -145.2500974
21.85836064 -85.92357875 148.7499026
96.00026364 -76.70371085 102.9196446
130.8325976 -0.1093488461 -139.2500974
96.00026364 -39.32571912 40.06845961
192.4901396 -2.49861115e-05 7.113185614
146.4615046 -2.49861115e-05 127.6101146
100.0002636 -47.85749368 22.07815661
93.57466764 -12.1698028 -145.2500974
146.4987416 -21.96884881 -145.2500974
104.1911986 -2.49861115e-05 109.3081456
225.9659386 -2.49861115e-05 -108.2813734
116.2777826 -2.49861115e-05 46.55164861
0.000263641472 -29.02000329 125.5767466
0.000263641472 -56.70744294 7.858860614
190.6657666 -21.46525616 -139.2500974
220.3055216 -7.658251816 148.7499026
9.397621641 -2.49861115e-05 112.2844286
106.0937066 -2.49861115e-05 -5.516153386
48.28877964 -2.49861115e-05 -112.3795374
100.0002636 -23.98166724 -105.5216154
160.2451206 -2.49861115e-05 -124.8354404
96.00026364 -34.07241754 -15.92553939
16.39692164 -104.3387171 148.7499026
100.0002636 -27.79345023 -30.79575239
123.8890366 2.496287264 -123.7727684
96.00026364 -53.57135366 -55.99939439
-1.176837359 -65.05995854 -42.00939239
96.00026364 -30.96442656 -88.75220739
100.0002636 -68.96125773 62.67747361
118.6358536 -30.59886962 -139.2500974
199.0280036 -2.49861115e-05 -101.1677844
239.9513396 -2.49861115e-05 40.01246161
100.0002636 -55.62738942 7.437690614
96.00026364 -19.4083856 -134.3591804
96.00026364 -45.86421833 -82.06907839
0.000263641472 -94.3858497 87.22792761
44.55055664 -2.49861115e-05 120.6660496
121.4576406 -7.302427706 -139.2500974
225.0823756 -2.49861115e-05 101.3609596
96.00026364 -61.67434959 134.9696436
96.00026364 -81.50213321 130.8770316
96.00026364 -51.33382829 109.5321786
96.00026364 -33.66866236 77.69300361
232.8940996 -2.49861115e-05 95.83606561
96.00026364 -23.34812263 7.720908614
96.00026364 -17.47766092 134.9893616
96.00026364 -24.76359419 141.2885206
249.0565676 -41.66127939 -139.2500974
74.20670764 -98.75987022 148.7499026
-1.540865359 -14.14690137 -139.2500974
247.1077146 -2.49861115e-05 -111.2913094
103.3137016 -26.78741186 -145.2500974
135.8385416 -126.6073447 148.7499026
100.0002636 -11.22302957 -0.7561553861
100.0002636 -35.49194779 141.6628856
165.1523926 -2.49861115e-05 9.772729614
104.5430666 -48.2981959 -145.2500974
116.2550406 -2.49861115e-05 93.77657861
247.4723376 -2.49861115e-05 -42.08403639
146.3582796 -5.480941446 -145.2500974
229.8671236 -2.49861115e-05 120.7334566
100.0002636 -25.25952721 86.18019661
118.2017046 -106.2977822 148.7499026
100.0002636 -59.02472496 -66.53354039
157.9904776 -2.49861115e-05 91.70145461
59.69066864 -51.15705778 -139.2500974
120.4171146 -15.68587341 -145.2500974
91.81534264 -2.49861115e-05 82.16818461
113.6801396 -2.49861115e-05 -26.96655839
40.70578564 -17.67533812 -139.2500974
161.9991206 -2.49861115e-05 138.9508376
166.7029946 -2.49861115e-05 -16.98110739
100.0002636 -34.10720137 17.01208461
139.0147786 -2.49861115e-05 110.2920636
186.4973066 -2.49861115e-05 135.1941126
30.11929864 -2.49861115e-05 -33.93481339
16.77754664 -24.16258634 -139.2500974
39.39991864 -4.003176866 -145.2500974
96.00026364 -40.59343802 6.068014614
96.00026364 -19.28385824 -73.38922139
199.6176546 -48.77930112 -145.2500974
103.2527466 1.449648044 148.7499026
105.8728556 -2.49861115e-05 33.69402561
117.5729726 -86.48969776 154.3014816
209.9431576 -22.50053697 148.7499026
73.12251664 -68.00002403 -142.0806074
34.19717264 -46.85326139 -145.2500974
237.6025956 -2.49861115e-05 -119.0728714
145.5620226 -2.49861115e-05 80.69190661
77.29415664 -9.301427996 148.7499026
126.1792896 -68.00002403 -142.8202534
96.00026364 -16.90558618 -62.24997339
108.8221626 -120.1097481 148.7499026
96.00026364 -61.56665181 103.0484836
96.00026364 -51.139832 141.1250466
131.2420986 -2.49861115e-05 -62.18511039
33.13070764 -49.82718395 148.7499026
12.24850564 -2.49861115e-05 -26.88617639
183.1309856 -56.82899327 -145.2500974
236.2986586 -4.519340456 -145.2500974
152.7411786 -2.49861115e-05 -76.38491139
126.4504636 -42.60014146 151.9749476
170.5366416 -2.49861115e-05 -70.23148039
18.27637264 -43.59641226 -139.2500974
26.20748864 1.997058824 -118.6151274
100.0002636 -45.48320844 48.89987761
52.52312264 -2.49861115e-05 -84.71219939
35.71514864 -2.49861115e-05 -90.82721439
75.54151264 -2.49861115e-05 54.58349561
10.78855164 -3.129736606 -139.2500974
19.42371664 -58.96579244 -139.2500974
100.0002636 -87.6231863 80.46271461
144.8736256 0.9961350739 148.7499026
96.00026364 -46.65320973 72.10443361
6.242133641 -72.70459483 148.7499026
140.0553996 -58.62578084 -145.2500974
17.76731464 -2.49861115e-05 94.69112061
100.0002636 -33.45177971 25.06365661
242.0607236 -2.49861115e-05 -90.18185439
170.9393426 -23.66136999 -145.2500974
90.63284164 -86.43150642 148.7499026
104.3170596 -2.49861115e-05 -87.50246539
152.2166536 -58.51517292 -145.2500974
0.000263641472 -57.57191992 97.28051561
177.3562336 -2.49861115e-05 -137.5846744
-1.397767359 -2.49861115e-05 2.665480614
249.0824326 -1.986002106 -139.2500974
66.33463664 -2.49861115e-05 65.99634761
22.39922664 -53.68484162 148.7499026
93.86724464 -2.49861115e-05 -18.72945839
85.82629764 -2.49861115e-05 61.98795761
130.3731906 -60.89130595 148.7499026
152.1161986 -23.9940988 148.7499026
78.22167464 -27.75937284 148.7499026
3.238032641 -2.49861115e-05 -88.79797239
0.000263641472 -55.46716795 50.92463761
154.0749196 -19.37721107 -145.2500974
60.16039664 -14.4079871 -145.2500974
160.4092156 -53.89790863 148.7499026
238.7489056 -2.49861115e-05 81.76080561
215.2007756 -49.97282567 -139.2500974
46.89923664 -2.49861115e-05 56.05754261
96.00026364 -68.26096389 -0.8971253861
107.3174886 -81.01373841 148.7499026
0.000263641472 -21.79457013 -137.5023664
100.0002636 -9.515912506 106.5054686
206.0669806 -41.56595062 -145.2500974
177.0825376 -57.06175928 148.7499026
237.7616876 -2.49861115e-05 -77.53588539
30.66034364 -65.11866302 148.7499026
96.00026364 -46.86210137 91.97491561
0.000263641472 -56.55513922 -86.12864839
28.44381164 -2.49861115e-05 -137.7559714
7.611599641 -54.50732685 148.7499026
0.000263641472 -18.08745068 21.16444761
146.7223876 -2.49861115e-05 -48.56733939
96.00026364 -23.95294457 -46.20738639
176.0427576 -2.49861115e-05 123.9329066
97.36596664 -2.49861115e-05 129.7054706
0.000263641472 -79.71948479 41.87375361
0.000263641472 -36.95546122 -25.87439939
220.6921736 -66.65885135 -139.2500974
75.41889464 -2.49861115e-05 -93.06035639
164.5211576 -25.51339962 -139.2500974
0.000263641472 -42.85756003 -98.17780339
194.2424056 -2.49861115e-05 72.70534261
37.18435364 -2.49861115e-05 24.59070361
122.3536306 -2.49861115e-05 -6.653015386
100.0002636 -5.785551596 39.88755961
0.000263641472 -26.70175942 -120.5043134
96.00026364 -7.604591846 50.27751761
249.3545936 -2.49861115e-05 15.22844061
71.99335364 -2.49861115e-05 -131.4964094
132.8697606 -30.07203963 -139.2500974
164.0868076 -110.2070153 148.7499026
100.0002636 -0.1643328461 97.86303861
240.2962196 -2.49861115e-05 -57.46925339
129.4165006 -16.5466811 -145.2500974
165.9518976 0.6511258939 148.7499026
100.0002636 -51.82626052 78.09366961
100.0002636 -7.834725366 -103.8460394
96.00026364 -27.03341889 -1.325855386
17.78207664 -2.49861115e-05 31.87760261
118.2398866 -68.00002403 -142.3361904
219.7104166 -17.72570334 -139.2500974
121.7452756 -2.49861115e-05 100.1572436
96.00026364 -55.20829454 87.10962061
201.6756966 -2.49861115e-05 128.7587246
199.5663916 -74.61952814 148.7499026
0.000263641472 -43.26460225 31.90706561
0.000263641472 -42.99570417 14.53520261
55.23711164 -2.49861115e-05 -121.9641744
98.20000064 -34.3906226 -139.2500974
138.4175256 -2.49861115e-05 -35.30303139
96.00026364 -10.73270934 -127.6362304
199.6635186 -2.49861115e-05 105.8962216
72.88454364 -19.04382886 -139.2500974
94.43293064 -2.49861115e-05 6.490707614
0.000263641472 -111.907914 140.5789186
0.000263641472 -48.16431629 40.28570561
143.5280656 -80.00768886 148.7499026
74.65845864 -48.5301861 148.7499026
89.52894164 -25.83083014 -139.2500974
0.000263641472 -58.09102264 -0.3471703861
96.00026364 -50.44235565 31.68468261
31.80275764 -32.03084068 -145.2500974
209.2008546 -2.49861115e-05 46.89995261
8.909562641 -2.49861115e-05 135.0093716
96.00026364 -57.21828185 0.05019161393
240.7471576 -2.49861115e-05 108.1902206
100.0002636 -15.65511633 -95.06648439
87.07251864 -2.49861115e-05 -113.9712994
96.00026364 -66.71015404 146.6739986
93.47382364 -2.49861115e-05 -93.15403539
41.02238264 -45.70063875 -139.2500974
0.000263641472 -53.06598162 -21.66928439
197.3739526 -2.075095216 -139.2500974
191.3085666 -2.49861115e-05 109.4518386
121.4319866 -76.77672531 154.4663496
135.3129606 -54.97259836 148.7499026
243.7811176 -7.607473436 -145.2500974
142.4949126 -94.08320246 148.7499026
96.00026364 -76.90489159 15.37305861
161.7503906 -2.49861115e-05 120.6508566
161.1033626 -29.35018841 -145.2500974
103.0750496 -132.2902666 152.9852206
96.00026364 -84.41289844 141.8657476
0.000263641472 -71.37356562 116.9427936
129.5027026 -2.49861115e-05 19.79330261
144.1756576 -2.49861115e-05 -120.1390644
100.0002636 -17.89791703 -25.80898239
152.9030796 -92.60388233 148.7499026
191.4937006 -2.49861115e-05 126.7048056
0.000263641472 -41.47764923 102.5510846
179.0441126 -15.96646828 -139.2500974
96.00026364 -97.58095483 97.63003361
243.5272416 -44.54650091 -145.2500974
71.00780464 -2.49861115e-05 84.13431361
119.2713776 -2.49861115e-05 135.1476446
39.17388064 -2.49861115e-05 -75.93343339
-2.073944359 -16.94169644 143.1039196
0.000263641472 -14.33711882 3.649754614
187.8409726 -2.49861115e-05 -72.18820339
229.5454416 -12.06861873 -139.2500974
100.0002636 -18.08195046 -117.3180724
142.8296706 -33.95513265 148.7499026
94.32474864 -110.6238896 148.7499026
58.22286764 -28.11428027 -139.2500974
232.7810686 -42.0510727 -145.2500974
174.6856096 -34.93088932 -139.2500974
169.5752536 -2.49861115e-05 38.51889161
0.000263641472 -60.691618 -35.81538739
73.17070464 -4.084601136 -145.2500974
196.6601706 -6.122675496 148.7499026
227.5169506 -2.49861115e-05 79.21980161
59.27039864 -2.49861115e-05 107.2162706
83.54189864 -2.49861115e-05 -56.73121339
29.50281264 -2.49861115e-05 96.17045261
0.000263641472 -81.96712804 64.32549661
7.806276641 -49.86987303 -145.2500974
147.6293796 -2.49861115e-05 95.47633161
148.3075316 -2.49861115e-05 -102.2358374
100.0002636 -32.22299566 -99.34187839
26.26461264 -2.49861115e-05 139.0397006
100.0002636 -23.01630667 -53.47149939
100.0002636 -34.86888069 -121.4464394
182.1859476 -2.49861115e-05 -18.31158439
48.53294264 -3.339645276 -139.2500974
100.0002636 -53.66726177 -107.8659664
99.70442164 -2.49861115e-05 -49.15182339
97.52921064 -44.80456037 -145.2500974
65.43218064 -30.79249889 -145.2500974
122.0843256 -115.4772383 148.7499026
37.01339464 -66.57726207 -145.2500974
167.2129856 -2.49861115e-05 74.88915061
37.90630064 -17.43142487 148.7499026
83.87186464 -39.26655211 -139.2500974
197.0489766 -2.49861115e-05 83.19627661
190.0252286 -43.40157206 148.7499026
181.3320686 -2.49861115e-05 59.84403661
221.3644856 -48.11356043 -145.2500974
16.50344864 -2.49861115e-05 -77.71611539
99.78883764 -1.714734746 -139.2500974
76.58803964 -2.49861115e-05 126.9328296
86.31672664 -52.24222534 -139.2500974
100.0002636 -74.57018787 80.35320461
0.000263641472 -81.02784942 99.81945661
41.75448964 -2.49861115e-05 -10.32786339
170.5445986 -2.49861115e-05 -54.12735839
179.4597426 -36.41502401 -145.2500974
26.78444064 -32.98669666 -139.2500974
19.48317464 -2.49861115e-05 127.9282606
96.57537664 -2.49861115e-05 -0.6867843861
164.5159086 -94.45016159 148.7499026
224.5418836 -2.49861115e-05 32.33621461
0.000263641472 -22.016629 116.9387016
48.13275164 -2.49861115e-05 140.1378166
96.00026364 -20.08333633 29.60288661
14.58751664 -14.04649014 -145.2500974
37.98010564 -2.49861115e-05 -122.5600374
0.000263641472 -0.4567605761 18.74297361
96.00026364 -10.82665283 16.60469361
221.1421046 -2.49861115e-05 -75.03572239
0.000263641472 -9.830275596 78.80809161
96.00026364 -40.96358532 113.8816776
205.8929736 -2.49861115e-05 -85.73762739
96.00026364 -86.6224542 66.21899261
74.61657864 -38.79551362 -139.2500974
2.328337641 -118.9447241 148.7499026
96.00026364 -6.991369926 -16.38339439
156.7411716 -36.40704708 148.7499026
100.0002636 -46.15240572 -124.1713394
131.9945126 -2.49861115e-05 -97.91444939
247.4418876 -2.49861115e-05 79.38018361
161.2208126 -2.49861115e-05 -3.296182386
-2.325317359 -2.49861115e-05 -11.22311639
0.000263641472 -2.199465626 -75.07769639
100.0002636 -74.56357651 29.50997361
143.4295566 -2.49861115e-05 17.67118061
231.7436006 -20.3877597 -139.2500974
54.31627064 -2.49861115e-05 -45.35686139
139.3803056 -2.49861115e-05 28.37939161
-1.479694359 -2.49861115e-05 100.5400006
15.14620164 -35.75533569 -145.2500974
12.27847864 -66.44855941 -145.2500974
96.00026364 -2.280417586 25.54909361
0.000263641472 -73.5688144 80.60669061
0.000263641472 -56.99302199 35.72888761
167.2820676 -41.11892333 -139.2500974
100.0002636 -88.85062477 114.6080336
0.000263641472 -96.8157652 77.05097761
0.000263641472 -5.773939146 -84.23569139
101.8496616 -67.49777322 -145.2500974
248.5017156 -53.58095027 -145.2500974
166.0208656 -124.2766401 148.7499026
134.1691146 -2.49861115e-05 48.35270061
197.9892036 -16.23204885 -145.2500974
124.9274686 -2.49861115e-05 13.50629661
0.000263641472 -62.78214493 50.51772961
0.000263641472 -0.4328848661 60.95078761
96.00026364 -5.242608566 116.3382256
85.56166464 -2.544621776 -145.2500974
96.00026364 -5.752621206 86.56124961
91.36761664 -2.49861115e-05 -71.32781139
79.46023064 -80.12609505 148.7499026
94.06002564 -48.13455041 148.7499026
49.20962664 -59.3651429 -139.2500974
137.6583016 -2.49861115e-05 128.8181706
100.0002636 -26.91074704 -38.31022039
100.0002636 -39.24106854 86.85018961
63.72267864 -37.91276445 -145.2500974
204.4651656 -2.49861115e-05 57.30959061
96.00026364 -76.95520778 137.9799266
189.4894196 -20.8777955 148.7499026
96.00026364 -53.1977122 95.78152661
131.6867706 -41.20129062 -139.2500974
218.1768586 -2.49861115e-05 103.6595706
24.10764464 -2.49861115e-05 3.914252614
100.0002636 -32.7956712 96.95756561
24.45791764 -49.02286498 -145.2500974
7.295621641 -2.49861115e-05 -62.83071039
143.4908276 -2.49861115e-05 -10.34429039
210.4147136 -2.49861115e-05 32.97727261
100.0002636 -29.68616375 127.2559316
190.3548876 -57.44070459 -145.2500974
158.1407686 -19.47518151 -139.2500974
179.7520866 -7.041181396 -145.2500974
237.7717996 -2.49861115e-05 33.10408461
54.30764164 -2.49861115e-05 32.56324061
26.35794264 -2.49861115e-05 -91.09085839
96.00026364 -3.289486896 61.37750061
78.95765564 -41.93404665 -145.2500974
110.7276856 -19.32350953 -145.2500974
208.0785496 -29.69523519 -145.2500974
216.1683446 -2.49861115e-05 69.99006661
96.13395464 -56.92069775 -86.04886039
82.69675364 -2.49861115e-05 15.74178861
103.4845096 -11.02913676 -139.2500974
35.46412664 -2.49861115e-05 -47.39363939
202.8018026 -2.49861115e-05 50.29828061
237.2091016 -61.85562748 -139.2500974
100.0002636 -49.65319046 -61.89280739
225.9884046 -2.49861115e-05 59.44411161
182.2018236 -71.32150178 148.7499026
100.0002636 -50.00570196 -40.61398439
73.08574164 -2.49861115e-05 -71.59895139
144.0669006 -2.49861115e-05 64.84897261
141.7209226 -47.39129143 -139.2500974
140.9377666 -17.1971153 -139.2500974
-2.269317359 -34.51947485 148.7499026
156.7534986 -2.49861115e-05 -91.63119139
100.0002636 -7.112580886 -81.84151039
93.55222664 -2.49861115e-05 38.03628561
153.2226196 -54.74892226 -139.2500974
100.0002636 -16.54743994 79.00693061
0.000263641472 -22.08951413 -26.01896539
0.000263641472 -47.10711682 130.7720996
204.1872016 -2.49861115e-05 -65.22053739
206.3106366 -99.69038193 153.8997046
173.7468486 -2.49861115e-05 50.99311761
100.0002636 -78.76476279 97.38480461
171.3482466 -7.832482406 -145.2500974
96.51800364 -109.3253298 110.1968466
146.0114176 -2.49861115e-05 48.14196661
191.3518676 -113.5859554 148.7499026
100.0002636 -45.11279965 41.78636661
139.8012696 1.539830064 -139.2500974
100.0002636 -28.93276533 -69.55258639
0.000263641472 -70.8677188 141.9601846
110.6135506 -67.93346842 148.7499026
