# .PCD v0.7 - Point Cloud Data file format
VERSION 0.7
FIELDS x y z
SIZE 4 4 4
TYPE F F F
COUNT 1 1 1
WIDTH 1185
HEIGHT 1
VIEWPOINT 0 0 0 1 0 0 0
POINTS 1185
DATA ascii
-2.906693908e-06 -11.23366047 -86.97465135
203.4642981 -4.186397204 -111.8869574
109.1676361 -2.498420064e-05 -102.5511504
45.73429509 -2.498420064e-05 -17.41509235
78.68303909 -2.498420064e-05 11.30162065
112.5628291 -2.498420064e-05 -40.69964035
-2.906693908e-06 -25.59634165 64.43514065
35.01884209 -2.498420064e-05 -2.330319353
50.19044009 -54.69766931 -105.8869574
39.04730509 -2.498420064e-05 53.91263665
241.9439781 -48.22870024 -111.8869574
249.7870041 -2.498420064e-05 56.55019865
234.7133301 -2.498420064e-05 41.02998765
75.83657109 -24.55583128 -111.8869574
240.3749801 -2.498420064e-05 -94.72785935
-2.906693908e-06 -31.38034781 33.52906965
26.23126409 -28.99753519 -111.8869574
6.939975093 -2.498420064e-05 -63.36110835
59.70672009 -2.498420064e-05 -43.40914835
206.5299461 -67.36725171 -105.8869574
146.3614261 -29.86470889 -105.8869574
136.0123301 -18.50975236 -105.8869574
-2.906693908e-06 -41.95860966 101.1635486
238.3210081 -2.498420064e-05 -19.18923635
240.4017191 -2.498420064e-05 80.97643165
-2.906693908e-06 -67.5417126 13.19610065
53.86399509 -2.498420064e-05 -63.44824335
41.76716809 -2.498420064e-05 72.13979665
184.5704251 -2.498420064e-05 26.51559165
-1.233377907 -2.498420064e-05 -45.72515335
84.82159709 -32.50217427 -111.8869574
169.9684171 -2.498420064e-05 47.97637665
99.83171509 -2.498420064e-05 -47.74357635
-2.906693908e-06 -41.59424016 29.43138265
114.0973951 1.634894396 94.11304265
83.34548809 -2.498420064e-05 -70.54138535
65.95777509 -46.17202738 -105.8869574
235.1967771 -2.498420064e-05 -5.480110353
164.5734771 -2.498420064e-05 -0.5625843526
-2.906693908e-06 -24.10432787 -43.14228835
142.2543641 -2.498420064e-05 33.31289665
195.7776521 -56.18745519 -105.8869574
68.82424509 -2.498420064e-05 87.32189465
146.0025061 -2.498420064e-05 -64.00282235
127.9202241 -66.82142818 -105.8869574
-1.035664907 -68.00002402 103.3018466
-2.906693908e-06 -60.412187 50.41430365
242.5822191 -2.498420064e-05 -55.33047535
200.9096561 -2.498420064e-05 65.03173365
83.28192009 -2.498420064e-05 -91.87408635
201.1899061 -2.498420064e-05 -15.60697035
146.5020681 -39.54366295 -111.8869574
0.9243220933 -50.81356247 -111.8869574
101.7663261 -13.7124279 -105.8869574
100.0526901 -2.498420064e-05 -20.21468235
150.8062761 -2.498420064e-05 57.61539465
163.7220101 -46.47313208 -111.8869574
124.8095291 -2.498420064e-05 30.16469065
-2.906693908e-06 -19.97088123 104.7887446
18.49867809 -21.05523607 -111.8869574
-2.906693908e-06 -10.70227464 -50.69041635
111.7563971 -31.74452003 -111.8869574
31.32312809 -61.01628548 -111.8869574
68.09495209 -15.59944604 -111.8869574
136.7752871 -3.366201604 -111.8869574
37.19178009 -43.54800685 -111.8869574
157.9257231 -2.498420064e-05 -15.98184035
166.4040841 -68.00002402 -107.6406034
91.97983609 -2.498420064e-05 13.42182165
20.93210909 -2.498420064e-05 58.53409665
191.6047581 -2.498420064e-05 -100.7112464
132.5083451 -27.76544649 -105.8869574
-2.906693908e-06 -9.459970404 53.74063665
115.1287811 -40.19376422 -105.8869574
79.86229309 -2.498420064e-05 -14.67015835
133.8447371 -42.61935743 -105.8869574
82.70055609 -57.66499549 -105.8869574
70.94850309 -2.498420064e-05 -26.80821235
162.2824371 -19.03223636 -105.8869574
43.55971709 -2.498420064e-05 34.24397565
203.7881891 -2.498420064e-05 -86.69680235
186.2062091 -2.498420064e-05 -11.31375335
96.20858009 -2.498420064e-05 79.75792965
0.2523630933 -16.05750827 -105.8869574
223.5900971 -2.498420064e-05 92.21742165
8.659420093 -65.00411883 -105.8869574
203.3215921 -57.11579275 -111.8869574
237.3051941 -39.67586753 -111.8869574
195.7231451 -2.498420064e-05 -34.87753935
86.63616009 -46.71367733 -111.8869574
207.5581591 -18.04021385 -105.8869574
18.37138909 -2.498420064e-05 80.85286765
110.4380341 -2.498420064e-05 -77.88549035
216.1767911 -2.498420064e-05 86.06911165
110.0214331 -2.498420064e-05 13.22000765
41.01887809 -59.40603107 -105.8869574
195.0710471 1.607156906 94.11304265
-2.906693908e-06 -8.760522714 25.20099365
82.34541109 -1.554322994 -111.8869574
220.7741061 -2.498420064e-05 -84.39654235
152.9787081 -22.46592336 -111.8869574
153.4534491 -6.827266834 -105.8869574
90.71409809 2.420602656 -105.8869574
97.58565409 0.9882841158 2.711919647
173.3575971 -2.498420064e-05 -35.53113235
124.5569581 -2.498420064e-05 -61.88314035
-2.906693908e-06 -5.640370944 5.946171647
167.2064111 -7.616960024 -105.8869574
28.37462509 -47.09663766 -111.8869574
8.170617093 -30.01049503 -105.8869574
103.8528311 -2.498420064e-05 35.12753765
21.46558209 -2.498420064e-05 2.568266647
119.1511491 -16.60174987 -111.8869574
217.6382331 -2.498420064e-05 -103.2429214
17.14694109 -2.498420064e-05 -66.49323535
107.0099841 -2.498420064e-05 52.08355365
181.5883901 0.1818502958 -65.54173635
232.2803361 -2.498420064e-05 76.42597865
87.64573909 -2.498420064e-05 -51.32968535
57.01133809 -24.64588658 -111.8869574
178.9946481 -59.09472036 -111.8869574
-2.906693908e-06 -19.48710787 -82.74754535
-2.906693908e-06 -37.03723194 -3.934212353
235.1673631 -56.9960168 -105.8869574
-2.906693908e-06 -55.11974588 86.16962265
176.4817501 -24.47743055 -105.8869574
219.2133011 -2.498420064e-05 75.92544665
-2.906693908e-06 -25.35765384 -61.82252035
44.23011709 -17.42847629 -111.8869574
44.56634909 -2.498420064e-05 81.03562165
116.9756951 -2.498420064e-05 54.15505665
179.0481391 -10.87793341 -111.8869574
39.28233309 -2.498420064e-05 20.33098765
13.63892909 -2.498420064e-05 17.22689865
224.1554371 -2.498420064e-05 -3.019539353
145.7983021 -10.86666781 -111.8869574
60.01653109 -2.498420064e-05 19.56007665
-2.906693908e-06 -38.41912299 -91.66001635
106.5439761 -61.03306862 -111.8869574
231.4472961 -11.67054048 -105.8869574
18.45862409 -57.86153545 -105.8869574
47.14956209 -2.498420064e-05 -88.68610535
134.7388171 -2.498420064e-05 -8.414296353
250.9028571 -48.26054566 -111.8869574
-2.906693908e-06 -14.64554261 -11.58915435
41.16410309 -2.498420064e-05 -62.60764935
29.20109009 -10.95018164 -105.8869574
137.6747271 -2.498420064e-05 -77.11897135
128.4276301 -12.22233332 -111.8869574
201.8335861 -2.498420064e-05 35.07187765
121.3420741 0.0305603258 -105.8869574
178.7271731 -2.498420064e-05 55.18478365
-2.906693908e-06 -35.63386209 85.41050265
-2.906693908e-06 -32.98034685 111.2699696
208.2661671 -2.498420064e-05 45.32120565
191.3395001 -15.07786348 -111.8869574
186.3470481 -2.498420064e-05 -29.93512635
118.3399581 -25.81149109 -111.8869574
77.47950509 -2.498420064e-05 28.46648765
-2.906693908e-06 -43.02893933 71.47481565
-2.906693908e-06 -65.50476485 80.73882665
134.6553711 -2.498420064e-05 -101.1550524
240.2895031 -2.498420064e-05 9.095496647
210.6898451 -6.967117514 -105.8869574
218.6846261 -2.498420064e-05 32.09707065
-2.906693908e-06 -14.67731318 -67.76350335
-2.906693908e-06 -9.771587054 83.82711165
22.41743609 0.9493650058 -111.8869574
211.3945381 -51.53300371 -111.8869574
79.40193509 -2.498420064e-05 86.13384965
60.25200709 -2.498420064e-05 -12.77250535
80.26013109 -2.498420064e-05 -80.26566435
106.7078651 -19.57253274 -111.8869574
46.79932409 -68.00002402 -111.2402164
91.79361109 0.3564696858 -72.55226435
140.2004281 -55.68527546 -111.8869574
194.5555751 -2.498420064e-05 14.93505165
118.1478811 -2.498420064e-05 8.537100647
187.4925441 -49.0651424 -111.8869574
-2.906693908e-06 -9.434207464 -32.11890235
85.99765909 -2.498420064e-05 66.41632465
132.5185361 -56.20145702 -105.8869574
69.37867909 -7.355792044 -105.8869574
219.3409381 -42.21365216 -111.8869574
2.219800093 -2.498420064e-05 24.39976865
119.0279791 -66.18512029 -105.8869574
8.740350093 -2.498420064e-05 -88.00695735
161.6397821 -32.57916121 -111.8869574
-2.906693908e-06 -20.67999255 12.84836165
194.2159891 -43.52516799 -111.8869574
133.7714771 -2.498420064e-05 8.839208647
251.4689751 -2.498420064e-05 -22.57979835
63.28810909 -2.498420064e-05 31.67800765
115.8381441 -2.498420064e-05 -12.17959035
-2.262881907 -2.498420064e-05 -61.22277835
161.5297711 -2.498420064e-05 44.11157765
108.7230541 -2.498420064e-05 -18.36863535
102.4603671 -28.8027542 -111.8869574
65.42694709 0.7129870058 -105.8869574
105.8904021 -2.498420064e-05 24.11642265
197.2278761 -2.498420064e-05 -52.98774235
6.354831093 -2.498420064e-05 -24.60328635
178.2498171 -2.498420064e-05 18.73893365
248.3948021 -62.38793894 -111.8869574
238.6188531 -8.719701434 -111.8869574
180.8407101 -65.26879286 -105.8869574
180.4933321 -2.498420064e-05 -47.57513235
3.944224093 -7.585923984 -105.8869574
129.5848041 -36.3887013 -111.8869574
227.3673861 -2.498420064e-05 -64.90361735
19.54620309 -36.77203488 -111.8869574
188.7310841 -2.498420064e-05 -92.80414235
17.17744609 -2.498420064e-05 -42.34540535
49.76677409 -36.45517243 -111.8869574
-2.906693908e-06 -49.11504472 13.54526965
179.2634521 -30.46318994 -111.8869574
244.0715501 -21.0551727 -105.8869574
-2.906693908e-06 -6.451453064 -19.19557835
95.01643709 -2.498420064e-05 -55.27579335
9.463995093 -24.34002201 -111.8869574
69.38967609 -50.83574746 -111.8869574
5.503088093 -2.498420064e-05 -38.67458335
53.98002809 -43.36663044 -105.8869574
-0.6301519067 -1.000024984 67.49288265
107.1751571 -2.498420064e-05 43.22484465
-2.906693908e-06 -58.28558961 42.38536565
165.8606011 -53.80208838 -105.8869574
137.7440741 -2.498420064e-05 48.96225465
182.4547631 -45.13919134 -105.8869574
224.5575891 -2.498420064e-05 -39.27778135
163.2549431 -2.498420064e-05 -103.6733824
-2.906693908e-06 -49.26751021 24.12426465
58.95368309 -56.48456726 -111.8869574
62.04561109 -42.16499128 -111.8869574
222.9427091 -28.81074824 -105.8869574
-2.906693908e-06 -20.57260667 4.390272647
146.3592951 -48.29726489 -111.8869574
146.2204231 -2.498420064e-05 -103.7904344
194.3056271 -2.498420064e-05 50.00723865
41.35471009 -2.498420064e-05 -10.54245135
247.8999801 -8.717374284 -111.8869574
129.0600551 0.6799439558 -111.8869574
55.04132809 -2.498420064e-05 74.88923365
242.2332811 -66.67973677 -105.8869574
93.41305609 -2.498420064e-05 -42.78023935
162.9677461 -2.498420064e-05 -51.94859635
133.1912701 -2.498420064e-05 -23.19959535
235.1057231 -2.498420064e-05 50.13923265
26.76796309 -2.498420064e-05 64.37613165
175.5785501 -2.498420064e-05 37.84322965
150.9886141 -36.5795859 -105.8869574
24.34978809 -2.498420064e-05 -62.29822435
222.1498881 -14.79726526 -111.8869574
8.622070093 -48.47154725 -111.8869574
112.1021231 -2.498420064e-05 86.49511765
-2.906693908e-06 -37.89727429 77.66113965
209.8411121 2.423164576 -105.8869574
57.03782909 -2.498420064e-05 -75.32554535
222.6709441 -2.498420064e-05 -25.22711235
29.33697509 -2.498420064e-05 76.98672865
236.4325561 -48.30433436 -105.8869574
-2.906693908e-06 -5.203510674 95.23585565
228.9433031 -41.76300436 -111.8869574
71.83336009 -2.498420064e-05 -59.91076435
207.8241511 -2.498420064e-05 61.03454265
136.9536541 -2.498420064e-05 -46.35069235
160.9849311 -2.498420064e-05 61.98900265
149.3153681 -2.498420064e-05 -78.02602235
-1.808075907 -45.11886669 -105.8869574
15.67151109 -4.569465214 -111.8869574
150.2017841 -2.498420064e-05 32.78575365
107.4038901 -6.976654284 -105.8869574
-0.9280529067 -55.64482314 -105.8869574
54.83629709 -61.10080708 -105.8869574
123.0323191 -2.498420064e-05 42.24218765
24.03430109 -2.498420064e-05 43.97333165
2.243207093 -2.498420064e-05 -52.95320935
48.82634409 -7.002737724 -111.8869574
45.29026509 -53.22413725 -111.8869574
107.5179281 -28.02760182 -105.8869574
71.12683009 -28.65127581 -105.8869574
92.39598209 -30.43365839 -111.8869574
75.27510809 -43.99069048 -111.8869574
46.19426109 -2.498420064e-05 -46.90875635
83.92573509 -40.73473715 -105.8869574
146.2861881 -62.55805668 -111.8869574
149.0249601 -2.498420064e-05 -16.11255835
70.19926709 -39.58171975 -105.8869574
183.7761711 -2.498420064e-05 -21.01936735
93.08489909 -2.498420064e-05 -5.115726353
90.29961309 -62.418983 -105.8869574
-2.906693908e-06 -43.43085279 84.80559465
219.8934961 -2.498420064e-05 13.83982765
225.6799471 -2.498420064e-05 -55.34261235
80.50511509 -22.79710251 -105.8869574
215.9055571 -22.73279816 -111.8869574
170.4880181 -2.498420064e-05 17.99134965
-2.906693908e-06 -22.40415364 87.45852765
-2.906693908e-06 -11.57134611 104.1060446
-2.906693908e-06 -66.92656064 33.71707965
45.21045409 -34.50946513 -105.8869574
21.05686009 -2.498420064e-05 19.48179365
118.0964431 -30.70014887 -105.8869574
24.88525309 -51.77988867 -105.8869574
113.0565801 -2.498420064e-05 -61.84069435
75.78492009 -2.498420064e-05 -86.55121535
132.4968781 -2.498420064e-05 54.61791965
148.3056381 -2.498420064e-05 45.50990965
250.1145881 -34.63662015 -111.8869574
9.131587093 -10.52113024 -111.8869574
227.6299801 -8.729542504 -111.8869574
77.14383509 -7.198926454 -111.8869574
99.73308209 -1.013606204 -105.8869574
75.39938309 -2.414568624 -105.8869574
118.3445111 -2.498420064e-05 -32.34547535
87.89410909 -28.90621902 -105.8869574
205.7078381 -34.21773744 -111.8869574
12.37323509 -2.498420064e-05 -2.261910353
195.7758221 -2.498420064e-05 4.064522647
174.5450021 -60.51787962 -105.8869574
4.077280093 -2.498420064e-05 11.47635165
205.6850441 -2.498420064e-05 -1.664720353
113.4446481 -65.34888398 -111.8869574
22.49882209 -2.498420064e-05 -101.5186604
229.3927011 -2.498420064e-05 -84.96669535
57.48611909 -35.93026203 -111.8869574
30.22355309 -26.69068853 -105.8869574
112.4160901 -49.43390035 -111.8869574
199.0017511 -3.122968014 -105.8869574
113.1943651 -2.498420064e-05 -48.21949735
192.7795811 -2.498420064e-05 62.25421465
-2.906693908e-06 -51.38981804 100.9576286
51.01985509 -2.498420064e-05 -98.14550435
134.5382291 -2.498420064e-05 -69.00738435
-2.906693908e-06 -38.95708448 8.779780647
174.1888181 -10.32460147 -105.8869574
48.71696009 -13.36176297 -105.8869574
8.876888093 -2.498420064e-05 -45.32676335
35.85674209 -31.33832199 -111.8869574
80.36543409 -14.00642251 -111.8869574
36.55549209 -9.680499384 -105.8869574
163.7284911 -2.498420064e-05 -90.81426735
159.0898111 -56.91493781 -105.8869574
140.0687421 -38.11713432 -105.8869574
51.09625009 -2.498420064e-05 -40.68749235
208.2272701 -41.32785558 -111.8869574
202.3752311 0.2595278758 94.11304265
104.3076231 -47.34096186 -105.8869574
15.62836109 1.156158436 -105.8869574
242.3816771 -13.8434176 -105.8869574
171.1500851 -5.798949514 -111.8869574
56.66838309 -18.20457164 -105.8869574
156.4968101 -2.498420064e-05 26.02395465
192.1238941 -59.4898473 -111.8869574
105.0997561 -2.498420064e-05 68.09566065
29.72618309 -2.498420064e-05 -32.80980635
40.33055409 -2.498420064e-05 7.914013647
175.7917201 -2.498420064e-05 -19.24876235
136.0353291 -2.498420064e-05 80.78993365
246.6701031 -2.498420064e-05 13.23027965
4.034147093 0.4735007158 -111.8869574
37.23539809 -2.498420064e-05 -104.6531444
228.4479671 -45.96478002 -105.8869574
246.3067261 -2.498420064e-05 -73.74550135
189.5751681 -2.498420064e-05 -48.06386635
214.5731321 -66.36354459 -105.8869574
24.17625609 -2.498420064e-05 -21.48516735
7.086747093 -2.498420064e-05 31.21234265
108.5245811 -37.09692376 -105.8869574
73.19112909 -2.498420064e-05 64.79260765
90.92372409 -2.498420064e-05 -90.01131935
61.80066109 -2.498420064e-05 68.71223965
235.4777361 -2.498420064e-05 -60.20628435
232.4399481 -36.8337007 -105.8869574
235.6895481 -2.498420064e-05 -30.84596335
74.37051509 -2.498420064e-05 17.14583765
16.52386409 -12.20635298 -105.8869574
52.27677109 -2.498420064e-05 -20.55810135
-2.906693908e-06 -17.15061115 -47.36140635
122.2105911 -2.498420064e-05 59.16045865
170.2009021 -2.498420064e-05 -69.21156235
125.1535971 -29.1411947 -105.8869574
186.2901101 -2.498420064e-05 73.48799865
27.95932609 -2.498420064e-05 -0.5786633526
10.45036109 -2.498420064e-05 -10.00741735
94.25502909 -1.253815174 -111.8869574
155.1543051 -2.498420064e-05 47.73419665
-2.906693908e-06 -28.92007729 -82.70263035
79.01590409 -2.498420064e-05 -58.65511135
121.5439311 -53.69978916 -111.8869574
191.4600311 -68.00002402 -108.7042834
-2.906693908e-06 -7.056525734 -5.787084353
60.03449509 -2.498420064e-05 59.13639165
120.9346611 -3.862961674 -111.8869574
114.0980111 -7.009177774 -111.8869574
4.808856093 -2.498420064e-05 53.65298165
57.51040309 -2.498420064e-05 -29.15875935
11.95563409 -2.498420064e-05 70.54250265
235.8442081 2.168225826 94.11304265
-2.906693908e-06 -10.72994516 39.19633265
-0.6133739067 -30.87733704 -105.8869574
174.7289351 -2.498420064e-05 -52.58687735
152.4214451 -2.498420064e-05 1.080945647
61.29472809 -17.58072817 -111.8869574
52.24780509 -2.498420064e-05 12.49771765
98.43419309 -53.77303666 -111.8869574
99.38939609 -16.58358489 -111.8869574
104.7666361 -55.28619173 -105.8869574
95.59386409 -10.31900853 -105.8869574
213.8577821 -2.498420064e-05 9.228502647
155.2530231 -19.41929062 -105.8869574
20.94257109 -43.66142826 -111.8869574
22.04835009 -20.16792684 -105.8869574
190.9078651 -7.679028944 -111.8869574
-2.906693908e-06 -24.63743039 35.49886665
107.1575951 -3.332066364 -111.8869574
212.3867511 -23.71242081 -105.8869574
84.05834909 -2.498420064e-05 -30.90984235
205.7613791 -48.54002427 -105.8869574
89.84062609 -2.498420064e-05 82.69094765
44.52552009 -2.498420064e-05 27.01736665
224.5705611 -51.52786206 -111.8869574
97.82803109 -2.498420064e-05 -83.91487435
4.182622093 -33.00919921 -111.8869574
77.17712209 -2.498420064e-05 -40.78299635
129.0576021 -60.25437456 -111.8869574
220.8643151 -6.396076914 -111.8869574
142.0224961 -22.61431451 -105.8869574
24.51634909 -2.498420064e-05 -80.61675135
115.6544881 -53.21114717 -105.8869574
92.99962909 -20.011503 -105.8869574
104.9850441 -2.498420064e-05 -61.59761635
123.5131341 -2.498420064e-05 -20.79706135
126.9334851 -2.498420064e-05 7.752952647
-0.3129709067 -6.869693514 -93.04626735
132.0930671 -2.498420064e-05 -41.13817735
31.86683009 -68.00002402 -107.1613684
135.8506231 -2.498420064e-05 66.42587065
184.9344571 -2.498420064e-05 -71.56173835
27.98540709 -36.69771991 -111.8869574
83.06315809 -2.498420064e-05 91.96760365
29.39071309 -2.498420064e-05 -71.60565235
36.89729409 -54.75843537 -111.8869574
120.2131511 -2.498420064e-05 -46.28788235
150.8185671 -2.498420064e-05 -98.67760435
72.63086109 -2.498420064e-05 47.89970165
207.4180401 -2.498420064e-05 31.07424765
-2.906693908e-06 -19.14261761 -29.56211135
68.99480109 -24.9040486 -111.8869574
83.31751909 -2.498420064e-05 80.40341965
61.84320109 -2.498420064e-05 -89.74461535
2.533325093 -61.95829402 -105.8869574
141.0770461 -2.498420064e-05 -52.32138435
45.35250309 -2.498420064e-05 51.30564865
-1.471624907 -68.00002402 50.41146765
-2.906693908e-06 -4.942254324 102.0530476
15.94765909 -2.498420064e-05 -49.67584835
221.0889051 -2.498420064e-05 -9.483830353
-1.017850907 -2.498420064e-05 81.78946265
210.2101991 -2.498420064e-05 -88.94723335
47.13979509 0.2258704358 -111.8869574
6.885344093 1.909298576 -105.8869574
139.1218821 -46.81321604 -111.8869574
223.9620841 -59.6551746 -105.8869574
176.9672261 -40.39444295 -105.8869574
96.15296809 -36.0855265 -111.8869574
92.25708509 -2.498420064e-05 24.03240165
193.7860851 -2.498420064e-05 87.52977665
-2.906693908e-06 -29.36104677 50.76006365
81.43869709 -5.827529724 -105.8869574
178.9262531 -53.70148044 -105.8869574
167.5192421 -39.50140329 -111.8869574
213.6843221 -2.498420064e-05 0.5240696474
127.3481361 -49.31006916 -105.8869574
214.4240801 -2.498420064e-05 62.47164665
182.7042371 -33.98614605 -105.8869574
154.5435821 -51.98527321 -111.8869574
20.59765909 -60.07572793 -111.8869574
-0.4439349067 -1.000024984 -35.66761035
-2.906693908e-06 -15.96495879 34.69143565
221.2266451 -2.498420064e-05 47.83799765
65.92968709 -2.498420064e-05 15.78479165
-2.906693908e-06 -55.72316446 113.3049316
145.1094571 -32.95930383 -111.8869574
212.5839621 -2.498420064e-05 -36.28871835
186.6283221 -2.498420064e-05 44.14727065
202.2242061 -2.498420064e-05 79.94690565
10.01143009 -57.33420392 -111.8869574
19.35652409 -2.498420064e-05 87.49346465
-2.906693908e-06 -24.63555365 28.32556265
-2.906693908e-06 -12.43664174 73.93361765
230.1728121 -27.12151579 -111.8869574
33.81781709 -2.498420064e-05 -8.925414353
186.7685221 -26.99973325 -111.8869574
246.6299511 -3.005199624 -105.8869574
-2.906693908e-06 -52.48824081 58.84548065
13.22500309 -38.95067078 -111.8869574
132.4783361 -35.84803557 -105.8869574
119.5846041 -2.498420064e-05 65.92303465
178.1311931 1.835445736 2.711919647
163.9089851 -15.10199016 -111.8869574
211.0376771 -2.498420064e-05 -96.93436035
178.3681421 -2.498420064e-05 -83.58541335
43.52009709 -2.498420064e-05 -35.25788435
232.3391221 -2.498420064e-05 -69.41403835
68.81938909 -2.498420064e-05 -52.53345735
80.14617309 -2.498420064e-05 43.13378965
228.6538841 -16.03668637 -111.8869574
238.5242031 -25.30069917 -111.8869574
-2.906693908e-06 -5.873186694 -12.29368435
140.5384481 -63.13632424 -105.8869574
-2.906693908e-06 -42.68379076 107.7277326
146.1387161 -20.24047566 -111.8869574
-2.906693908e-06 -63.9853743 18.75539565
-2.906693908e-06 -56.46562997 23.96834765
39.82224109 -7.456544604 -111.8869574
66.34195309 -67.9995081 -105.8869574
91.86351709 -46.3250467 -105.8869574
28.66347109 -2.498420064e-05 -40.46315535
180.5989461 -2.498420064e-05 -33.12141235
246.5181001 -43.36502124 -111.8869574
46.84604709 -2.498420064e-05 -24.25481135
139.2918381 -28.58811358 -105.8869574
168.6590311 -32.92129689 -111.8869574
143.4869661 -2.498420064e-05 62.53666565
191.6099231 -2.498420064e-05 -15.01497935
178.8488051 2.099367956 -105.8869574
190.0033911 -49.81794272 -105.8869574
89.66121009 -2.498420064e-05 -65.88074635
180.2973381 -24.00016261 -111.8869574
229.1945941 -2.498420064e-05 -20.03852135
-2.906693908e-06 -20.94969909 -76.37053135
80.81768109 -2.498420064e-05 34.09091265
205.8300411 -63.15510091 -111.8869574
201.1741751 -2.498420064e-05 -69.63236535
-2.906693908e-06 -5.972561004 -25.81277935
-2.906693908e-06 -39.03598609 -104.2893674
184.7699321 -2.498420064e-05 82.50522365
27.53470109 -2.498420064e-05 31.75623465
48.59396609 -2.498420064e-05 -59.61873435
211.1982981 -2.498420064e-05 -48.45169435
207.6686791 -2.498420064e-05 -16.22210835
42.67883109 -61.29431096 -111.8869574
112.2253201 -23.01714274 -111.8869574
206.7369781 -2.498420064e-05 84.66124765
235.7091931 -2.498420064e-05 16.28217365
196.9404211 -2.498420064e-05 -26.11767335
59.91547709 -2.717315114 -105.8869574
70.80739709 -9.705960634 -111.8869574
107.3041961 2.133922536 94.11304265
154.3241721 -64.36336663 -111.8869574
64.03085909 -35.99407625 -111.8869574
146.5500301 -2.498420064e-05 86.25064065
212.1875381 -2.498420064e-05 70.89683965
173.6743681 -2.735147974 -105.8869574
69.13749409 -2.498420064e-05 -74.42272035
35.35038409 -45.06043324 -105.8869574
148.1926191 -66.43991625 -105.8869574
-2.906693908e-06 -67.48270233 65.96483865
185.7957501 -60.71334463 -111.8869574
-2.906693908e-06 -26.44595602 82.44656465
67.88377309 -2.498420064e-05 2.891334647
78.58117209 -30.36923599 -111.8869574
29.11601709 -53.4813098 -111.8869574
94.38959109 -2.498420064e-05 33.80317865
58.98942609 -2.498420064e-05 -50.20455835
24.57831609 -18.99244851 -111.8869574
6.147877093 -2.498420064e-05 4.811427647
-2.906693908e-06 -44.85448247 34.95074365
64.75731309 -29.33327363 -105.8869574
125.8996571 -67.79716431 -111.8869574
232.0380171 -2.498420064e-05 11.04068165
167.0640301 -2.498420064e-05 -34.38025535
45.51267209 -2.498420064e-05 -94.86150835
225.8333151 -0.7547955442 -105.8869574
249.9518891 -2.498420064e-05 45.23134565
69.65476609 -2.498420064e-05 31.33867165
-2.906693908e-06 -18.44667352 -17.70785835
0.3704000933 -57.33398617 -111.8869574
-2.906693908e-06 -17.36229099 -61.99217035
130.7146721 2.001294836 -105.8869574
178.0419811 -2.498420064e-05 30.41840865
202.0346141 -2.498420064e-05 -7.907679353
97.35673009 -42.66325792 -105.8869574
213.2796121 -2.498420064e-05 -61.70086135
49.22438709 -2.498420064e-05 18.35573465
245.1000651 -2.498420064e-05 -49.50657535
222.4832131 -43.82337786 -105.8869574
233.4630031 -55.87559711 -111.8869574
163.5481741 -2.498420064e-05 -68.23727935
32.34364709 -2.498420064e-05 -81.68560635
163.0069121 -2.498420064e-05 86.81528465
45.93848209 -1.364207884 -105.8869574
83.96100309 -2.498420064e-05 -46.19720035
153.2755981 -2.498420064e-05 -73.10456635
168.1877241 -16.79039635 -105.8869574
-2.906693908e-06 -36.25377475 57.70974665
-2.906693908e-06 -56.0781503 70.34684165
65.90788809 -2.498420064e-05 -17.00990335
-1.156705907 -25.50002498 -25.85079735
133.9241101 -15.31054824 -111.8869574
119.4419751 -2.498420064e-05 34.77440965
136.5479731 -28.15732008 -111.8869574
-2.906693908e-06 -27.73530286 70.35664765
249.7697211 -28.84658731 -105.8869574
197.1505301 -63.04218906 -105.8869574
234.5967741 -2.498420064e-05 -38.71415035
46.24258909 -2.498420064e-05 -2.028078353
-0.04093590669 -44.44179521 -111.8869574
16.69539009 -15.03415922 -111.8869574
91.98292909 -2.498420064e-05 -100.2348744
196.2902841 -10.90711414 -111.8869574
96.66741409 -24.53209559 -111.8869574
165.8648841 -62.00506613 -105.8869574
175.4404381 -2.498420064e-05 -5.261016353
217.3959471 -2.498420064e-05 93.12080965
-2.906693908e-06 -63.08812801 28.77488965
-2.906693908e-06 -7.197140944 33.48122665
69.84533909 -59.83825171 -105.8869574
156.9908291 -2.498420064e-05 13.88426665
55.70305209 -41.91618755 -111.8869574
20.93537309 1.277460196 94.11304265
40.33971709 -2.498420064e-05 -20.53399735
169.8198441 -28.01937905 -105.8869574
-2.906693908e-06 -49.367298 0.9548146474
252.3923991 -36.08870746 -105.8869574
66.96930309 -2.498420064e-05 72.15952165
102.1246191 -38.16899686 -105.8869574
199.9993081 -21.3637127 -105.8869574
243.7465011 -19.49235254 -111.8869574
142.4366751 -2.498420064e-05 -43.44111835
8.419620093 -63.44962826 -111.8869574
188.0888811 -2.498420064e-05 -36.42721735
180.0742651 -52.67398816 -111.8869574
128.7690681 -22.19387699 -105.8869574
51.64250409 -2.498420064e-05 -13.17290435
196.5603351 -31.57109052 -105.8869574
26.22817309 -2.498420064e-05 -15.55371935
-2.906693908e-06 -58.42864941 91.36706865
65.03487709 -14.44697708 -105.8869574
-1.089901907 -15.80832313 -111.8869574
208.8777561 -17.45032429 -111.8869574
139.0075191 -56.22755263 -105.8869574
-1.812992907 0.6508206658 95.61304265
38.52243809 -25.80923161 -111.8869574
249.2483431 -61.45808246 -105.8869574
150.4967721 -46.15306662 -105.8869574
98.76793609 -2.498420064e-05 53.15389665
131.6002071 -2.498420064e-05 84.98053465
27.93330609 -2.498420064e-05 58.16722365
194.7757981 -2.498420064e-05 -60.48141235
-2.906693908e-06 -49.63339112 41.54359365
62.16841009 -9.968920184 -111.8869574
148.5016191 -2.498420064e-05 71.16239365
197.1301191 -38.09846959 -111.8869574
-2.906693908e-06 -59.39123945 34.39736265
8.949576093 -3.423499524 -111.8869574
6.345593093 -2.498420064e-05 -1.486037353
174.5466201 -2.498420064e-05 -58.91213335
-2.906693908e-06 -8.400029034 47.76422565
31.20478209 -2.498420064e-05 20.09357765
12.04915009 -2.498420064e-05 -100.8855644
161.3889031 -38.62881769 -111.8869574
148.7746651 -2.498420064e-05 -92.98263235
153.1459711 -2.498420064e-05 -63.12576435
143.4072491 -2.498420064e-05 2.106136647
-2.906693908e-06 -38.32498852 96.33604265
208.2050011 -40.62327211 -105.8869574
185.8579451 -2.498420064e-05 51.10103265
45.75089609 -44.49249772 -111.8869574
237.8831601 -2.728166754 -111.8869574
133.2772391 -42.37600982 -111.8869574
119.1973901 -2.498420064e-05 -88.48649635
78.01791209 -2.498420064e-05 68.39923565
53.57201009 0.6625074358 -105.8869574
206.6637081 -2.498420064e-05 22.05807765
216.4720041 -54.7272511 -111.8869574
12.46813909 -2.498420064e-05 -61.03599935
235.5514361 -20.70920539 -105.8869574
221.9248021 -2.498420064e-05 -78.51173435
-2.906693908e-06 -22.35817531 -5.495169353
124.7500531 -2.498420064e-05 -100.9549674
24.45856609 -2.498420064e-05 -29.95293435
101.2902721 -2.498420064e-05 -53.55323635
27.94189509 -33.28525693 -105.8869574
157.5340341 -2.498420064e-05 -45.02951335
-2.906693908e-06 -24.95520034 101.4904246
88.07446709 -2.498420064e-05 7.093447647
228.4676771 -2.498420064e-05 61.43262065
214.8609291 -6.598260954 -111.8869574
64.12273109 -2.498420064e-05 -99.08044435
105.4520821 -68.00002402 -110.4416694
27.93109609 -65.89648446 -111.8869574
27.19654109 -5.357624274 -105.8869574
1.951374093 -2.498420064e-05 -87.43778935
-2.906693908e-06 -5.371983424 -47.93100435
221.7188181 -2.498420064e-05 -90.43675835
91.64857709 -2.498420064e-05 54.21863265
13.03201509 -2.498420064e-05 56.31445865
213.0786521 -12.38466427 -105.8869574
-2.906693908e-06 -48.63178214 69.56265665
-2.906693908e-06 -60.17252089 106.7052726
70.88516109 -2.498420064e-05 78.05771765
249.6449761 -45.65366579 -105.8869574
44.46934509 -2.498420064e-05 -83.42593335
99.98682309 -48.09086391 -111.8869574
-2.906693908e-06 -6.585030474 -78.14334735
201.8324261 -16.86184009 -111.8869574
-2.906693908e-06 -22.57466117 -100.6638794
-2.906693908e-06 -39.14231692 90.11774865
155.6845321 -2.498420064e-05 74.38184265
-2.906693908e-06 -8.913371664 -68.86972735
14.59419209 -67.63961176 -105.8869574
99.61286609 -2.498420064e-05 -100.1129784
13.52437309 -54.10996125 -105.8869574
166.4516931 -2.498420064e-05 71.87336165
-2.906693908e-06 -31.37994984 -5.436300353
20.49537409 -35.10155921 -105.8869574
236.6118011 -14.79893402 -105.8869574
29.09527109 -42.94904472 -105.8869574
156.3806471 -2.498420064e-05 33.61241065
199.2352571 -2.498420064e-05 -2.361721353
233.5772481 -43.19954222 -105.8869574
-2.906693908e-06 -54.51248598 11.35961165
-2.906693908e-06 -27.6252894 113.5447466
146.7733771 -2.498420064e-05 -31.83839235
127.4678291 -2.498420064e-05 25.00324165
240.4466461 -2.498420064e-05 40.12667565
106.9473271 -2.498420064e-05 30.22381365
90.57885709 -34.03534694 -105.8869574
-0.2022429067 -2.498420064e-05 4.679173647
216.1324341 -2.498420064e-05 -28.36792335
85.35584009 -46.33430454 -105.8869574
-2.906693908e-06 -12.66752508 -17.70562335
24.87936409 -2.498420064e-05 69.83791565
109.3559441 -2.498420064e-05 -35.90130035
-2.906693908e-06 -14.45979821 -38.45373035
176.3622961 -2.498420064e-05 -98.75568135
135.5638371 -60.79954256 -111.8869574
130.5709591 -2.498420064e-05 3.285630647
49.81520609 -49.6614347 -111.8869574
-2.906693908e-06 -11.38357838 6.298728647
189.3171841 -1.010502764 -105.8869574
52.32219509 -2.498420064e-05 -78.61085735
112.9555011 -2.498420064e-05 37.95048565
198.9462101 -2.498420064e-05 11.23700065
165.0624351 -2.498420064e-05 16.14368365
40.81989809 -2.498420064e-05 -56.85970435
116.7827081 -24.50567613 -105.8869574
130.2749621 -2.498420064e-05 -61.59879835
-2.906693908e-06 -34.28313396 38.46316665
77.92957009 -65.47644979 -105.8869574
-2.906693908e-06 -19.49168231 46.60810665
-2.906693908e-06 -22.08941208 69.52134565
-2.004797907 -43.90496743 -85.61095135
108.7477901 -2.498420064e-05 19.18515965
137.4736331 -2.498420064e-05 -15.13265235
221.5198281 -0.7379178142 -111.8869574
-2.906693908e-06 -20.10717504 21.14478465
19.46043309 -7.332332554 -105.8869574
-2.906693908e-06 -35.44933648 -86.81791535
224.8850601 -36.87780046 -111.8869574
-2.906693908e-06 -17.28489771 65.22445265
165.7871261 -2.498420064e-05 -10.74800135
171.8917291 -2.498420064e-05 -78.13450335
120.2594541 -68.00002402 -111.3322954
3.569666093 -2.498420064e-05 -67.91913035
160.2607721 -67.43018289 -105.8869574
171.1729781 -54.00603806 -111.8869574
214.2691751 -52.67076074 -105.8869574
14.04605509 -33.53628192 -105.8869574
141.5513951 -14.58550425 -111.8869574
128.4109841 -2.498420064e-05 40.53482065
2.909768093 -2.498420064e-05 76.89266265
216.1935771 -2.498420064e-05 27.05806565
144.3279641 -2.498420064e-05 10.86623465
-2.906693908e-06 -58.07766772 59.42492865
-0.6369689067 -68.00002402 97.69777465
5.747105093 -43.03575826 -105.8869574
222.0772921 -68.00002402 -110.9070594
244.9535111 -2.498420064e-05 77.69489265
96.79656809 -2.498420064e-05 63.98861365
9.628674093 -2.498420064e-05 12.23554865
245.8945081 -50.03887787 -105.8869574
131.3735341 -68.00002402 -110.1251774
-2.906693908e-06 -66.95646677 109.0172236
74.92195509 -24.5546585 -105.8869574
28.13630809 -16.43074792 -105.8869574
-2.906693908e-06 -55.6745957 47.31932465
111.6845871 -2.498420064e-05 -8.461669353
72.82409509 -2.498420064e-05 -33.23883735
117.0711591 -2.498420064e-05 14.00244265
-2.906693908e-06 -24.77306635 -0.09336035259
-2.906693908e-06 -34.174543 -80.89967435
130.1313541 -2.498420064e-05 70.85447165
187.9138761 -54.58889993 -111.8869574
-2.906693908e-06 -13.42181392 -95.83898835
178.9638961 -2.498420064e-05 71.95372065
148.7961791 -5.926922464 -111.8869574
90.38128409 -2.498420064e-05 -35.49061935
61.01883709 -2.498420064e-05 82.54229265
78.61424109 -54.13925853 -111.8869574
244.0677811 -2.498420064e-05 -79.92742235
236.4909661 -2.498420064e-05 -78.42545635
119.4476811 -2.498420064e-05 -58.24174435
36.71929109 -2.498420064e-05 74.32950965
-2.906693908e-06 -51.49551785 18.50527065
161.8009291 -2.498420064e-05 -28.02974035
-0.7533809067 -25.50002498 -49.11328635
151.4835671 -2.498420064e-05 16.84408665
110.3138961 -2.498420064e-05 -90.83974635
18.68679509 -2.498420064e-05 -77.37217535
230.3913431 -2.498420064e-05 -8.096122353
194.0520901 -2.498420064e-05 24.52724165
142.8467191 -2.498420064e-05 -86.10861035
-2.906693908e-06 -39.77541139 23.61298865
-2.906693908e-06 -45.62941182 50.96642865
246.9145361 -2.498420064e-05 -58.64417635
-2.906693908e-06 -14.47463712 86.58907265
229.7559091 -60.37442985 -105.8869574
237.4750831 -64.03468917 -105.8869574
167.6996191 -22.20448122 -105.8869574
243.0437991 -2.498420064e-05 -36.27904535
-2.906693908e-06 -42.82736184 13.62447965
128.3685691 -2.498420064e-05 90.61720265
97.38111809 -2.498420064e-05 91.25884765
66.31178709 -2.498420064e-05 -69.78958435
202.7776211 -63.45029674 -105.8869574
137.5340271 -2.498420064e-05 74.06681365
-2.906693908e-06 -64.37487231 45.09379765
141.9174721 -2.532044824 -105.8869574
-2.906693908e-06 -43.30821346 77.59693965
219.7438661 -63.04062418 -105.8869574
17.93491709 -2.498420064e-05 -36.34418535
230.9161141 -17.04567149 -105.8869574
33.38556009 -36.6283358 -111.8869574
181.7848121 -6.224610334 -111.8869574
-2.906693908e-06 -19.67141618 92.11044665
48.55736409 -2.498420064e-05 46.96826265
-2.906693908e-06 -18.49227787 73.53560365
76.15569309 -2.498420064e-05 -28.20030135
191.5144671 -2.498420064e-05 36.60438165
58.21274109 -46.69966735 -105.8869574
-2.906693908e-06 -30.56033162 28.20835065
202.5403701 -2.498420064e-05 28.80255265
16.27282309 -2.498420064e-05 -90.83066135
246.0030861 -2.498420064e-05 -0.8951293526
102.7658181 -2.498420064e-05 -14.84655535
-2.906693908e-06 -49.54556173 -102.4014184
232.2319941 -2.498420064e-05 -55.94974135
142.6561111 -4.110931434 -111.8869574
-1.174514907 -2.738539624 -111.8869574
-2.906693908e-06 -32.80543861 72.02342865
-2.906693908e-06 -22.86000303 41.61033865
-2.906693908e-06 -7.120299074 15.68662865
-2.906693908e-06 -63.25063484 75.90525365
102.9471811 0.4519743258 -66.68183135
-2.906693908e-06 -33.6366561 9.128847647
-2.906693908e-06 -20.19692438 98.40263265
170.5592221 -2.498420064e-05 -84.16008035
-2.906693908e-06 -20.15248287 -90.84601035
203.4213281 -39.02160719 -111.8869574
200.9148931 -40.09570122 -105.8869574
-2.906693908e-06 -5.271510204 -56.96508835
201.7288751 -2.498420064e-05 -81.79358935
-2.906693908e-06 -4.931649174 109.0586516
-2.906693908e-06 -37.55258782 44.67678465
199.0303981 -2.498420064e-05 69.99595365
-2.906693908e-06 -50.5251042 114.3589436
136.8075771 -1.112384524 -105.8869574
16.72175709 -2.498420064e-05 41.88639865
33.80517209 -2.498420064e-05 53.14029065
232.0225201 -60.97256431 -111.8869574
103.1072511 -12.81354147 -111.8869574
150.5206601 -2.498420064e-05 -45.41072335
-2.906693908e-06 -51.18277725 52.77941465
163.0286331 -2.498420064e-05 39.04195465
40.80656909 -2.498420064e-05 -47.12860635
225.3129701 -29.18260608 -111.8869574
-2.906693908e-06 -63.95851349 38.08197565
247.0941781 -2.498420064e-05 -19.63327735
221.7827541 -2.498420064e-05 -99.99646135
-2.906693908e-06 -33.36653569 -0.1607683526
168.9982421 -2.498420064e-05 12.65188965
-2.906693908e-06 -27.5197549 59.54248165
99.25753909 0.3383573058 -111.8869574
96.24602709 -2.498420064e-05 -38.37706135
102.0972331 -2.498420064e-05 63.82235665
82.63724109 -2.498420064e-05 58.51432365
-2.906693908e-06 -25.02268199 94.68774265
216.4317561 -2.498420064e-05 -87.28190135
-2.906693908e-06 -15.92665597 17.69596365
2.812393093 -2.498420064e-05 -5.351234353
-2.906693908e-06 -63.43454846 94.05945765
183.5427501 -45.67045944 -111.8869574
160.7781141 -27.44422685 -111.8869574
-2.906693908e-06 -23.86971104 17.54604565
232.7315691 -2.498420064e-05 -43.57254735
7.394544093 -2.498420064e-05 92.63014565
9.855097093 -2.498420064e-05 -67.66794935
89.43963009 -2.498420064e-05 -46.13058035
-2.906693908e-06 -15.96024852 -100.3697564
162.1655701 -4.568179054 -105.8869574
213.0907211 -2.498420064e-05 -72.37162535
167.7687421 -2.498420064e-05 3.524817647
-2.906693908e-06 -21.29018213 110.6914146
-2.906693908e-06 -30.41796274 23.02377865
-2.906693908e-06 -54.88648241 63.51315465
165.3499871 -2.498420064e-05 28.86465965
-2.906693908e-06 -54.31202662 81.05342565
-2.906693908e-06 -43.07801774 93.85679765
59.57406309 -2.498420064e-05 53.97856165
34.33571909 -2.498420064e-05 -76.91606835
-2.906693908e-06 -41.89978321 -2.199497353
224.0476361 -2.498420064e-05 -19.64444535
-2.906693908e-06 -4.260305234 84.51837765
78.78116009 -41.0898487 -105.8869574
-2.906693908e-06 -46.68571516 28.61525065
97.25752209 -2.498420064e-05 -89.03722035
-2.906693908e-06 -37.80392625 70.76767065
180.4269831 -60.13215071 -105.8869574
161.8291291 -2.498420064e-05 69.59697465
191.0032971 -37.57212869 -105.8869574
73.23731309 -2.498420064e-05 -8.241741353
185.5200921 -1.327957214 -111.8869574
3.038528093 -2.498420064e-05 84.95314565
158.9813961 -22.97594386 -105.8869574
-0.9145229067 -64.81006195 8.188730647
46.07025009 -29.44770418 -105.8869574
152.4681111 -2.498420064e-05 22.84159665
-2.906693908e-06 -43.49462359 -90.94531535
200.6579381 -26.44609051 -105.8869574
99.80602809 -2.498420064e-05 83.39965865
163.2912441 -58.32116301 -111.8869574
199.7303831 -26.59562168 -111.8869574
23.57471509 -55.92068222 -111.8869574
141.6564771 -42.9755944 -105.8869574
78.52965209 1.845174546 -111.8869574
164.6665571 1.511518786 94.11304265
-2.906693908e-06 -22.74215296 -66.20937735
50.12979709 -2.498420064e-05 38.62912965
58.95314209 -2.498420064e-05 24.54118865
-2.906693908e-06 -55.40598788 104.9203666
236.1808851 -2.498420064e-05 83.82008165
-0.4835309067 -5.077389924 -105.8869574
103.6468231 -2.498420064e-05 -75.41364835
219.4757711 -2.498420064e-05 63.02123165
112.7226111 -2.498420064e-05 -56.05102635
247.8585311 -2.498420064e-05 81.85275565
-2.906693908e-06 -28.58532758 -9.668699353
-2.906693908e-06 -33.18385548 80.97182965
210.5507591 -2.498420064e-05 88.00100265
61.85962409 -2.498420064e-05 0.7653636474
164.3243581 -2.498420064e-05 -38.63752635
-2.906693908e-06 -10.59526743 -2.176960353
56.56228609 -2.498420064e-05 -67.72017935
207.8242011 -62.487954 -105.8869574
13.76162409 -18.5711841 -105.8869574
-2.906693908e-06 -9.621420954 20.23678565
188.9001921 -2.498420064e-05 23.94160065
-2.906693908e-06 -48.52522931 8.545325647
-2.906693908e-06 -6.595629474 64.95649965
62.18290409 -52.05647442 -105.8869574
-1.995876907 -68.00002402 84.62432065
-2.906693908e-06 -28.3952788 108.5737196
-0.3534339067 -1.000024984 -17.78544735
133.4755211 -2.498420064e-05 -89.20421635
73.12400509 -2.498420064e-05 89.89831765
-2.906693908e-06 -41.4910172 66.71049165
158.5041841 -2.498420064e-05 93.84349665
123.6412331 -24.05148923 -111.8869574
110.0515001 -2.498420064e-05 68.78032465
-2.906693908e-06 -64.23635276 53.63261565
77.87266509 -2.498420064e-05 22.59601265
169.7862151 -33.01430079 -105.8869574
68.84838709 -2.498420064e-05 -21.04302935
93.62020509 -25.41146263 -105.8869574
-2.906693908e-06 -14.72055158 60.94694565
69.97198109 -58.4007479 -111.8869574
85.53398609 -41.85515082 -111.8869574
50.73824609 -2.498420064e-05 -28.38639535
-2.906693908e-06 -12.65229679 -45.23284535
9.643987093 -50.66753943 -105.8869574
105.3307851 -41.96737965 -105.8869574
215.0194891 -2.498420064e-05 40.41203365
212.3869591 -2.498420064e-05 30.99327665
119.8496741 -2.498420064e-05 -95.10572035
-2.906693908e-06 -13.58808086 -6.591914353
97.23553609 -17.42738448 -105.8869574
-2.324845907 -32.62447066 -111.8869574
233.3021731 -2.498420064e-05 -0.3279213526
157.0247571 -30.81410999 -111.8869574
53.38536309 -27.77984989 -105.8869574
36.70807509 -2.498420064e-05 -29.48412035
-2.906693908e-06 -23.56298983 8.320592647
91.95884209 -2.498420064e-05 29.50613265
100.0371081 -2.498420064e-05 -58.32618735
153.0742961 -17.53246996 -111.8869574
-2.906693908e-06 -41.11798552 59.50379665
-2.906693908e-06 -6.311623374 -86.77235535
-0.1464039067 -25.50002498 -18.53598935
74.94920509 -2.498420064e-05 -14.80584535
-2.906693908e-06 -62.85694037 69.10521765
-2.906693908e-06 -18.67786205 -72.01904535
73.41733509 -37.39456986 -111.8869574
8.817485093 -7.022294534 -105.8869574
-2.906693908e-06 -33.60046301 95.01594165
-2.906693908e-06 -13.49887744 27.94170665
124.6427951 -2.498420064e-05 -32.55450635
207.0705751 -2.498420064e-05 -80.20143235
-2.906693908e-06 -2.064160574 -22.86994735
94.81314309 -2.498420064e-05 17.40965265
-2.906693908e-06 -60.00166124 86.47745065
73.88986009 -2.498420064e-05 12.25643665
218.9928151 -12.61735189 -105.8869574
40.77274409 -20.87761747 -111.8869574
66.34868009 -2.498420064e-05 56.72556965
-2.906693908e-06 -2.311013784 10.11895765
-2.906693908e-06 -34.67786164 19.01491765
244.9266371 -2.498420064e-05 56.23159965
212.8619271 -42.82591076 -111.8869574
22.40000809 -65.99524784 -105.8869574
5.560600093 -2.498420064e-05 -58.69368235
113.9317961 -66.12134531 -105.8869574
208.6698741 -2.498420064e-05 -5.505917353
198.3710931 -2.498420064e-05 -40.27207435
-2.906693908e-06 -48.28482508 84.86479865
132.4943111 -2.498420064e-05 -73.40910235
-2.906693908e-06 -53.25639927 27.60205265
81.80071709 -2.498420064e-05 -65.94848035
151.9121431 -31.82277135 -105.8869574
237.8262871 -50.77917033 -111.8869574
222.6658021 -2.498420064e-05 -51.55410335
-2.906693908e-06 -16.57378198 -86.61010435
193.9657341 0.3216953258 -105.8869574
-2.906693908e-06 -38.40645686 109.9749406
-2.906693908e-06 -4.161014394 28.97506665
228.4739601 -2.498420064e-05 -24.80061435
149.6731731 -2.498420064e-05 64.20794165
-2.906693908e-06 -44.64541175 55.73171265
-2.906693908e-06 -39.15561548 -99.37758235
-2.906693908e-06 -52.30891405 93.59910965
8.840956093 -2.498420064e-05 51.04441065
-2.906693908e-06 -21.29225612 -34.39398935
96.87124209 -2.498420064e-05 40.08045365
174.2484521 -2.498420064e-05 56.91315465
-2.906693908e-06 -47.05997769 109.6903186
97.73412809 -2.498420064e-05 -24.41175835
137.1196761 -2.498420064e-05 37.97954065
102.5765001 -2.498420064e-05 -89.89475035
-2.906693908e-06 -21.78878857 79.14436865
124.8373631 -2.498420064e-05 -43.47225535
-2.906693908e-06 -13.83393076 51.80947965
206.0373841 -2.498420064e-05 91.05073765
167.4464141 0.6138941058 -105.8869574
-2.906693908e-06 -46.67742038 100.1986726
-2.906693908e-06 -19.25358897 -9.119498353
153.7201621 -2.498420064e-05 -9.522171353
-2.906693908e-06 -36.10510442 101.3879306
10.70045609 -59.04673632 -105.8869574
101.0068471 -2.498420064e-05 24.64632865
63.86334409 -2.498420064e-05 -41.08465335
-2.906693908e-06 -30.24163349 12.95723965
-2.906693908e-06 -48.69182611 64.80194365
239.8807451 -2.498420064e-05 -6.323605353
240.5799131 -2.498420064e-05 -61.09008535
119.6581341 -41.6123762 -105.8869574
-2.906693908e-06 -12.8414113 -80.88188535
-2.906693908e-06 -18.05833024 8.413988647
3.719465093 -1.623780284 -105.8869574
89.91243209 -53.05356083 -111.8869574
-2.906693908e-06 -25.38068883 75.03352665
-2.906693908e-06 -12.29777924 -59.00339335
-2.906693908e-06 -41.07955228 52.28270865
12.21375409 -2.498420064e-05 -84.78830935
-2.906693908e-06 -14.48063276 -28.82598235
-2.906693908e-06 -13.18136353 114.6855796
-2.906693908e-06 -46.18323223 44.81708565
14.71062809 -2.498420064e-05 -56.90812235
92.91487909 -2.498420064e-05 66.63039965
162.8785551 -2.498420064e-05 -14.43290235
46.69272409 -17.59389949 -105.8869574
65.67125509 -2.498420064e-05 -94.65494035
-2.906693908e-06 -8.614730344 92.01972165
228.3559301 -2.498420064e-05 67.31303865
90.88817509 -26.00834219 -111.8869574
-2.906693908e-06 -8.898366984 10.74277665
-2.906693908e-06 -63.29133754 99.94942165
-2.906693908e-06 -18.30632989 -56.14634635
-2.906693908e-06 -24.06473545 23.69367165
240.1355171 -2.498420064e-05 -14.88974135
29.51115509 -2.498420064e-05 -45.04591935
138.9078571 -2.498420064e-05 -56.44248235
-2.906693908e-06 -6.906911354 79.00037065
79.49256209 -10.04905106 -105.8869574
1.065697093 -2.498420064e-05 63.28253865
-2.906693908e-06 -32.93610054 47.79287765
104.4686151 -24.52663998 -105.8869574
183.8606201 -31.1050824 -111.8869574
38.57950009 -2.498420064e-05 78.73947065
2.997171093 -2.498420064e-05 91.16219865
153.7466131 -49.45901987 -105.8869574
47.91489009 -2.498420064e-05 67.75958065
-2.906693908e-06 -25.43436266 12.55576965
-2.906693908e-06 -19.98727199 -25.01540235
84.83298509 -27.87796251 -111.8869574
168.0296861 -44.79981715 -111.8869574
176.9606871 0.7680303958 -111.8869574
151.0802411 -40.15172687 -111.8869574
-2.906693908e-06 -7.197497964 43.31076565
-2.906693908e-06 -8.427796794 99.03580565
-2.906693908e-06 -20.17318608 36.64205265
34.97989709 -2.498420064e-05 -97.94844235
-2.906693908e-06 -17.15745017 108.4199986
148.0371981 -40.09820731 -105.8869574
-2.906693908e-06 -56.15239998 5.317013647
160.0027441 -2.498420064e-05 -71.24203335
150.8286241 -10.04092125 -111.8869574
30.72537109 -52.70186771 -105.8869574
57.76708109 -2.498420064e-05 -4.889732353
235.8679631 -12.44195955 -111.8869574
247.0422831 -2.498420064e-05 -84.13565335
-2.906693908e-06 -53.87286669 39.85232865
-2.906693908e-06 -15.01031068 45.76103265
-2.906693908e-06 -2.681460824 -68.81689535
-2.906693908e-06 -35.91078536 33.08235965
182.8981311 -2.498420064e-05 -78.60609135
-2.906693908e-06 -2.763786484 -7.614907353
151.9950741 -2.498420064e-05 -40.73723235
22.93103409 -2.498420064e-05 -45.32330335
94.29700209 -60.27133669 -105.8869574
155.2662721 -2.498420064e-05 58.40088965
53.61969809 -2.498420064e-05 55.11622465
104.6695161 -23.61388453 -111.8869574
-2.906693908e-06 -25.35329153 54.62934765
140.0845471 -60.97772186 -111.8869574
-2.906693908e-06 -30.22694006 -77.35085135
194.7089881 -2.498420064e-05 -0.3297443526
-2.906693908e-06 -7.668684044 57.89076365
170.1351661 -63.46837033 -105.8869574
150.9639541 -62.88339691 -105.8869574
199.8786441 -68.00002402 -110.0664524
-2.906693908e-06 -1.904510384 19.59901665
157.8927081 -2.498420064e-05 65.26081965
123.6417121 -7.459966034 -111.8869574
188.4319771 -58.57134589 -105.8869574
187.9575631 -2.498420064e-05 -68.22751635
109.3416021 -17.57599606 -105.8869574
133.8947491 -2.498420064e-05 -83.21695135
112.6970691 -2.498420064e-05 55.52514465
-2.906693908e-06 -27.44360419 86.82445265
236.6007091 -2.498420064e-05 36.95596165
190.6428121 -2.498420064e-05 84.32997065
161.1943811 -2.498420064e-05 -99.49667335
9.483558093 -36.48684676 -111.8869574
-2.906693908e-06 -19.42543373 84.11317065
117.5957061 -2.498420064e-05 49.71940165
-2.906693908e-06 -35.13707028 -94.70643435
-2.906693908e-06 -19.19611461 -43.37919235
91.04807609 -2.498420064e-05 -9.919423353
182.2551011 -2.498420064e-05 -51.69011135
29.53651409 -2.498420064e-05 -50.09751935
21.12001309 -2.498420064e-05 -87.09786835
-2.906693908e-06 -38.69307762 0.9086346474
240.4654181 -2.498420064e-05 -25.98463335
105.2246161 -65.21651575 -105.8869574
22.74622109 -2.498420064e-05 -94.81994535
-2.906693908e-06 -23.55567899 -80.93064135
-2.906693908e-06 -9.998974394 69.55307565
44.07738209 -2.999893464 -111.8869574
69.79593709 -2.498420064e-05 -105.4924914
117.2729061 -62.10232378 -105.8869574
72.77220509 -2.498420064e-05 -99.85065635
150.6153951 -2.498420064e-05 -104.3016834
180.1502841 -2.498420064e-05 -7.167738353
7.127390093 -2.498420064e-05 -20.25829735
86.23757309 -2.498420064e-05 -104.4547524
165.5379801 -24.22978983 -111.8869574
214.2509111 2.309014146 -105.8869574
31.01436009 -2.498420064e-05 48.48400065
114.2539551 -2.498420064e-05 10.58391065
82.40512209 -63.9671969 -111.8869574
32.81294509 -56.38262508 -111.8869574
172.3669011 -17.98138137 -111.8869574
24.06144809 -34.71996241 -111.8869574
