# .PCD v0.7 - Point Cloud Data file format
VERSION 0.7
FIELDS x y z
SIZE 4 4 4
TYPE F F F
COUNT 1 1 1
WIDTH 1155
HEIGHT 1
VIEWPOINT 0 0 0 1 0 0 0
POINTS 1155
DATA ascii
-182.9758433 -11.73658643 -9.739592633e-05
-622.9606383 -2.498648041e-05 -251.9852174
675.9929407 -110.9520324 -200.0000974
455.7656497 -2.498648041e-05 -1.644879396
95.16742466 -2.498648041e-05 -126.9431344
391.3964597 -2.498648041e-05 -174.4721784
655.4390487 -206.7003725 -164.4997954
-574.9116083 -2.498648041e-05 -45.3380514
661.8396567 -2.498648041e-05 -89.9642724
436.9576817 -2.498648041e-05 -226.6142604
262.6955577 -2.498648041e-05 -142.2001294
651.4390487 -38.08832183 -156.1434484
-598.5878583 -2.498648041e-05 -176.4760544
220.4293967 -44.87146501 -9.739592633e-05
259.9142877 -2.498648041e-05 -245.1779394
-447.7024583 -2.498648041e-05 -150.9734534
-73.86811934 -2.498648041e-05 -238.8599484
523.1487867 -2.498648041e-05 -9.176998396
-30.37256334 -2.498648041e-05 -82.1796134
434.0480467 -2.498648041e-05 -130.7882444
133.9640507 -39.43405156 -9.739592633e-05
513.8842937 -2.498648041e-05 -106.3042744
90.62213566 -22.02525344 -9.739592633e-05
300.9429757 -2.498648041e-05 -171.4449244
395.2036237 -2.498648041e-05 -72.6140014
-650.0434483 -33.72986883 -33.8126254
347.9860487 -2.498648041e-05 -231.8270594
-539.7237183 -2.498648041e-05 -159.9288184
217.8951307 -2.498648041e-05 -158.4260984
-251.3599893 -2.498648041e-05 -144.4401974
173.4272947 -19.23414224 -9.739592633e-05
135.2796257 -2.498648041e-05 -71.2242814
232.2692907 -2.498648041e-05 -40.2144234
655.4390487 -191.1828178 -80.2758004
486.0849697 -2.498648041e-05 -185.3627184
50.25761766 -2.498648041e-05 -148.9274984
-382.8082483 -21.15097129 -9.739592633e-05
-167.4104673 -2.498648041e-05 -251.0603474
-334.6065383 -2.498648041e-05 -42.3886534
640.4828477 -2.498648041e-05 -173.3099434
-536.0540283 -2.498648041e-05 -247.0651254
554.5257497 -2.498648041e-05 -178.0468634
-626.9607883 -2.498648041e-05 -143.0919744
51.95050066 -2.498648041e-05 -56.3346424
-110.3036903 -2.498648041e-05 -42.6086454
-299.4743333 -11.8814064 -9.739592633e-05
659.4390487 -120.4637105 -124.3664894
347.4821067 -2.498648041e-05 -144.2614144
215.1688947 -2.498648041e-05 -206.9656144
475.8634487 -2.498648041e-05 -135.9349324
173.3604327 -2.498648041e-05 -224.3041904
-303.4119703 -2.498648041e-05 -128.4020334
-526.0798783 -57.39529076 -9.739592633e-05
186.8746537 -2.498648041e-05 -127.7836164
651.4390487 -36.37113104 -32.3510434
-567.1691683 -2.498648041e-05 -86.0787654
308.8873907 -2.498648041e-05 -77.2915384
143.9643287 -2.498648041e-05 -155.6625284
605.1371207 -2.498648041e-05 -223.3387784
-597.9012083 -16.29220016 -9.739592633e-05
424.4568567 -27.64218377 -9.739592633e-05
659.4390487 -36.36285961 -115.4449124
526.6452377 -2.498648041e-05 -249.3419124
0.4897546628 -2.498648041e-05 -222.1050744
86.88013166 -2.498648041e-05 -35.8989344
268.2432147 -2.498648041e-05 -102.1818674
-31.00322434 -2.498648041e-05 -38.7582344
367.2320147 -2.498648041e-05 -32.6939004
647.5982897 -2.498648041e-05 -52.3805194
-674.8724783 -2.498648041e-05 -156.9194764
14.86749766 -17.95323964 -9.739592633e-05
-153.4041953 -2.498648041e-05 -29.6889874
-372.9041133 -2.498648041e-05 -232.0033314
-123.6125563 -37.03549554 -9.739592633e-05
659.4995757 -136.9021425 -41.0762604
-415.1708483 -2.498648041e-05 -82.4372244
312.0008807 -2.498648041e-05 -210.7428694
8.122298663 -2.498648041e-05 -147.1259764
-493.0314183 -2.498648041e-05 -85.1932744
321.6268667 -2.498648041e-05 -40.4097524
436.6690407 -2.498648041e-05 -68.4446204
589.9815377 -2.498648041e-05 -142.0903954
655.4390487 -153.2837081 -93.2461544
-164.5446693 -2.498648041e-05 -109.3764484
583.1021887 1.482628334 -79.7052984
-66.25151834 -2.498648041e-05 -95.2160474
659.4390487 -215.3722085 -126.7686634
-311.9921393 -2.498648041e-05 -212.7749564
-415.3295283 -2.498648041e-05 -211.7881834
651.4390487 -85.70831353 -213.8915734
55.12741466 -2.498648041e-05 -198.2494284
-207.5342163 -2.498648041e-05 -213.1184134
651.4390487 -34.90554781 -244.5887434
-122.4675553 -2.498648041e-05 -119.7760894
-438.4252583 -2.498648041e-05 -50.5134594
-58.25897134 -54.03688262 -9.739592633e-05
-638.2991783 -13.18249762 -9.739592633e-05
-592.1923183 -35.04299959 -211.8597924
402.6621017 -2.498648041e-05 -209.9750964
475.5259337 -68.00002403 2.326231604
-471.0222783 -2.498648041e-05 -119.9146294
-370.3021783 -2.498648041e-05 -30.3310434
651.4390487 -80.9645167 -71.1398064
243.5262467 -2.498648041e-05 -75.1413544
-188.4715343 -2.498648041e-05 -156.0674824
655.7310927 -212.2162277 -45.9249544
353.4433817 -2.498648041e-05 -105.8083024
-652.6966383 -2.498648041e-05 -219.7401104
-263.4539493 -2.498648041e-05 -15.5503804
-67.82955734 -2.498648041e-05 -161.6137914
-444.4450283 -2.498648041e-05 -244.2960664
-142.6946073 -2.498648041e-05 -180.9299644
583.2823877 -32.47523949 -9.739592633e-05
169.0224277 -2.498648041e-05 -85.5634294
561.4144597 -2.498648041e-05 -214.2923094
573.8870327 -2.498648041e-05 -35.1514074
-554.6396283 -35.40646244 -9.739592633e-05
-254.5271843 -2.498648041e-05 -181.2673024
-215.3272573 -30.97384117 -9.739592633e-05
249.7242587 -2.498648041e-05 -9.511532396
-492.9592283 -2.498648041e-05 -191.5503224
350.0610787 -31.93915204 -9.739592633e-05
-558.6186783 -2.498648041e-05 -193.7991254
638.8633407 -2.498648041e-05 -213.6207014
-536.2059083 -2.498648041e-05 -27.1738884
-346.0643243 -36.12132552 -9.739592633e-05
-132.4314203 -2.498648041e-05 -215.4714254
659.4390487 -171.2289122 -155.5789444
-419.4203983 -13.72714685 -9.739592633e-05
255.4705147 -34.78061794 -9.739592633e-05
164.1817287 -2.498648041e-05 -33.6915084
662.8281957 -32.91400553 -9.739592633e-05
-333.0200693 -2.498648041e-05 -168.5521474
418.9135607 -2.498648041e-05 -99.9118034
-211.7443983 -2.498648041e-05 -31.5641844
671.6073157 -2.498648041e-05 -244.3884084
-119.6659483 -2.498648041e-05 -155.6357154
508.5344917 -2.498648041e-05 -69.5887534
-288.7293603 -2.498648041e-05 -249.6085684
-365.4624823 -2.498648041e-05 -108.9039574
512.5745137 -68.00002403 1.759586604
63.58110066 -2.498648041e-05 -103.0862664
-35.40711334 -29.29368184 -9.739592633e-05
-285.1595183 -2.498648041e-05 -74.8294394
-98.39044434 -2.498648041e-05 -80.7763564
651.4390487 -71.56450835 -38.9161284
-633.4630083 -16.64671396 -68.6599914
403.7315847 -58.79628762 -9.739592633e-05
657.4894217 -138.740379 -197.3004834
489.7582857 -2.498648041e-05 -6.786376396
638.3839547 -2.498648041e-05 -138.5969024
-248.8062163 -32.69366097 -9.739592633e-05
467.8537557 -2.498648041e-05 -213.2958174
675.9115587 -66.20183131 -196.0000974
-233.8540533 -2.498648041e-05 -92.6216354
115.4489947 -2.498648041e-05 -100.7437514
-674.7377683 -34.99110557 -9.739592633e-05
2.934907663 -2.498648041e-05 -84.9566524
603.2207087 1.455347554 -9.739592633e-05
-38.79842834 -2.498648041e-05 -219.4723824
-618.5636583 -2.498648041e-05 -202.6115784
-466.2901883 -41.56393548 -9.739592633e-05
-12.37635134 -2.498648041e-05 -172.3626384
658.3632617 -205.3906034 -198.1505494
-70.05156934 -2.498648041e-05 -206.6935814
68.45017366 -45.43020067 -9.739592633e-05
637.6072727 -62.36567349 -9.739592633e-05
-655.2389483 -2.498648041e-05 -30.1815884
641.6288567 -2.498648041e-05 -17.5051184
-605.0253783 -23.92449496 -156.1815334
208.5028667 -2.498648041e-05 -85.3614474
-374.9252493 -2.498648041e-05 -146.4946064
1.419920663 -46.8318454 -9.739592633e-05
-506.0991483 -2.498648041e-05 -231.1312564
631.2399347 -2.498648041e-05 -81.7327404
-60.52243434 -2.498648041e-05 -26.3947404
655.4390487 -247.7717059 -172.3061544
285.3374757 -44.19663062 -9.739592633e-05
-97.04699134 -2.498648041e-05 -9.196715396
-126.7105343 -68.00002403 1.256164604
277.5750947 -2.498648041e-05 -219.6994414
-307.2439693 -47.30891691 -9.739592633e-05
-576.0151683 -18.90457235 -245.4654854
-153.8305093 -30.92361869 -9.739592633e-05
-675.5614583 -2.498648041e-05 -188.8826904
552.3413197 -24.56130065 -9.739592633e-05
659.4390487 -22.18771008 -183.0047044
101.4472197 -2.498648041e-05 -202.7928754
-605.0546183 -2.498648041e-05 -58.1888994
294.7992607 -2.498648041e-05 -24.9214404
454.3513467 -40.20081254 -9.739592633e-05
-237.9079443 -2.498648041e-05 -209.0839134
-102.4841223 -2.498648041e-05 -225.7332174
542.2513567 -2.498648041e-05 -35.0424904
655.4390487 -158.1272521 -63.1596654
310.4579417 -23.51913431 -9.739592633e-05
-505.8288783 -2.498648041e-05 -26.7402374
417.6983617 1.940211634 -9.739592633e-05
659.4390487 -149.3640688 -133.4757004
-428.2596083 -2.498648041e-05 -183.9131824
659.4390487 -63.69121554 -142.0825454
-191.8784163 -50.02767984 -9.739592633e-05
150.4405597 0.2833771535 -9.739592633e-05
372.1259507 -2.498648041e-05 -198.0772594
407.1188177 -2.498648041e-05 -144.3172964
197.3194977 -2.498648041e-05 -25.1355264
243.6214237 -2.498648041e-05 -216.6659494
113.7613137 -2.498648041e-05 -49.1746594
-618.2994383 -10.64912699 -115.3286594
108.2311137 2.210180084 -9.739592633e-05
-152.8889553 -2.498648041e-05 -61.5504444
377.1865987 -2.498648041e-05 -145.5181184
-572.9951183 -2.498648041e-05 -161.4179884
29.71727366 -2.498648041e-05 -217.0748414
555.8265797 -2.498648041e-05 -145.0430944
-55.07860934 -2.498648041e-05 -133.6082234
651.4390487 -95.31844971 -137.7768734
670.7486127 -2.498648041e-05 -167.2116814
672.0289177 -16.21293881 -44.0000974
141.9986437 -67.75080868 -9.739592633e-05
-184.0559813 -2.498648041e-05 -87.3647364
-189.8854963 -2.498648041e-05 -185.3524974
67.11464166 -2.498648041e-05 -252.0137844
-476.4424383 -2.498648041e-05 -221.1697084
107.3876737 -2.498648041e-05 -154.8759134
-629.9336883 -29.79101616 -95.7039184
-485.1566183 -2.498648041e-05 -3.981216396
448.2246437 -2.498648041e-05 -37.6414604
655.4390487 -113.3622234 -179.6971834
22.33799966 -2.498648041e-05 -26.8765704
-467.9216483 -2.498648041e-05 -171.7000934
-256.6739613 -2.498648041e-05 -249.8442344
452.6644587 -2.498648041e-05 -250.7532044
600.3586667 -2.498648041e-05 -251.6741464
655.4390487 -57.9803742 -176.4167084
123.9604657 -2.498648041e-05 -222.5448484
164.7459037 -2.498648041e-05 -251.4932634
-404.9882383 -41.43626007 -9.739592633e-05
-219.0351823 -2.498648041e-05 -137.8448864
-408.3844783 -2.498648041e-05 -151.0150234
-498.7339083 -2.498648041e-05 -127.3160584
-593.4771583 -47.15168586 -9.739592633e-05
7.927317663 -2.498648041e-05 -251.0004564
-48.34717034 -4.027958366 -9.739592633e-05
-400.2380883 -2.498648041e-05 -56.7268444
655.4390487 -244.359668 -65.2899334
479.1689447 -2.498648041e-05 -68.6974724
659.4390487 -99.31933624 -97.8568724
-95.52273634 -39.03538205 -9.739592633e-05
42.69587266 -28.59564439 -9.739592633e-05
674.7846467 -46.7196985 -44.0000974
-438.9316183 -2.498648041e-05 -122.4888524
-553.3199683 -2.498648041e-05 -221.2910204
-652.3470983 -49.02752212 -10.5405624
545.0070397 -2.498648041e-05 -93.3969694
0.2059616628 -2.498648041e-05 -118.4362874
-644.0147883 -2.498648041e-05 -88.4093744
-211.8144263 -2.498648041e-05 -75.5447644
379.1368647 -2.498648041e-05 -225.6073954
-368.1096473 -2.498648041e-05 -173.4283384
-294.3178833 -2.498648041e-05 -101.0479344
524.5035437 -34.80840244 -9.739592633e-05
-155.6281103 -3.298762046 -9.739592633e-05
515.0870297 -2.498648041e-05 -182.4268904
460.5646997 -2.498648041e-05 -161.2643824
235.0138757 -2.498648041e-05 -180.7020724
-250.1189393 -63.73937275 -9.739592633e-05
-40.05542034 -2.498648041e-05 -159.3598424
172.2422987 -2.498648041e-05 -156.5564354
-347.2412913 -2.498648041e-05 -75.4063234
-184.8847153 -2.498648041e-05 -128.4961624
77.28116066 2.045499654 -9.739592633e-05
237.0678197 -68.00002403 2.497283604
588.0105717 -2.498648041e-05 -109.1945764
515.1809257 -2.498648041e-05 -38.9558414
342.9898107 -68.00002403 1.149785604
-671.3100083 -2.498648041e-05 -88.7972764
-434.3994483 -2.498648041e-05 -18.1453424
-529.1346583 -2.498648041e-05 -88.4757324
-361.4217353 -61.65741994 -9.739592633e-05
-391.2410243 -2.498648041e-05 -97.9529284
-549.4405083 -2.498648041e-05 -132.5668114
500.4738967 -2.498648041e-05 -223.1707564
232.1919477 -2.498648041e-05 -242.4461584
296.9152417 -2.498648041e-05 -141.9395364
-589.1787083 -2.498648041e-05 -104.0347014
-322.3744053 -2.498648041e-05 -18.2961924
202.7255477 -65.25908118 -9.739592633e-05
-192.3156463 -2.498648041e-05 -240.7865284
107.0664767 -2.498648041e-05 -245.2033994
-18.63375534 -2.498648041e-05 -201.6846254
-4.694892337 -2.498648041e-05 -29.6536634
-397.6163683 1.887748094 -9.739592633e-05
-278.5091223 -2.498648041e-05 -154.5273624
-599.9016283 -23.98437379 -188.1328254
659.4390487 -216.4170972 -72.0337304
-535.0281283 -10.69066474 -9.739592633e-05
-520.9063383 -2.498648041e-05 -178.6374624
655.4390487 -158.6059294 -179.8472434
655.4390487 -206.4668305 -101.9222554
362.4780967 0.6916266435 -9.739592633e-05
391.4701397 -2.498648041e-05 -43.3738954
121.6155847 -2.498648041e-05 -127.1477044
651.4390487 -55.33758797 -98.9120384
-606.6856583 -49.75478398 -151.0720304
-336.3228923 -2.498648041e-05 -223.8118424
-581.3734383 -2.498648041e-05 -13.3177434
-271.7318433 -19.73189098 -9.739592633e-05
566.3381507 -68.00002403 2.049390604
659.4390487 -243.6912826 -115.6669434
-94.30591734 -2.498648041e-05 -164.7240584
616.5894217 -46.47274381 -9.739592633e-05
-353.2766833 -2.498648041e-05 -250.7019194
-390.6323743 -2.498648041e-05 -203.2355024
-312.0671073 -2.498648041e-05 -55.5659304
364.9379547 -2.498648041e-05 -168.5723534
655.4390487 -10.71536056 -117.8329114
297.4367457 -67.28039231 -9.739592633e-05
-185.7307903 -2.498648041e-05 -30.0331744
-282.2688523 -2.498648041e-05 -200.0442664
-597.8991083 -2.498648041e-05 -244.9972244
612.0026047 -2.498648041e-05 -160.3742234
282.4206397 -2.498648041e-05 -80.4118564
-549.7582783 -2.498648041e-05 -105.4001144
-499.3883183 -46.30347826 -9.739592633e-05
651.4390487 -23.48129565 -218.7661864
655.4390487 -108.9991119 -50.2014204
228.1957517 -19.83788555 -9.739592633e-05
-272.0194013 -2.498648041e-05 -129.0297664
196.9311197 -29.78519724 -9.739592633e-05
321.7453947 -2.498648041e-05 -156.2770914
673.9867397 -40.22033038 -196.0000974
257.2109887 -2.498648041e-05 -34.3190904
159.1586567 -2.498648041e-05 -196.7260904
-268.7078133 -2.498648041e-05 -55.2660514
28.04811266 -2.498648041e-05 -80.2363594
489.2411077 -2.498648041e-05 -113.0174464
-84.82014034 -2.498648041e-05 -34.2282804
416.1668787 -2.498648041e-05 -168.4538714
-371.2509223 1.552967834 -9.739592633e-05
-599.2955483 -2.498648041e-05 -142.6510914
-323.5424233 -19.90341936 -9.739592633e-05
655.4390487 -13.40174832 -151.9615424
659.4390487 -88.91135013 -190.1055194
60.29928466 -2.498648041e-05 -31.9553264
-241.8063043 -2.498648041e-05 -121.0814444
617.2545217 -2.498648041e-05 -200.7206044
651.4390487 -24.26817573 -57.8163644
-328.6887063 -2.498648041e-05 -116.5936874
655.4168227 -24.46359612 -88.2083124
55.66604566 -67.98556283 -9.739592633e-05
-204.0236253 -2.498648041e-05 -6.733722396
655.4390487 -194.4278908 -142.7848584
-553.3749183 -2.498648041e-05 -63.0589154
-168.5318353 -2.498648041e-05 -172.4870024
-243.6176143 -2.498648041e-05 -30.6487464
655.4390487 -58.58455481 -230.6093634
-9.582446337 -22.32784616 -9.739592633e-05
57.98936066 -2.498648041e-05 -228.9217594
668.6036367 -2.498648041e-05 -65.6103554
655.4390487 -183.3029833 -177.5881184
67.48235566 -2.498648041e-05 -131.1016064
373.1975137 -2.498648041e-05 -90.8433864
28.96844366 -2.498648041e-05 -161.6138714
219.9786637 -2.498648041e-05 -63.4181944
-455.8435683 -2.498648041e-05 -30.4927984
607.2984937 -2.498648041e-05 -74.9604634
-100.7673493 -2.498648041e-05 -107.9917144
657.6662347 -6.764910666 -9.739592633e-05
-640.5596683 -2.498648041e-05 -51.9019274
651.4390487 -112.9636612 -155.0004024
104.1123607 -42.66251076 -9.739592633e-05
205.6623637 -2.498648041e-05 -184.2285544
-147.1130163 -2.498648041e-05 -237.1260494
373.3168927 -2.498648041e-05 -61.3052894
148.8106387 -2.498648041e-05 -224.4788814
-652.9159583 -2.498648041e-05 -137.5585364
399.6651367 -2.498648041e-05 -16.4985474
412.8037277 -2.498648041e-05 -232.2746704
-386.4221743 -2.498648041e-05 -123.1955344
469.4850537 -2.498648041e-05 -23.9690354
293.4943767 -2.498648041e-05 -102.6556194
-316.3432183 -2.498648041e-05 -188.7441124
485.6692687 -2.498648041e-05 -158.3002344
582.6763097 -2.498648041e-05 -202.3990284
-521.2959483 -2.498648041e-05 -139.2763034
659.4390487 -230.5527284 -155.6891924
-485.1911483 -26.38918953 -9.739592633e-05
312.3226857 -2.498648041e-05 -7.360477396
144.1840307 -2.498648041e-05 -47.3632384
-614.7328583 -2.498648041e-05 -5.883290396
-461.0811983 -68.00002403 1.198631604
655.4390487 -52.90395819 -15.3605904
451.4590807 -2.498648041e-05 -113.6883404
400.6402367 -34.9844675 -9.739592633e-05
-641.7732083 -50.00002499 -49.4037784
65.55761666 -2.498648041e-05 -76.0339734
655.4390487 -131.2114577 -103.3911644
-561.8233183 -2.498648041e-05 -248.8058224
622.0242917 -2.498648041e-05 -31.3349174
-528.4012583 -33.66397748 -9.739592633e-05
51.97634966 -2.498648041e-05 -174.6148384
324.1868287 -2.498648041e-05 -232.5746234
-260.0708103 -2.498648041e-05 -77.4360054
581.1288277 -2.498648041e-05 -227.5847354
-574.7545683 -21.70055013 -9.739592633e-05
187.0052197 0.2268973835 -9.739592633e-05
83.93836966 -2.498648041e-05 -150.9864114
-591.2142283 -3.256300726 -198.6899744
495.4701377 -2.498648041e-05 -89.2540384
337.8237017 -2.498648041e-05 -210.5201374
232.4699997 -2.498648041e-05 -134.9522224
-44.01720334 -2.498648041e-05 -62.9507274
-12.23668434 -2.498648041e-05 -66.9254844
-130.5154913 -2.498648041e-05 -24.1499894
-650.3977383 -2.498648041e-05 -248.6784674
655.4390487 -185.717044 -57.4244764
-595.6396283 -2.498648041e-05 -34.2868474
563.9625907 -2.498648041e-05 -56.3787264
-18.21057634 -2.498648041e-05 -103.9938734
436.0993517 -2.498648041e-05 -14.3171384
156.2257897 -2.498648041e-05 -135.4844124
123.2865457 -2.498648041e-05 -172.0194504
539.5389147 -2.498648041e-05 -229.8635684
167.1387227 -2.498648041e-05 -60.5064214
-623.0810983 -2.498648041e-05 -166.0237224
428.3430907 -2.498648041e-05 -199.5824894
-48.37885534 -2.498648041e-05 -110.0599404
673.7163267 -196.4643891 -44.0000974
502.3886677 -2.498648041e-05 -132.1348444
196.6076067 -2.498648041e-05 -149.2171344
-656.9667183 -18.92229344 -12.5053824
539.6410567 -2.498648041e-05 -128.4460694
-627.4384983 -2.498648041e-05 -229.2546704
442.2281017 -2.498648041e-05 -90.9226864
-286.5655303 -2.498648041e-05 -15.5172814
189.9206667 -2.498648041e-05 -104.8945434
-470.9063383 -2.498648041e-05 -65.3265344
655.4390487 -225.3778505 -185.6226674
120.5693297 -58.82156687 -9.739592633e-05
344.5974547 -2.498648041e-05 -37.1044404
-425.7921283 -2.498648041e-05 -103.5975074
262.1839337 -2.498648041e-05 -168.7054594
-648.1224783 -68.00002403 1.709701604
651.4390487 -4.154011106 -194.7590084
333.5948137 -2.498648041e-05 -94.3245894
-154.7031823 -2.498648041e-05 -85.8026424
-127.3388693 -2.498648041e-05 -57.9079854
-237.2263453 -2.498648041e-05 -163.1286104
674.9290347 -69.56234841 -44.0000974
415.0000207 -2.498648041e-05 -56.2255624
283.8373187 -2.498648041e-05 -250.5581994
29.74900066 -2.498648041e-05 -0.2413513959
248.4385687 -2.498648041e-05 -114.6004254
661.8385007 -2.498648041e-05 -223.8543024
133.1659197 -14.494295 -9.739592633e-05
-651.6641883 -2.498648041e-05 -162.0193614
625.9364317 0.8877000335 -9.739592633e-05
-301.6914463 -2.498648041e-05 -151.0508374
651.4390487 -177.8378301 -98.1654224
-506.3027583 -2.498648041e-05 -56.5857574
-380.4838183 -43.65269269 -9.739592633e-05
477.8479867 -22.29205587 -9.739592633e-05
659.4390487 -63.2090894 -59.6424474
547.4595647 -2.498648041e-05 -7.679889396
-626.0731383 -50.00002499 -104.9418514
504.1841857 -2.498648041e-05 -251.2324204
439.2601337 -2.498648041e-05 -153.9334004
659.4390487 -135.899658 -67.3120854
147.2092347 -2.498648041e-05 -91.3172754
363.8820877 -2.498648041e-05 -125.7384034
656.2099857 -252.342077 -195.3743874
-421.1782983 -65.1195729 -9.739592633e-05
-546.8830983 -68.00002403 0.7775146041
651.4390487 -12.45976284 -34.1222334
-237.9715693 -2.498648041e-05 -231.5005214
651.4390487 -68.11180049 -200.1129944
572.9470877 -2.498648041e-05 -159.3895374
-143.5317183 -53.4740071 -9.739592633e-05
674.3868167 -153.1551702 -196.0000974
-435.3358983 -2.498648041e-05 -224.0378234
297.5564937 -2.498648041e-05 -53.3119624
66.72744666 -17.45139123 -9.739592633e-05
-617.8208383 -25.98595745 -9.739592633e-05
-368.4084673 -2.498648041e-05 -52.4008464
377.2990717 -37.17765493 -9.739592633e-05
413.5849727 -2.498648041e-05 -122.4934524
-427.9423083 -2.498648041e-05 -161.8658074
-478.6583383 -2.498648041e-05 -140.5469164
-115.1651553 -16.16542431 -9.739592633e-05
651.4390487 -106.5211729 -200.5796334
-294.6213073 -2.498648041e-05 -228.4489854
-611.5893483 -18.34053855 -135.9798774
395.0551907 -2.498648041e-05 -94.5523634
10.64601566 -66.70748195 -9.739592633e-05
-324.3603933 -2.498648041e-05 -143.6912994
331.8721907 -2.498648041e-05 -127.2979834
-445.6224883 -18.60895995 -9.739592633e-05
223.9733887 -2.498648041e-05 -19.2771404
208.4992857 -2.498648041e-05 -227.7693734
295.8782917 -2.498648041e-05 -192.6873804
-72.87184634 -2.498648041e-05 -185.0546384
-582.8683983 -2.498648041e-05 -65.6407354
-368.6844983 -2.498648041e-05 -205.4996734
-581.9654383 -48.27676161 -227.1530164
636.7726077 -2.498648041e-05 -105.6671044
655.4390487 -26.75487818 -134.5696954
23.81544566 -2.498648041e-05 -132.0524404
546.4926367 -2.498648041e-05 -198.2575154
354.7227367 -2.498648041e-05 -252.4974874
168.4620377 -2.498648041e-05 -108.5071364
-675.5146683 -2.498648041e-05 -129.8837904
-393.5935483 -2.498648041e-05 -225.4129304
157.7129407 -2.498648041e-05 -172.6784674
585.6193797 0.3312064535 -58.1836934
104.6086337 -2.498648041e-05 -23.3986234
113.8810427 -2.498648041e-05 -74.7536984
-119.7579423 -2.498648041e-05 -195.1558764
79.90249866 -2.498648041e-05 -58.2619974
-91.41458034 -2.498648041e-05 -55.8910944
-349.6478883 -2.498648041e-05 -23.9563724
-514.9339483 2.288212634 -9.739592633e-05
-387.2270453 -2.498648041e-05 -250.6137684
154.3775447 -32.45447699 -9.739592633e-05
-143.0082743 -2.498648041e-05 -108.3233454
242.6574257 -2.498648041e-05 -153.9550824
460.8877957 -2.498648041e-05 -57.4098754
538.2656177 -2.498648041e-05 -157.3468234
90.73051466 -2.498648041e-05 -105.9923994
318.6494847 -2.498648041e-05 -190.4118924
-587.2608583 -20.86442762 -227.0370204
566.3294957 -2.498648041e-05 -95.1758434
330.2829347 -2.498648041e-05 -62.1143214
626.3069707 -2.498648041e-05 -57.2519964
-639.5842283 -2.498648041e-05 -110.2732974
455.2174727 -2.498648041e-05 -193.4347124
-644.6821983 -21.458756 -50.3130374
-302.4484903 -68.00002403 0.09919860407
-250.4943083 -7.000106986 -9.739592633e-05
-506.3689183 -68.00002403 0.1049036041
651.4390487 -13.54876838 -239.9729824
49.74853266 -2.498648041e-05 -119.6615214
-426.1075983 -2.498648041e-05 -139.6068804
655.4390487 -76.87487088 -91.4200334
-637.5399883 -36.18901098 -9.739592633e-05
-234.7609643 -49.36596559 -9.739592633e-05
-78.12237034 2.441793004 -9.739592633e-05
-553.7548783 -2.498648041e-05 -38.7606314
-290.8635373 -31.05117934 -9.739592633e-05
-653.8581083 2.384281844 -9.739592633e-05
673.7038517 -221.3353862 -40.0000974
502.8366327 -17.06085488 -9.739592633e-05
610.6061227 -2.498648041e-05 -138.2978144
-20.32020834 -2.498648041e-05 -152.2754244
281.3296187 -2.498648041e-05 -160.2224114
-492.9032183 -2.498648041e-05 -107.2177644
187.1571977 -48.27804976 -9.739592633e-05
-18.93909234 -2.498648041e-05 -229.8510244
-105.2952753 -2.498648041e-05 -139.4898044
-672.8989183 -2.498648041e-05 -42.0588574
-219.3592713 -2.498648041e-05 -51.0209124
-74.74153734 -40.29033756 -9.739592633e-05
655.4390487 -56.20399903 -120.1525444
-476.6543083 -2.498648041e-05 -22.9193944
446.0706237 -21.18612635 -9.739592633e-05
276.0561697 -2.498648041e-05 -16.0534794
659.4390487 -131.0823985 -143.2491494
655.4390487 -159.7677415 -112.9351014
2.142904663 -2.498648041e-05 -197.0331684
180.4074847 -2.498648041e-05 -204.8291224
659.4390487 -98.88898344 -119.0136504
248.2066477 -2.498648041e-05 -53.3896444
655.4390487 -43.73254259 -52.1069914
576.1785447 -2.498648041e-05 -182.7941374
617.8935677 -2.498648041e-05 -239.4755164
421.3824037 -47.97753776 -9.739592633e-05
212.3206967 -2.498648041e-05 -127.8294854
278.4218427 -2.498648041e-05 -128.9547224
0.9602636628 -2.498648041e-05 -9.886989396
505.4047647 0.9707447435 -20.0069134
-603.5144783 -2.498648041e-05 -216.6250824
-175.0926673 -2.498648041e-05 -229.7116044
29.57297966 -2.498648041e-05 -50.9522044
604.0428907 -2.498648041e-05 -96.2042134
-592.4022683 -50.00002499 -197.4241434
298.6067867 -2.498648041e-05 -226.1481714
-47.88904234 -2.498648041e-05 -243.8381974
618.0212607 -68.00002403 0.9762756041
-177.1342373 -35.93528611 -9.739592633e-05
75.18768566 -2.498648041e-05 -194.5670464
-258.3389803 -2.498648041e-05 -201.3002184
-91.73977534 -2.498648041e-05 -248.6509464
46.86186766 -2.498648041e-05 -88.0491054
-388.1281903 -2.498648041e-05 -17.9229584
-33.73006734 -2.498648041e-05 -14.7165544
279.2389287 -2.498648041e-05 -181.0338124
176.3302757 -2.498648041e-05 -17.4735694
-512.0966183 -2.498648041e-05 -77.5489024
-336.9418753 -2.498648041e-05 -95.2900564
-55.84295834 -33.15602674 -9.739592633e-05
-638.6889183 -2.498648041e-05 -204.1372514
-357.2935313 -19.3671831 -9.739592633e-05
329.0486337 -2.498648041e-05 -252.0591394
567.6620217 -45.04165862 -9.739592633e-05
-170.2147173 -2.498648041e-05 -72.8671374
550.3108177 -2.498648041e-05 -247.5765714
659.4390487 -85.27763507 -51.1062944
651.4390487 -80.60179399 -233.4321714
-58.84162334 -2.498648041e-05 -76.6397174
-504.9976783 -2.498648041e-05 -251.0881474
-71.85860934 -2.498648041e-05 -116.8895074
330.2821857 -34.75945609 -9.739592633e-05
586.2550907 -2.498648041e-05 -19.4808494
-138.9280063 -17.65553512 -9.739592633e-05
635.4355697 -39.62406071 -9.739592633e-05
-560.9416683 -2.498648041e-05 -20.2369444
-350.0020813 -2.498648041e-05 -154.9170934
338.3289857 -2.498648041e-05 -167.5697664
656.6166007 -248.3294609 -43.8760134
673.3058337 -150.713547 -44.0000974
651.4390487 -22.71407775 -17.2679564
213.0340447 -2.498648041e-05 -44.9729114
-171.8172903 -2.498648041e-05 -48.0178204
-21.83176534 -43.45311608 -9.739592633e-05
-551.8026983 -2.498648041e-05 -175.3407254
-427.7375283 -2.498648041e-05 -66.9060354
669.1185887 -21.69391936 -200.0000974
-329.6479123 -2.498648041e-05 -66.1431414
-43.99985834 -67.41877265 -9.739592633e-05
651.4390487 -46.42344502 -137.6639844
-672.2807783 -2.498648041e-05 -229.7155994
-307.5916593 -2.498648041e-05 -244.7516394
-669.5497183 -2.498648041e-05 -209.9787804
-636.8903883 -2.498648041e-05 -14.2605934
452.1778737 -2.498648041e-05 -137.8645374
-458.2468383 -2.498648041e-05 -134.6483394
525.2896537 -2.498648041e-05 -90.5785374
-441.7011383 -67.50242204 -9.739592633e-05
675.2176617 -125.5778438 -40.0000974
-613.2262183 2.127890424 -129.3254044
-432.9673483 -2.498648041e-05 -202.7276964
-612.1153983 -66.89903059 -9.739592633e-05
-184.6956893 -68.00002403 0.8230876041
357.1523437 -2.498648041e-05 -211.4801384
-623.9725283 -2.498648041e-05 -65.9804724
-513.9292183 -2.498648041e-05 -160.4156094
66.04082566 -2.498648041e-05 -161.4308944
-114.0554113 -2.498648041e-05 -92.0043274
-316.3950193 0.6614393235 -9.739592633e-05
-448.9191583 -2.498648041e-05 -174.7971014
193.0318117 -2.498648041e-05 -168.1059734
572.3349007 -2.498648041e-05 -134.4971984
655.4390487 -232.8314628 -135.2985884
86.37283266 -2.498648041e-05 -16.7340054
655.4390487 -99.45669198 -68.1633794
381.0170957 -2.498648041e-05 -9.523475396
-461.4779883 -2.498648041e-05 -233.0295274
-275.6335823 2.052874864 -9.739592633e-05
651.4390487 -38.05864822 -176.0347104
-77.92591134 -2.498648041e-05 -80.1305104
-525.3566283 -2.498648041e-05 -224.2558824
675.8954207 -198.2977945 -196.0000974
433.9400687 -2.498648041e-05 -247.4964474
-575.9658183 -2.498648041e-05 -186.0628384
-396.2515223 -2.498648041e-05 -79.6547504
-133.8733393 -2.498648041e-05 -143.0664344
232.9963807 -2.498648041e-05 -199.5571364
-196.4863273 -28.83094169 -9.739592633e-05
-570.5650983 -2.498648041e-05 -113.4364324
-139.9583933 -2.498648041e-05 -43.7785584
531.0765407 -14.53793372 -9.739592633e-05
182.1323437 -2.498648041e-05 -241.0739924
-227.4706623 -2.498648041e-05 -20.7889764
266.0254047 1.262814264 -9.739592633e-05
655.4390487 -251.6949744 -84.8850784
462.0991707 -2.498648041e-05 -234.3740654
655.4390487 -224.6490606 -110.8128684
-315.5773643 -2.498648041e-05 -101.6735824
-470.7070083 -2.498648041e-05 -95.9226874
-207.3108173 -2.498648041e-05 -155.1217134
595.6184097 -47.57692539 -9.739592633e-05
-423.8156583 -2.498648041e-05 -38.4980844
655.4390487 -213.6261969 -145.0933374
-359.8068143 -2.498648041e-05 -90.9440794
655.4390487 -173.2182111 -74.6426114
-425.2586083 -2.498648041e-05 -239.9206664
580.9357347 -13.81949458 -9.739592633e-05
659.4390487 -193.0901913 -114.6944934
249.0171017 -16.13742153 -9.739592633e-05
655.4390487 -61.99383431 -80.0437324
-624.7514283 -10.60238222 -95.4715414
535.1104147 -2.498648041e-05 -183.4278854
356.9167377 -2.498648041e-05 -52.2611114
-85.66456734 -2.498648041e-05 -217.6188224
-262.4043453 -2.498648041e-05 -34.1637574
-161.0738853 -2.498648041e-05 -127.6726204
-430.7202083 1.995369474 -9.739592633e-05
522.2447137 -2.498648041e-05 -56.1749234
8.896710663 -2.498648041e-05 -170.3947934
511.2993727 -47.9119569 -9.739592633e-05
458.3028487 -61.39981037 -9.739592633e-05
488.7576127 -55.16557486 -9.739592633e-05
114.5999457 -2.498648041e-05 -188.4251794
-315.5480253 -2.498648041e-05 -37.3320124
263.9135017 -2.498648041e-05 -81.8160584
619.1017477 -2.498648041e-05 -182.2531244
-489.4226483 -2.498648041e-05 -66.2129194
-493.6233483 -2.498648041e-05 -214.2116314
108.2224237 -16.29804019 -9.739592633e-05
105.4783337 -2.498648041e-05 -221.6100594
-204.1045303 -64.35068045 -9.739592633e-05
663.7345427 -2.498648041e-05 -40.8567534
-225.3744183 -2.498648041e-05 -110.5834414
675.3162637 -128.9809219 -196.0000974
-203.6189943 -2.498648041e-05 -93.8941674
-236.1793673 -2.498648041e-05 -184.5564474
-385.7867163 -2.498648041e-05 -45.2954874
-49.03840434 -2.498648041e-05 -42.4384644
-325.0880373 -42.81067754 -9.739592633e-05
311.5286697 -2.498648041e-05 -99.0258524
-362.7223283 -2.498648041e-05 -131.7331284
351.3237227 -2.498648041e-05 -15.2397624
392.6611487 -2.498648041e-05 -155.6148424
-271.0756873 -2.498648041e-05 -171.2935124
-150.9173833 -2.498648041e-05 -219.2021944
520.9537387 -2.498648041e-05 -231.9453424
-86.12604034 -2.498648041e-05 -97.0483134
127.1725167 -2.498648041e-05 -144.5545894
-452.3608883 -2.498648041e-05 -68.7063244
500.9070557 -2.498648041e-05 -196.0052544
399.5061257 -2.498648041e-05 -190.8135334
368.4122717 -2.498648041e-05 -240.4595014
-389.2412503 -2.498648041e-05 -157.7778374
41.40961966 -2.498648041e-05 -23.9924174
182.5451577 -2.498648041e-05 -40.1678164
-241.5190943 -2.498648041e-05 -75.8090124
171.1483367 -39.46675604 -9.739592633e-05
-74.86772534 -2.498648041e-05 -144.8608484
-287.1586313 -2.498648041e-05 -119.0138114
-580.1845083 -2.498648041e-05 -241.2012004
241.5953667 -50.64388532 -9.739592633e-05
-53.58515434 -2.498648041e-05 -172.8383334
-219.9546193 -2.498648041e-05 -199.9596664
-191.6563903 -2.498648041e-05 -221.7875684
651.4390487 -154.2124073 -154.3623834
655.4390487 -131.8888671 -179.0244904
599.6864717 -2.498648041e-05 -31.5185794
-408.3476983 -2.498648041e-05 -195.1706614
315.4937147 -2.498648041e-05 -139.3724544
-585.2245783 -2.498648041e-05 -86.4565614
154.7604107 -50.46541241 -9.739592633e-05
-232.2156633 -16.99236756 -9.739592633e-05
651.4390487 -26.75915301 -198.4540894
-574.5813083 -50.55662516 -9.739592633e-05
153.5202387 -2.498648041e-05 -17.7192194
-436.2997283 -2.498648041e-05 -82.7056244
651.4390487 -39.79494287 -226.2672404
-645.3955283 -16.48905808 -31.9356094
656.5268057 -157.0600127 -44.0317874
-543.4276083 -2.498648041e-05 -206.2670844
651.4390487 -137.270563 -86.2209444
-148.4583313 -2.498648041e-05 -163.9502654
191.8272837 -2.498648041e-05 -74.5454124
655.4390487 -0.7356353465 -252.0701484
332.1596847 -2.498648041e-05 -24.2327574
469.3555917 -2.498648041e-05 -113.4300754
444.8181607 -2.498648041e-05 -207.9982004
655.4390487 -168.4059934 -137.1227894
675.0974907 -10.62799962 -9.739592633e-05
98.38181166 -2.498648041e-05 -58.2366954
365.5332717 -50.58107091 -9.739592633e-05
87.31852966 -48.59365381 -9.739592633e-05
659.4390487 -67.29324043 -161.8194294
518.1013117 -2.498648041e-05 -123.8541904
-346.8282923 -2.498648041e-05 -55.2741374
-112.7973573 -2.498648041e-05 -23.1952724
-662.0460183 -2.498648041e-05 -177.3965854
655.4390487 -229.3249361 -55.9025214
349.1353417 -14.24412418 -9.739592633e-05
-640.0188883 -35.55789589 -64.6648824
655.4390487 -9.901905096 -170.8979804
15.84683266 -36.573466 -9.739592633e-05
-556.8690883 -2.498648041e-05 -154.1264564
651.4390487 -0.8679916365 -69.7751314
-587.9278583 -18.15675569 -208.8021624
452.9111277 -2.498648041e-05 -75.4128644
-344.7814123 -55.70340685 -9.739592633e-05
292.7868837 -2.498648041e-05 -6.306586396
675.6200657 -84.99330255 -196.0000974
565.3341507 -2.498648041e-05 -197.0734614
209.4757537 -15.53477156 -9.739592633e-05
659.4390487 -82.78266931 -150.5994844
-620.7868683 -2.498648041e-05 -47.7756934
-624.1063183 -28.5385187 -113.6386724
-402.6721883 -19.04057777 -9.739592633e-05
-422.1125283 -31.09043853 -9.739592633e-05
472.4008687 -5.302299136 -9.739592633e-05
67.38958666 -2.498648041e-05 -14.5655644
337.8696747 -51.1098671 -9.739592633e-05
-667.6551683 -2.498648041e-05 -17.8398274
387.3080377 -52.75311704 -9.739592633e-05
261.7020577 -2.498648041e-05 -227.0405534
-27.69819834 -2.498648041e-05 -56.6913434
-167.8073433 -2.498648041e-05 -19.7928014
246.1592337 -2.498648041e-05 -92.4074804
231.2597207 1.493671254 -9.739592633e-05
191.2019707 -2.498648041e-05 -225.3941524
-215.1249753 -2.498648041e-05 -228.8044624
399.5664747 -5.608652926 -9.739592633e-05
-601.6302383 -37.53099418 -166.6307674
-193.0857443 -2.498648041e-05 -202.4348194
-479.8160183 -2.498648041e-05 -202.8967564
18.07062866 -2.498648041e-05 -203.9250024
197.6819997 -2.498648041e-05 -203.2996614
-657.4500183 -33.73874084 -9.739592633e-05
326.2505527 -16.42622907 -9.739592633e-05
90.13694566 -2.498648041e-05 -248.7396174
655.4390487 -201.092375 -181.6662564
-657.7345883 -2.498648041e-05 -77.0840664
655.4390487 -139.4367194 -118.5853284
-305.7539013 -2.498648041e-05 -22.9657144
-381.2785553 -2.498648041e-05 -184.5869884
-164.0887603 -2.498648041e-05 -189.1584534
-540.7879383 -45.69264437 -9.739592633e-05
36.66977366 -2.498648041e-05 -184.2624034
-614.6119483 -2.498648041e-05 -185.8260434
-57.04473034 -2.498648041e-05 -217.9994204
632.9580077 -2.498648041e-05 -193.6395864
51.23084966 -45.06009074 -9.739592633e-05
293.2559367 -2.498648041e-05 -120.2113644
-533.6320783 -2.498648041e-05 -44.7218474
-508.6372183 -2.498648041e-05 -201.9848634
-57.41832734 -2.498648041e-05 -195.0465464
-351.7975283 -2.498648041e-05 -231.2727524
271.9053237 -29.87627144 -9.739592633e-05
651.4390487 -55.57853187 -32.7807284
639.7397617 -2.498648041e-05 -34.9177194
-308.5810553 -2.498648041e-05 -166.7120284
11.48324466 -2.498648041e-05 -105.5805554
466.0434007 -2.498648041e-05 -180.2022634
635.3055447 -2.498648041e-05 -155.4068454
670.6303537 -2.498648041e-05 -104.6175924
533.3248497 -2.498648041e-05 -105.8496464
-283.6074833 -67.82282647 -9.739592633e-05
660.2595817 -121.6805527 -199.3203484
-583.4847783 -32.75506754 -238.6588174
275.5613317 -2.498648041e-05 -199.4017684
132.7154257 -2.498648041e-05 -105.1813184
600.5651307 -2.498648041e-05 -203.9696174
-604.2979883 -3.914316276 -158.4207834
671.5955547 -51.25296572 -9.739592633e-05
423.9792447 -2.498648041e-05 -79.7541324
621.1074027 -2.498648041e-05 -95.3723684
659.4390487 -77.9726207 -131.2662104
670.2935247 -217.2941562 -196.0000974
225.4841617 -2.498648041e-05 -85.0090154
-494.0574483 -2.498648041e-05 -172.4842804
673.6928127 -251.6776118 -196.0000974
655.4390487 -204.1828167 -60.9621534
-104.4325073 -2.498648041e-05 -208.8687544
-546.1388083 -2.498648041e-05 -11.1822074
-309.3249623 -29.17584063 -9.739592633e-05
659.4738197 -183.6886811 -41.0888654
661.4879997 -55.28847145 -195.4451014
225.3586257 -2.498648041e-05 -220.4922904
119.1250707 -31.27565916 -9.739592633e-05
659.4390487 -73.14172712 -182.7788454
-68.88518934 -67.19465602 -9.739592633e-05
630.3338577 -2.498648041e-05 -121.8601264
-458.5962983 -2.498648041e-05 -107.6980564
-506.0476483 -2.498648041e-05 -96.6472624
527.3821537 -59.07233423 -9.739592633e-05
-480.0354783 -52.0878693 -9.739592633e-05
-299.1505113 -2.498648041e-05 -201.9372594
108.4646857 -2.498648041e-05 -137.5964214
-306.3151473 -2.498648041e-05 -74.5428204
650.5194837 -46.93936917 -9.739592633e-05
-96.46389034 -14.00246184 -9.739592633e-05
108.3519537 -2.498648041e-05 -115.9250804
651.4390487 -113.9403201 -96.2031014
40.27630766 -2.498648041e-05 -230.0740704
-140.7248593 -2.498648041e-05 -197.5558994
-604.0413383 -2.498648041e-05 -115.4910484
289.6381607 -28.02650281 -9.739592633e-05
140.1301067 -2.498648041e-05 -130.9277054
-650.2799783 -50.00002499 -29.9641784
-13.90721734 -2.498648041e-05 -84.9840194
655.4390487 -69.88329059 -217.4068374
-470.2611183 -2.498648041e-05 -155.1736224
118.7250677 -2.498648041e-05 -204.7041024
659.4390487 -123.6624476 -164.9695094
127.1086947 -2.498648041e-05 -5.562860396
563.2196747 -2.498648041e-05 -230.8580844
-405.6844983 -59.02296843 -9.739592633e-05
-396.7809083 -2.498648041e-05 -139.0816044
-605.5105983 -16.11424878 -170.8704224
-409.5242683 -2.498648041e-05 -100.1075844
421.2570737 -2.498648041e-05 -184.2934964
661.1179837 -232.2049757 -40.3805674
-593.3213383 -2.498648041e-05 -1.758790396
-23.28780534 -2.498648041e-05 -185.7395744
-501.2739983 -2.498648041e-05 -10.7819934
64.60088266 -2.498648041e-05 -211.8752894
-315.8197933 -2.498648041e-05 -230.3453374
659.4390487 -99.4797951 -170.2076244
-250.4424483 -2.498648041e-05 -96.2616224
-415.9890883 -2.498648041e-05 -15.2554234
347.7534487 -2.498648041e-05 -121.3437354
44.88196466 -2.498648041e-05 -40.1639734
-602.3315783 -2.498648041e-05 -16.8155254
-673.5392183 -16.48119909 -9.739592633e-05
-198.1195833 -2.498648041e-05 -169.4733604
659.4390487 -13.08087911 -99.7493334
-145.8902583 -2.498648041e-05 -14.9896754
-271.8752223 -2.498648041e-05 -239.0263164
151.7570387 -2.498648041e-05 -66.4865874
-612.2556483 -2.498648041e-05 -235.7020964
659.4390487 -27.19180791 -166.5640474
635.1880527 -2.498648041e-05 -232.2819994
-62.76307834 -2.498648041e-05 -250.9817984
-597.5479683 -2.498648041e-05 -73.0095404
19.47310266 -2.498648041e-05 -65.4688814
-449.4956783 -45.09778703 -9.739592633e-05
157.5144337 -14.52039831 -9.739592633e-05
659.4390487 -123.9500831 -55.5991114
-110.6110033 -0.3007805665 -9.739592633e-05
490.2287647 -2.498648041e-05 -208.4359174
499.3157987 -2.498648041e-05 -149.2647744
309.9632487 -40.08125358 -9.739592633e-05
-6.346384337 -66.42011524 -9.739592633e-05
15.82765466 -2.498648041e-05 -227.6911344
659.4390487 -44.86288992 -88.8204204
261.8440477 -2.498648041e-05 -65.6516324
-459.5574583 -2.498648041e-05 -46.3441574
510.0647637 -2.498648041e-05 -166.9479934
-609.8112883 -37.01258528 -141.4520734
-635.7644683 -2.498648041e-05 -35.6311534
659.4390487 -251.9745917 -101.6731704
-520.8743783 -2.498648041e-05 -32.9015654
-61.79877734 -2.498648041e-05 -10.1921694
416.9309077 -68.00002403 2.250666604
589.4901357 -2.498648041e-05 -158.3304014
556.9813777 -2.498648041e-05 -28.1867484
591.6324857 -2.498648041e-05 -125.9323864
-336.2774603 -2.498648041e-05 -184.4635794
659.7037237 -187.3921305 -193.3806474
-540.9846483 -2.498648041e-05 -73.5237504
375.6745897 -2.498648041e-05 -110.4915044
-35.72104534 -2.498648041e-05 -143.7463204
131.1930167 -2.498648041e-05 -89.0048304
651.4390487 -92.69573367 -85.4577144
653.9164417 -2.498648041e-05 -134.0989164
-112.6546183 -60.11379741 -9.739592633e-05
651.4390487 -54.32180627 -245.6784214
257.7270967 -51.64384777 -9.739592633e-05
-359.7600253 -2.498648041e-05 -187.2669294
527.4720767 -2.498648041e-05 -71.8083394
-633.0374383 -2.498648041e-05 -128.1401094
-636.4980883 -56.49707309 -9.739592633e-05
175.9999917 -2.498648041e-05 -139.7036874
313.4200347 -68.00002403 2.070692604
152.8719337 -2.498648041e-05 -240.5846854
662.7576287 -2.498648041e-05 -184.1005144
262.2503697 -2.498648041e-05 -122.8446384
614.7986067 -2.498648041e-05 -11.5514594
586.9597077 -2.498648041e-05 -242.5539784
-550.5524383 -19.88032744 -9.739592633e-05
651.4390487 -31.87643417 -102.2683994
667.2866987 -2.498648041e-05 -120.3075114
-266.0059213 -34.69825915 -9.739592633e-05
-565.5984983 -2.498648041e-05 -208.2232964
-249.4349973 -2.498648041e-05 -220.2126424
317.4159517 -2.498648041e-05 -171.7035804
-408.8437383 -2.498648041e-05 -233.2742494
659.4390487 -51.28113926 -161.8219354
101.5228437 -2.498648041e-05 -178.0665704
-459.1509983 -27.16204091 -9.739592633e-05
-375.4491693 -2.498648041e-05 -95.3924784
-167.3091973 -2.498648041e-05 -153.7353764
-198.4542543 -2.498648041e-05 -40.4151124
-515.1577283 -43.85315842 -9.739592633e-05
556.8419357 -2.498648041e-05 -160.9627004
-4.199509337 -2.498648041e-05 -133.7666044
-142.6771983 -2.498648041e-05 -124.2695654
-234.8488703 -2.498648041e-05 -135.8039124
-596.2652283 -65.29784252 -9.739592633e-05
281.7162837 -64.76166943 -9.739592633e-05
526.7513877 -2.498648041e-05 -139.0851514
-119.0564113 -2.498648041e-05 -73.5519384
-351.9171563 -2.498648041e-05 -39.6963444
-34.49799634 -2.498648041e-05 -202.7660694
-331.9002743 -2.498648041e-05 -201.6359224
-668.0314083 -49.40662019 -9.739592633e-05
364.9071037 -16.18651077 -9.739592633e-05
-201.0770453 -2.498648041e-05 -126.7929424
316.2989537 -2.498648041e-05 -25.0184464
-352.6345133 -2.498648041e-05 -118.2628834
-608.4098983 -41.41130865 -9.739592633e-05
461.3685077 -25.34602285 -9.739592633e-05
-339.3800763 -20.49368165 -9.739592633e-05
-167.6596533 -15.7860782 -9.739592633e-05
493.1609577 -2.498648041e-05 -61.3013054
-634.7431383 -32.65267785 -80.9019544
-639.6127683 -2.498648041e-05 -68.3785244
-411.0943883 -2.498648041e-05 -168.1279744
642.0422567 -4.541405576 -9.739592633e-05
-103.6222553 -2.498648041e-05 -65.8904774
390.5147077 -2.498648041e-05 -137.0736624
-115.3364453 -2.498648041e-05 -180.0174364
579.1104597 -55.88668078 -9.739592633e-05
402.7209477 -2.498648041e-05 -31.9646194
669.8932467 -31.29820698 -40.0000974
-465.9681583 -2.498648041e-05 -187.3242334
313.6152877 -2.498648041e-05 -53.9632824
-39.82392334 -52.25237841 -9.739592633e-05
-661.1530183 -2.498648041e-05 -195.1928044
408.8415617 -2.498648041e-05 -247.4930654
-5.700084337 -2.498648041e-05 -243.1566714
503.9044417 1.012669914 -9.739592633e-05
-558.8751883 -51.26888898 -9.739592633e-05
-630.2829783 -2.498648041e-05 -188.8111174
-439.1072983 -2.498648041e-05 -33.1008854
76.60697566 -65.87020631 -9.739592633e-05
659.4390487 -191.2146562 -96.5189094
-172.9732913 -2.498648041e-05 -2.781399396
606.9445717 -13.75825596 -9.739592633e-05
-30.83757034 -2.498648041e-05 -113.2416704
451.9114367 -2.498648041e-05 -22.4459114
397.3126707 -2.498648041e-05 -234.3793684
233.5845497 -36.42727166 -9.739592633e-05
272.7459997 -2.498648041e-05 -32.6277514
491.1234307 -2.498648041e-05 -26.2634904
30.45919266 -17.04257126 -9.739592633e-05
438.7997677 -41.59771028 -9.739592633e-05
656.6667997 -160.6854136 -196.2225334
286.8585917 -2.498648041e-05 -64.6834654
145.8918297 -2.498648041e-05 -204.9310654
108.0491237 -68.00002403 1.451206604
147.8508447 -2.498648041e-05 -184.7491434
-442.5241183 -2.498648041e-05 -97.2756524
377.2396907 -2.498648041e-05 -183.3602634
-476.3468183 -2.498648041e-05 -79.9090324
607.2872197 -34.00164025 -9.739592633e-05
415.9880437 -2.498648041e-05 -15.3389024
659.0524807 -225.2345378 -170.5000974
203.3559487 -49.72856561 -9.739592633e-05
21.28525166 -2.498648041e-05 -242.3357704
655.4390487 -191.2833046 -157.9985044
42.38632266 -2.498648041e-05 -73.1994824
621.5222677 -2.498648041e-05 -224.3972284
655.4390487 -210.3517399 -86.9125724
531.3482847 -2.498648041e-05 -24.0206804
-254.0795213 -2.498648041e-05 -165.7739164
388.8703737 -68.00002403 2.304696604
430.2098767 -7.205065996 -9.739592633e-05
567.0906507 -29.57455788 -9.739592633e-05
-292.7104763 -2.498648041e-05 -61.3239614
92.83101466 0.8096980035 -9.739592633e-05
-583.9739983 -34.96897438 -9.739592633e-05
382.2475327 -2.498648041e-05 -29.0552634
655.4390487 -17.57833941 -74.3839314
165.8667467 0.9172740635 -9.739592633e-05
-90.77995634 -2.498648041e-05 -149.6929314
-378.6894933 -2.498648041e-05 -217.6903224
539.4852747 -38.51740606 -9.739592633e-05
-667.5068083 -2.498648041e-05 -143.3670664
-89.05589134 -53.14526962 -9.739592633e-05
-79.82638334 -2.498648041e-05 -171.2619504
-566.5730183 -2.498648041e-05 -229.1208994
651.4390487 -13.40195253 -207.0427084
-196.4412623 -2.498648041e-05 -75.7785604
571.2726097 -2.498648041e-05 -69.8900604
554.7507487 -2.498648041e-05 -43.9464674
299.7037267 -12.14208665 -9.739592633e-05
569.6759977 -2.498648041e-05 -15.2012444
441.8727547 -2.498648041e-05 -54.0393674
-138.9969423 -2.498648041e-05 -67.9979714
-177.8753653 -2.498648041e-05 -142.6487584
-318.2402633 -57.95087791 -9.739592633e-05
659.4390487 -171.2042436 -54.6805074
-362.1375663 -2.498648041e-05 -12.1836404
-173.4779213 -51.94061589 -9.739592633e-05
35.26889866 -2.498648041e-05 -145.9515084
655.4390487 -21.76733462 -252.2096804
71.32141666 -2.498648041e-05 -236.3624374
-225.8377303 -2.498648041e-05 -69.5274534
146.8675037 -2.498648041e-05 -31.4495624
243.8217807 -2.498648041e-05 -252.3215444
-41.13823334 -2.498648041e-05 -126.3009244
-276.4755893 -2.498648041e-05 -28.3269294
-626.5629483 -2.498648041e-05 -80.9898304
655.4390487 -111.6696341 -110.7210894
-198.8289953 -2.498648041e-05 -21.0487274
-247.9201633 -2.498648041e-05 -13.2702034
-520.1569083 -2.498648041e-05 -252.4315274
407.8993237 -2.498648041e-05 -80.9968294
264.2030647 -16.75630571 -9.739592633e-05
-255.1095553 -2.498648041e-05 -48.4915534
329.9258077 -2.498648041e-05 -112.2477644
506.0009077 -2.498648041e-05 -51.0392704
-657.5090883 -2.498648041e-05 -234.1242584
337.7643667 -2.498648041e-05 -79.7464594
-569.0336883 -2.498648041e-05 -59.4843954
-356.9830583 -2.498648041e-05 -215.0923624
-227.1208853 -2.498648041e-05 -150.6264124
71.04249366 -2.498648041e-05 -177.2771364
358.9412067 -2.498648041e-05 -182.5115424
-219.2039253 -2.498648041e-05 -88.9096914
655.3530787 -2.498648041e-05 -107.1771874
-215.9582703 -6.309009916 -9.739592633e-05
95.13434466 -2.498648041e-05 -91.5715724
-615.8670483 -50.00002499 -136.7290334
-189.1580313 -2.498648041e-05 -9.041668396
213.1974027 -2.498648041e-05 -29.9309324
655.4390487 -109.4162537 -134.4388424
-372.2666693 -2.498648041e-05 -249.2610924
-294.3524123 -55.34859515 -9.739592633e-05
-256.5030563 -2.498648041e-05 -233.4591634
199.6329707 -2.498648041e-05 -119.8022984
554.7540467 -2.498648041e-05 -73.9668714
-206.9223783 -43.39490636 -9.739592633e-05
-276.8191873 -2.498648041e-05 -92.1931794
199.6987217 -2.498648041e-05 -10.3386304
39.77494466 -2.498648041e-05 -130.8470934
-82.36601634 -2.498648041e-05 -198.1547584
-178.7742873 -2.498648041e-05 -114.0362364
-109.1525093 -45.18642905 -9.739592633e-05
-281.0394593 -2.498648041e-05 -184.6786994
14.88116066 1.430941044 -9.739592633e-05
-66.96837034 -2.498648041e-05 -39.8700574
-59.09301634 -2.498648041e-05 -147.9956504
655.4390487 -38.26535635 -11.8261544
-226.8805273 -2.498648041e-05 -219.1534444
655.4390487 -230.7988296 -72.3708524
675.9706897 -2.498648041e-05 -153.2264594
-205.6149743 -2.498648041e-05 -56.8403334
-254.3760653 -2.498648041e-05 -111.9539004
407.0539977 -2.498648041e-05 -108.9630904
659.4390487 -167.4139535 -90.7289124
535.3602837 -2.498648041e-05 -48.2516274
-108.0231293 -2.498648041e-05 -123.4193994
240.2771547 -2.498648041e-05 -21.0225904
-137.4514343 -2.498648041e-05 -250.5121304
332.6252047 -2.498648041e-05 -143.3532374
-335.1027003 -2.498648041e-05 -26.9559194
555.5668217 -9.788464766 -9.739592633e-05
-392.6166513 -2.498648041e-05 -32.0724104
287.7425297 -2.498648041e-05 -37.9664954
191.1456767 -16.13709144 -9.739592633e-05
-650.1000483 -5.916603206 -17.4575564
472.0635667 -2.498648041e-05 -38.6050804
655.4390487 -98.70980737 -154.3473004
496.2096087 -2.498648041e-05 -238.7428034
424.5235637 -2.498648041e-05 -218.5667624
477.4021497 -2.498648041e-05 -201.0679794
