# .PCD v0.7 - Point Cloud Data file format
VERSION 0.7
FIELDS x y z
SIZE 4 4 4
TYPE F F F
COUNT 1 1 1
WIDTH 1196
HEIGHT 1
VIEWPOINT 0 0 0 1 0 0 0
POINTS 1196
DATA ascii
-297.066323 -2.498577402e-05 46.17415661
107.101856 -2.498577402e-05 163.1946716
-37.006263 -2.498577402e-05 228.5553696
11.565257 -2.498577402e-05 42.74681561
-214.494824 -2.498577402e-05 211.8248876
238.360133 -2.498577402e-05 29.86302761
-72.676517 -2.498577402e-05 58.66230061
-103.529418 -2.498577402e-05 167.3885126
-215.961663 -2.498577402e-05 42.11502761
48.369997 -2.498577402e-05 110.3533686
172.056425 -2.498577402e-05 121.3242106
302.0715 -2.498577402e-05 171.2256076
26.631763 -2.498577402e-05 183.1543676
-303.341228 -62.13066629 -9.738561312e-05
157.360509 -2.498577402e-05 0.7800686144
302.688052 -2.498577402e-05 68.94476161
-281.001799 -50.00002499 98.68777361
-156.278589 -67.12220497 -9.738561312e-05
82.30064 0.5163962242 -9.738561312e-05
231.523404 -2.498577402e-05 187.7462076
-227.860818 -2.498577402e-05 110.5497306
-38.265143 0.2348811142 -9.738561312e-05
126.78844 -68.00002403 -2.162476386
-301.461073 -2.498577402e-05 210.6761976
-169.385225 -2.498577402e-05 165.1739826
114.369576 -2.498577402e-05 227.1814196
-259.370409 -12.53752415 -9.738561312e-05
240.563195 -2.498577402e-05 250.8511746
-282.238973 -50.00002499 179.5852016
5.494123001 -48.64390763 -9.738561312e-05
184.154366 -2.498577402e-05 53.28306561
245.946765 -51.43157139 -9.738561312e-05
-96.236151 -2.498577402e-05 109.9188686
-105.054323 -44.48023647 -9.738561312e-05
160.88022 -2.498577402e-05 178.5079126
-255.339481 -2.498577402e-05 251.0970466
-160.356704 -2.498577402e-05 48.90924861
-189.546936 -26.33617132 -9.738561312e-05
68.210394 -2.498577402e-05 55.79579261
282.000215 0.5096745942 1.063616614
-87.932349 -2.498577402e-05 217.6867056
-52.581911 -2.498577402e-05 177.9630866
-279.486474 -50.00002499 47.12523961
-290.836619 -2.498577402e-05 99.44525861
-231.006559 -2.498577402e-05 161.1474496
98.980041 -2.498577402e-05 112.7743606
-24.774277 -2.498577402e-05 79.57999561
204.379934 -19.07749741 -9.738561312e-05
-89.256365 -2.498577402e-05 12.66139161
72.610604 -2.498577402e-05 199.3459236
298.814093 -2.498577402e-05 117.4150766
9.848725001 -2.498577402e-05 244.9806386
-183.898079 -2.498577402e-05 249.0994256
31.848248 -9.319612136 -9.738561312e-05
-149.058759 -2.498577402e-05 207.5832066
-253.875522 -2.498577402e-05 67.93850861
211.982819 -2.498577402e-05 89.66078861
-302.447264 -2.498577402e-05 1.812782614
-121.276404 -2.498577402e-05 69.70145361
-258.56546 -2.498577402e-05 195.5337786
278.210524 -2.498577402e-05 208.2005186
60.676459 -2.498577402e-05 155.6539146
201.57458 -2.498577402e-05 156.6857766
250.727153 -2.498577402e-05 70.93938661
119.299985 -2.498577402e-05 21.70077861
16.819416 -2.498577402e-05 142.1031236
-296.737109 -2.498577402e-05 252.1187106
-199.275165 -2.498577402e-05 79.63239961
-278.999785 -41.73563847 140.3733926
-12.876474 -2.498577402e-05 172.7264146
9.735404001 -2.498577402e-05 100.5014596
155.935534 -39.79605373 -9.738561312e-05
261.743007 -2.498577402e-05 154.8098576
-31.143739 -2.498577402e-05 40.75228461
95.434477 -44.34003917 -9.738561312e-05
-68.775604 -2.498577402e-05 251.9672606
-189.827097 -2.498577402e-05 125.0595046
-218.330925 -0.5627306458 -9.738561312e-05
-59.342505 -2.498577402e-05 96.51590161
-66.544585 -28.35749667 -9.738561312e-05
155.613166 -2.498577402e-05 86.69333561
-140.755845 -2.498577402e-05 139.7836926
131.569104 -2.498577402e-05 131.8379426
214.867014 -2.498577402e-05 223.4542296
-66.833479 -2.498577402e-05 133.1488746
-2.748693999 -2.498577402e-05 208.6750166
-284.999785 -32.97881837 213.9897446
144.783305 -2.498577402e-05 249.5982336
-192.423236 -68.00002403 -1.021210386
40.141236 -2.498577402e-05 216.7043936
-284.999785 -24.2169887 73.35482461
149.456531 -2.498577402e-05 43.98971961
-264.616257 -60.80003486 -9.738561312e-05
-27.902631 -35.67324033 -9.738561312e-05
-119.893913 -2.498577402e-05 31.53470061
192.402028 -2.498577402e-05 195.0795786
-2.481583999 -2.498577402e-05 1.370159614
-219.809532 -2.498577402e-05 250.9901176
281.062766 -2.498577402e-05 36.53084761
-139.20514 -35.04369436 -9.738561312e-05
-169.321539 -2.498577402e-05 12.23493661
-284.999785 -34.08107852 10.09429161
249.74924 -16.97186108 -9.738561312e-05
122.892161 -2.498577402e-05 193.6089476
-255.904047 -2.498577402e-05 33.74976361
-259.051549 -2.498577402e-05 124.2423536
-136.248809 -2.498577402e-05 175.1522846
62.289652 -34.38327099 -9.738561312e-05
-181.462229 -2.498577402e-05 200.7671396
53.123205 -2.498577402e-05 26.37650261
-226.928792 -32.85511368 -9.738561312e-05
220.517185 -2.498577402e-05 57.59423261
-284.999785 -15.74470199 177.4484976
204.542204 -2.498577402e-05 27.99988261
279.088865 -2.498577402e-05 90.76696761
29.840406 -2.498577402e-05 75.52860761
214.058723 -2.498577402e-05 127.2324676
-202.828472 -2.498577402e-05 175.3906806
155.940954 -2.498577402e-05 211.5908186
121.607602 -22.67625045 -9.738561312e-05
-273.302492 -2.498577402e-05 224.7003606
91.408545 -2.498577402e-05 82.34016761
-121.791618 -2.498577402e-05 223.0199396
-127.053133 -2.498577402e-05 111.0195986
249.055162 -2.498577402e-05 218.1069166
84.782995 -2.498577402e-05 236.3525856
-19.80664 -65.58433084 -9.738561312e-05
30.039588 -66.47354725 -9.738561312e-05
-101.851832 -2.498577402e-05 248.1692156
-278.999785 -21.38858227 117.2648346
280.827727 -66.30158689 -9.738561312e-05
84.761465 -2.498577402e-05 31.40437261
-64.266264 -2.498577402e-05 28.08580361
-87.632653 -68.00002403 -0.7080263856
161.278616 -2.498577402e-05 149.3269016
-111.820171 -2.498577402e-05 136.1342006
272.070932 -2.498577402e-05 251.6353006
-30.557027 -2.498577402e-05 200.2909376
212.960361 -48.49515572 -9.738561312e-05
-91.974638 -2.498577402e-05 81.51289261
173.452746 -2.498577402e-05 24.57127961
-278.999785 -20.8944075 38.52678161
260.668775 -2.498577402e-05 185.5798036
83.957259 -2.498577402e-05 139.3923316
233.933151 -2.498577402e-05 149.4227616
158.323525 -68.00002403 -0.4116053856
212.324555 -2.498577402e-05 252.2790596
-258.643934 -2.498577402e-05 95.79649461
-148.79041 -2.498577402e-05 76.14422361
-198.160814 -2.498577402e-05 19.75488161
-125.595649 -63.81116095 -9.738561312e-05
277.878864 -35.2357374 -9.738561312e-05
-189.00904 -2.498577402e-05 53.60381061
289.659275 -2.498577402e-05 143.7797196
127.13424 -2.498577402e-05 104.3477996
-227.174247 -2.498577402e-05 82.72878061
-302.141772 -2.498577402e-05 73.52003161
58.889239 -2.498577402e-05 84.76368361
-156.507425 -2.498577402e-05 239.8246946
-108.438542 -2.498577402e-05 198.8185236
-278.999785 -1.096342656 18.68649861
0.9027920013 -2.498577402e-05 69.49728261
185.581444 -2.498577402e-05 97.34997361
-240.702443 -2.498577402e-05 219.8696446
-261.891252 -2.498577402e-05 168.4223056
-278.999785 -21.73893613 242.2462806
301.554581 -18.07599239 -9.738561312e-05
184.98735 -37.81142004 -9.738561312e-05
229.127558 -2.498577402e-05 3.533325614
31.294564 -36.11777772 -9.738561312e-05
133.378019 -2.498577402e-05 168.9437836
-92.851479 -2.498577402e-05 39.11288361
-57.975791 -2.498577402e-05 212.0703526
-76.316206 -2.498577402e-05 190.1152366
-38.103359 -2.498577402e-05 155.5846256
276.075404 -2.498577402e-05 62.79474461
-298.145272 -2.498577402e-05 125.0328726
-146.102648 -2.498577402e-05 26.46759961
-220.471473 -2.498577402e-05 135.8530926
-111.068736 -6.979952526 -9.738561312e-05
39.498992 -2.498577402e-05 48.64877561
-64.24924 -1.556618136 -9.738561312e-05
188.833312 1.648582164 -9.738561312e-05
-34.540564 -2.498577402e-05 103.9471536
-164.02621 -2.498577402e-05 128.4756686
-162.421539 -21.69805446 -9.738561312e-05
-47.372905 -2.498577402e-05 67.24512461
300.83297 -2.498577402e-05 220.9264376
-225.445717 -2.498577402e-05 186.9400386
87.191573 -2.498577402e-05 178.7809646
261.201985 -2.498577402e-05 19.26797761
-174.316313 -2.498577402e-05 81.92414461
303.25077 -2.498577402e-05 196.1031336
-81.71672 -2.498577402e-05 155.4639176
-250.81827 -39.68452269 -9.738561312e-05
-171.879223 -44.65188639 -9.738561312e-05
-301.184817 -2.498577402e-05 167.2072276
-233.761593 -2.498577402e-05 22.61393261
96.171302 -2.498577402e-05 206.2834276
273.951556 -2.498577402e-05 124.9836476
-13.960615 -2.498577402e-05 236.8282526
39.983454 -2.498577402e-05 134.4539716
-278.999785 -12.69265892 200.8283026
-11.470613 -2.498577402e-05 26.49261061
62.626023 -2.498577402e-05 225.6770276
58.506723 -10.48166985 -9.738561312e-05
-278.999785 -0.9106477858 66.95019061
23.975466 -2.498577402e-05 22.12354861
92.128222 -68.00002403 -1.492827386
108.025797 -2.498577402e-05 136.1382756
109.488563 0.9632909442 -9.738561312e-05
228.959508 -68.00002403 -2.216486386
255.339919 -2.498577402e-05 47.57390861
76.877986 -2.498577402e-05 103.9722766
105.791778 -2.498577402e-05 42.42932161
7.515159001 -24.99507569 -9.738561312e-05
150.176778 -2.498577402e-05 109.9913316
-284.999785 -23.48984801 154.2760256
-11.448264 -2.498577402e-05 149.0409886
-204.589696 -2.498577402e-05 106.1736966
300.112726 -2.498577402e-05 22.57145161
47.492477 -2.498577402e-05 194.0099866
-45.27104 -2.498577402e-05 251.5217246
33.12425 -2.498577402e-05 241.7532136
114.918262 -2.498577402e-05 250.6256056
-284.812231 -50.00002499 69.96138361
-210.228979 -49.0911887 -9.738561312e-05
143.210653 -2.498577402e-05 67.10615861
-185.358319 -2.498577402e-05 147.6409776
168.867036 -19.91199491 -9.738561312e-05
228.040591 -24.30229547 -9.738561312e-05
-242.958955 -2.498577402e-05 141.6307286
-137.586449 -2.498577402e-05 48.65343861
129.203759 -43.93941559 -9.738561312e-05
187.424124 -2.498577402e-05 137.8436506
-95.020507 -22.70884877 -9.738561312e-05
135.445459 -2.498577402e-05 5.557237614
-12.168108 -2.498577402e-05 112.2474006
211.939907 -2.498577402e-05 177.0946296
200.34852 -2.498577402e-05 70.65929161
-159.267131 -2.498577402e-05 184.9274706
-48.677575 -43.3960373 -9.738561312e-05
89.763478 -20.33191003 -9.738561312e-05
280.000215 1.414562114 172.1793676
113.844412 -2.498577402e-05 86.11460461
-233.641861 -2.498577402e-05 55.33040261
-167.630741 -2.498577402e-05 219.4519856
300.86531 -2.498577402e-05 46.19623661
256.270598 -2.498577402e-05 92.26531261
143.49239 -19.66105873 -9.738561312e-05
-188.641245 -0.3781093058 -9.738561312e-05
-101.682537 -2.498577402e-05 59.87866661
-182.991981 -2.498577402e-05 102.5343336
186.653227 -2.498577402e-05 173.9552416
-240.022202 1.797148964 -9.738561312e-05
16.578864 -2.498577402e-05 218.7289586
-278.999785 -49.73246217 230.1112616
-293.007942 -2.498577402e-05 190.2319836
245.056933 -2.498577402e-05 168.6252926
-51.728743 -2.498577402e-05 117.6605196
229.093488 -2.498577402e-05 102.8746636
-22.330587 -14.8127804 -9.738561312e-05
127.28347 -2.498577402e-05 44.21011261
-284.351024 -50.00002499 121.1908316
231.377674 -2.498577402e-05 80.15262061
151.590363 -2.498577402e-05 21.40909761
-13.357658 -2.498577402e-05 53.58886561
132.955934 -2.498577402e-05 216.7170356
-284.999785 -24.69017424 97.07431761
-176.544163 -2.498577402e-05 35.09411461
282.90306 -2.498577402e-05 232.2544896
-115.108565 -2.498577402e-05 89.96996761
63.270257 -2.498577402e-05 134.6423686
-284.999785 -32.96661795 192.8508676
-272.788704 -2.498577402e-05 46.78599061
-73.703168 -2.498577402e-05 111.9841416
172.106355 -2.498577402e-05 73.93813561
-72.405311 -48.31548685 -9.738561312e-05
-195.121063 -2.498577402e-05 219.3479206
-279.2125 -50.00002499 203.6791766
-42.02345 -2.498577402e-05 23.20092061
-276.47495 -2.498577402e-05 245.0022856
-58.570205 -2.498577402e-05 156.9899906
91.246636 -2.498577402e-05 61.93941961
-296.357192 -19.35924688 -9.738561312e-05
-84.281732 -2.498577402e-05 237.9823506
4.726680001 -2.498577402e-05 161.2354116
142.914302 -2.498577402e-05 190.5746216
0.2118130013 -2.498577402e-05 188.1672226
73.733411 -51.3967835 -9.738561312e-05
-88.710556 -2.498577402e-05 136.5091306
66.006103 -2.498577402e-05 180.2669716
-120.399821 -27.71915033 -9.738561312e-05
-59.643723 -2.498577402e-05 234.0086186
-275.161986 -2.498577402e-05 112.1581916
23.63712 -2.498577402e-05 122.7006766
300.951654 -2.498577402e-05 88.99724261
-283.387208 -68.00002403 -0.5722173856
-282.271075 -50.00002499 27.28726061
-244.058467 -2.498577402e-05 177.4785056
187.195991 -2.498577402e-05 216.3868916
36.019741 -2.498577402e-05 153.9668406
-128.352973 -2.498577402e-05 156.9651676
9.651949001 -68.00002403 -0.9660073856
-299.902455 -2.498577402e-05 26.55860261
-278.999785 -12.46448973 134.9313626
-211.706712 -2.498577402e-05 232.9547376
-209.961803 -2.498577402e-05 63.00504161
226.169831 -2.498577402e-05 207.2422416
-210.029775 -22.6863942 -9.738561312e-05
172.689893 -2.498577402e-05 195.5593536
-298.06617 -2.498577402e-05 230.0611456
-158.969993 -2.498577402e-05 147.4328116
-271.933144 2.487712424 -9.738561312e-05
210.219044 -2.498577402e-05 8.396759614
-46.566606 -17.43202475 -9.738561312e-05
82.889412 -2.498577402e-05 158.7196256
260.733452 1.479350664 -9.738561312e-05
198.181916 -2.498577402e-05 239.1100306
-241.408868 -19.59300657 -9.738561312e-05
257.680414 -36.27124694 -9.738561312e-05
-128.522895 -2.498577402e-05 205.0922796
-278.999785 -48.14670833 158.2655686
255.544152 -67.81394283 -9.738561312e-05
173.48389 -56.57981147 -9.738561312e-05
104.849112 -2.498577402e-05 187.7383446
100.380031 -2.498577402e-05 20.34979461
-270.035895 -39.86422598 -9.738561312e-05
146.95275 -2.498577402e-05 229.4553066
-52.784095 -2.498577402e-05 49.13413561
-238.866538 -2.498577402e-05 200.0924146
-1.367204999 -2.498577402e-05 133.1888896
249.083289 -2.498577402e-05 136.7052746
-34.141783 -2.498577402e-05 174.7897886
-6.694849999 -2.498577402e-05 91.56801761
-265.102629 -2.498577402e-05 146.8163026
-96.360039 -2.498577402e-05 184.6034196
16.876926 -2.498577402e-05 199.0253336
122.535443 -2.498577402e-05 152.9587906
132.614611 -2.498577402e-05 86.69238561
-78.127797 -13.75992717 -9.738561312e-05
-278.999785 -17.56022004 224.1572676
-284.999785 -31.70000415 56.47109161
46.820009 -2.498577402e-05 68.28463561
209.060999 -66.48309571 -9.738561312e-05
-107.840325 -68.00002403 -1.983805386
-201.991706 -2.498577402e-05 139.8959606
44.403714 -55.06485995 -9.738561312e-05
-254.365626 -2.498577402e-05 12.38034061
36.242154 -2.498577402e-05 96.64487561
-278.999785 -8.412766376 83.64240761
238.802261 -2.498577402e-05 56.89015161
111.665599 -52.69777085 -9.738561312e-05
-247.161552 -67.80426519 -9.738561312e-05
144.261331 -54.17586271 -9.738561312e-05
17.014895 -2.498577402e-05 61.04375461
299.965054 -2.498577402e-05 3.782799614
-231.441203 -2.498577402e-05 237.0549916
-278.999785 -16.96018561 9.816145614
-284.999785 -38.89057628 84.30212561
-141.683784 -2.498577402e-05 95.14278161
-300.485282 -2.498577402e-05 142.9173936
-173.140903 -2.498577402e-05 62.14786461
-192.265522 -48.07116964 -9.738561312e-05
15.446353 0.5638839942 -9.738561312e-05
-284.999785 -13.67806443 55.86203561
273.884592 -15.3951046 -9.738561312e-05
-149.702243 -49.51788717 -9.738561312e-05
-156.3865 -1.514087516 -9.738561312e-05
-213.342447 -2.498577402e-05 158.7348896
-239.819213 -2.498577402e-05 97.37987561
188.170835 -2.498577402e-05 34.92813861
188.750947 -2.498577402e-05 115.2621876
264.194228 -2.498577402e-05 108.1020246
-139.486838 -2.498577402e-05 223.4011336
165.999808 -2.498577402e-05 247.1160256
-278.999785 -31.83151657 173.2203886
259.397465 -2.498577402e-05 232.4281496
-300.041414 -36.60101025 -9.738561312e-05
-104.327536 -2.498577402e-05 224.5655196
227.561551 -2.498577402e-05 167.5589656
-185.083205 -2.498577402e-05 183.6333176
-8.504697999 -38.2024495 -9.738561312e-05
117.393166 -2.498577402e-05 118.8269786
141.019775 -2.498577402e-05 146.5027326
204.260342 -2.498577402e-05 209.6114896
279.728437 -2.498577402e-05 189.5542886
160.591026 -2.498577402e-05 57.30852061
-21.08105 -2.498577402e-05 221.0166296
-201.232578 -2.498577402e-05 249.0182696
45.896289 -2.498577402e-05 5.612390614
-207.778385 -2.498577402e-05 191.9931116
204.421029 -2.498577402e-05 45.20492761
-115.514131 -2.498577402e-05 48.16930761
-284.160916 -2.498577402e-05 170.6233676
-0.8289969987 -2.498577402e-05 225.7383546
-133.046327 -14.82773567 -9.738561312e-05
185.958909 -18.55096242 -9.738561312e-05
233.760221 -2.498577402e-05 225.7941146
-30.861567 -2.498577402e-05 62.73261161
-33.235788 -55.05608268 -9.738561312e-05
-257.533964 -2.498577402e-05 231.1763856
-284.125607 -49.40209732 0.9999026144
80.2346 -35.64848195 -9.738561312e-05
4.958884001 -2.498577402e-05 21.98954861
-82.337764 -2.498577402e-05 97.37067961
190.77805 -2.498577402e-05 18.08120761
7.199506001 -2.498577402e-05 118.5440166
108.341507 -33.37694996 -9.738561312e-05
-122.313151 -2.498577402e-05 184.7300776
303.419717 -2.498577402e-05 154.3949806
281.000215 1.457640854 108.8076446
-189.465584 -2.498577402e-05 164.0175956
-284.999785 -36.92818265 37.97440261
221.256056 -2.498577402e-05 30.30633661
-108.162395 -2.498577402e-05 19.44271561
51.409383 -2.498577402e-05 171.8657696
215.59365 -2.498577402e-05 143.9924506
68.552961 -2.498577402e-05 19.70895761
13.211685 -2.498577402e-05 80.91793161
-126.639046 -2.498577402e-05 13.32128061
269.563328 -53.94529546 -9.738561312e-05
231.513125 -43.0345796 -9.738561312e-05
-21.591546 1.833000594 -9.738561312e-05
-146.061177 -2.498577402e-05 157.9591856
-127.657671 -2.498577402e-05 129.4967086
180.665907 -2.498577402e-05 158.4563056
-284.999785 -4.104012516 33.84955261
148.147061 -2.498577402e-05 161.4746066
100.606882 -2.498577402e-05 96.07949661
-76.518083 -2.498577402e-05 173.5974796
-284.999785 -27.39625073 131.4985716
41.344971 -23.10095674 -9.738561312e-05
244.338158 -2.498577402e-05 202.4852826
-85.387823 -35.8693049 -9.738561312e-05
62.283403 -2.498577402e-05 40.60373561
165.514529 -2.498577402e-05 104.5610296
-235.32253 -46.7712723 -9.738561312e-05
-117.479917 -2.498577402e-05 243.7370776
-284.999785 -36.02395499 108.6846146
-50.626547 -2.498577402e-05 142.8579816
229.01202 -2.498577402e-05 121.0225276
-109.060685 -2.498577402e-05 152.1722076
132.954728 -2.498577402e-05 237.5738406
74.564309 -14.78344938 -9.738561312e-05
32.767152 -2.498577402e-05 201.6304446
-76.107113 -2.498577402e-05 206.2075986
-172.240598 -2.498577402e-05 236.7696766
-284.999785 -3.514444016 212.4937176
-245.522794 -2.498577402e-05 112.3148316
-16.765442 -2.498577402e-05 188.2115966
147.767418 -2.498577402e-05 132.0506746
98.490724 -2.498577402e-05 222.0558706
-80.024082 -2.498577402e-05 25.84427061
171.315767 -2.498577402e-05 217.4203716
201.208047 -37.77446537 -9.738561312e-05
77.231523 -2.498577402e-05 75.16581161
19.368331 -2.498577402e-05 167.4032216
286.481596 -48.57869363 -9.738561312e-05
-248.196084 -2.498577402e-05 160.4104556
86.29343 -2.498577402e-05 122.2764056
-25.233224 -2.498577402e-05 18.67459461
-225.812039 -17.01180424 -9.738561312e-05
173.361801 -2.498577402e-05 8.769065614
-282.324439 1.799978064 129.0150016
244.804915 -2.498577402e-05 2.075504614
-69.882837 -2.498577402e-05 84.82056361
221.567807 -2.498577402e-05 239.5445836
-278.999785 -33.62157647 231.9759656
200.764553 -2.498577402e-05 101.3316986
296.224089 -61.08575369 -9.738561312e-05
-42.402525 -2.498577402e-05 213.8182966
-171.668598 -60.31431928 -9.738561312e-05
264.19108 -2.498577402e-05 34.69654461
109.561362 -68.00002403 -2.044828386
-120.593852 -45.53244321 -9.738561312e-05
-4.265995999 -60.77461642 -9.738561312e-05
116.400818 -2.498577402e-05 177.3165546
-107.737178 -2.498577402e-05 121.1532966
137.205161 -2.498577402e-05 27.07908261
-189.058142 -2.498577402e-05 234.5560576
-67.523617 -2.498577402e-05 43.15654961
-274.614287 -2.498577402e-05 193.2577966
181.229159 -2.498577402e-05 249.3544776
-138.064622 -2.498577402e-05 64.02144861
47.046982 -2.498577402e-05 235.2854686
-255.661112 -2.498577402e-05 215.9594026
198.509091 -2.498577402e-05 127.2526786
-273.884863 -2.498577402e-05 96.67338861
82.632642 -2.498577402e-05 213.2529596
-140.474305 -67.01039234 -9.738561312e-05
96.875364 -2.498577402e-05 147.3692956
-139.597229 -2.498577402e-05 189.9492636
-133.572121 -2.498577402e-05 78.54614761
264.998353 -2.498577402e-05 79.90366561
-20.417346 -2.498577402e-05 98.53843261
-198.734488 -2.498577402e-05 42.02592961
-38.454001 -2.498577402e-05 89.35083461
-49.97773 -2.498577402e-05 9.486412614
279.441703 -2.498577402e-05 21.56096161
-92.661892 -2.498577402e-05 199.1891906
-284.999785 -21.22895209 24.75707761
-147.309672 -22.40187426 -9.738561312e-05
45.910639 -39.34438483 -9.738561312e-05
59.775534 -2.498577402e-05 206.9881686
-134.368973 -2.498577402e-05 237.6122716
289.832312 -2.498577402e-05 160.5832756
-45.266807 -2.498577402e-05 197.9347996
-284.999785 -9.719301826 235.8196166
84.480397 -2.498577402e-05 48.67896661
-278.999785 -11.10075198 159.8585376
-81.439023 -2.498577402e-05 70.65502161
-237.687976 -2.498577402e-05 69.58652261
-201.580207 -10.52388559 -9.738561312e-05
116.403419 -2.498577402e-05 212.5708826
62.293346 -2.498577402e-05 69.28689661
-171.768997 -7.798827756 -9.738561312e-05
84.111257 -2.498577402e-05 251.0468796
-106.198276 -2.498577402e-05 77.76525761
-96.586713 -1.395584216 -9.738561312e-05
-284.999785 -10.50461477 107.8499856
-145.33787 -2.498577402e-05 11.82761961
136.862511 -2.498577402e-05 116.1050496
-149.439379 -2.498577402e-05 127.2073796
27.545019 -2.498577402e-05 36.31593561
123.488325 -6.172905436 -9.738561312e-05
62.546797 -2.498577402e-05 107.1310846
295.393015 -31.22155008 -9.738561312e-05
-145.374139 -2.498577402e-05 110.6127116
172.968469 -2.498577402e-05 136.8183596
105.613159 -19.16238048 -9.738561312e-05
-110.342542 -2.498577402e-05 106.7925046
-248.884287 -2.498577402e-05 81.45187561
-302.829386 -2.498577402e-05 111.4596906
140.738946 -35.43564933 -9.738561312e-05
-175.227911 -28.07059837 -9.738561312e-05
267.942902 -2.498577402e-05 220.9634826
79.241086 -2.498577402e-05 89.77265861
289.675963 -2.498577402e-05 55.03171061
-203.544586 -2.498577402e-05 120.3830196
-36.605618 -2.498577402e-05 140.5157426
189.080371 -2.498577402e-05 83.59285261
-221.729664 -2.498577402e-05 13.76064661
-6.048908999 -20.85213716 -9.738561312e-05
275.849839 -2.498577402e-05 158.2371006
-258.339101 -2.498577402e-05 47.68497661
-187.553525 -2.498577402e-05 67.67427261
51.047353 -2.498577402e-05 145.2962836
246.052616 -2.498577402e-05 237.0829366
70.245324 -2.498577402e-05 244.0819376
209.692952 -2.498577402e-05 112.2542486
292.850792 -2.498577402e-05 181.8729856
16.76002 -40.19393802 -9.738561312e-05
299.367281 -2.498577402e-05 131.4835916
-210.272776 -63.17004845 -9.738561312e-05
244.887652 -30.40493867 -9.738561312e-05
24.674414 -2.498577402e-05 230.5108036
-236.638322 -2.498577402e-05 123.2011366
-176.750121 -2.498577402e-05 119.9446976
-285.962349 -9.772645346 -9.738561312e-05
-245.286133 -2.498577402e-05 239.1828966
-199.935595 -2.498577402e-05 154.7081866
-4.688879999 -2.498577402e-05 42.60913561
-222.443215 -2.498577402e-05 69.23985961
-78.09478 -2.498577402e-05 2.274606614
-171.274672 -2.498577402e-05 140.3670276
-188.383347 -2.498577402e-05 89.72726861
245.382275 -2.498577402e-05 188.4960206
-278.999785 -36.07351879 122.5125446
36.90787 -2.498577402e-05 173.8616136
-272.035894 -2.498577402e-05 30.58550561
158.517007 -2.498577402e-05 70.97971661
292.580218 -2.498577402e-05 204.8824976
-200.97146 -2.498577402e-05 203.9930996
-152.526458 -2.498577402e-05 170.1464896
-20.732936 -49.22683471 -9.738561312e-05
-228.94536 -2.498577402e-05 212.6802786
145.195345 -2.498577402e-05 97.14682561
-67.083157 -2.498577402e-05 14.61432861
287.355652 -12.10887606 -9.738561312e-05
215.462393 -2.498577402e-05 76.36639961
-95.837866 -2.498577402e-05 25.35961961
-24.781374 -2.498577402e-05 151.9931306
36.899827 -2.498577402e-05 119.4757986
-262.226745 -2.498577402e-05 182.0605056
-4.137375999 -2.498577402e-05 246.2915556
243.199338 -2.498577402e-05 88.47664961
104.091052 -2.498577402e-05 57.46612061
70.078165 -2.498577402e-05 122.9057296
215.002135 -9.506133846 -9.738561312e-05
95.146199 -2.498577402e-05 7.854044614
281.14544 -2.498577402e-05 75.31375161
165.958715 -2.498577402e-05 44.93191961
-132.951942 -2.498577402e-05 34.85376561
-298.782055 -2.498577402e-05 59.53535761
132.035667 -2.498577402e-05 182.6993966
160.519613 -2.498577402e-05 234.8601656
-284.999785 -0.6453064958 52.31921561
-25.116858 -2.498577402e-05 116.6942286
260.227607 -2.498577402e-05 61.47812761
-37.096422 -2.498577402e-05 123.0634976
-16.077583 -2.498577402e-05 207.4438166
61.673768 -2.498577402e-05 7.678361614
216.238299 -2.498577402e-05 160.4515936
-163.376075 -2.498577402e-05 32.86379961
-228.332771 -2.498577402e-05 37.15343161
159.785444 -2.498577402e-05 192.2225086
-60.579886 -2.498577402e-05 65.67065261
170.691938 -2.498577402e-05 169.5308306
-278.999785 -34.85460106 157.6811196
-279.257598 -25.89738574 -9.738561312e-05
24.386643 -2.498577402e-05 109.4533746
-24.325204 -2.498577402e-05 245.1027876
-264.203777 -2.498577402e-05 76.22370661
-261.515635 -25.6019249 -9.738561312e-05
-293.134648 -2.498577402e-05 15.18823761
54.183148 -2.498577402e-05 125.0242616
-39.830189 -28.7789746 -9.738561312e-05
-201.679712 -32.90409081 -9.738561312e-05
156.579819 -15.10294588 -9.738561312e-05
226.513866 -2.498577402e-05 18.20806761
-172.788544 -2.498577402e-05 177.9180196
-180.991058 -2.498577402e-05 22.68209161
184.808822 -2.498577402e-05 70.42918561
17.544087 -12.44218701 -9.738561312e-05
31.701776 -51.56991229 -9.738561312e-05
174.723946 -2.498577402e-05 89.89710161
-249.681766 -54.91601043 -9.738561312e-05
-84.923935 -2.498577402e-05 118.7379036
-48.604076 -2.498577402e-05 34.52299661
-159.124219 -2.498577402e-05 20.49293061
26.505461 -2.498577402e-05 50.03320061
-284.999785 -8.342418526 250.3287246
-232.864602 -2.498577402e-05 250.9183916
266.949764 -2.498577402e-05 174.1472056
86.770908 -2.498577402e-05 18.51689061
261.367236 -2.498577402e-05 121.5647726
52.07641 -2.498577402e-05 52.08800861
-289.366525 -2.498577402e-05 114.2204986
-11.364535 -2.498577402e-05 73.83191961
226.366881 -2.498577402e-05 42.26749861
-137.123946 -52.7690506 -9.738561312e-05
6.260396001 -2.498577402e-05 174.1217276
27.193495 -21.42768461 -9.738561312e-05
-169.725129 -2.498577402e-05 206.6612706
138.570417 -2.498577402e-05 55.01301261
-278.999785 -24.49332495 184.8800636
168.86599 -40.53165589 -9.738561312e-05
-284.999785 -42.30815709 168.5764866
-222.648247 -52.70674914 -9.738561312e-05
-209.411619 -2.498577402e-05 94.18457161
-278.999785 -33.79401895 21.51394461
250.656063 -2.498577402e-05 33.76320661
-278.999785 -43.4550674 218.8463306
-272.851458 -2.498577402e-05 157.5930666
69.99009 -2.498577402e-05 146.7778046
213.011548 -28.60659868 -9.738561312e-05
-284.999785 -12.23099954 146.2993536
177.458232 -2.498577402e-05 183.6618616
240.44377 -2.498577402e-05 14.12357161
-248.160319 -2.498577402e-05 56.47295361
159.80962 -2.498577402e-05 136.3890826
-284.999785 -32.15234928 246.6275276
-75.148842 -60.80704939 -9.738561312e-05
-172.923888 -2.498577402e-05 94.67756261
-105.606125 -2.498577402e-05 38.88316161
-225.699503 -2.498577402e-05 225.0110216
199.257515 -2.498577402e-05 226.4068126
-186.918341 -12.98438524 -9.738561312e-05
96.53756 -2.498577402e-05 129.8220766
-103.784626 -2.498577402e-05 95.74403261
123.388615 -2.498577402e-05 77.74668461
2.848128001 -11.8037264 -9.738561312e-05
197.070451 -2.498577402e-05 251.7360926
198.958661 -2.498577402e-05 170.9564546
199.59089 -2.498577402e-05 141.3051096
173.074947 -2.498577402e-05 61.33008661
-64.120325 -2.498577402e-05 183.0932026
-91.238539 -2.498577402e-05 170.2837906
-272.713027 -12.11850803 -9.738561312e-05
-297.076106 -2.498577402e-05 88.47714061
-61.359915 -54.37347951 -9.738561312e-05
-146.183153 -2.498577402e-05 39.44871161
59.984773 -2.498577402e-05 192.4137846
-278.999785 -38.83474764 69.64093461
217.387368 -2.498577402e-05 198.2326356
-71.70432 -2.498577402e-05 237.7929806
-255.552077 -2.498577402e-05 136.3239256
202.732888 -6.620861246 -9.738561312e-05
-12.314701 -2.498577402e-05 124.8085916
-166.662863 -2.498577402e-05 248.0228526
266.297066 -2.498577402e-05 134.9299676
-278.999785 -25.9580135 86.13018661
-108.831129 -2.498577402e-05 183.3029776
105.037579 -2.498577402e-05 242.9066136
296.534017 -2.498577402e-05 105.1042976
-284.999785 -45.47009662 193.1387976
-108.189445 -25.05172386 -9.738561312e-05
117.576245 -2.498577402e-05 36.33948261
227.282788 -2.498577402e-05 133.3827146
-278.999785 -25.15138697 201.3814476
256.713464 -2.498577402e-05 200.9933676
286.911196 -2.498577402e-05 131.5796756
-184.484511 -58.45779661 -9.738561312e-05
-54.596302 -2.498577402e-05 129.7629406
-264.517771 -2.498577402e-05 241.5912576
-254.08607 0.9629894142 -9.738561312e-05
34.772475 -2.498577402e-05 60.12825961
221.433467 -57.56412974 -9.738561312e-05
-125.659412 -3.870298916 -9.738561312e-05
303.445738 -2.498577402e-05 234.3915226
56.781001 -54.98688365 -9.738561312e-05
84.65256 -57.19342401 -9.738561312e-05
14.286729 -2.498577402e-05 183.7691466
-84.761741 -48.47890932 -9.738561312e-05
50.334739 -2.498577402e-05 93.68043061
-221.926389 -2.498577402e-05 26.16556461
-200.568753 -2.498577402e-05 6.381909614
-148.769539 -2.498577402e-05 57.87771061
-276.22956 -2.498577402e-05 140.1813666
-60.733684 -2.498577402e-05 109.2708396
26.794742 -2.498577402e-05 87.44637361
249.887275 -2.498577402e-05 151.5625596
-122.776327 -2.498577402e-05 146.0124336
-213.762462 -35.13919789 -9.738561312e-05
296.881796 -2.498577402e-05 34.57376661
-284.999785 -31.62602113 143.8706426
-278.999785 -49.57296626 84.85421661
-37.546411 -2.498577402e-05 51.21204261
-220.88836 -2.498577402e-05 120.6338696
-278.999785 -35.34777473 96.38977661
47.047988 -67.01315618 -9.738561312e-05
-46.959413 -2.498577402e-05 164.0222826
-228.800589 -2.498577402e-05 144.8054986
-284.999785 -48.32270566 13.14462461
-130.076676 -2.498577402e-05 98.94773761
233.690347 -2.498577402e-05 238.0478496
178.507789 -2.498577402e-05 42.46062661
-37.883061 -2.498577402e-05 188.2205676
249.410355 -2.498577402e-05 102.3557316
267.710036 -68.00002403 -0.8908783856
267.255943 -2.498577402e-05 50.09410861
94.997619 -2.498577402e-05 164.5308416
78.161717 -2.498577402e-05 62.80686961
152.55249 -27.78252377 -9.738561312e-05
-191.237623 -2.498577402e-05 32.45909461
-34.324018 -16.77594761 -9.738561312e-05
-284.999785 -10.11366538 190.5809566
-70.144882 -2.498577402e-05 160.6805846
-16.788452 -2.498577402e-05 41.52199761
-278.999785 -10.36465049 45.53620061
-284.999785 -12.88880163 94.19521461
-98.08289 -34.46361232 -9.738561312e-05
146.323186 -2.498577402e-05 78.86782061
231.294539 -11.41600105 -9.738561312e-05
-96.033924 -2.498577402e-05 233.4114826
-287.169526 -2.498577402e-05 224.7498686
229.496312 -2.498577402e-05 65.72867861
2.291276001 -2.498577402e-05 57.46359761
-24.815695 -2.498577402e-05 167.0599926
-93.350297 -2.498577402e-05 147.6909056
-284.999785 -43.71669118 57.92925461
-31.530911 -68.00002403 -1.774882386
156.158975 -2.498577402e-05 120.5009656
-296.82846 -2.498577402e-05 154.4320386
-155.827637 -2.498577402e-05 222.0209176
-281.512213 -2.498577402e-05 183.3749886
-47.58168 -2.498577402e-05 239.7012916
-284.999785 -0.04114325577 199.3321666
185.831885 -49.81119609 -9.738561312e-05
144.42162 -2.498577402e-05 173.7089196
-165.824776 -2.498577402e-05 71.69293761
126.269594 -55.58211257 -9.738561312e-05
-55.799584 -33.71359571 -9.738561312e-05
131.920342 -2.498577402e-05 201.5121606
44.618756 -2.498577402e-05 80.07791061
-161.010875 -2.498577402e-05 116.8733906
257.202799 -55.55516024 -9.738561312e-05
36.930169 -2.498577402e-05 228.9012056
110.973495 -2.498577402e-05 72.94713761
14.063668 -56.94353577 -9.738561312e-05
-25.630549 -2.498577402e-05 51.35683661
-60.621289 -2.498577402e-05 168.7241316
-245.584807 -2.498577402e-05 21.21791461
163.991651 -2.498577402e-05 33.22092961
192.688406 -2.498577402e-05 61.55794261
-278.999785 -48.95124875 110.6563166
-278.999785 -11.08275836 25.92036961
-301.418947 -50.44666249 -9.738561312e-05
-115.809985 -2.498577402e-05 208.0724676
-152.229476 -2.498577402e-05 87.45733061
-224.058791 -2.498577402e-05 175.2032726
115.778708 -2.498577402e-05 48.73902961
-193.434769 -2.498577402e-05 110.0343436
-1.576583999 -2.498577402e-05 103.8721396
-100.202301 -2.498577402e-05 133.8292406
-78.953532 -2.498577402e-05 225.3384346
80.067489 -2.498577402e-05 224.7609826
-192.147478 -2.498577402e-05 193.0684816
-187.648356 -2.498577402e-05 11.73845761
-284.999785 -13.31978235 123.4057666
133.229019 -26.3631335 -9.738561312e-05
-56.959846 -2.498577402e-05 250.1094406
-210.217279 -2.498577402e-05 75.35889361
-278.999785 -23.59182245 49.94472761
-205.589266 -2.498577402e-05 51.52464661
-215.672495 -2.498577402e-05 109.8772106
282.012705 -23.76978302 -9.738561312e-05
94.782857 -2.498577402e-05 193.6380646
28.222469 -2.498577402e-05 219.2897816
-98.717741 -2.498577402e-05 209.1449926
-48.084517 -2.498577402e-05 99.47457161
-144.065067 -11.15695613 -9.738561312e-05
-209.684781 -2.498577402e-05 20.96345661
108.265363 -2.498577402e-05 11.86671561
194.609109 -26.20829879 -9.738561312e-05
111.983473 -2.498577402e-05 197.3798896
159.597566 -2.498577402e-05 166.3558096
174.820508 -68.00002403 -0.9372593856
87.055074 -2.498577402e-05 98.56028261
52.101673 -27.22220762 -9.738561312e-05
-0.1004189987 -2.498577402e-05 82.13071461
-284.999785 -8.372354146 73.82415061
193.49579 -2.498577402e-05 183.6287316
117.843816 -42.19919652 -9.738561312e-05
223.916433 -2.498577402e-05 250.7928416
135.918205 -2.498577402e-05 156.7890986
-53.436761 -5.458952186 -9.738561312e-05
118.495763 -2.498577402e-05 239.7467936
278.235286 -2.498577402e-05 144.5441656
238.309183 -2.498577402e-05 111.2861346
41.693347 -2.498577402e-05 26.01345161
120.159807 -2.498577402e-05 131.0994956
-245.300526 -2.498577402e-05 37.93893561
159.41113 -2.498577402e-05 13.11731661
272.867104 -2.498577402e-05 100.3116446
280.000215 1.193901074 221.3026546
226.916649 -2.498577402e-05 90.63292861
47.123033 -10.35887719 -9.738561312e-05
27.225829 -2.498577402e-05 251.4859836
95.931788 -29.89002789 -9.738561312e-05
-284.999785 -16.36512538 209.7613376
-9.969661999 -8.432937816 -9.738561312e-05
202.055197 -2.498577402e-05 81.88815261
-165.041657 -35.59326073 -9.738561312e-05
115.754496 -2.498577402e-05 107.6048046
96.00194 -10.9161303 -9.738561312e-05
210.704715 -2.498577402e-05 188.3211936
24.246428 -2.498577402e-05 10.83824561
263.102202 -2.498577402e-05 243.0907696
42.786764 -2.498577402e-05 162.9915126
-8.645003999 -2.498577402e-05 159.9669936
-263.084178 -2.498577402e-05 207.5010886
142.901988 -2.498577402e-05 14.26633861
224.850698 -2.498577402e-05 178.6951576
176.402394 -28.2502803 -9.738561312e-05
-63.451507 -68.00002403 -1.420202386
73.520992 -2.498577402e-05 171.9293166
-122.02064 -2.498577402e-05 173.5129746
-135.685113 -2.498577402e-05 22.30244561
-186.675433 -2.498577402e-05 136.5002926
67.885327 -2.498577402e-05 214.7338766
-35.026383 -2.498577402e-05 13.21770761
285.113417 -2.498577402e-05 243.2377226
147.139855 -67.73694308 -9.738561312e-05
-0.6687629987 -2.498577402e-05 146.0366476
-148.063176 -2.498577402e-05 230.5838466
-244.914933 -8.982954686 -9.738561312e-05
238.979725 -19.94615271 -9.738561312e-05
-241.029752 -30.75626172 -9.738561312e-05
2.622713001 -2.498577402e-05 236.3514106
-39.392577 -2.498577402e-05 78.23090561
-227.522228 -2.498577402e-05 201.6162866
146.528769 2.397675294 -9.738561312e-05
156.935454 -2.498577402e-05 224.3448676
167.140387 -2.498577402e-05 205.1684336
-21.840999 -26.38675498 -9.738561312e-05
-171.162578 -2.498577402e-05 44.78678361
149.515669 -2.498577402e-05 57.62344961
-212.389609 -2.498577402e-05 180.9741706
-260.277306 -45.43149191 -9.738561312e-05
46.438863 -2.498577402e-05 40.03879961
-179.069908 -2.498577402e-05 156.7374736
-284.999785 -48.77771478 239.9662126
66.992249 -24.39368011 -9.738561312e-05
-119.528735 -16.71372813 -9.738561312e-05
236.167113 -2.498577402e-05 177.7419866
126.158838 -2.498577402e-05 11.49904761
-56.262322 -2.498577402e-05 75.81366261
-273.163838 -53.86615338 -9.738561312e-05
117.24339 -2.498577402e-05 96.57850661
303.35791 -2.498577402e-05 56.90807761
188.355907 -2.498577402e-05 230.4415976
244.655055 -66.41179325 -9.738561312e-05
-246.368213 -2.498577402e-05 192.1055636
72.42358 -2.498577402e-05 36.45934261
215.629057 -2.498577402e-05 44.34185461
-249.955534 -2.498577402e-05 206.6425636
3.829014001 -2.498577402e-05 35.04637961
-268.199165 -2.498577402e-05 65.80900361
73.394053 -2.498577402e-05 6.253028614
-64.40139 -40.38954403 -9.738561312e-05
-117.616315 -2.498577402e-05 116.4503516
56.75576 -43.75160376 -9.738561312e-05
-159.394872 -2.498577402e-05 158.2788196
-90.094518 -2.498577402e-05 49.59837161
-264.843593 -2.498577402e-05 7.807249614
15.735472 -2.498577402e-05 152.8811626
-278.999785 -23.05732616 141.0912866
155.480807 -2.498577402e-05 251.2008766
291.587514 -2.498577402e-05 252.2189376
-280.446784 -2.498577402e-05 233.1821896
-11.743336 -2.498577402e-05 15.71190761
-284.999785 -46.15813475 131.2408206
143.454714 -2.498577402e-05 219.1298566
-4.745096999 -2.498577402e-05 197.7302356
77.54374 -2.498577402e-05 130.7474006
-53.813042 -2.498577402e-05 221.9852246
-272.221928 -2.498577402e-05 125.8092026
276.734086 -2.498577402e-05 11.16677361
71.877182 -2.498577402e-05 231.7063236
154.830609 -55.9849269 -9.738561312e-05
7.702853001 -2.498577402e-05 206.3222676
114.066675 -11.267309 -9.738561312e-05
-291.975391 1.319106794 -9.738561312e-05
291.771742 -2.498577402e-05 83.49471961
-288.777723 -2.498577402e-05 244.8166286
-182.550715 -43.6190858 -9.738561312e-05
51.297014 -2.498577402e-05 213.4905026
-289.372929 -37.08816642 -9.738561312e-05
-118.293976 -2.498577402e-05 160.5326226
106.267851 -2.498577402e-05 152.4022846
-177.094615 -2.498577402e-05 214.5546206
-284.999785 -2.596812686 90.24550761
-284.999785 -42.03401894 151.9398996
-202.642227 -2.498577402e-05 227.3922316
-259.442414 -2.498577402e-05 58.88231461
114.12305 -2.498577402e-05 144.8426716
260.098039 -2.498577402e-05 144.3131686
-101.434665 -59.75915525 -9.738561312e-05
17.883283 -29.62954258 -9.738561312e-05
-284.999785 -21.06326904 233.5084776
105.8098 -2.498577402e-05 213.2606346
-266.056899 -2.498577402e-05 21.82043961
-26.322244 -2.498577402e-05 210.1731826
-137.981927 -2.498577402e-05 127.1644996
-83.252212 -2.498577402e-05 58.35997961
102.007846 -60.88783037 -9.738561312e-05
-119.989849 -2.498577402e-05 233.4695326
-130.630818 -42.22455652 -9.738561312e-05
-34.890925 -2.498577402e-05 245.1569306
-192.273299 -2.498577402e-05 174.9284916
20.050991 -2.498577402e-05 95.56450361
253.715684 -6.397542216 -9.738561312e-05
-211.281204 -2.498577402e-05 244.7906536
-284.999785 -28.60367685 165.1848096
-210.784643 -2.498577402e-05 131.7224166
302.319889 -2.498577402e-05 141.5894306
130.535116 -2.498577402e-05 145.7122486
256.039543 -2.498577402e-05 10.11807661
-227.216516 -2.498577402e-05 93.23399561
271.208874 0.7108941242 -9.738561312e-05
15.715656 -2.498577402e-05 33.11355561
-154.613358 -2.498577402e-05 250.1324106
-284.999785 -17.85105403 83.35878061
238.120368 -2.498577402e-05 40.31281261
-278.999785 -26.6039399 65.14255261
-278.999785 -39.63774483 204.8634646
44.181531 -2.498577402e-05 184.1178266
-237.531626 -2.498577402e-05 9.964651614
-288.444035 -58.90720928 -9.738561312e-05
-296.37965 -2.498577402e-05 219.7638456
135.363189 -13.16067197 -9.738561312e-05
285.048571 -2.498577402e-05 121.3400166
-88.345148 -11.84359729 -9.738561312e-05
-198.073548 -2.498577402e-05 69.30841961
21.932014 -2.498577402e-05 242.5499346
-76.867303 -27.25616279 -9.738561312e-05
65.888934 -2.498577402e-05 164.9103186
-278.999785 -22.08482553 106.9244186
43.909144 -2.498577402e-05 245.1596706
-284.999785 -9.475232976 17.63732161
-284.999785 -25.749642 222.1598486
47.008007 -2.498577402e-05 224.9387746
167.67833 -2.498577402e-05 0.1087296144
9.649350001 -2.498577402e-05 226.3966776
-219.97169 -2.498577402e-05 239.2115096
-278.999785 -22.97982684 252.4982376
170.340125 -2.498577402e-05 158.5679026
250.279169 -2.498577402e-05 58.76217961
150.99565 -2.498577402e-05 150.0309766
268.081878 -2.498577402e-05 210.6607436
71.01881 -2.498577402e-05 83.38252461
26.087556 -2.498577402e-05 159.6051836
-17.989757 -2.498577402e-05 88.53958361
127.455396 -2.498577402e-05 228.9035896
-8.937351999 -2.498577402e-05 62.85457061
-83.840388 -2.498577402e-05 248.2295526
-273.923682 -2.498577402e-05 170.1583116
-58.781927 -2.498577402e-05 37.82318261
-235.539705 -57.91860324 -9.738561312e-05
-112.994235 -2.498577402e-05 58.08374561
-165.218395 -2.498577402e-05 193.2404666
-214.867423 -10.17853244 -9.738561312e-05
-278.999785 -40.78305084 4.820860614
-159.794554 -51.09434381 -9.738561312e-05
190.510082 -2.498577402e-05 155.7452546
132.194778 -2.498577402e-05 62.98551361
5.292992001 -2.498577402e-05 90.79545261
180.277451 -2.498577402e-05 145.1297046
-302.577226 -2.498577402e-05 193.7680246
224.542724 -2.498577402e-05 220.2390786
-35.787445 -2.498577402e-05 31.69611661
77.046563 -25.94540776 -9.738561312e-05
-218.086986 -2.498577402e-05 56.93448961
-128.590438 -2.498577402e-05 215.4960456
281.305532 -2.498577402e-05 49.31383761
-227.235555 -2.498577402e-05 5.257316614
-278.999785 -16.62414346 169.3430196
-197.57358 -56.68592937 -9.738561312e-05
3.244127001 -34.16570476 -9.738561312e-05
-87.417525 -2.498577402e-05 190.5443956
-283.06119 -2.498577402e-05 9.497962614
-64.250966 -2.498577402e-05 219.9916296
-241.661076 -2.498577402e-05 152.7106136
-278.999785 -25.05268153 15.85738361
-54.979326 -2.498577402e-05 200.6965686
-43.027393 -51.75233535 -9.738561312e-05
236.8903 -2.498577402e-05 136.4252216
-11.056757 -2.498577402e-05 220.0187766
99.788626 -2.498577402e-05 76.75027461
-237.607766 -2.498577402e-05 46.07365761
222.306914 -38.95685908 -9.738561312e-05
29.406477 -2.498577402e-05 146.3792196
193.795072 -55.95926292 -9.738561312e-05
-109.557607 -2.498577402e-05 9.482328614
-294.26963 -2.498577402e-05 34.87733461
268.75963 -2.498577402e-05 70.59790361
267.444247 -33.96432283 -9.738561312e-05
-171.733231 2.232776634 -9.738561312e-05
-14.453201 -57.03623827 -9.738561312e-05
15.904542 -2.498577402e-05 70.99983761
-249.783484 -2.498577402e-05 100.4634546
290.175262 -2.498577402e-05 42.00856561
8.637785001 -2.498577402e-05 133.1983986
11.264522 -2.498577402e-05 52.85756961
249.660114 -2.498577402e-05 246.4035056
-130.393056 -27.63527234 -9.738561312e-05
-180.851184 -2.498577402e-05 47.86804461
-28.000644 -2.498577402e-05 232.8351656
173.429531 -11.04904444 -9.738561312e-05
-284.999785 -1.509333946 159.1178106
-253.185568 -2.498577402e-05 173.2682976
289.345496 -2.498577402e-05 69.65606561
-284.999785 -35.76501149 183.3182486
152.645749 -2.498577402e-05 240.9013156
-217.977616 -2.498577402e-05 86.42861261
-55.325549 -2.498577402e-05 187.6627516
-284.999785 -41.6559688 22.09015861
25.588089 -2.498577402e-05 194.3165196
-110.998583 -52.377576 -9.738561312e-05
-147.593628 -2.498577402e-05 146.9115726
-284.999785 -40.39586495 48.64609961
-149.422262 -2.498577402e-05 185.0594996
-118.09628 -2.498577402e-05 127.1505326
-273.913073 -65.42939962 -9.738561312e-05
154.076524 -2.498577402e-05 201.9460506
-179.188278 -19.02411423 -9.738561312e-05
-105.053712 -2.498577402e-05 237.2533676
-180.034639 -2.498577402e-05 73.96197161
65.392427 -2.498577402e-05 29.63118061
-178.721998 -67.1178245 -9.738561312e-05
-236.349702 -2.498577402e-05 86.12623361
-133.982819 -2.498577402e-05 164.9534586
-276.220062 -2.498577402e-05 215.3786936
-301.284632 -2.498577402e-05 176.9642706
-267.096035 -2.498577402e-05 106.6901986
-278.999785 -0.1523556058 78.47421061
-111.167141 -36.91226127 -9.738561312e-05
72.302481 -2.498577402e-05 156.2253096
-162.804187 -2.498577402e-05 172.3241736
126.13833 -2.498577402e-05 31.75649361
-264.004788 -2.498577402e-05 115.8950556
-204.615242 -2.498577402e-05 217.3334296
-278.999785 -32.78153301 46.85976561
-293.553607 -2.498577402e-05 136.1435456
185.927209 -2.498577402e-05 239.8201996
77.152468 -2.498577402e-05 24.14466461
-79.840922 -2.498577402e-05 35.51608761
-98.618508 -2.498577402e-05 10.24106761
255.710412 -2.498577402e-05 82.61233561
-284.999785 -41.05873161 233.4399986
-278.999785 -30.55780701 33.87521461
-295.164066 -67.27072775 -9.738561312e-05
-117.354778 -2.498577402e-05 3.030446614
207.285732 -2.498577402e-05 164.4642976
273.28151 -2.498577402e-05 232.9864156
163.651477 -59.88046376 -9.738561312e-05
-139.687038 -2.498577402e-05 209.8230636
48.773019 -2.498577402e-05 155.4474216
213.758949 -2.498577402e-05 233.0155686
17.765231 -2.498577402e-05 208.5978996
266.077514 -2.498577402e-05 164.5741746
86.010261 -11.49013746 -9.738561312e-05
-69.698231 -18.35043856 -9.738561312e-05
236.253925 -34.54708033 -9.738561312e-05
-207.520137 -3.015940886 -9.738561312e-05
-276.66249 -2.498577402e-05 57.72068761
244.658411 -2.498577402e-05 49.33358461
-213.278203 -2.498577402e-05 199.8057576
125.596227 -2.498577402e-05 209.9678236
117.052211 -60.58216473 -9.738561312e-05
215.780186 -2.498577402e-05 0.1863746144
-245.908674 -2.498577402e-05 227.8526806
291.848244 -2.498577402e-05 191.3468736
-146.057297 0.8734236242 -9.738561312e-05
36.44046 -2.498577402e-05 109.9654536
-59.583133 -2.498577402e-05 139.6308606
-230.787873 -8.895864286 -9.738561312e-05
141.131912 -5.440333906 -9.738561312e-05
263.582932 -43.7276182 -9.738561312e-05
-278.999785 -10.64327075 243.1376956
-264.521979 -2.498577402e-05 133.2045336
93.388135 -2.498577402e-05 51.96450461
-153.760159 -2.498577402e-05 139.5146636
274.467769 -2.498577402e-05 115.5024406
-278.999785 -14.09137865 63.17164261
-52.568179 -24.82636911 -9.738561312e-05
162.83857 -2.498577402e-05 113.6288116
-27.85532 -2.498577402e-05 88.51781761
-101.215819 -2.498577402e-05 50.44042461
-301.924461 -2.498577402e-05 238.6831316
-278.999785 -7.491503376 225.4247846
-257.758244 -2.498577402e-05 84.66293861
-247.07951 -2.498577402e-05 6.238375614
-136.377222 -2.498577402e-05 152.0180676
-95.126074 -2.498577402e-05 161.7071816
-70.378252 -2.498577402e-05 197.4226956
-284.999785 -20.06138007 196.2147496
220.191474 -2.498577402e-05 67.14892261
183.401883 -6.034725546 -9.738561312e-05
-178.415247 -2.498577402e-05 9.828667614
-110.640216 -2.498577402e-05 29.89575261
94.173913 -2.498577402e-05 236.6133356
169.730316 -2.498577402e-05 226.6793286
195.152118 -2.498577402e-05 27.91094961
251.857089 -2.498577402e-05 209.1446636
269.487041 -2.498577402e-05 26.94364161
270.611558 -2.498577402e-05 187.3497966
-200.403283 -2.498577402e-05 186.2075966
-284.999785 -14.62060273 34.99425261
-284.999785 -48.69207909 142.1696306
69.254703 -40.61101469 -9.738561312e-05
-284.999785 -49.55932966 215.1030136
31.270416 -2.498577402e-05 131.0865936
-278.999785 -39.76551638 250.0319936
-2.443338999 -2.498577402e-05 15.20720261
-77.11454 -2.498577402e-05 78.95404961
193.057882 -2.498577402e-05 106.5543566
33.282521 -2.498577402e-05 21.94750861
-219.570487 -62.79313615 -9.738561312e-05
270.423948 -2.498577402e-05 150.6910516
-135.573256 -2.498577402e-05 198.3239236
-214.852818 -2.498577402e-05 149.5720226
-5.498140999 -51.57266046 -9.738561312e-05
-66.897211 -2.498577402e-05 207.3426256
-126.237675 -2.498577402e-05 84.22607661
-284.999785 -27.69720385 40.46327361
299.220602 -2.498577402e-05 77.96883261
-278.999785 -6.258608306 123.7506726
-176.044291 -2.498577402e-05 193.2484976
109.487351 -2.498577402e-05 22.05198661
-33.289033 -2.498577402e-05 216.2763266
-270.317079 -2.498577402e-05 234.3699976
-278.999785 -14.56869763 101.5252756
-249.70383 -23.68923971 -9.738561312e-05
-278.999785 -44.30066649 186.1975716
199.67866 -2.498577402e-05 92.14864961
-278.999785 -7.746478276 171.9279786
264.653396 -15.86055344 -9.738561312e-05
5.899398001 -2.498577402e-05 5.261585614
99.41068 2.344698714 -9.738561312e-05
-179.728749 -3.108538056 -9.738561312e-05
-188.368048 -2.498577402e-05 206.8931116
257.564487 -2.498577402e-05 131.9397896
53.880297 -2.498577402e-05 12.58344561
-183.026621 -2.498577402e-05 227.5979176
-126.740537 -2.498577402e-05 25.37902161
-278.999785 -40.7709003 175.4090076
23.535088 -55.79829679 -9.738561312e-05
82.75088 -2.498577402e-05 149.5272386
257.988956 -2.498577402e-05 27.92113261
212.331704 -2.498577402e-05 213.9580026
205.689227 -2.498577402e-05 132.9468426
-278.999785 -26.05445063 213.9833626
-295.336281 -2.498577402e-05 203.8758596
