# .PCD v0.7 - Point Cloud Data file format
VERSION 0.7
FIELDS x y z
SIZE 4 4 4
TYPE F F F
COUNT 1 1 1
WIDTH 1177
HEIGHT 1
VIEWPOINT 0 0 0 1 0 0 0
POINTS 1177
DATA ascii
1.964131752e-05 -16.74264935 -19.18039339
-251.3502714 -2.498423021e-05 -33.99536639
-57.28468036 -2.498423021e-05 75.42086661
-180.8927794 -54.71233434 -139.2500974
-161.1356944 -20.58461562 148.7499026
-188.9909094 1.883864046 -139.2500974
-207.4452044 -2.498423021e-05 89.60368861
-177.4636694 -2.498423021e-05 12.64742961
-84.44770936 -2.498423021e-05 -70.37932739
-202.8997184 -2.498423021e-05 -67.69267839
-148.7469154 -2.498423021e-05 3.529466614
-70.50240736 -27.6092296 -139.2500974
-107.2064564 -2.498423021e-05 98.86405261
-148.7299234 -2.498423021e-05 41.35125861
-126.3187224 -39.88642661 148.7499026
-43.29431736 -2.963895564 148.7499026
-37.39540336 -2.498423021e-05 12.81248561
-13.27001836 -9.984110304 -139.2500974
-191.4905464 -2.498423021e-05 31.11687261
-133.9444574 -60.30332241 -145.2500974
-207.2732694 -52.69642517 148.7499026
-79.64591336 0.8630186158 148.7499026
-248.0471134 -53.94617412 -145.2500974
-18.66260136 -31.71171092 -139.2500974
-110.8290874 -8.824397284 -145.2500974
1.964131752e-05 -24.05749512 89.27419661
-230.2918154 -2.498423021e-05 -57.84672039
-27.72347636 -54.05612178 -145.2500974
-45.41103436 -2.498423021e-05 64.87972661
-180.0092354 -2.498423021e-05 -67.06100939
-161.2065024 -66.19757286 -139.2500974
1.964131752e-05 -42.36595358 87.44087061
1.964131752e-05 -61.82694441 63.96943661
-154.8620634 -2.498423021e-05 132.5970216
-236.2569524 -2.498423021e-05 0.973550614
-74.16024636 -2.498423021e-05 9.388961614
1.964131752e-05 -93.48833424 139.0768166
-110.9445344 -2.498423021e-05 -117.9657104
-192.0553614 -2.498423021e-05 61.95674361
-244.2316844 -2.498423021e-05 27.59888961
-111.8792514 -54.96423782 -139.2500974
1.964131752e-05 -49.94716519 118.7933176
-108.0168134 -2.498423021e-05 -132.8160504
-152.1193354 -2.498423021e-05 -55.84716939
1.964131752e-05 -114.3264728 141.8365786
1.964131752e-05 -64.6630546 -6.250662386
1.964131752e-05 -10.52639143 -116.1029014
2.466970641 -2.498423021e-05 -37.83571139
-132.2775194 -11.34830762 148.7499026
-1.735562359 -2.498423021e-05 136.9628646
-47.62442836 -34.50936652 148.7499026
-78.36051536 -2.498423021e-05 -6.253802386
-169.3390344 -39.91284468 -145.2500974
-46.88219336 -11.44018459 -139.2500974
-14.87387736 -73.77192233 148.7499026
-0.4090643587 -2.498423021e-05 -8.548165386
-153.6332104 -2.498423021e-05 -116.6239054
-210.4374744 -2.498423021e-05 140.4246036
-95.49677136 -13.03377372 -139.2500974
-171.8371284 -2.498423021e-05 97.86846261
-182.0317974 -12.69107942 -139.2500974
-98.85192336 -2.498423021e-05 63.27044861
-227.9847874 -2.498423021e-05 -121.2738814
-232.1962214 -2.498423021e-05 108.3028376
-106.2060394 -68.00002402 -139.4542394
-169.3045604 -2.498423021e-05 -132.4586754
-89.57523936 -68.8071697 148.7499026
-107.8012394 -2.498423021e-05 -66.88309039
1.964131752e-05 -44.96467083 131.6992996
-178.3990174 -34.30600867 148.7499026
-126.4337224 2.062320106 148.7499026
-109.9074634 -2.498423021e-05 8.335200614
-32.54465036 -14.1552799 148.7499026
1.964131752e-05 -78.30140265 17.48643261
-84.94741536 -28.23886529 148.7499026
-240.3434534 -18.14514772 -139.2500974
-215.8425844 -68.00002402 152.2505216
-137.9920394 -2.498423021e-05 11.87409961
1.964131752e-05 -55.74013998 38.94330061
-92.94226236 -2.498423021e-05 20.37106561
1.964131752e-05 -13.92726249 -132.3980954
-178.8630494 1.638451196 148.7499026
0.7686636413 -2.498423021e-05 104.0417666
-29.40037036 -47.28765855 152.0851636
-182.3394444 -2.498423021e-05 132.5260846
-181.7107544 -2.498423021e-05 -113.3934074
-103.2882234 -40.64105407 148.7499026
-157.6400594 -19.37174566 -145.2500974
1.964131752e-05 -68.72229153 33.31011461
-82.52504836 -2.498423021e-05 -41.34485339
-39.08597236 -57.76869128 -139.2500974
-160.8662634 -4.873042574 148.7499026
-153.9222474 -2.498423021e-05 111.8325906
-237.4078144 -2.498423021e-05 120.5455026
1.964131752e-05 -86.14436243 63.28251361
-14.40181036 -2.498423021e-05 142.5150866
1.964131752e-05 -15.50780843 35.87956161
-251.9353664 -23.73473189 148.7499026
-117.9923294 -2.498423021e-05 -49.81888239
-238.6488314 -2.498423021e-05 79.57168861
1.964131752e-05 -38.16059008 65.03985261
-238.4018894 -2.498423021e-05 50.65647961
1.964131752e-05 -35.3731908 -104.5785034
1.964131752e-05 -31.67500208 -136.4488714
-172.5296964 -2.498423021e-05 -49.94730939
-149.9821904 -2.498423021e-05 -9.443357386
-44.05548536 -2.498423021e-05 112.8449776
-144.6307584 -2.498423021e-05 54.84108661
1.964131752e-05 -69.99130882 145.2391146
-75.74596636 -2.498423021e-05 35.54135361
1.964131752e-05 -51.7148134 13.90067261
1.964131752e-05 -1.622640154 -86.86764739
-87.27243836 -87.03582542 148.7499026
-246.3856864 -2.498423021e-05 61.47558561
-141.0991684 -2.498423021e-05 136.1026976
-32.76854336 -9.410272484 -139.2500974
-130.6045224 -2.498423021e-05 -72.62465339
-85.86769936 -110.2827699 148.7499026
-164.0078484 -9.931522444 -139.2500974
-125.4394204 -2.498423021e-05 3.860481614
1.964131752e-05 -62.4445902 79.82824061
1.964131752e-05 -11.23507221 72.42845261
1.964131752e-05 -39.63799562 -10.78316239
-108.3961794 -0.8618263442 148.7499026
-126.6416204 -40.57738099 -145.2500974
-197.5634784 -40.43563506 -145.2500974
-223.3121914 -2.498423021e-05 -47.18646039
-50.20875936 -2.498423021e-05 -101.9824184
1.964131752e-05 -65.49952782 14.27322361
-17.72989836 -2.498423021e-05 1.437088614
-251.5870374 -61.13339969 148.7499026
-239.4288574 -44.48423299 -139.2500974
-189.8159334 -2.498423021e-05 -34.97628339
-88.59036036 -2.498423021e-05 -82.32623239
-209.6172914 -6.493421394 -139.2500974
1.964131752e-05 -18.03619796 -46.61924539
-59.64625036 -33.31020903 -145.2500974
-71.40387336 -2.498423021e-05 105.1471206
1.964131752e-05 -10.06701948 49.71579661
-33.55060536 -2.498423021e-05 88.59785061
-68.50978436 -2.498423021e-05 124.0644116
-136.2764034 -84.7225801 148.8975716
1.964131752e-05 -66.72427814 103.5524406
1.964131752e-05 -47.73691126 -49.04675639
-92.35732636 -24.0941419 -145.2500974
0.02822764132 -50.12959817 -145.2500974
-205.7368784 -26.3856646 148.7499026
-148.2553034 -2.498423021e-05 -87.14156639
-77.47320336 -49.27610368 148.7499026
-31.14902136 -2.498423021e-05 71.71870961
-45.09496236 -81.67011384 148.7499026
-33.94663736 -2.498423021e-05 -17.88992439
-110.1050594 -2.498423021e-05 56.88303861
-173.7004414 -2.498423021e-05 -15.31762039
-184.6012684 -2.498423021e-05 -101.5113704
-13.70069136 -56.65364986 -145.2500974
-109.3290494 -97.61932295 148.7499026
-157.0108714 -2.498423021e-05 -128.7831814
-113.4842654 -2.498423021e-05 -36.79176139
-154.2583544 -2.498423021e-05 86.76425161
-251.0258734 -2.498423021e-05 138.8589516
-93.85681336 -2.498423021e-05 123.6519876
-59.76175736 -42.10361323 148.7499026
-129.2443894 -2.498423021e-05 93.55935661
-8.590825359 -54.8059812 148.7499026
-202.3145904 -2.498423021e-05 -49.35210039
-65.87189736 -54.3871145 -145.2500974
1.964131752e-05 -40.51263123 -34.20389139
-84.39829636 -2.498423021e-05 86.72478461
1.964131752e-05 -65.21633528 -38.99312939
-0.1223143587 -2.498423021e-05 92.03522561
-4.819781359 -2.498423021e-05 -60.94846839
-66.56391236 -2.498423021e-05 -60.65884739
-65.45022336 -2.498423021e-05 49.83236661
-78.03332736 -40.47070205 -145.2500974
-131.4127974 -2.498423021e-05 -52.09971839
1.964131752e-05 -46.50967249 104.3139686
-13.94055936 -2.498423021e-05 24.00836061
-104.3538114 -2.498423021e-05 -11.12508239
-151.3727854 -11.1174244 -139.2500974
-18.47700236 -109.6052329 148.7499026
-134.5221114 -72.92826131 148.7499026
-212.4812854 -2.498423021e-05 -93.19074639
-139.2629794 -2.498423021e-05 28.87272161
-24.15363136 -44.42336317 -139.2500974
-31.08216736 -2.498423021e-05 41.59451561
-122.0637004 -29.93062869 -139.2500974
1.964131752e-05 -89.17313977 84.54278261
-238.9387584 -0.7500249842 152.8347376
-218.0793004 -2.498423021e-05 -69.80867539
-138.2961684 -6.410496204 -139.2500974
-135.3965444 -2.498423021e-05 -126.0804084
-178.9376234 -2.498423021e-05 49.50958361
-241.2763554 -41.08716738 148.7499026
-108.5950524 -2.498423021e-05 -88.11317939
-39.19617836 -1.653463344 -145.2500974
-233.2376114 -6.652987744 -139.2500974
-194.9824074 -2.498423021e-05 -108.5465294
-48.45293136 -2.498423021e-05 -71.48491139
-24.54798636 -2.498423021e-05 -25.04936339
-213.5146114 -2.498423021e-05 -28.86716739
-144.8343354 -27.38868148 -139.2500974
-219.8066164 -23.87108584 -139.2500974
-119.2376994 -1.715146964 -139.2500974
-82.03382136 -2.498423021e-05 98.12693761
-35.42698836 -73.09673933 148.7499026
-61.86318936 -101.6057432 148.7499026
-237.6517474 -2.498423021e-05 -83.25910439
-142.7415534 -2.498423021e-05 74.36534061
-88.43816236 -68.00002402 -140.6335064
-11.48001236 -2.498423021e-05 60.28272261
-185.1333634 -59.17791717 148.7499026
-68.05286636 -2.498423021e-05 -28.61006339
-81.37845536 -2.498423021e-05 22.13825461
-240.9200514 -2.498423021e-05 100.7135436
-241.0548664 -67.31417392 -139.2500974
1.964131752e-05 -49.77624156 -104.9072524
-162.2940624 -2.498423021e-05 -107.4167544
-157.0741214 -2.498423021e-05 -28.40893139
1.964131752e-05 -9.917335154 109.8435006
-181.0420564 -2.498423021e-05 38.19268661
-201.7161514 -2.498423021e-05 36.25706961
-175.8088874 -2.498423021e-05 0.395554614
-233.1717904 -58.50319549 148.7499026
-27.70738836 -122.4194939 148.7499026
1.964131752e-05 -18.33903419 -74.32133239
-58.67171536 -67.38267703 -139.2500974
-90.12467336 -2.498423021e-05 -110.3410734
-66.07194636 -128.4433378 148.7499026
-51.28462236 -2.498423021e-05 138.4503586
-211.3473584 -2.498423021e-05 -5.576166386
-97.07336036 -2.498423021e-05 -24.54757239
1.964131752e-05 -27.7932608 -39.33023239
-180.4883594 -2.498423021e-05 105.2271566
-7.953300359 -30.50032844 148.7499026
-221.4320324 -59.90385547 -145.2500974
-210.1647374 -2.498423021e-05 6.478084614
-247.2280334 -8.099698874 -139.2500974
-220.5439644 -2.498423021e-05 30.40772461
-62.13373436 2.364852466 -139.2500974
-71.61634736 -18.15990154 -145.2500974
1.964131752e-05 -13.06813229 -96.56926839
-201.3559354 -62.94312086 -139.2500974
-63.34751636 -67.7651157 148.7499026
1.964131752e-05 -29.54278832 111.9178526
-193.9597754 -2.498423021e-05 87.29351061
-130.0969624 -15.07447647 -145.2500974
-159.9622424 -2.498423021e-05 122.6167296
-66.54360236 -2.498423021e-05 1.202768614
1.964131752e-05 -13.10758351 -3.868898386
-68.44740736 -2.498423021e-05 75.26466261
1.964131752e-05 -89.49445786 109.0757986
1.964131752e-05 -58.10818291 53.46518261
-112.3424154 -30.97801061 -145.2500974
-145.9379194 -64.29352558 148.7499026
-59.69228836 -30.536793 148.7499026
-106.9296574 -2.498423021e-05 85.72284061
-56.49666236 -2.498423021e-05 -23.98727739
1.756948641 -107.282214 104.6478466
-173.9022524 -8.289186864 148.7499026
-208.2534584 -43.35519861 -139.2500974
-57.08903136 -2.498423021e-05 -82.80201539
-163.0837404 -2.498423021e-05 71.11248561
-122.7938644 -2.498423021e-05 59.56475761
-174.3663924 -2.498423021e-05 72.19845461
-92.16541536 -19.37001084 148.7499026
-241.9998984 -2.498423021e-05 -68.62662039
-122.8893504 -2.498423021e-05 -11.56539239
-222.9731984 -44.41738261 -139.2500974
1.964131752e-05 -77.63191208 41.71541761
-202.2263544 -42.93004433 148.7499026
-114.8129754 -2.498423021e-05 -75.34023739
-59.50268536 -2.498423021e-05 -50.18349939
-121.9353804 -50.62699922 -139.2500974
-46.97947336 -2.498423021e-05 -49.29388039
-134.0900334 -22.1152272 148.7499026
-25.12117236 -2.498423021e-05 136.0369186
-180.4158204 -2.498423021e-05 -130.0918984
-100.9701244 -2.498423021e-05 -111.9324884
-237.4277224 -26.74098365 -145.2500974
-185.8156934 -2.498423021e-05 19.59211161
-101.4659494 -54.57211911 148.7499026
1.964131752e-05 -96.61208378 128.7409216
-62.59684936 -2.498423021e-05 114.3756446
-90.23147736 -2.498423021e-05 -57.94543139
-147.1317514 -2.498423021e-05 -36.73819739
-48.66197736 -2.498423021e-05 -36.30931239
-218.8958834 -2.498423021e-05 70.97506561
-48.64361836 -107.7681722 151.7883846
-52.35320736 -2.498423021e-05 -4.823085386
-145.2041724 -40.48852803 -139.2500974
-37.07986836 -2.498423021e-05 -29.28348839
-86.54085036 -99.44317131 148.7499026
-96.02733636 -2.498423021e-05 73.57290261
1.964131752e-05 -63.36688195 130.6082056
-117.7405824 -2.498423021e-05 33.62745861
-114.7645154 -2.498423021e-05 23.04893161
-6.101934359 2.369174396 148.7499026
2.110391641 -100.3793541 85.64145561
1.964131752e-05 -31.74155328 135.6157176
-243.0821414 -2.498423021e-05 -9.325145386
1.964131752e-05 -12.27287935 17.46838061
1.964131752e-05 -45.43186664 -93.93526039
1.964131752e-05 -12.94246672 128.7561536
1.964131752e-05 -29.05051486 3.470914614
1.964131752e-05 -28.52848763 -59.28799639
-7.514293359 -2.498423021e-05 -108.3436774
-186.8948784 -2.498423021e-05 3.713070614
-116.0855564 -2.498423021e-05 104.5974656
-233.5114224 -2.498423021e-05 -28.91203039
-72.66731536 -22.83377045 148.7499026
-23.21062536 -2.498423021e-05 108.0901116
-163.7219184 -2.498423021e-05 55.11356561
-171.5756454 -14.15453527 -145.2500974
-251.7878154 -41.64165346 -145.2500974
1.964131752e-05 -86.05884302 95.15310661
-129.8636094 -2.498423021e-05 -102.4194004
-101.2500044 -2.498423021e-05 36.74198661
-18.27021236 -21.21985952 -139.2500974
-12.99779336 -8.319201484 148.7499026
-221.4788394 -2.498423021e-05 94.84343261
-31.90624436 -92.9690473 148.7499026
-81.86681336 -38.25333739 148.7499026
-188.5828924 -22.35021353 148.7499026
-43.03922136 -34.59573695 -145.2500974
-203.5268954 -2.498423021e-05 99.28597161
-170.2015944 -25.74913468 148.7499026
-128.1133644 -68.00002402 -139.5104234
-108.0753624 -2.498423021e-05 -46.58100939
-208.5970294 -2.498423021e-05 25.88662261
-36.31592636 -2.498423021e-05 -50.32275539
-178.8097904 -32.54430218 -145.2500974
-219.3766394 -9.710494854 -145.2500974
-82.62713236 -1.629033064 -145.2500974
-149.6249444 -58.75841472 -145.2500974
-131.7698574 -2.498423021e-05 126.7777476
-98.17835636 -34.16267184 -139.2500974
-198.5215144 -2.498423021e-05 -135.5542484
-54.86997936 -122.4791059 148.7499026
-127.6237484 -2.498423021e-05 80.54592261
-6.622807359 -17.87720211 148.7499026
1.964131752e-05 -51.61221656 -82.67540239
-88.99221036 -58.45918375 148.7499026
-56.51094536 -50.0843983 -139.2500974
-5.359325359 -35.79161747 -145.2500974
-115.0988904 -2.498423021e-05 136.7460316
-194.6540784 -2.498423021e-05 119.9037726
-82.51280536 -2.498423021e-05 3.158674614
-8.927785359 -2.498423021e-05 -126.6906414
-84.85465536 -2.498423021e-05 -123.6093704
1.964131752e-05 -71.42899885 56.06352861
-223.6001474 -2.498423021e-05 -106.2356024
-19.09233336 -32.73415997 148.7499026
-136.6864824 1.408028926 148.7499026
1.964131752e-05 -57.11643716 4.970932614
-74.23432936 0.6754003858 -139.2500974
-51.63177336 -2.498423021e-05 -115.7038374
-105.5332214 -15.04543361 -139.2500974
-47.26804136 -2.498423021e-05 123.2223826
-73.87328136 -7.638252284 148.7499026
-28.20686436 -2.498423021e-05 -89.80929039
1.964131752e-05 -39.67157683 -75.74075439
1.964131752e-05 -35.11147226 43.90467061
-162.1876594 -2.498423021e-05 -7.804484386
-204.9615974 -2.498423021e-05 -127.3221314
-88.46968436 -2.498423021e-05 48.80428261
-83.16292436 -2.498423021e-05 -101.7235824
-197.4533394 2.304117316 -145.2500974
1.964131752e-05 -41.47525181 113.4592956
-89.36388436 -3.444540944 148.7499026
-119.7784304 -2.498423021e-05 -27.73683339
-204.2864874 -16.52074336 -139.2500974
-209.8628154 -2.498423021e-05 130.4464496
-74.04353036 -88.1312115 148.7499026
-18.11501836 -52.13815531 154.1287816
-162.0431454 -2.498423021e-05 31.49045461
-144.1076554 -2.498423021e-05 -119.5362674
-4.786366359 -2.498423021e-05 -31.03463839
1.964131752e-05 -56.89845293 -25.23003339
-41.04233136 -50.1008543 -145.2500974
-130.1148024 -2.498423021e-05 -135.3999664
-110.8176504 -24.43199729 148.7499026
-28.82166036 -2.498423021e-05 -132.2046534
1.964131752e-05 -83.32562473 135.5015006
-69.62823536 -2.498423021e-05 -45.02417539
-33.44758936 -31.57215903 -139.2500974
1.964131752e-05 -56.36633256 105.0269656
-250.4967264 -2.498423021e-05 -44.81009639
-134.9565124 -2.498423021e-05 -35.55083539
-99.88486436 -2.498423021e-05 13.35267261
-209.4635074 -2.498423021e-05 79.94170361
-88.67163036 -2.498423021e-05 115.2539446
-122.0310824 -58.45899698 -145.2500974
-10.86510836 -2.498423021e-05 -22.05936339
-220.8267754 -0.9966439542 -139.2500974
-146.8010374 -39.16577947 148.7499026
1.964131752e-05 -5.222146244 40.77115261
-7.591501359 -2.498423021e-05 116.4884426
1.964131752e-05 -24.95147756 -81.57495539
-51.24713436 -31.08004907 -139.2500974
1.964131752e-05 -34.78519775 -117.9224484
-112.5865334 -88.38157046 148.7499026
-226.0195434 -2.498423021e-05 140.4188716
-98.54702136 -2.498423021e-05 -63.08100939
-245.9803794 -2.498423021e-05 112.3543136
-54.09801736 -2.498423021e-05 52.72010861
-127.4621494 -2.498423021e-05 -118.1026724
-89.90247336 -51.83093407 -145.2500974
-214.4042674 -15.72304252 148.7499026
0.7407606413 -52.08704565 -120.4167654
-40.16507536 -18.90622972 -145.2500974
-147.5713264 -2.498423021e-05 13.18013761
-67.80119736 -2.498423021e-05 -86.75886239
-28.27539736 -25.80826042 148.7499026
-41.28721136 -2.498423021e-05 94.36762261
-249.1249984 -2.498423021e-05 84.59568461
-37.85309536 -2.498423021e-05 2.968450614
-120.6275574 -48.25426858 148.7499026
1.964131752e-05 -38.5566604 2.053033614
1.964131752e-05 -10.77251422 88.68113061
-21.51916036 -133.000025 153.0035736
-189.7573614 -2.498423021e-05 138.6242876
-150.0361664 -2.498423021e-05 -67.97875339
1.964131752e-05 -51.49211783 65.21487561
-36.63545236 -66.3356297 -145.2500974
-209.6631754 -24.45757204 -139.2500974
-222.3415904 -33.64430481 148.7499026
-232.2990114 -68.00002402 149.4290646
-242.6398564 -2.498423021e-05 18.17318561
-143.6106464 -48.9041763 -145.2500974
-180.5883144 -2.498423021e-05 -56.15406239
-20.14206636 -62.68317723 -139.2500974
-45.97675336 -99.12457755 148.7499026
-166.7585284 -41.23381826 148.7499026
-189.1242314 -2.498423021e-05 109.2538576
-38.46700136 -2.498423021e-05 -73.93814039
-201.9210064 -2.498423021e-05 62.06708561
-226.7919374 -2.498423021e-05 7.905552614
-193.9225674 -47.05786597 -139.2500974
-46.58152336 -133.000025 151.8445626
-158.7527174 -45.77543889 -145.2500974
-98.81946336 -2.498423021e-05 145.3658966
-132.4802714 -49.40393046 148.7499026
-27.77952036 -38.05142307 -145.2500974
-160.1011154 -35.01474111 -139.2500974
-60.21726936 -2.498423021e-05 98.29388461
1.964131752e-05 -71.3401213 -12.92992639
1.964131752e-05 -76.03762552 113.0981606
1.964131752e-05 -36.13968779 54.47805361
1.964131752e-05 -61.05077099 -14.94095339
-218.7618794 -68.00002402 -140.7243634
1.964131752e-05 -10.15966376 27.96060461
-59.03823236 -6.519660794 -139.2500974
-183.4428194 -63.9317138 -139.2500974
0.8863546413 -27.32691312 148.7499026
-217.9384244 -2.498423021e-05 114.3052836
-31.89078036 -2.498423021e-05 21.16724661
-200.2797734 -5.008317444 148.7499026
1.964131752e-05 -44.66254839 27.09283261
-70.05190836 -108.6286997 148.7499026
1.964131752e-05 -51.61946548 86.12979361
-213.9123224 2.398126726 148.7499026
-190.2980594 -30.25341979 -139.2500974
1.964131752e-05 -32.72498653 85.84617461
-142.3286624 -2.498423021e-05 -16.52702939
1.964131752e-05 -7.853706584 -62.22433039
-39.29556636 -2.498423021e-05 -105.3017854
-172.5349154 -2.498423021e-05 42.79307761
-152.1076824 -71.14471254 149.7900076
-120.8966654 -2.498423021e-05 125.7700106
-102.4137314 -107.0026862 148.7499026
-12.83689236 -27.75945654 -145.2500974
-230.2909614 -2.498423021e-05 126.4416686
-7.442985359 -2.498423021e-05 -137.5967144
-170.1359114 -46.89100004 -139.2500974
1.964131752e-05 -38.42624778 -24.29507039
-106.4489184 -75.95618282 148.7499026
1.964131752e-05 -30.11557248 33.69090261
-80.32891036 -63.91110799 -139.2500974
-90.84258936 -36.31169969 148.7499026
-7.389302359 -53.7665695 -139.2500974
-109.2348534 -10.17368688 148.7499026
-64.53772836 -24.0816297 -145.2500974
-130.2302774 -25.79191285 -139.2500974
-211.4485954 -2.498423021e-05 -49.47801639
1.964131752e-05 -53.43277693 -8.136131386
-115.4921314 -61.34385804 148.7499026
-123.0370634 -2.498423021e-05 -93.99831139
-60.50293536 -2.498423021e-05 22.73103061
-17.86283236 -2.498423021e-05 82.84833061
1.964131752e-05 -54.58033928 128.2193326
-233.8959054 -32.59490411 -139.2500974
1.964131752e-05 -24.73908593 129.8122976
-173.3889014 -2.498423021e-05 130.9315146
1.964131752e-05 -19.00154079 109.5422836
1.964131752e-05 -67.891558 24.27043561
-10.00435836 -2.498423021e-05 92.46209261
-242.3061024 -2.498423021e-05 -34.68893839
-62.77482636 -2.498423021e-05 -118.6318184
1.964131752e-05 -52.51753065 -56.74791039
1.964131752e-05 -29.48892186 62.41645961
-205.4032874 -52.0358351 -139.2500974
-235.0038214 -2.498423021e-05 -19.97915739
-184.7425694 -2.498423021e-05 93.21814261
-87.64987236 -17.53122577 -139.2500974
-28.17030436 -64.32879508 148.7499026
-139.5168054 -67.41628371 -145.2500974
-102.6643474 -91.51831718 148.7499026
1.964131752e-05 -117.2084166 130.5725626
-239.4238964 -1.890480234 -145.2500974
-81.86132036 -2.498423021e-05 -61.29805339
-171.4270404 -2.498423021e-05 -69.81728839
-153.3605034 -2.498423021e-05 75.78923061
-119.3321804 -2.498423021e-05 -114.2270644
-123.1258114 -2.498423021e-05 50.28637561
-75.99808536 -12.49570413 -139.2500974
1.964131752e-05 -5.412158554 -108.7041194
-40.40202036 -109.6578611 148.7499026
1.964131752e-05 -43.97554564 42.48513161
1.964131752e-05 -41.13558095 -84.58752439
1.964131752e-05 -36.68595882 22.40616261
-5.653294359 -2.498423021e-05 -79.88803339
-243.9062954 -2.498423021e-05 -107.4641794
-177.2987644 -2.498423021e-05 80.66131361
-45.42529036 -56.66180788 148.7499026
-9.819164359 -2.498423021e-05 5.625223614
-12.08951136 -2.498423021e-05 -72.45480239
-241.5765314 -55.42514122 -139.2500974
-15.57434636 -2.498423021e-05 -93.84713239
-248.8687214 -2.498423021e-05 129.5130796
-193.5351264 -14.8748404 148.7499026
1.964131752e-05 -79.17853132 78.01399461
-72.98132736 -48.54674698 -139.2500974
-23.72479536 -73.0591912 148.7499026
-26.35141536 -2.498423021e-05 -12.16182739
-208.7694004 -63.94569648 148.7499026
-114.4202064 -16.93285395 -145.2500974
-233.5029384 -2.498423021e-05 30.61790561
-106.1971244 -2.498423021e-05 138.3376286
-132.6083834 -2.498423021e-05 -81.24129639
-39.22913636 -2.498423021e-05 -93.08523339
-229.2247714 -58.75370236 -139.2500974
-176.0552904 -2.498423021e-05 -120.2020624
-173.2803904 -55.25123376 -145.2500974
-19.02572136 -2.518825804 -145.2500974
-223.5501914 -2.498423021e-05 -25.17315239
-46.64870036 1.474618116 -139.2500974
-4.502089359 -59.54129686 -145.2500974
-65.95074836 -2.498423021e-05 12.51238761
-30.70164436 -2.498423021e-05 112.6748746
-143.4179094 -2.498423021e-05 -96.90834339
-5.794915359 -2.498423021e-05 20.73842561
-140.0481464 -2.498423021e-05 40.10255261
-162.2165124 -60.86334105 148.7499026
-27.06955236 -2.498423021e-05 79.47589161
-103.8692394 -37.05340543 -145.2500974
1.964131752e-05 -8.106408024 -16.47686739
-178.9465354 -20.88263032 -139.2500974
-12.02864636 -65.49508076 148.7499026
-230.5281874 -2.498423021e-05 -134.2534774
-125.9967184 -70.9682989 148.7499026
-220.4883004 -50.27810379 -145.2500974
-174.4799874 -56.62669827 148.7499026
-112.4666114 -61.27946274 -145.2500974
-79.11153536 -2.498423021e-05 64.16735461
-27.13033236 -2.498423021e-05 -105.7252284
1.964131752e-05 -111.4796526 120.5571736
-59.75483336 -61.14753187 -145.2500974
-216.5069964 -2.498423021e-05 -37.98303539
1.964131752e-05 -29.27202397 -97.95525839
-205.0471674 -2.498423021e-05 -88.35714939
-225.6126244 -28.35137488 -145.2500974
1.964131752e-05 -75.88008842 96.34377461
-107.9786854 -2.498423021e-05 -58.17910339
-15.99864536 -2.498423021e-05 123.0257436
-93.13590336 -2.498423021e-05 -69.87443039
2.058916641 -67.51555104 -30.43058339
-21.52333836 -2.498423021e-05 -84.26942239
-46.32270936 -46.7187346 -139.2500974
1.964131752e-05 -29.50469674 -111.0370364
-56.39749636 -2.498423021e-05 44.26873961
-70.12073436 -36.26623945 -139.2500974
-179.9807964 -2.792321414 -139.2500974
-120.5037414 -2.498423021e-05 75.63637161
-78.13723636 -105.2724143 148.7499026
-245.7397134 -11.28442996 148.7499026
-178.6499964 -2.498423021e-05 -37.23015139
-249.5025134 -2.498423021e-05 -122.2350264
-172.9253614 -2.498423021e-05 -110.9449034
-184.7963104 -2.498423021e-05 -22.31004139
-238.9086294 -2.498423021e-05 -57.35066439
-116.9207954 -18.25422084 148.7499026
1.964131752e-05 -43.91089677 95.91397961
1.964131752e-05 -9.763568124 -41.37881239
-36.86285736 -2.498423021e-05 -123.2534224
-42.77499836 -2.498423021e-05 56.69795161
-82.98025536 -2.498423021e-05 11.73217861
-113.8400754 -2.498423021e-05 -95.41478239
1.964131752e-05 -23.78392117 54.72604861
-44.39646136 -2.498423021e-05 -61.19421539
-78.66407636 -30.146429 -139.2500974
1.138016641 -2.498423021e-05 -137.8120614
-59.69581036 -15.23162945 -145.2500974
-203.4757904 -36.27506495 -139.2500974
-118.1581994 -2.498423021e-05 148.5361306
-17.77052736 -97.58262853 148.7499026
-5.366701359 -13.1777946 -139.2500974
-249.3769584 -59.84375887 -139.2500974
-151.2866834 -2.498423021e-05 49.46204861
-231.5422664 -2.498423021e-05 148.7205476
-28.14445136 -2.498423021e-05 125.7418186
-75.24276536 -5.822462384 -145.2500974
-215.9736114 -39.03065958 -139.2500974
-109.8294314 -2.498423021e-05 36.68604061
1.964131752e-05 -55.88267611 -64.53336239
-221.7099544 -2.498423021e-05 -85.79235539
-189.0839664 -10.52650295 -145.2500974
-158.0981174 -2.498423021e-05 104.4622996
-97.72489836 -68.00002402 -145.1310254
-92.08557836 -8.191687154 -145.2500974
-128.0385774 -59.57441152 -139.2500974
1.964131752e-05 -103.8714256 145.3406656
-105.5827764 -49.38551874 -139.2500974
1.964131752e-05 -21.95196615 -26.02961239
-0.6610083587 -2.498423021e-05 -117.4371314
-1.292639359 -2.498423021e-05 50.74489861
-132.5190674 -2.498423021e-05 139.0715346
-186.7211034 -55.09478377 -145.2500974
-48.05331036 -2.498423021e-05 29.23484861
-104.7666714 -2.498423021e-05 -32.15429439
-212.6739814 -47.12788425 -145.2500974
-194.8098894 -2.498423021e-05 10.11715461
-238.0177394 -12.83643437 -145.2500974
-97.37422136 -2.498423021e-05 -135.7247594
-150.1120674 -9.229271244 148.7499026
-43.14594536 -2.498423021e-05 140.2200706
-22.58483536 -2.498423021e-05 -40.93528339
-156.1487564 -2.498423021e-05 18.10645561
2.490548641 -2.498423021e-05 66.97372261
-228.2215414 -50.93923745 148.7499026
-133.3086564 -2.498423021e-05 19.02390661
-206.1003904 -2.498423021e-05 13.72655561
-84.05172236 -24.33328057 -145.2500974
-212.2769424 -2.498423021e-05 48.27682161
1.964131752e-05 -49.91937611 138.5032956
-51.77306136 -2.498423021e-05 116.2628326
-68.30591936 -2.498423021e-05 -131.9431344
-103.2917874 -20.6532057 148.7499026
-26.90695936 -13.75787846 -145.2500974
-223.0445814 -2.498423021e-05 -128.2282634
-18.55508236 -48.61333534 -145.2500974
1.964131752e-05 -72.61273357 120.6381456
-34.92362736 0.3237038458 148.7499026
-232.5180004 -2.498423021e-05 -92.43511739
-5.252573359 -68.00002402 -145.1220474
-250.9907864 -2.498423021e-05 49.04024461
-249.9027074 -2.498423021e-05 -73.50234039
-2.321227359 -2.498423021e-05 -44.56166839
-46.64140636 -2.498423021e-05 13.12859061
1.964131752e-05 -77.74660246 49.96980561
-22.13002936 -2.498423021e-05 42.53842461
-53.33402136 -81.32354318 148.7499026
-47.37746836 -119.0378662 148.7499026
-222.4773984 -2.498423021e-05 20.16034861
-252.2187434 -32.01353457 -145.2500974
-237.6114484 -39.13345065 -145.2500974
1.964131752e-05 -57.34870949 -44.17636839
-216.7797144 -43.79941951 148.7499026
-182.2398734 -2.498423021e-05 -85.41244339
-3.015401359 -117.6227698 148.7499026
-116.1625954 -2.498423021e-05 -16.30881139
-4.810812359 -47.49946925 148.7499026
-87.90925836 -59.91528188 -139.2500974
-231.1955084 -2.498423021e-05 76.10863261
-170.2851884 -0.9130599742 148.7499026
-162.5876384 -2.498423021e-05 -138.6794524
-74.96694036 -2.498423021e-05 -66.44430539
-71.72701136 -2.498423021e-05 -11.09032339
-115.9270074 -11.53620675 -139.2500974
-13.17196336 -2.498423021e-05 52.26884661
-203.6843474 -2.498423021e-05 125.0733536
-22.33552736 -41.61701319 154.1679476
-16.47459436 -41.01939513 -139.2500974
-77.69966636 -2.498423021e-05 82.02318661
-65.86241136 -88.29341275 148.7499026
-72.56600036 -2.498423021e-05 -116.0900104
-41.53789436 -24.47601038 148.7499026
-91.97668736 -2.498423021e-05 -2.175671386
-173.4809094 -31.09969102 -139.2500974
-184.2181084 -2.498423021e-05 -48.85706639
-27.19250436 -114.2964841 148.7499026
-153.7666864 -29.04852795 -139.2500974
-141.5894434 -2.498423021e-05 21.07694061
-78.18483036 -2.498423021e-05 -75.56632539
-232.8962924 -21.40817553 -139.2500974
-78.66856936 -2.498423021e-05 -32.19072439
-90.70161636 -2.498423021e-05 62.35624461
-8.736240359 -91.32193858 148.7499026
-85.56198436 -7.241455514 -139.2500974
-162.0301514 -2.498423021e-05 89.10835561
-165.4046354 -2.498423021e-05 19.14977361
-83.68179936 -2.498423021e-05 140.0747736
-12.65979036 -2.498423021e-05 14.38752661
-137.2657074 -14.54734574 -139.2500974
-62.94484136 -2.498423021e-05 -101.0620434
-127.2538034 -52.28144859 -145.2500974
-32.36136036 2.416736246 -139.2500974
0.7526896413 -39.2196886 -139.2500974
-243.6519234 -59.59544235 148.7499026
-96.98171236 -2.498423021e-05 98.45845761
1.964131752e-05 -39.23045681 -128.0015524
-88.74269836 -2.498423021e-05 -19.53775539
-13.01835636 -2.498423021e-05 -57.35853239
1.964131752e-05 -38.38157902 80.10682961
1.964131752e-05 -18.75428445 69.57984061
-166.4301704 -32.43715588 -145.2500974
1.964131752e-05 -25.69186229 104.8857666
1.964131752e-05 -92.70039801 147.0400116
-35.39516936 -25.33110334 -145.2500974
-230.9641794 -2.498423021e-05 -38.27143039
1.964131752e-05 -11.0354769 3.838658614
-145.4051614 -24.64966244 148.7499026
-22.53325836 -54.86433808 -139.2500974
-47.09469336 -2.498423021e-05 84.65947161
1.964131752e-05 -26.99290615 18.12717261
0.4949346413 -104.4195768 96.87306761
-195.0068714 -2.498423021e-05 51.93287361
-137.6098574 1.514518676 -139.2500974
-67.68637036 -42.71144136 148.7499026
-204.0101474 -2.498423021e-05 -12.66534839
-31.71927536 -2.498423021e-05 -113.9147704
-7.898481359 -2.498423021e-05 79.97924261
-111.6620014 -2.498423021e-05 76.93175461
-244.4779714 -2.498423021e-05 -116.0320154
-100.6889324 -2.498423021e-05 -87.63423639
-151.4671504 -24.42888351 -145.2500974
-93.40602736 -105.7513535 148.7499026
-122.8548304 -11.91503888 -145.2500974
-194.8805344 -2.498423021e-05 -5.332480386
-24.71270936 -54.75391342 148.7499026
-6.515568359 -2.498423021e-05 66.40076061
-129.0547704 -33.58178512 -139.2500974
-214.7629184 -29.25055497 148.7499026
-228.4264094 -2.498423021e-05 98.54469161
-71.27460236 -69.44486344 148.7499026
-122.5019364 -2.498423021e-05 109.1474396
1.964131752e-05 -27.16136356 96.50146861
-70.43745836 -2.498423021e-05 -97.07509839
-166.1266994 -2.498423021e-05 -81.91374339
-8.188079359 -2.498423021e-05 101.0777436
-113.0851534 -2.498423021e-05 -126.8385294
-130.3727334 -10.06672896 -139.2500974
1.243442641 -17.41449468 146.3816226
-90.78362436 -2.498423021e-05 82.21604861
-9.139920359 -24.37869089 -139.2500974
-21.11242036 -2.498423021e-05 129.1470706
1.964131752e-05 -7.544550534 -27.62202139
1.964131752e-05 -59.27026933 71.34871361
-150.8815044 -2.498423021e-05 -76.60533239
-89.96959136 -117.2887505 148.7499026
-49.59030836 -2.498423021e-05 -12.11330439
1.964131752e-05 -20.07883176 82.57464861
-64.18548436 -2.498423021e-05 -78.25008639
-174.8690844 -2.498423021e-05 33.44340661
-154.4195514 -57.55594482 -139.2500974
-196.8341924 -2.498423021e-05 25.35651561
-150.9866974 -44.55757481 -145.2500974
0.03099164132 -2.498423021e-05 115.0599226
-134.9782514 -2.498423021e-05 78.11222261
-75.31603336 -132.0242061 148.7499026
-246.9830904 -22.12593827 -139.2500974
1.964131752e-05 -50.56238019 21.95757461
-22.87243336 -2.498423021e-05 -112.1852554
-195.3661944 -58.04929358 -139.2500974
-38.38370936 -133.000025 149.1736956
-102.4437154 -118.5553626 154.0776856
-163.4184234 -2.498423021e-05 11.41557361
-216.2863704 -14.60317431 -139.2500974
-146.6912024 -2.498423021e-05 85.22492861
-127.2955484 -2.498423021e-05 27.26966661
-17.91377636 -2.498423021e-05 64.54941061
-97.45983236 -55.53236647 -139.2500974
1.964131752e-05 -12.47627231 -69.31573439
-124.7506444 -78.57225044 148.7499026
-132.1715334 -2.498423021e-05 41.59878561
-196.8813064 -32.13008137 -145.2500974
1.964131752e-05 -51.00949236 45.60037461
-111.4138404 -2.498423021e-05 126.5126626
-180.0528384 2.015076126 -145.2500974
-125.3171194 -56.06215212 148.7499026
-226.1672484 -12.739995 -139.2500974
-91.98824636 -2.498423021e-05 -50.46724239
1.964131752e-05 -23.53292576 -15.59103039
-164.4225184 -2.498423021e-05 99.86868061
1.964131752e-05 -48.0668675 -72.67386639
-74.09777536 -56.53414842 148.7499026
-153.0291334 -6.642047454 -145.2500974
-90.36494236 -37.20778575 -145.2500974
-187.1732794 -2.498423021e-05 56.05445661
-24.64178136 -2.498423021e-05 -98.48175839
-8.616502359 -9.006581224 -145.2500974
-21.32588936 -2.498423021e-05 27.12848661
-185.7347304 -68.00002402 149.2086126
-81.25485636 -2.498423021e-05 -17.99422839
-213.6813864 -2.498423021e-05 65.38821961
-8.722791359 -112.0970702 148.7499026
-170.2709684 -2.498423021e-05 -4.868116386
-214.4858034 -24.61255221 -145.2500974
1.964131752e-05 -106.947872 138.3482816
1.964131752e-05 -18.29356207 -111.9658344
-135.5402904 -42.39440157 -145.2500974
-47.14954236 -24.09886284 -145.2500974
-130.9513154 -29.05073539 148.7499026
-154.0509104 -68.00002402 -141.0989444
-24.98321836 -14.97765693 148.7499026
-126.8664264 -29.45374575 -145.2500974
1.964131752e-05 -34.71144603 -17.66060039
-35.73071636 -49.84550693 148.7499026
-205.0643354 -35.05824739 148.7499026
-135.9468564 -2.498423021e-05 120.4413056
-181.6337264 -2.498423021e-05 -14.56092239
-34.56235236 -2.498423021e-05 138.5475746
1.964131752e-05 -36.12252659 -40.38070139
-56.52867536 -97.64639828 152.3876826
-86.18408736 -47.81621612 -139.2500974
1.964131752e-05 -34.41187474 94.32427061
-198.4309584 -2.498423021e-05 -55.84462539
-246.0399804 -1.196597284 148.7499026
-62.96568136 -2.498423021e-05 -67.29760039
-22.36371136 -14.26144864 -139.2500974
1.964131752e-05 -24.29893957 -89.08641039
-201.8903514 -60.86048491 148.7499026
-162.3327844 -58.74309933 -139.2500974
-226.5577154 -15.90332903 148.7499026
-216.3799084 -2.498423021e-05 -11.17860539
1.964131752e-05 -93.85166179 68.86780961
-23.54866936 -2.086530784 -139.2500974
1.964131752e-05 -44.40903799 15.65224661
0.9300476413 -73.25283408 -5.727189386
-195.7237644 -39.19071284 148.7499026
-110.0703234 -2.498423021e-05 119.1342226
-47.58332836 -58.49069162 -139.2500974
-208.2083704 -2.498423021e-05 -61.55511639
-129.9674764 -2.498423021e-05 107.7139646
-231.9594774 -2.498423021e-05 -65.14408339
-155.4684234 -2.498423021e-05 147.0091986
-98.40332836 -2.498423021e-05 134.9584436
-14.12802836 -49.11235601 -139.2500974
-79.31448736 -2.498423021e-05 -85.08537739
1.964131752e-05 -11.79797553 79.87376261
-154.5948944 -48.26190067 148.7499026
-233.1890624 -65.46358603 -145.2500974
-22.63828036 -2.498423021e-05 -74.69901739
-197.9378564 -27.83936296 148.7499026
-233.7289714 -33.38599613 148.7499026
1.964131752e-05 -76.0890708 31.33681361
-44.91171536 -126.0756028 148.7499026
-150.3290394 -15.42041329 -145.2500974
1.964131752e-05 -39.06697197 -53.94270539
-225.8110774 -2.498423021e-05 68.19343561
-7.821966359 -41.86564201 -139.2500974
-205.3584754 -2.498423021e-05 145.8704246
-117.7909904 -59.65122348 -139.2500974
1.964131752e-05 -1.491136434 13.34340061
-214.1235574 2.174542606 -139.2500974
-25.78894536 -88.78076114 148.8282956
-187.5565944 -2.498423021e-05 -94.71266939
1.964131752e-05 -77.73300694 125.9980386
-197.8575584 -2.498423021e-05 93.59737261
-181.5369044 -43.15443648 -145.2500974
-73.17846836 -2.498423021e-05 56.83871361
-205.2989534 -2.498423021e-05 -95.75661339
-81.25203536 -69.57394787 148.7499026
-35.51971536 -35.32400932 -145.2500974
1.964131752e-05 -17.70138842 -124.6568144
-193.6325384 -68.00002402 149.2338826
-243.6572064 -2.498423021e-05 -138.4173744
-157.2733754 -6.678687964 -139.2500974
-63.90333436 -62.22246177 -139.2500974
1.964131752e-05 -26.3661466 -52.03589039
-19.87588436 0.7928136458 148.7499026
-197.3008374 -64.04580068 -145.2500974
-228.4495644 -2.498423021e-05 -81.61758839
-218.7154004 -2.498423021e-05 139.8734156
-34.85861736 -13.05293823 -145.2500974
-68.67630036 1.376242546 148.7499026
-80.72999736 -2.498423021e-05 73.95685561
-157.4431174 -2.498423021e-05 -2.242885386
-24.73896236 -2.498423021e-05 7.646068614
-237.8351744 -2.498423021e-05 130.8481526
-138.7192194 -53.17555908 148.7499026
-45.29928436 -2.498423021e-05 -110.5713174
-12.66490736 -2.498423021e-05 -100.6134724
-53.86192136 -2.498423021e-05 12.15544761
-238.0358874 -50.68556397 -145.2500974
-49.57713836 -6.640632064 148.7499026
-234.6752114 -2.498423021e-05 59.74315561
-39.26376836 -2.498423021e-05 -12.92511439
-124.0735944 -19.57262448 148.7499026
-65.06507236 -39.8721621 -145.2500974
-18.14888136 -2.498423021e-05 -8.059500386
-76.63990536 -2.498423021e-05 142.1975836
-169.6905494 -2.498423021e-05 -43.26839839
-199.9554384 -8.262979504 -139.2500974
-171.7420794 -15.20901136 148.7499026
-104.4800504 -21.20118101 -145.2500974
1.964131752e-05 -78.92621479 57.11440061
-217.1700774 -2.815578674 -145.2500974
-26.38607736 -2.498423021e-05 89.62094961
-166.1600614 -2.498423021e-05 -124.8145314
-80.12703336 -92.0357678 148.7499026
1.964131752e-05 -59.19854805 114.3723406
-213.5412184 -31.12859792 -139.2500974
-74.45949436 -40.26326201 148.7499026
1.964131752e-05 -22.97448553 -117.8272644
-17.29190236 -79.96415781 151.5037076
-112.3671584 -104.1349085 148.7499026
-84.70539536 -2.498423021e-05 105.2407426
-134.5237944 -7.568887814 -145.2500974
-68.01440436 -2.498423021e-05 82.99369561
-192.5293394 -16.82368026 -145.2500974
-26.45841536 -39.36180124 148.7499026
-90.34358136 -27.43522642 -139.2500974
-25.27829336 -95.91871069 148.7499026
-4.720576359 -2.498423021e-05 -101.1128964
-173.6899124 -27.21487027 -145.2500974
1.964131752e-05 -65.87591493 87.36598861
1.964131752e-05 -91.97313394 118.6782486
-37.23261636 -99.25421735 148.7499026
-132.5691884 -2.498423021e-05 4.007442614
-196.3516534 -2.498423021e-05 -32.12730939
-120.7742804 -44.62112456 -145.2500974
1.964131752e-05 -43.83359326 124.6639666
-101.9075154 -8.915581134 -139.2500974
-207.9943344 -2.498423021e-05 104.8322836
1.964131752e-05 -23.23172237 -131.5905084
-57.89372636 -2.498423021e-05 -0.359419386
-57.72328536 -2.498423021e-05 -16.97923739
-54.06995036 -43.20167328 -139.2500974
-67.04921336 -47.04026792 -145.2500974
1.964131752e-05 -34.92307078 -5.483503386
-17.68204636 -2.498423021e-05 -26.82715139
-108.1583644 -2.963594654 -139.2500974
-137.8910774 -54.42126883 -145.2500974
-225.8796174 -33.63500828 -139.2500974
-234.5722144 -2.498423021e-05 22.28666961
1.964131752e-05 -42.3747685 -105.6179354
-74.91915436 -2.498423021e-05 99.00486961
-187.4311764 -32.67397795 -145.2500974
-194.4906774 -2.498423021e-05 78.51274061
-245.2349024 -2.498423021e-05 11.59263061
1.964131752e-05 -43.29308481 -121.9836584
-210.2483484 -2.498423021e-05 -68.32400439
-80.78167936 -2.498423021e-05 -136.6748304
1.964131752e-05 -21.11148834 2.560985614
-239.8072774 -9.244732124 -139.2500974
-147.6839164 -2.498423021e-05 -139.0187594
-85.97939036 -2.498423021e-05 -116.0576524
1.964131752e-05 -45.67932364 60.24804861
-7.795926359 -2.498423021e-05 -90.40854339
-14.96740236 -127.3480535 148.7499026
-121.2077344 -65.48637726 148.7499026
-132.2186314 -2.498423021e-05 -29.04469239
-206.6358274 -2.498423021e-05 52.51638761
1.964131752e-05 -27.68011536 118.7238066
-115.5891914 -2.371551594 -145.2500974
1.964131752e-05 -52.68463817 58.26629061
-168.5005344 -2.498423021e-05 -20.07648839
-97.84552736 -2.498423021e-05 -13.96746439
-107.6779374 -30.50363675 -139.2500974
-21.75884936 -68.00002402 -144.4756944
-195.9451584 -2.498423021e-05 -66.62227439
-130.3144784 -18.74343184 -139.2500974
1.964131752e-05 -4.779151904 127.9799676
-48.15441836 -2.498423021e-05 -29.29427039
-121.4538394 -2.498423021e-05 142.3369886
-150.2009834 -2.498423021e-05 -29.80927439
-152.8966754 -2.498423021e-05 -48.88485839
-123.7227074 -2.498423021e-05 -69.01145139
-157.5246174 -12.01262109 -145.2500974
-207.1168834 -2.498423021e-05 -138.5454974
-21.43340736 -42.09195474 -145.2500974
-178.8686604 -2.498423021e-05 -107.0174064
-116.5838104 -43.28468652 -139.2500974
-34.29992336 -63.66302402 -139.2500974
-213.0584654 -61.79299441 -145.2500974
-249.7880994 -5.660635794 -145.2500974
-240.1348204 -17.93324647 148.7499026
-132.2494324 -41.1313576 -139.2500974
-88.07815736 -2.498423021e-05 94.68179861
-131.8227034 -66.51627567 148.7499026
-6.853049359 -132.8102091 150.1390716
-57.87379736 -2.498423021e-05 121.4042306
-63.77994536 -36.42440074 148.7499026
-223.7155024 -51.63137932 -139.2500974
-204.8164154 -63.45808538 -145.2500974
1.964131752e-05 -48.41777836 -12.93264139
1.964131752e-05 -61.30245469 34.79953661
-221.2239234 -2.498423021e-05 -115.7416474
-146.1458604 -37.14218641 -145.2500974
-4.008789359 -2.498423021e-05 -53.76776839
-165.1244694 -2.498423021e-05 -100.6708484
-22.85492936 -102.4140114 148.7499026
-62.41202636 -2.498423021e-05 -43.89412139
-137.8708714 -7.269488004 148.7499026
-173.3748254 -2.498423021e-05 -63.02882739
-161.6775904 -2.498423021e-05 -33.57621139
-65.70770936 -2.498423021e-05 28.62147961
1.964131752e-05 -81.40624839 25.82683361
-184.8542394 -67.0395334 -145.2500974
-25.09385636 -2.498423021e-05 -55.95859339
-46.42474436 -54.41137054 -145.2500974
-123.4015214 -41.59585751 -139.2500974
-160.3414774 -27.00493179 -139.2500974
-61.42776236 -2.498423021e-05 -132.2437324
1.964131752e-05 -87.4082285 129.9603336
-188.2713394 -38.08979626 148.7499026
-237.3384314 -19.67798422 -145.2500974
-46.04574936 -88.47618591 148.7499026
-41.18413636 -2.498423021e-05 31.06797261
-106.6238024 -2.498423021e-05 -94.69562839
-118.2515124 -2.498423021e-05 -42.95261839
-32.78248836 -86.15766126 148.7499026
1.964131752e-05 -69.38541478 81.22217061
-176.8451044 -2.498423021e-05 136.8577046
1.964131752e-05 -54.01165986 145.8908466
1.964131752e-05 -23.67342866 -65.75836539
-95.79595336 -2.498423021e-05 54.22326261
-228.8451004 -2.498423021e-05 -101.8239524
-110.0564314 -41.71070264 148.7499026
-159.3540614 -63.45849544 -145.2500974
1.964131752e-05 -6.370020694 -99.69539939
1.964131752e-05 -67.33907958 110.3702636
-20.91414536 -123.2382151 148.7499026
-155.9672204 -44.03068226 -139.2500974
-163.6521624 -6.664928934 -145.2500974
-247.7580284 -2.498423021e-05 100.5555846
-246.8987734 -2.498423021e-05 68.73990761
-198.3518754 -2.498423021e-05 -125.5857954
-63.56733536 -23.32802547 148.7499026
-37.63161036 -38.86080486 148.7499026
1.964131752e-05 -30.40102642 -85.68196339
-206.4410684 -24.78686369 -145.2500974
-59.45715436 -5.951321644 148.7499026
-52.23899336 -65.14239898 -139.2500974
-145.1373134 -2.498423021e-05 130.6185836
-30.19998936 -2.498423021e-05 -70.62875239
-204.6073804 -2.498423021e-05 117.6517676
-5.829506359 -2.498423021e-05 142.3804116
-180.1703144 -51.62605166 -145.2500974
-69.29053536 -2.498423021e-05 113.2763016
-140.8205074 -2.498423021e-05 -39.22380339
-165.9761614 -2.498423021e-05 119.5044266
1.964131752e-05 -23.35609814 34.07224861
-211.5248124 -2.498423021e-05 -123.3987254
-159.1650284 -39.0197005 -145.2500974
-102.5513564 -47.87203663 -145.2500974
-10.93485936 -24.25323058 148.7499026
-97.85708636 -48.85196277 148.7499026
-171.4506464 -0.8814970442 -139.2500974
-28.34467736 -47.32987377 -145.2500974
-104.6332394 -56.07111575 -139.2500974
-240.2457444 -2.498423021e-05 70.90622761
-64.55357136 -13.28416719 -139.2500974
-145.0183544 -15.98815749 -139.2500974
-174.6375684 -13.95480179 -139.2500974
-221.5429334 -2.498423021e-05 37.07121461
-172.0316084 -36.50521999 148.7499026
1.964131752e-05 -100.5396563 106.8713156
-130.1929924 -53.08373155 -139.2500974
1.826807641 -54.15137267 -139.2500974
-18.82150636 -2.498423021e-05 113.7957466
-246.6439494 -2.498423021e-05 78.34653461
-173.3295514 -2.498423021e-05 -32.38157539
-109.1114384 -2.498423021e-05 47.83817161
-105.0509924 -5.412691674 -145.2500974
-39.12672536 -35.13825716 -139.2500974
1.964131752e-05 -19.61708649 -98.15627439
1.964131752e-05 -14.24979223 -27.74879839
-242.7128624 -34.79471416 -145.2500974
-159.0736274 -53.29340625 148.7499026
-9.174280359 -62.3893627 -139.2500974
-14.69781936 -49.12055521 148.7499026
-140.9951884 -80.00378257 149.3733836
-159.8236374 -41.60815935 148.7499026
1.964131752e-05 -55.05959228 -98.34246439
1.964131752e-05 -31.01348872 143.2498926
-35.26423836 -28.59175659 148.7499026
-2.098790359 -67.70759351 -139.2500974
-6.552084359 -2.498423021e-05 132.3515566
-220.6980894 -49.1914497 148.7499026
-112.7475064 -68.00002402 -142.5556274
-33.95775136 -60.24072871 -145.2500974
-8.340687359 -2.498423021e-05 -15.90633939
-209.2425544 -63.72088147 -139.2500974
-132.3174414 -79.2015648 148.7499026
-71.81707336 -125.0960487 148.7499026
-179.6034714 -2.498423021e-05 6.352113614
-226.3158004 -61.38575306 148.7499026
-219.0760444 -61.48934552 -139.2500974
-247.8732254 -41.82381457 148.7499026
-225.6503854 -45.30261535 -145.2500974
-189.1932584 -2.498423021e-05 37.33273961
-65.92019936 -59.32414211 148.7499026
-106.2670834 -2.498423021e-05 15.09447361
1.964131752e-05 -6.079060534 83.58965261
1.964131752e-05 -14.23646868 -105.7115414
-72.34826336 -2.498423021e-05 -109.0375764
-196.1655944 -2.498423021e-05 43.19894961
-62.25098936 -53.35625623 -139.2500974
-165.5492794 -2.498423021e-05 -75.33357939
1.964131752e-05 -29.08367615 -21.09829839
-39.55275036 -2.498423021e-05 -67.43581139
-242.1787574 -2.498423021e-05 85.13660361
-40.12259236 -2.498423021e-05 87.88138361
-114.6460314 -2.498423021e-05 111.0273216
-128.9907924 -2.498423021e-05 11.24349861
-39.93366836 -14.38083686 148.7499026
-199.3603674 -2.498423021e-05 104.3768776
-86.15996136 -12.63252001 148.7499026
-251.5111644 -23.55821829 -145.2500974
-0.4990033587 1.861261176 -67.35188839
-5.987428359 -2.498423021e-05 11.08338461
1.964131752e-05 -50.08595701 98.15798361
-28.83107136 -5.956408124 148.7499026
1.964131752e-05 -47.10705539 -34.78065939
-148.3096074 -21.661953 -139.2500974
-153.4310664 -2.498423021e-05 -134.2779284
-54.07168336 -2.498423021e-05 69.70696561
0.5814256413 -2.498423021e-05 -0.403407386
-101.8309584 -60.59317588 -145.2500974
-171.1910364 -2.498423021e-05 86.74025861
-41.95485236 -2.498423021e-05 72.25177761
-0.4154983587 -47.47404736 -139.2500974
-10.86192536 -30.68758869 -139.2500974
-136.7057404 -2.498423021e-05 47.83468661
-198.3515624 -19.30838044 148.7499026
-139.9199104 -39.3434267 148.7499026
-139.7128084 -2.498423021e-05 98.04833861
-39.96967236 0.8022542458 -139.2500974
-128.5207474 -2.498423021e-05 -128.5061354
1.964131752e-05 -20.04381247 40.56855461
-226.2936094 -2.498423021e-05 105.5380946
-86.67364536 -57.69005262 -145.2500974
1.964131752e-05 -51.88230979 33.69510561
1.964131752e-05 -49.72401868 -111.4081154
1.964131752e-05 -22.17523583 63.89775861
-49.53642836 -38.54677513 -139.2500974
-57.29726536 -2.498423021e-05 143.7581816
-211.9380624 -2.498423021e-05 124.3019406
-157.5370084 -2.498423021e-05 -72.75133139
-89.10234136 -1.972365934 -145.2500974
-249.7006424 -40.34697565 -139.2500974
-86.96304436 -30.1176781 -145.2500974
1.964131752e-05 -38.03441798 -112.3234534
-180.6261794 -62.14687886 -145.2500974
-26.24179336 -28.29113176 -145.2500974
-114.4630184 -2.498423021e-05 -82.88803439
-128.8666094 -2.498423021e-05 61.75941161
-166.1225544 -2.498423021e-05 -48.64900939
1.964131752e-05 -12.87455023 -57.98020439
-239.0152634 -2.498423021e-05 93.41768861
-12.72895636 -3.936112024 -145.2500974
1.964131752e-05 -82.30068259 116.3866486
1.964131752e-05 -8.227266634 -135.4216094
-155.1039224 -2.498423021e-05 40.37673261
-105.5525334 -28.99125068 148.7499026
-187.2857384 -2.498423021e-05 124.5797766
-159.1551314 -2.498423021e-05 116.2328246
1.964131752e-05 -5.137846504 119.1996096
-112.8664544 -2.498423021e-05 -54.01081739
-202.3466954 -48.42726001 -145.2500974
-60.44949736 -2.498423021e-05 54.12081461
1.964131752e-05 -60.48254554 124.8885106
-101.9563454 -2.498423021e-05 71.15317861
-20.86971236 -60.58334516 -145.2500974
-167.5855384 -65.71040212 -139.2500974
