# .PCD v0.7 - Point Cloud Data file format
VERSION 0.7
FIELDS x y z
SIZE 4 4 4
TYPE F F F
COUNT 1 1 1
WIDTH 1175
HEIGHT 1
VIEWPOINT 0 0 0 1 0 0 0
POINTS 1175
DATA ascii
-74.31407036 -95.46738098 148.7499026
-28.50276136 -2.498441893e-05 111.5913176
-149.6317384 -2.498441893e-05 -17.68522739
-248.8682094 -2.498441893e-05 -113.3120724
1.749242641 -53.5765943 -108.7649064
-149.2559674 -2.498441893e-05 15.55985761
-206.7386324 -2.498441893e-05 70.36148961
-66.51577236 -2.498441893e-05 -86.09316539
-251.6953464 -2.498441893e-05 -38.40213339
-26.88346336 -2.498441893e-05 -56.58326539
-39.44980436 -34.49996106 -139.2500974
-3.590642359 -68.00002402 -142.4537224
-68.05712236 -2.498441893e-05 41.74397861
-21.39415736 -2.498441893e-05 0.871135614
-52.44874436 -7.153974744 148.7499026
-40.64411736 -2.498441893e-05 -119.3592524
-68.19789636 -2.498441893e-05 -17.90332939
-76.16002436 -68.00002402 -141.8432594
-130.0357454 -76.08338688 149.6531686
0.0002636413374 -70.71847935 90.23979561
-98.24268436 -2.498441893e-05 -57.19794139
0.01121964134 -15.32603028 138.9780196
-0.3105553587 -8.766474604 -139.2500974
-238.8935434 0.8761194756 148.7499026
-189.1675684 -68.00002402 149.1229916
-114.1377524 -2.498441893e-05 31.19503061
-120.1254074 -2.498441893e-05 66.82013261
0.0002636413374 -53.31814512 8.078459614
-155.1052714 1.666949956 152.7499026
-206.6571514 -68.00002402 -140.2506464
-146.7167394 -2.498441893e-05 106.9258806
0.4735696413 -88.07663193 47.97149561
-132.4571864 -8.507469174 -145.2500974
-196.2871584 -23.16280538 148.7499026
-124.6187464 -2.498441893e-05 -79.09212939
-188.2685834 -2.498441893e-05 111.3381516
-27.42256436 -56.47654179 148.7499026
1.291403641 -2.498441893e-05 19.71108261
-194.9354244 -2.498441893e-05 -16.76217139
-96.11318036 -45.63859394 -145.2500974
0.0002636413374 -27.63311962 -16.71487939
-223.3089144 -68.00002402 152.4214306
-197.9874264 -28.60659867 -139.2500974
0.3422316413 -78.45637295 14.71532961
-54.91669436 -112.2005602 148.7499026
0.0002636413374 -21.90967103 98.30504361
-75.07989536 -39.49107913 148.7499026
-56.23058936 -2.498441893e-05 95.56479661
-27.10943936 -108.7190364 148.7499026
-227.6762194 -22.08562532 148.7499026
-143.8724654 -21.01523572 148.7499026
-100.8617534 -35.64368227 148.7499026
-155.6658234 2.233783326 -145.2500974
0.0002636413374 -64.20291909 59.20145461
-56.91230836 -67.39186333 148.7499026
-195.3114494 -2.498441893e-05 -129.0648624
-27.64659936 -22.73547719 148.7499026
-143.0560724 -2.498441893e-05 81.71348261
-11.82510136 -2.498441893e-05 -92.16281039
-215.8495064 -2.498441893e-05 124.5782346
-72.14634836 -2.498441893e-05 66.15559461
-196.4714264 -2.498441893e-05 26.91686361
-186.6750984 -2.498441893e-05 144.3701776
-248.8068854 -43.58111245 -139.2500974
-5.396535359 -2.498441893e-05 -43.27121939
-173.8795974 -34.28839109 -139.2500974
-129.9362084 -2.498441893e-05 -102.7191524
-85.93769536 -20.24922725 -139.2500974
-169.9621544 -2.498441893e-05 -58.75788239
-184.2796434 -2.498441893e-05 60.86572861
0.0002636413374 -21.81761611 71.92631761
-199.0161554 -2.498441893e-05 -49.58921139
-142.9310524 -2.498441893e-05 131.5198936
-20.91454936 -48.85512915 -145.2500974
-91.56817536 -114.4308906 150.4046436
-120.0036704 -20.31515146 148.7499026
-236.0212424 -2.498441893e-05 103.2762306
-229.4354074 -2.498441893e-05 22.51045161
-127.3757864 -2.498441893e-05 -24.42384939
-58.35827036 -21.75529063 -145.2500974
0.0002636413374 -24.96316513 -120.8667564
-85.01168136 2.000949326 -145.2500974
-76.72784336 -2.498441893e-05 134.4746426
0.0002636413374 -65.03674664 142.7199726
-192.6587444 -2.498441893e-05 88.35840361
0.0002636413374 -60.41005109 -45.05387939
-237.6033834 -2.498441893e-05 -18.42203839
-238.9730334 -48.88227158 148.7499026
-227.8956294 -62.72169705 -145.2500974
-232.5186384 -2.498441893e-05 60.27125161
-23.16650636 -2.498441893e-05 62.12043561
-149.5393084 -49.44505051 148.7499026
-37.77676236 -2.498441893e-05 133.5684826
-123.6733844 -2.498441893e-05 120.3504266
-111.8945404 -60.83457727 148.7499026
-15.70494936 -24.62376236 -139.2500974
-186.9514254 -43.16128581 148.7499026
-172.4908004 -2.498441893e-05 -87.58827139
0.0002636413374 -33.0869673 -71.11489939
-124.5173784 -48.57869362 -139.2500974
-197.6590024 -2.498441893e-05 -94.56301239
-101.4075064 -2.498441893e-05 -4.282671386
-219.3106344 -20.02186931 -145.2500974
-18.95197736 -2.498441893e-05 -120.5155134
-50.88434336 -1.378190344 -145.2500974
-100.7917764 -2.498441893e-05 76.51100361
-109.0143124 -1.049164864 -145.2500974
0.0002636413374 -16.81027008 34.23132261
-30.21363436 -2.498441893e-05 90.33254961
-78.26309536 -2.498441893e-05 -111.1146634
-251.9208434 -2.498441893e-05 -92.47653039
-77.91897736 -2.498441893e-05 -62.28083739
-157.9828424 -2.498441893e-05 -106.0323954
0.0002636413374 -91.40417506 100.7579356
-103.8287524 -2.020747374 148.7499026
-162.5695984 -50.8848221 -145.2500974
-152.0125774 -2.498441893e-05 -38.21288239
-15.97075936 -2.498441893e-05 127.8699786
-53.43174336 -51.13898748 -139.2500974
-168.1164784 -2.498441893e-05 107.5809186
-161.2497344 -16.97186107 -139.2500974
0.0002636413374 -48.01540881 -16.44065639
-216.5149054 -2.498441893e-05 -118.6709104
0.0002636413374 -11.72760059 -0.615426386
0.0002636413374 -16.99826122 -34.24792239
-223.1183094 -2.498441893e-05 81.69519261
0.0002636413374 -40.48627313 31.11793461
-229.7405934 -2.498441893e-05 -48.61379039
0.0002636413374 -110.0295166 131.0063596
-14.55034936 -2.498441893e-05 34.52710361
-201.7066554 -48.89845257 -139.2500974
-170.5552044 -2.498441893e-05 -125.1264284
1.541277641 1.621087786 148.7499026
-240.0026434 1.468812556 -139.2500974
-154.2855104 -2.498441893e-05 61.74336761
-54.38948836 -133.000025 153.1592076
0.0002636413374 -20.0081306 117.6512416
-76.30666836 -2.498441893e-05 -35.42205239
-96.28242836 -81.31261825 148.7499026
-199.9696874 -9.328102874 -145.2500974
-235.5906724 -30.93602781 -145.2500974
-86.48625536 -2.498441893e-05 36.38673361
-39.15665936 -2.498441893e-05 -71.39170239
-50.52342836 -2.498441893e-05 -11.55957239
-94.54460036 -67.25123301 -145.2500974
-17.14884236 -2.498441893e-05 -74.25399439
-247.8661404 -2.498441893e-05 19.36845661
-220.0448134 -2.498441893e-05 -12.46104339
-151.4782694 -2.498441893e-05 -59.51448739
-131.0085614 -2.498441893e-05 23.66226161
-126.8893304 -2.498441893e-05 -129.8255044
-161.9156854 -2.498441893e-05 -2.544725386
-114.1615614 -2.498441893e-05 -47.92574539
-51.13841136 -2.498441893e-05 31.51506961
0.0002636413374 -56.61367114 101.9101176
0.0002636413374 -48.37031998 -58.83329139
-9.119481359 -132.9942453 151.6104686
0.0002636413374 -32.80106542 130.5292736
-176.7022954 -2.498441893e-05 -13.88777639
-57.68705636 -2.498441893e-05 -68.05069339
0.0002636413374 -25.66337514 -54.58287139
-67.05359736 -2.498441893e-05 0.122608614
0.0002636413374 -11.23009385 -83.43791639
-112.2189804 -2.498441893e-05 -99.85535939
-10.42407036 -2.498441893e-05 97.68314361
0.0002636413374 -60.31618197 124.6621836
-20.92784936 -65.70322504 -139.2500974
-86.27702636 -2.498441893e-05 -13.63534839
-132.4070234 -63.56265422 -145.2500974
-165.5694734 -2.498441893e-05 22.47347061
1.544833641 -2.498441893e-05 65.82889961
-200.2942594 -2.498441893e-05 49.07119361
-56.79261336 -2.498441893e-05 -31.35324739
-174.0349584 -11.37099951 148.7499026
-81.21167836 -2.498441893e-05 110.1181576
-235.6087964 -2.498441893e-05 -86.12150339
-68.80370736 -2.498441893e-05 83.31112861
-22.08204636 -2.498441893e-05 18.75606961
-14.83462336 -2.498441893e-05 -27.73159939
0.0002636413374 -92.58540333 130.6799016
-66.06484336 -24.58318774 148.7499026
-206.1856944 -64.63876049 148.7499026
-107.5792574 -2.498441893e-05 15.14498061
-29.13561736 -81.1444804 151.4292416
-59.00508836 -68.00002402 -144.0966444
-130.4002294 -29.07618478 -145.2500974
-231.4123544 -2.498441893e-05 132.0760796
0.0002636413374 -76.10297518 71.68810761
-199.8031804 -2.498441893e-05 133.1925146
0.0002636413374 -42.9593384 -95.19206639
-60.80414736 -50.08435027 148.7499026
-24.78588136 -2.498441893e-05 -102.9048714
-110.3339424 -39.18144131 -139.2500974
-141.9413474 -2.498441893e-05 -2.834798386
-106.0044074 -2.498441893e-05 -71.96743239
-230.7215234 -2.498441893e-05 5.879704614
0.0002636413374 -43.73765073 -123.3685364
-45.64128836 -2.498441893e-05 50.34514961
0.0002636413374 -50.57496707 46.52076361
-247.9840294 -2.498441893e-05 54.35420461
0.0002636413374 -58.02905619 74.54042861
-210.5352974 -2.498441893e-05 -79.50897039
-234.8847224 -2.498441893e-05 43.96142661
-56.23693936 -2.498441893e-05 -114.0908404
-93.11644636 -2.498441893e-05 135.4728876
0.0002636413374 -14.05457542 55.81999861
-166.3439194 -66.41179324 -139.2500974
-250.4793614 -2.498441893e-05 95.61016561
-44.54882736 -15.2200117 -139.2500974
-69.11618036 -2.498441893e-05 25.42991661
-231.9822984 -2.498441893e-05 -123.8380234
-138.0602944 -2.498441893e-05 -68.77728539
-195.4053244 -2.498441893e-05 4.742450614
-212.7664384 -15.55874793 148.7499026
-156.3997364 -2.498441893e-05 91.01168261
-175.1235374 -59.49784335 148.7499026
-31.42907836 -39.49792208 148.7499026
-9.912818359 -23.44423661 148.7499026
-42.80057436 -2.498441893e-05 -47.23109939
-233.0592094 -13.07693882 -139.2500974
-14.11353636 -1.474203964 -145.2500974
-251.7326104 -2.498441893e-05 139.0958436
-199.9160064 -2.498441893e-05 -110.4861394
-68.83002436 -2.498441893e-05 148.4581636
-111.4027944 -2.498441893e-05 107.0966136
-88.34018636 -2.498441893e-05 -74.74825739
0.0002636413374 -5.372224374 126.5709216
-49.66151736 -23.6261517 148.7499026
0.0002636413374 -78.10647549 30.48977961
-36.29607536 -49.93567181 -139.2500974
0.6689166413 -103.2455736 147.2499026
-224.9806194 -38.51136604 148.7499026
-76.33027836 -110.8539113 148.7499026
-55.50538536 -2.498441893e-05 -97.01427139
-157.1356724 -13.14000189 148.7499026
-125.1552874 -2.498441893e-05 45.67912861
-85.43992336 -2.498441893e-05 -48.61526439
-112.1848814 -2.498441893e-05 -21.83492339
-0.7618763587 -24.96132643 -145.2500974
-105.6803384 -56.7378659 -139.2500974
-234.9470264 -50.19173643 -139.2500974
-30.78119636 -21.88921023 -139.2500974
-134.0658804 -61.36812461 148.7499026
0.0002636413374 -28.83226133 -1.491716386
0.0002636413374 -55.03971919 -30.76899339
-89.88967836 -2.498441893e-05 -123.8475494
-147.3881184 -53.21929039 -145.2500974
-66.01429136 -2.903192644 -145.2500974
-119.0452914 -12.39992239 -139.2500974
-184.0549914 -2.498441893e-05 -52.24626239
0.0002636413374 -42.61132083 61.11237861
-84.38707336 0.4470727156 148.7499026
-84.49223136 -53.35279438 -139.2500974
-98.85630536 -2.498441893e-05 93.92192761
0.0002636413374 -13.66661441 85.56493961
-146.6129854 -68.30001543 153.8263076
-203.8326144 -2.498441893e-05 -64.39105039
-56.66720336 -37.65816123 -145.2500974
-176.3254434 2.302628616 -139.2500974
-115.5097124 -80.01782212 148.7499026
0.0002636413374 -38.91147757 96.87662761
-77.37057536 -71.70565845 148.7499026
-41.36005636 -104.0392784 148.7499026
-96.20949836 -2.498441893e-05 -103.6135174
-98.60137636 -2.498441893e-05 27.10183061
-146.9668974 -22.87790085 -145.2500974
-16.59862436 -46.86928195 153.8974276
-35.71875236 -2.498441893e-05 -3.069674386
0.0002636413374 -73.30077126 46.60241061
0.1967616413 -79.32582751 147.2499026
-4.915894359 -2.498441893e-05 -128.2148584
-212.0428574 -2.498441893e-05 21.20645761
-160.8452854 -30.42912632 -145.2500974
-161.8975644 -2.498441893e-05 -71.08549239
-190.9937554 -68.00002402 -142.6469754
-141.1284324 -2.498441893e-05 146.0990336
-85.44765236 -34.92206361 -139.2500974
-41.29192836 -2.498441893e-05 -134.2590874
-9.864945359 -2.498441893e-05 -8.171325386
-218.3291154 -2.498441893e-05 56.72712561
-121.1844374 -2.498441893e-05 134.7230366
-97.65343436 -11.58854315 -139.2500974
-109.5029184 -2.498441893e-05 56.46440961
-101.6266334 -16.36845039 148.7499026
-137.7088604 -35.06459907 148.7499026
-48.07953336 -2.498441893e-05 109.9838476
0.0002636413374 -67.4708242 5.152281614
-202.4635474 -2.498441893e-05 114.0415536
-82.03635336 -2.498441893e-05 77.52409061
-170.1328154 -2.498441893e-05 63.65410161
0.0002636413374 -49.29378768 133.9295726
-184.7045214 -2.498441893e-05 125.2887996
-37.94698436 -70.07636856 148.7499026
-57.92939136 -98.15191284 148.7499026
-180.3460024 -2.498441893e-05 25.25905861
-18.41379436 -120.0981832 148.7499026
-226.8449964 -2.498441893e-05 115.4769996
-163.4265764 -2.498441893e-05 -21.25501639
-205.3097474 -2.498441893e-05 -6.303157386
-235.8435454 -2.498441893e-05 -107.6807434
-6.093021359 -2.498441893e-05 5.505321614
-165.6166994 -2.498441893e-05 49.24602061
0.0002636413374 -7.135501004 -96.95505739
-58.50871136 -2.498441893e-05 71.71356161
-7.080185359 -51.6605995 -145.2500974
-79.71584336 -2.498441893e-05 49.69997661
0.0002636413374 -84.85771354 88.26352361
-132.8372894 -2.498441893e-05 109.4027096
-79.07937336 -2.498441893e-05 -97.06008639
-57.53929436 -2.498441893e-05 137.8025936
-0.4987593587 2.272609436 -79.66460139
-191.5265974 1.858341486 -145.2500974
-217.2039024 -55.95926291 -139.2500974
-21.48260936 -2.498441893e-05 -40.01725539
-90.18699836 -93.8789397 148.7499026
-163.5009974 -49.31059791 148.7499026
-37.54238436 -2.498441893e-05 24.92786261
-188.6920604 -38.95685907 -139.2500974
-238.8926194 -2.498441893e-05 -65.31186439
-238.8665134 -13.01297408 148.7499026
-170.7436514 1.980898946 150.4979086
-41.50446936 -121.3758983 148.7499026
-195.1925374 -55.5366436 148.7499026
-186.1100664 -2.498441893e-05 76.20011861
-111.9232834 -47.02495287 148.7499026
-152.6978184 -2.498441893e-05 119.3282806
-155.6678914 -2.498441893e-05 76.24277061
-14.55832336 -2.498441893e-05 51.40286061
-112.4596164 -2.498441893e-05 -85.48223139
-144.0492104 -2.498441893e-05 34.89720561
-97.50284536 -27.58090379 -139.2500974
0.0002636413374 -103.3757305 94.23455561
0.0002636413374 -12.87741784 -15.35601539
-69.30372536 -52.02177869 -145.2500974
-75.85998136 -13.34304576 -145.2500974
-224.1711714 -0.6868486544 148.7499026
-154.6575884 -35.81960519 148.7499026
0.0002636413374 -85.84220056 61.32958261
-113.3326374 -2.498441893e-05 85.00768761
-33.43477536 -2.498441893e-05 10.28459861
-67.66909836 -2.498441893e-05 110.3980656
0.0002636413374 -13.91422828 -47.93440739
-115.3641194 -2.498441893e-05 -8.715275386
-182.9583834 -24.30229546 -139.2500974
-250.7632214 -28.59788351 -145.2500974
-47.61760036 -57.61249336 148.7499026
-53.80229836 -2.498441893e-05 -81.65004639
0.0002636413374 -42.47268117 0.09425061397
0.0002636413374 -43.10880617 16.85687761
-64.23621336 -2.498441893e-05 54.64620161
0.0002636413374 -59.62160669 20.91994861
-130.9987594 2.285170476 74.34555961
0.0002636413374 -18.4636457 -109.1545544
-161.4193914 -2.498441893e-05 -48.44894639
0.0002636413374 -60.2803345 -8.845707386
-74.27407836 -2.498441893e-05 -75.15909339
-71.76698236 -57.6424954 148.7499026
-21.86732136 -36.4222257 -139.2500974
-144.0790084 -6.187903344 -139.2500974
-203.5906864 2.010905356 -139.2500974
-240.3070364 -2.498441893e-05 30.28083061
-184.4851084 -2.498441893e-05 -121.0419324
-13.11226036 -9.659029354 148.7499026
-30.58588836 -2.498441893e-05 73.02931561
-206.1491054 -37.04730961 -145.2500974
-129.9987594 0.4429583856 -115.8831014
-137.7174644 -2.498441893e-05 93.73641561
-178.0137354 -2.498441893e-05 -75.12537239
0.6661036413 -60.15851152 -67.36605539
0.0002636413374 -28.51120764 86.95679061
-251.5878444 -2.498441893e-05 -126.1326834
-20.32215136 -67.4805304 148.7499026
-97.74136836 1.700442446 -139.2500974
0.0002636413374 -39.99203928 -82.47720439
0.0002636413374 -71.11063828 107.3149306
-1.096314359 -2.498441893e-05 34.47404261
-66.54849336 -119.4310144 148.7499026
-62.50302536 -79.13408863 148.7499026
-105.8186864 -2.498441893e-05 41.15833361
-204.6889614 -2.498441893e-05 83.60631661
-93.61230236 -2.498441893e-05 106.4805456
-137.2539074 -2.498441893e-05 10.84434761
0.0002636413374 -12.80349937 20.19148661
-66.08111236 -2.498441893e-05 -105.8015884
0.2212586413 -56.13285423 -91.34617239
-206.6190404 -19.0774974 -139.2500974
-86.15105336 -2.498441893e-05 121.9788266
-237.9996534 -2.498441893e-05 90.58272061
-221.9428604 -52.29990082 148.7499026
-1.529881359 -2.498441893e-05 -56.55090239
-240.7855964 -2.498441893e-05 -31.67525639
-61.13763836 -2.498441893e-05 14.31404061
-212.7564484 -8.988544884 -145.2500974
-236.8077334 -2.498441893e-05 74.40336261
-86.13620936 -2.498441893e-05 65.43010161
0.0002636413374 -19.37621495 -73.04953139
-177.3086274 -2.498441893e-05 98.79784961
-158.0296214 -2.498441893e-05 -118.7144634
-130.9987594 2.086679906 -8.886802386
-246.9779254 -2.498441893e-05 -50.12937839
-222.3586544 -2.498441893e-05 -83.97717339
-165.3047804 -3.880015384 -139.2500974
0.0002636413374 -32.31317179 -110.5896734
-14.25154636 -2.498441893e-05 -56.33624539
-215.8838974 -27.79714868 148.7499026
-111.4052644 -2.498441893e-05 -132.9202974
-116.2566064 -2.498441893e-05 -64.70052239
-211.3203144 -2.498441893e-05 -47.10135039
2.429092641 -31.91524856 148.7499026
-252.4658014 0.1200297056 -139.2500974
-114.4649574 -2.498441893e-05 -34.14570239
-246.9158814 -39.22225256 148.7499026
-27.12397436 -2.498441893e-05 -82.02171339
-184.4147534 -2.498441893e-05 46.50847761
-88.58779336 -37.94966762 148.7499026
0.0002636413374 -41.23326358 -26.92497939
-21.60283236 -133.000025 151.7738016
-8.660238359 -35.08615225 -145.2500974
-116.4063504 -35.39483349 148.7499026
0.0002636413374 -30.24961855 107.5627826
-22.49097436 -97.15448153 148.7499026
-161.0584464 -2.498441893e-05 -92.47795139
-43.94835736 1.879323506 148.7499026
-28.89306336 -2.498441893e-05 -134.1991744
-152.7607904 -2.498441893e-05 48.31865461
-130.9987594 1.640952386 61.15216361
-140.4530884 -2.498441893e-05 -25.96820739
0.0002636413374 -97.57206942 119.3883226
-9.982844359 -13.51894339 -145.2500974
-155.7449834 -40.59783797 -139.2500974
-198.1669854 0.6407846956 148.7499026
-134.3682654 2.467886716 -139.2500974
-75.56171536 -30.1425125 -145.2500974
-222.5686514 -2.498441893e-05 69.46429161
-105.3151464 -73.06335507 148.7499026
-38.18133336 -2.498441893e-05 60.03243461
0.0002636413374 -29.04478067 -32.20046039
0.0002636413374 -28.83780232 27.54252161
-44.27620536 -2.498441893e-05 -60.33981439
0.0002636413374 -53.11976254 89.76826761
-154.6360694 -2.498441893e-05 134.6406916
-84.13023336 -81.7521012 148.7499026
-250.6924004 -51.92601355 148.7499026
-55.71003136 -2.498441893e-05 -126.1859584
-208.1054254 -2.498441893e-05 -25.63694439
-63.62899636 -11.79229132 148.7499026
0.0002636413374 -17.82778093 -131.2630064
-29.47868036 -2.498441893e-05 -114.6252374
-138.1318704 -2.498441893e-05 -38.93835539
2.276597641 -56.25936643 -139.2500974
-116.7335144 -2.498441893e-05 -120.5613274
-184.6320934 -2.498441893e-05 -96.98250139
-126.4277654 -10.16321227 148.7499026
-13.20523636 -34.97030016 148.7499026
-202.1085564 -2.498441893e-05 -38.01307139
-2.483693359 1.407593166 -145.2500974
-96.22364336 -2.498441893e-05 -40.93156639
-129.6934424 -2.498441893e-05 -89.93616239
-245.2180514 -53.26092362 -145.2500974
-198.9866104 -11.56867328 148.7499026
-6.526368359 -2.498441893e-05 -104.6742864
0.0002636413374 -1.658274104 86.71736861
-119.3050604 -33.020918 -145.2500974
-215.1392774 -32.37852195 -139.2500974
-178.1092784 -66.18162808 -139.2500974
-13.18870736 -2.498441893e-05 139.2895816
-194.4113304 -56.8365879 -145.2500974
-241.3903374 -2.498441893e-05 113.7116826
-63.56545236 -37.23676657 148.7499026
-193.3152684 -2.498441893e-05 100.7477226
-1.315814359 -91.78366688 148.7499026
-68.25654736 -2.498441893e-05 95.01582061
0.0002636413374 -78.36158842 130.4999076
-82.91346336 -48.18880017 148.7499026
-219.2834494 -2.498441893e-05 30.63107761
-74.82112236 1.883971086 -139.2500974
-117.7669504 -55.95572976 -145.2500974
-68.21062836 -19.744118 -139.2500974
-141.5394494 -2.498441893e-05 -102.8302834
-249.0436414 -2.498441893e-05 -79.34332139
-168.1487044 -2.498441893e-05 11.17002561
-213.9285234 -2.498441893e-05 112.4860926
0.0002636413374 -4.902372934 98.57181761
-21.00554836 -2.498441893e-05 -11.22412239
-234.7822564 -68.00002402 153.7477046
-237.0601954 -66.36346782 -139.2500974
-130.7264184 -18.21299448 -139.2500974
-176.0005614 -37.95195669 148.7499026
-13.73335536 -109.6026802 148.7499026
-185.5846724 -2.498441893e-05 -83.76794739
-211.7488684 -2.498441893e-05 -93.81374639
-74.32368036 -2.498441893e-05 -51.30303039
-175.6966294 -22.68343394 148.7499026
-2.263407359 -2.498441893e-05 -30.77524939
-185.9041524 -2.498441893e-05 -32.69863739
-151.1615214 -2.498441893e-05 -132.2170614
-169.9155434 -2.498441893e-05 -111.9370834
-133.3459034 -38.3033982 -139.2500974
0.1616456413 -73.57427667 -4.464376386
-114.9108714 -10.14479256 148.7499026
-82.60055036 -123.398541 150.2799196
-172.8786064 -2.498441893e-05 -98.93718739
-177.1358564 -2.498441893e-05 116.8943186
-242.1319384 -19.9119949 -139.2500974
-31.91670336 -2.498441893e-05 148.1322636
-225.0717654 -2.498441893e-05 100.5701996
-22.07818436 -2.498441893e-05 102.3287636
1.656636641 -2.498441893e-05 -2.652077386
-130.9987594 1.248194526 129.3935606
-199.0590674 -2.498441893e-05 37.84462961
-231.1097244 -1.724416074 -145.2500974
-87.55894036 -2.498441893e-05 -2.522475386
-109.8950404 -2.498441893e-05 95.72624761
-172.0192494 -19.9461527 -139.2500974
0.0002636413374 -62.13829618 46.65665861
-153.1295604 -8.718124114 -145.2500974
-27.02907136 -2.498441893e-05 136.5334146
-113.7570904 -2.498441893e-05 144.1003106
-212.3998934 -2.498441893e-05 -108.3195944
0.0002636413374 -38.66293014 -53.37108239
0.0002636413374 -28.87832368 -83.19412239
0.0002636413374 -30.11294542 -130.7310054
-241.5770504 -24.54815351 148.7499026
-96.91923536 -54.41081444 148.7499026
-35.86493536 -2.498441893e-05 -102.6922344
-7.878696359 -69.94907725 148.7499026
-238.0305054 -2.498441893e-05 -2.431640386
0.0002636413374 -48.31083374 -47.77301939
-78.53994036 -2.498441893e-05 8.309471614
-12.61396536 -2.498441893e-05 69.20533361
-124.9560244 -2.498441893e-05 33.24472461
-80.89070936 -2.498441893e-05 -86.20410939
-49.68582136 -2.498441893e-05 -22.53203939
-163.8868514 -2.498441893e-05 37.46475061
-129.7886294 -2.498441893e-05 86.12689561
-230.3026384 -41.3138562 -145.2500974
-86.83833836 -104.6915325 148.7499026
-184.4134124 -2.498441893e-05 -6.122876386
-232.4911854 -2.498441893e-05 -96.78937339
-20.05502236 -14.60619784 -139.2500974
-146.6235504 -10.19890746 148.7499026
-38.33558936 -2.498441893e-05 116.2724346
-137.2217004 -50.94858029 148.7499026
-143.7763854 -2.498441893e-05 -51.71693539
-108.7919554 -27.62752444 148.7499026
-9.357756359 -2.498441893e-05 21.87616361
-124.4450774 -56.34106085 148.7499026
-130.8430924 -20.79178808 148.7499026
0.0002636413374 -11.99276104 66.46400561
-90.82660836 -71.96232972 148.7499026
-29.37950736 -42.13564658 -145.2500974
0.5289286413 -99.8379154 84.04462361
0.0002636413374 -27.78615932 -43.15053639
-171.4215244 -42.8847674 -145.2500974
-12.83995936 -58.62371153 -139.2500974
-13.79030436 -2.498441893e-05 117.3652366
-51.28463036 -2.498441893e-05 20.79232461
-48.22914136 -40.64664972 -139.2500974
0.0002636413374 -6.800015824 -120.5486064
-199.6139894 -45.83316775 148.7499026
-26.74065836 -2.498441893e-05 -69.59782739
-67.38406136 -105.1055193 148.7499026
-150.9009354 -2.498441893e-05 5.063168614
-46.96405836 -2.498441893e-05 90.37225861
-33.20134536 -2.498441893e-05 -42.69381639
-170.3105964 -2.498441893e-05 138.9288496
-0.7103783587 -53.51766956 148.7499026
-180.2921524 -2.498441893e-05 85.05505861
0.0002636413374 -29.53132679 59.45100461
0.0002636413374 -20.58951305 -8.141098386
-191.4739974 -22.60914183 -145.2500974
-141.1822434 -68.00002402 -140.5116104
-243.8585874 -2.498441893e-05 65.91843361
-210.1334704 -2.498441893e-05 135.2659556
0.0002636413374 -15.27919285 9.303549614
-221.9186034 -2.498441893e-05 -55.65714739
-19.89535436 -2.498441893e-05 79.28820361
-19.36866036 -2.498441893e-05 92.16533661
-135.1554984 -2.498441893e-05 -78.87572639
-220.3098924 -66.81732861 -139.2500974
-108.6355124 -11.02245508 -139.2500974
-156.2885614 -2.498441893e-05 102.6314606
-46.93084136 -2.498441893e-05 -37.59681139
-188.5277884 -9.340819324 148.7499026
0.0002636413374 -82.91392762 106.8979736
-224.8595184 -2.498441893e-05 48.54398061
-141.4474694 -2.498441893e-05 22.88338961
-65.40828936 -31.40862954 -139.2500974
-251.7075234 -2.498441893e-05 85.22077861
-63.80609136 -131.8989987 148.7499026
-176.7210524 -49.98181891 -139.2500974
0.0002636413374 -42.45924193 -108.1041234
-195.7966534 -2.498441893e-05 -81.27740639
0.0002636413374 -40.42141308 41.54968761
-194.4775664 -33.42687257 148.7499026
-178.5044304 -49.65277035 148.7499026
-178.8201084 -2.498441893e-05 -24.06992939
-17.86337636 -78.34331648 148.7499026
-47.97735936 -2.498441893e-05 131.7996766
0.0002636413374 -11.85504145 111.2880986
-13.84782236 -2.498441893e-05 12.30862161
-142.9170964 -2.498441893e-05 71.41074361
-122.9114204 -1.038454714 -139.2500974
-48.11464736 -24.85128703 -139.2500974
-85.06475936 -63.60627384 -139.2500974
-76.11083436 -2.498441893e-05 124.0942496
-26.61846036 -2.498441893e-05 52.46133861
-175.1316434 -2.498441893e-05 53.05651861
0.0002636413374 -8.533721934 76.69416961
-143.7430314 -2.498441893e-05 -89.15589139
-246.4598914 -5.671611244 -145.2500974
-144.9958704 -58.59649274 148.7499026
-223.5748504 -2.498441893e-05 -1.406349386
-206.5244024 -23.62780404 148.7499026
-205.0438104 -2.498441893e-05 123.9020426
-8.101910359 -2.498441893e-05 -64.45205739
-95.34494636 -27.09812555 148.7499026
-24.50925036 -2.498441893e-05 32.51756561
-31.45109636 -92.38409277 148.7499026
-197.1387874 -41.69247719 -145.2500974
-240.3610834 -2.498441893e-05 12.56153161
-15.78437936 -2.498441893e-05 -135.3717564
-99.31195636 -19.57473882 -145.2500974
-121.1666624 -2.498441893e-05 21.33327561
-130.9987594 1.700510256 2.060595614
0.0002636413374 -55.59628189 115.7274336
0.0002636413374 -35.9960403 68.73340761
-0.7248123587 -12.94061583 148.7499026
-225.9087824 -28.11992064 -145.2500974
-122.7846474 -25.74551668 -139.2500974
-186.0807804 -46.67058993 -145.2500974
-183.7153514 -32.31367015 -145.2500974
-47.63438736 -2.498441893e-05 120.0839476
-95.88113936 -2.498441893e-05 17.44866461
-66.55543036 -2.498441893e-05 -37.74119839
-81.52167236 -7.667814574 -139.2500974
-40.76560136 -2.498441893e-05 -13.78463839
-191.9418564 -2.498441893e-05 -62.16043139
-61.79460136 -9.706370084 -139.2500974
-127.9509364 -32.8651328 148.7499026
-43.75766336 -12.09482282 148.7499026
2.022776641 -52.29997969 -118.6482854
-209.8323824 -52.96069884 -145.2500974
-8.321779359 0.2916310956 148.7499026
0.0002636413374 -46.79694018 -71.50860739
0.0002636413374 -54.28207031 59.20206561
-185.1953774 -2.498441893e-05 33.91216161
-88.85828736 -2.498441893e-05 -95.12674339
-138.3850944 -70.44359369 148.7499026
-161.1123314 -2.498441893e-05 -131.1631304
-31.10172336 -64.71122265 -139.2500974
-164.9463584 -2.498441893e-05 97.83293661
-233.8636444 -2.498441893e-05 122.4406966
-46.72693336 -63.22637076 -139.2500974
-248.7488264 0.1889588356 148.7499026
-28.86457436 -2.498441893e-05 -17.17356739
-78.16709636 -7.195472224 148.7499026
-77.42158236 -2.498441893e-05 101.0228076
-64.22267336 -2.498441893e-05 130.5636976
-71.29182436 -2.498441893e-05 -118.0762404
-92.13520436 -2.498441893e-05 81.21327861
-108.6790854 -2.498441893e-05 2.339430614
0.0002636413374 -48.48861026 25.40159061
-106.5249274 -2.498441893e-05 -13.01894839
-79.54072836 -47.34662464 -145.2500974
-132.6492944 -55.78576456 -139.2500974
-28.95804036 -54.4766464 -145.2500974
-74.81026936 -2.498441893e-05 34.64082061
0.0002636413374 1.443921876 75.38541461
-225.1670894 -49.81119608 -139.2500974
-39.30911736 -45.29219082 148.7499026
-148.8638924 -2.498441893e-05 -68.92660139
-153.4344874 -2.498441893e-05 -7.310210386
-234.2433854 -2.498441893e-05 -76.49292039
0.0002636413374 -116.3486831 138.3960366
-222.2480274 -2.498441893e-05 -23.98781239
-132.0888814 -45.81781443 -145.2500974
-86.44114236 -2.498441893e-05 -104.5140634
0.0002636413374 -36.96414132 -7.857149386
-220.4888924 -2.498441893e-05 16.49525461
-31.49036536 -32.69768312 -145.2500974
-161.5886194 -2.498441893e-05 -36.89426839
-204.7443424 -54.33985991 148.7499026
-53.20740436 -81.62683829 148.7499026
0.0002636413374 -15.42441328 43.75156561
-220.4225604 -2.498441893e-05 133.0218016
-221.4938134 -2.498441893e-05 91.15573861
-174.7541554 -68.00002402 153.1528756
0.0002636413374 -68.92818826 15.26591361
0.0002636413374 -44.85153493 105.7205256
-248.1604044 -2.498441893e-05 -25.62118839
0.0002636413374 -27.83562239 41.35248061
-129.8535344 -2.498441893e-05 -63.93624839
-193.6116064 -2.498441893e-05 58.98263561
-70.49177436 -2.498441893e-05 -27.88657639
0.0002636413374 -50.97802065 -129.5442414
-101.8094354 -65.94618972 -139.2500974
-151.9374074 -28.31049767 -139.2500974
-48.70999436 -2.498441893e-05 40.68861661
0.0002636413374 -83.43635341 138.7013636
0.0002636413374 -16.67587745 -99.83824539
-141.5119334 -2.498441893e-05 -112.3063584
-160.7198054 -2.498441893e-05 -80.48782039
-95.42169636 -45.05646736 148.7499026
-46.70630136 -33.4839674 -145.2500974
-110.8695304 -2.498441893e-05 121.8327826
-96.45803336 -38.32775609 -139.2500974
-67.73797436 -64.59224526 -139.2500974
-214.4657704 -58.07118855 148.7499026
-26.41441636 -2.498441893e-05 -91.43681039
0.0002636413374 -51.08855287 -6.734483386
-17.54929336 -2.498441893e-05 -84.67340539
-26.33093836 -125.4303274 148.7499026
0.0002636413374 -4.696300814 56.85127661
-178.8015314 -2.498441893e-05 -61.98911139
0.0002636413374 -24.14713458 -64.93913739
-105.2697084 -2.498441893e-05 -36.13033539
-119.9718034 -2.498441893e-05 110.9644376
0.0002636413374 -38.04409834 141.5119976
0.0002636413374 -60.79904709 84.35576161
0.0002636413374 -61.70651721 -21.02353039
-25.65299436 -32.09157176 148.7499026
-58.97475136 -2.498441893e-05 36.68636261
-138.1669894 -19.62897239 -145.2500974
-237.4577514 -2.498441893e-05 139.2474176
-111.7674504 -48.74937131 -145.2500974
0.0002636413374 -23.5836085 134.5411926
-224.7752464 -2.498441893e-05 -39.10941439
-71.19916836 -82.62612921 148.7499026
-59.17574836 -0.6369997944 148.7499026
-19.17292236 -18.75958415 148.7499026
-184.5463054 -2.498441893e-05 -130.4002044
-119.2272324 -2.498441893e-05 -55.75528039
-7.085273359 -2.498441893e-05 132.2437366
-48.65169436 -2.498441893e-05 -90.70890939
0.0002636413374 -58.46351263 -58.23811739
-18.95538736 -2.498441893e-05 -111.2203854
-4.027240359 -2.498441893e-05 117.6380006
-96.17274936 -2.498441893e-05 68.46166561
-87.37800036 -2.498441893e-05 25.93165961
-146.3455784 -15.86055343 -139.2500974
-232.6799594 -22.29944778 -139.2500974
-87.65665136 -2.498441893e-05 6.882052614
-249.7203584 -2.498441893e-05 10.07690161
-73.41451336 -48.54738764 148.7499026
0.0002636413374 -63.83002429 -36.52381139
-35.11757736 -2.498441893e-05 -52.50708339
-247.3474974 -59.88046375 -139.2500974
-102.6405994 -2.498441893e-05 -23.71537739
0.0002636413374 -9.922964894 -24.04330839
-77.90529736 -2.498441893e-05 22.81071961
-90.93830936 -13.31363206 -145.2500974
-105.3961274 -2.498441893e-05 -105.9798824
-198.6672704 -2.498441893e-05 74.70800261
-56.26251036 -2.498441893e-05 104.7286146
-67.69005336 -2.498441893e-05 -57.60786639
-75.46559536 -55.11925903 -139.2500974
-184.9594164 -2.498441893e-05 93.80203461
0.0002636413374 -74.96976678 55.58214161
-155.6879724 -50.78797001 -139.2500974
-193.0555924 -2.498441893e-05 121.6118906
-247.1976564 -2.498441893e-05 -60.83166839
-223.9258654 -6.972297354 -139.2500974
-93.49402736 0.6817769156 148.7499026
-242.4101854 -41.13137192 -145.2500974
-226.2137784 -2.498441893e-05 -107.2617964
0.0002636413374 -6.582666724 -75.61928939
-3.113997359 -2.498441893e-05 -88.06704339
0.0002636413374 -32.40368944 -101.5037844
-203.3967734 -2.498441893e-05 18.44182061
-190.0830454 -2.498441893e-05 -45.46754739
-169.2006604 -2.498441893e-05 -8.792103386
-203.7620664 -2.498441893e-05 100.2277136
0.0002636413374 -92.52009904 111.8694396
-38.51743636 -112.6344894 148.7499026
-101.3918074 -2.498441893e-05 111.2288156
-0.6168023587 -131.6810829 154.3823696
-189.7429184 -2.498441893e-05 -108.9436634
0.0002636413374 -75.77002289 82.79026561
-120.8237124 -2.498441893e-05 -97.24143439
-87.62886336 -2.498441893e-05 45.44189761
-95.12023336 -2.498441893e-05 126.7142286
-5.198248359 -2.498441893e-05 -117.6770474
-57.15855436 -2.498441893e-05 3.240358614
-91.43953136 -2.498441893e-05 -63.04742339
-57.90041536 -2.498441893e-05 -41.00043739
-167.3926054 -28.12917173 -139.2500974
-148.0360634 -2.498441893e-05 98.08382161
-93.35096436 -54.43785548 -139.2500974
-42.08368936 -22.17104422 -145.2500974
-60.69382336 -54.34443949 -145.2500974
0.0002636413374 -73.23016511 139.2032736
-123.6608994 -19.20924358 -145.2500974
-22.26335236 -25.29954933 -145.2500974
-167.1159114 -16.99193661 148.7499026
-104.0381144 -2.498441893e-05 -50.44879339
0.5805206413 -106.6020397 102.8005276
-44.69054736 -7.757606844 -145.2500974
-19.81034236 -2.498441893e-05 -63.26965539
0.0002636413374 -63.47325923 133.9749366
-66.82165836 -90.70223929 148.7499026
0.0002636413374 -62.8424522 110.5496576
-217.5573364 -13.43273813 -139.2500974
-14.19252736 -2.498441893e-05 -18.88047539
-54.83287136 -2.498441893e-05 86.27506761
-175.2963474 -25.59611403 -145.2500974
0.0002636413374 -36.49644692 122.4713596
-211.7112744 -2.498441893e-05 -70.72301439
0.0002636413374 -41.34257897 -64.22775739
-69.44460236 -2.498441893e-05 -67.74167539
-54.04297836 -2.498441893e-05 -57.46134939
-230.7707984 -9.472898764 148.7499026
-50.77263936 -2.498441893e-05 57.53410061
0.0002636413374 -32.43172198 19.41877861
-127.4254024 -2.498441893e-05 10.92234261
-167.0754634 2.335263086 -145.2500974
-125.8855574 -2.498441893e-05 103.9877226
-251.6090904 -35.22978631 -139.2500974
-125.8468164 -68.00002402 -141.3943444
-38.81995536 -58.0081956 148.7499026
-184.2966244 -3.490676454 -145.2500974
-117.6906044 -2.498441893e-05 77.36528261
-119.1507304 -2.498441893e-05 52.09687361
-57.63058636 -1.971670214 -139.2500974
-23.06025236 -2.498441893e-05 -48.67773039
0.0002636413374 -105.1336021 138.2928406
-9.548162359 -26.33607126 -145.2500974
-190.8701054 -2.498441893e-05 -136.7107304
-24.76557736 -2.498441893e-05 9.048122614
0.0002636413374 -2.837211034 11.08198361
0.0002636413374 -50.20309622 -100.0668834
0.0002636413374 -25.48254537 143.3694406
-147.4160424 -43.72761819 -139.2500974
-157.6054464 -58.05924202 -145.2500974
-237.6371734 -2.498441893e-05 -130.4809344
-172.5443134 -2.498441893e-05 30.07781061
-212.5484844 -2.498441893e-05 76.85898861
-81.34890636 -2.498441893e-05 -20.82442239
-8.076919359 -41.36880907 -139.2500974
-178.7511734 -4.053193104 148.7499026
-124.0037854 -81.99519062 151.7506986
-113.8252054 -26.83275421 -139.2500974
-236.7442004 -2.498441893e-05 -116.5579634
-53.39218636 -32.76657945 148.7499026
-25.26949036 -41.91949543 154.3891606
0.0002636413374 -82.45637994 96.61684861
-208.9437774 -2.498441893e-05 -57.36184739
-42.80773936 -77.27917714 148.7499026
-123.3577264 -2.498441893e-05 -5.313655386
0.0002636413374 -42.21516687 52.44693661
-55.91391236 -61.51023759 -139.2500974
-207.7787754 -6.002777774 148.7499026
0.0002636413374 -19.88672797 -87.72064039
-231.9765014 -43.77736419 148.7499026
2.451283641 -70.74229827 148.7499026
-135.4875464 -2.498441893e-05 -130.8144724
0.0002636413374 -35.81547779 78.30048061
0.0002636413374 -66.39968894 77.76257461
-213.7947204 -68.00002402 151.1126046
-136.9013824 -2.498441893e-05 39.76311061
-101.2526754 -2.498441893e-05 -81.53134739
-67.23201236 -12.89386206 -145.2500974
-91.55517436 -33.77408035 -145.2500974
-230.4638464 -54.4722654 -145.2500974
-69.57501536 -68.01277609 148.7499026
-205.0924024 -2.498441893e-05 27.16331661
0.0002636413374 -113.5293152 123.1298576
1.934522641 -2.498441893e-05 -101.3717504
0.0002636413374 -36.44559706 -118.7880534
0.0002636413374 -92.88022838 139.2860966
-171.3351184 -13.80937237 -145.2500974
-199.5923524 -68.00002402 153.1470266
-102.8860524 -60.6098203 148.7499026
-4.210988359 -59.89414045 -145.2500974
0.0002636413374 -85.73017262 117.7536636
-102.4003074 -2.498441893e-05 61.27882261
-89.28055936 -2.498441893e-05 -138.0820534
-34.71506436 -27.59702703 148.7499026
-240.0059664 -2.498441893e-05 -45.13736439
-109.1631224 -2.498441893e-05 74.67183661
-94.75534436 -2.498441893e-05 38.64051561
-244.0219504 -2.498441893e-05 40.40668061
-122.6849194 -2.498441893e-05 -47.31341639
0.0002636413374 -36.17339914 11.75242061
-14.62713236 -50.28876561 -139.2500974
-174.4500374 -8.409089064 -139.2500974
-149.7143664 -2.498441893e-05 24.92467461
-251.4014084 -2.498441893e-05 27.10580961
-8.403849359 -49.88912256 148.7499026
-101.2871934 -88.17187415 148.7499026
-141.4356464 -53.94529545 -139.2500974
-125.6630644 -34.71553393 -139.2500974
0.0002636413374 -22.68891304 126.1113656
-26.13781836 -13.92899819 148.7499026
-9.088883359 -2.498441893e-05 -76.86522139
0.0002636413374 -87.51249808 72.13964361
-118.0051224 -71.9245972 148.7499026
-167.1370624 -2.498441893e-05 89.65663761
-207.4056444 -6.351992874 -139.2500974
0.0002636413374 -8.579442224 -35.07539539
0.0002636413374 -91.46295571 82.98081961
-205.2357284 -2.498441893e-05 -131.2040894
-41.79545636 -20.52585854 148.7499026
-134.1900904 -2.498441893e-05 -16.42921539
-17.40286236 -2.498441893e-05 25.78211161
-101.1528764 -2.498441893e-05 138.0510136
-20.10205936 -2.498441893e-05 45.03980161
-199.3685514 -63.87033635 -139.2500974
-217.7726424 -8.776615254 148.7499026
0.0002636413374 -74.16008259 98.10502061
0.0002636413374 -51.8930108 124.9171556
-225.0400654 -18.55096241 -139.2500974
-158.1909934 -2.498441893e-05 9.259765614
0.0002636413374 -16.74351208 -60.95541339
-48.79387636 -128.5406416 148.7499026
-149.9071684 -2.498441893e-05 -102.1922294
-105.2759964 -2.498441893e-05 128.0853166
-23.16091236 -1.425077314 -145.2500974
0.0002636413374 -100.6502608 128.3903896
0.0002636413374 -85.28825297 40.09040861
-58.56547536 -2.498441893e-05 -9.233611386
-235.7811364 -39.30732531 -139.2500974
-36.45458736 -58.29043753 -139.2500974
-144.4782674 -61.96091923 -145.2500974
-103.6476814 -2.498441893e-05 -63.55067939
-93.99604336 -2.498441893e-05 116.7166826
-35.86269736 -2.498441893e-05 124.2293016
-131.1796854 -2.498441893e-05 -34.35211239
-70.15311236 -17.32817487 148.7499026
-162.9068354 -0.7500249844 151.1320236
-154.8881564 -27.50298842 148.7499026
-2.974423359 -2.498441893e-05 -137.0663084
-185.5679254 -11.68721275 -139.2500974
-231.4508274 -52.38878022 148.7499026
0.0002636413374 -105.8759451 118.7573946
-15.32894036 -64.54214416 -145.2500974
-207.3117534 -2.498441893e-05 37.09739461
-153.2757174 -2.498441893e-05 -46.92383139
-37.20019936 -2.498441893e-05 78.01390061
-148.4501384 -2.498441893e-05 -28.10145739
0.0002636413374 -54.08876526 -39.71640039
-61.06828236 -60.24219813 148.7499026
-6.233608359 -17.77929327 -139.2500974
-180.0052404 -2.498441893e-05 -45.05286139
-140.9700544 -34.16346066 -139.2500974
0.1642676413 -80.6943461 22.64809161
-61.71958636 -2.498441893e-05 -120.2421044
-15.08214036 -2.498441893e-05 -99.73127139
-175.9438344 -2.498441893e-05 126.5800456
-161.6179874 -57.31762077 148.7499026
-107.1947144 -34.51203139 -145.2500974
0.0002636413374 -20.65475089 50.91711061
-165.2208774 -2.498441893e-05 -102.1428514
-148.4261014 -2.498441893e-05 89.02922461
-31.92288936 -102.0661335 148.7499026
-251.6710014 -60.176615 148.7499026
-89.58107936 -60.31312678 -145.2500974
-184.6645754 -2.498441893e-05 -18.32364139
-99.53318536 -60.74858199 -145.2500974
-170.9032354 -51.06309365 -145.2500974
-131.8222324 -2.498441893e-05 142.9041226
-104.1633624 -44.11920979 -145.2500974
-75.14573536 -2.498441893e-05 -13.57445839
-202.7919964 -25.79365588 -145.2500974
-158.9937094 -2.498441893e-05 114.1032976
-200.4048114 -2.498441893e-05 65.18646761
-230.0445104 -2.498441893e-05 30.66627861
0.0002636413374 -31.36326472 115.6643986
-31.20993136 -2.498441893e-05 -126.3647534
-226.0116244 -37.81142003 -139.2500974
0.0002636413374 -22.82743689 81.09681761
-178.5568584 -2.498441893e-05 73.10679461
-58.07267236 -2.498441893e-05 27.21114261
-201.3428094 -2.498441893e-05 -123.5682434
-7.904716359 -2.498441893e-05 39.23140161
-241.3717354 -33.26175175 148.7499026
-55.71515136 -14.60569874 148.7499026
-152.3676324 -46.42598667 -145.2500974
-210.2344214 -2.498441893e-05 -37.91830139
0.0002636413374 -75.45200452 3.634631614
-58.46151236 -90.0475494 148.7499026
-143.1980244 -2.498441893e-05 -12.75649539
-224.6352124 -2.498441893e-05 -127.2406564
-109.7091074 -16.44630169 148.7499026
-13.62995736 -32.95377761 -139.2500974
2.322076641 -33.6150406 -145.2500974
-124.2785374 -11.11852721 -145.2500974
0.0002636413374 -68.62999781 68.66912761
-162.9597144 -58.46687701 -139.2500974
-90.33734836 -2.498441893e-05 -115.8146994
-66.22523936 -38.63843361 -145.2500974
-233.7877304 -2.498441893e-05 -11.34430239
-10.42514036 -8.189787454 -139.2500974
-80.17012736 -57.64132416 -145.2500974
-143.0953694 -29.11748333 148.7499026
-142.1558594 -44.63037124 148.7499026
-49.15132636 -2.498441893e-05 142.9570136
-211.8572654 -2.498441893e-05 61.44502561
-43.99901136 -55.60497779 -139.2500974
0.0002636413374 -31.78782027 -23.55730739
-220.1329204 -2.498441893e-05 107.4364556
-0.05258035866 -47.83970715 -145.2500974
-217.2819784 -50.05006156 -145.2500974
-133.1578474 -2.498441893e-05 117.3927886
-41.85164336 -2.498441893e-05 7.479518614
-114.7748854 -61.08575368 -139.2500974
-189.6948134 -50.49347844 -139.2500974
0.0002636413374 -52.60077853 67.00195761
-50.32330036 -2.498441893e-05 -120.3085074
-39.73507136 -2.498441893e-05 -109.6523944
-69.19080136 -2.498441893e-05 73.54320261
-136.7854674 -2.498441893e-05 -120.0081584
-190.5168274 -17.70536594 148.7499026
-185.3902374 -61.02679131 148.7499026
-47.96894936 -2.498441893e-05 -76.28654939
-87.13854136 -2.498441893e-05 101.9255036
-215.3970924 -2.498441893e-05 -6.072230386
-211.7414594 -2.498441893e-05 87.15681261
0.0002636413374 -15.2747616 -116.3698764
-45.70025936 -2.498441893e-05 15.11919861
-213.0538194 -2.498441893e-05 50.86333061
-32.82287536 -2.498441893e-05 -61.76466839
-139.1834714 0.8005565856 -145.2500974
-66.10260036 -2.498441893e-05 -137.9390874
-113.0976304 -88.65105232 148.7499026
-84.13981036 -2.498441893e-05 -34.74527439
-115.2885864 -41.73208667 -145.2500974
-120.8630634 -2.498441893e-05 87.50663561
-225.7781024 -2.498441893e-05 -73.31158839
-220.5212404 -16.74150704 148.7499026
-62.78225036 -2.498441893e-05 88.32820961
-16.78099836 -18.41844993 -145.2500974
-47.50647936 -2.498441893e-05 -129.5125054
-138.6465784 -11.80867654 -139.2500974
-29.40012636 -47.15637924 150.3160166
-140.1213494 -49.12009487 -145.2500974
0.0002636413374 1.335612946 -71.92955839
-62.74660936 -2.498441893e-05 65.16391361
-142.6482314 -2.498441893e-05 -76.70816039
-242.5792534 -68.00002402 153.8568256
-45.25373436 -2.498441893e-05 102.7262916
-76.36303536 -40.10217884 -145.2500974
-14.74745036 -2.498441893e-05 -36.13500539
-108.5584864 -36.72527436 148.7499026
-101.9299544 -2.498441893e-05 -94.05600639
-52.15947036 -16.78544473 -139.2500974
0.0002636413374 -76.11333771 39.36109061
0.0002636413374 -85.35620477 127.1285926
-94.47658636 -106.0582091 148.7499026
-76.12990036 -119.4006286 148.7499026
-113.5072934 -2.498441893e-05 8.405474614
-113.1844124 -9.211938204 -145.2500974
-217.4550434 -2.832993664 -145.2500974
-60.03039536 2.290640936 -145.2500974
-119.6454554 -2.498441893e-05 40.25809061
-174.1086744 -2.498441893e-05 -2.824778386
0.0002636413374 -44.40541579 74.86460361
0.0002636413374 -58.99750496 2.842151614
-186.6033964 -2.498441893e-05 132.7724346
-34.43240536 -18.68490676 -145.2500974
-7.101337359 -2.498441893e-05 49.41974161
-19.93252336 -58.32053575 148.7499026
-171.0871554 -2.498441893e-05 -20.41970039
-53.60422736 -2.498441893e-05 46.63591161
-99.64999436 -8.479130074 148.7499026
-235.9167294 -9.203025374 -145.2500974
-214.5637544 -20.81899593 -139.2500974
-159.9848784 -20.28385253 148.7499026
-239.3093144 -2.498441893e-05 50.24339861
-202.0329044 -55.92534163 -145.2500974
-176.3679674 -4.028006644 -145.2500974
-131.2705374 -2.498441893e-05 50.30428861
-121.8236694 -28.26738466 148.7499026
-157.2832904 -6.397542214 -139.2500974
0.0002636413374 -7.563608774 34.06528261
-244.9692844 -26.99849948 -139.2500974
-146.8192654 -2.498441893e-05 43.52725561
-57.59042636 -44.74485685 -139.2500974
-137.4856984 -2.498441893e-05 103.3563456
-90.73179036 -2.498441893e-05 89.75170961
-227.6037814 -2.498441893e-05 13.76355061
-214.7740514 -2.498441893e-05 141.3063936
-76.76329436 -2.498441893e-05 42.00327761
-100.7748534 -2.498441893e-05 84.12639161
-187.1550704 -2.498441893e-05 21.86094061
-49.51991936 -2.498441893e-05 -137.8944244
-99.48348336 -49.94117139 -139.2500974
-121.1653534 -2.498441893e-05 -13.61483439
-71.64692636 -2.498441893e-05 -98.59768039
-42.00727736 -2.498441893e-05 139.8672156
-78.41875736 -64.19290737 148.7499026
0.0002636413374 -66.35600586 24.41056161
-129.8774214 -4.035399734 -139.2500974
-60.10804036 -123.4340975 148.7499026
-126.8352304 -2.498441893e-05 -56.98156439
-178.4569294 -2.498441893e-05 -125.6192744
-92.73849436 -19.67583541 148.7499026
-113.5618254 -2.498441893e-05 62.83949361
-81.84213336 -94.80407666 148.7499026
-125.7000624 -69.96521272 148.7499026
-228.5052784 -12.62906358 -145.2500974
0.0002636413374 -16.36510744 131.5172996
-177.4876524 -2.498441893e-05 65.27908661
-25.76016536 -4.442637454 148.7499026
0.0002636413374 -10.40128227 92.34738861
-124.3436474 -59.61016739 -145.2500974
-76.94949936 -2.498441893e-05 146.9279726
-62.43298536 -112.4834649 148.7499026
-187.8143424 -2.498441893e-05 53.21440161
-247.0073234 -2.498441893e-05 -106.0290704
-65.98451136 -2.498441893e-05 -48.13087139
0.0002636413374 -70.85683504 122.8508826
-189.7470654 -50.36493395 148.7499026
-243.7202044 -68.00002402 -142.3072474
0.0002636413374 -28.58113823 94.86046561
-185.4572914 -2.498441893e-05 -65.94132439
-201.5234434 -2.498441893e-05 0.401476614
-147.1413424 -2.498441893e-05 150.5835616
-228.9168734 -2.498441893e-05 -66.49980339
-87.85533036 -2.498441893e-05 -83.43694239
-155.3796734 -2.498441893e-05 142.0976986
0.3380056413 -2.498441893e-05 -38.45474239
-77.97774036 -2.498441893e-05 -27.90035439
-244.6738794 -2.498441893e-05 -5.875585386
-137.8565524 -56.62054045 -145.2500974
0.0002636413374 -22.82701805 -28.04165439
-179.4858494 -43.03457959 -139.2500974
-111.5192774 -18.58730671 -139.2500974
-218.3105684 -2.498441893e-05 -77.69205739
-107.6127484 -47.14123228 -139.2500974
-50.72305036 -96.92265173 150.2532006
0.0002636413374 -5.097907914 106.1893526
2.252316641 -2.498441893e-05 -12.44616439
-30.50153336 -2.498441893e-05 28.08219661
-199.1780554 2.291557046 -145.2500974
-26.70036836 -58.27341017 -139.2500974
-219.7943854 -2.498441893e-05 -44.64461939
-135.5794834 0.7664415256 151.0043916
-38.12285536 -34.21530749 148.7499026
-129.7934414 -50.85625641 148.7499026
-162.0452734 -2.498441893e-05 -112.2485044
-177.5196254 -18.13880103 -145.2500974
-210.1533974 -16.50464834 -145.2500974
1.089590641 -29.43123141 -139.2500974
-51.29325836 -51.17451846 148.7499026
-44.95968236 -2.498441893e-05 -84.28073439
-190.8507444 -31.86763784 -139.2500974
-34.37305636 -2.498441893e-05 -35.37706939
0.0002636413374 -22.22793944 64.53844961
-240.3588024 -2.498441893e-05 59.39964061
-157.8739394 -2.498441893e-05 -63.23396239
-109.1055634 -59.37479884 -145.2500974
-87.73099336 -46.70556594 -139.2500974
0.0002636413374 -42.12788995 90.22173761
-248.4034444 -2.498441893e-05 132.4969866
-95.89908836 -2.498441893e-05 -50.19470039
0.0002636413374 -2.200430634 -49.68886439
-105.1616664 -13.4952197 -145.2500974
-49.26800736 -68.00002402 -144.2389404
-149.5687964 -36.60884257 -139.2500974
-203.7425004 -2.498441893e-05 -19.72580339
-34.37926436 -119.5898861 148.7499026
-154.3060984 -23.10905041 -145.2500974
0.08074664134 -117.3598786 130.6143466
-222.2165674 -2.498441893e-05 23.82787361
-82.34178436 -2.498441893e-05 -70.52532339
0.0002636413374 -23.64494688 3.689500614
-168.6694304 -2.498441893e-05 -68.28428739
-197.1962624 -2.498441893e-05 -56.68504739
0.0002636413374 -44.99729121 127.3815066
-116.6044414 -22.85366777 -145.2500974
-36.19765436 -2.498441893e-05 -78.08562039
-224.4441034 -60.41444027 -139.2500974
-24.88306736 -66.96475033 -145.2500974
-39.73644736 -13.67574048 -145.2500974
