# .PCD v0.7 - Point Cloud Data file format
VERSION 0.7
FIELDS x y z
SIZE 4 4 4
TYPE F F F
COUNT 1 1 1
WIDTH 1211
HEIGHT 1
VIEWPOINT 0 0 0 1 0 0 0
POINTS 1211
DATA ascii
-51.99973636 -1.428939996 -231.8477554
48.06350764 -97.88197269 -70.47391639
4.477998641 -2.498586707e-05 -137.4900584
-48.71633536 -26.59062906 -1.500097386
-41.94722436 -2.498586707e-05 -218.6154314
48.00026364 -31.04207683 -216.1052794
-47.99973636 -48.9260527 -85.86693339
30.14835564 -2.498586707e-05 -234.2857434
51.29990164 -103.9969646 -1.500097386
58.09370664 -2.498586707e-05 -154.2661534
-21.64205736 -2.498586707e-05 -239.8408584
-37.32439236 -98.14530173 -9.738645576e-05
48.00026364 -32.36178713 -103.7861954
-67.81237536 -102.4008167 -9.738645576e-05
-51.99973636 -80.93933459 -78.88483539
-47.99973636 -77.69855383 -98.05967439
52.00026364 -95.11736489 -40.63544039
56.31705964 -2.498586707e-05 -236.2524654
-51.99973636 -15.37823836 -41.72791539
48.00026364 -35.51984726 -225.6933124
-47.99973636 -76.58638997 -115.0179424
-0.3781463586 -71.86369749 -9.738645576e-05
-51.99973636 -59.30303923 -120.0385334
-51.99973636 -89.45146072 -33.87667539
-54.45888436 -2.498586707e-05 -165.9258074
69.68822064 -114.6105803 -9.738645576e-05
-42.95376736 -2.498586707e-05 -51.06053839
19.95449564 -2.912301326 -9.738645576e-05
-47.99973636 -94.46309931 -16.79264339
-47.99973636 -57.78079607 -202.9519354
-12.62495336 -2.498586707e-05 -183.2965534
52.00026364 -35.85920844 -244.5563704
65.68013964 -2.498586707e-05 -175.7165584
-43.43126336 -59.1115893 -9.738645576e-05
48.00026364 -50.02201121 -134.3804594
52.00026364 -61.45014632 -23.32693139
-51.99973636 -55.54110092 -156.6793224
29.29415664 -9.301427996 -9.738645576e-05
27.68680064 -2.498586707e-05 -212.5766114
6.316270641 -2.498586707e-05 -194.1068614
-47.99973636 -50.96600194 -50.50721539
-47.99973636 -31.0923946 -104.6976074
48.00026364 -17.48485045 -249.5403754
-47.99973636 -53.71588448 -175.2022414
-47.99973636 -16.37895228 -238.6972414
52.00026364 -23.85804688 -160.0750774
-47.99973636 -4.358819076 -102.4590364
-54.35857336 -2.498586707e-05 -35.44911339
52.00026364 -55.46280481 -243.0170374
48.00026364 -53.57135366 -204.7493944
-47.99973636 -98.67188379 -54.31583839
41.08935064 -60.41142035 -9.738645576e-05
-12.28485136 -2.498586707e-05 -239.5772144
-47.99973636 -102.6752245 -23.90725539
-47.99973636 -21.05671454 -151.2390914
-51.99973636 -52.61431858 -230.6687264
48.00026364 -10.83029362 -221.1474714
52.00026364 -86.45047748 -48.89941739
37.42403864 -92.59625398 -9.738645576e-05
-23.71476536 -2.498586707e-05 -142.7644254
52.00026364 -41.34932156 -55.13602939
-3.219243359 -2.498586707e-05 -131.8006154
-57.15503336 -2.498586707e-05 -187.5833944
-64.69142236 -2.498586707e-05 -196.9522894
48.00026364 -0.1297200859 -90.66605939
-47.99973636 -66.65051312 -179.8001124
48.00026364 -60.98668278 -55.89408939
-47.99973636 -71.83711517 -86.76857439
-48.51966336 -2.498586707e-05 -136.1916174
-51.99973636 -76.33830912 -57.19243439
18.32329564 -2.498586707e-05 -240.3424064
-71.24899636 -2.498586707e-05 -52.49341939
51.91802364 -83.99928178 -9.738645576e-05
56.19119864 -2.498586707e-05 -39.44185439
37.60215764 -2.498586707e-05 -74.92748639
48.00026364 -48.86095063 -246.0381904
-47.99973636 -64.17113176 -66.05480539
71.05224264 -16.36112198 -9.738645576e-05
-51.99973636 -11.9654084 -117.1289084
52.00026364 -46.70477814 -164.8651674
-47.99973636 -58.99585983 -34.17143339
-31.06960936 -70.2548614 -9.738645576e-05
20.72974164 -53.04303528 -9.738645576e-05
58.07068964 -2.498586707e-05 -163.4873424
-51.99973636 -12.0202036 -129.4088224
-64.99711136 -85.67111781 -9.738645576e-05
52.00026364 -43.78020373 -139.3567744
52.00026364 -6.520801966 -103.8489214
48.00026364 -18.4467772 -79.30737439
60.50535864 -2.498586707e-05 -136.1069934
-51.94003136 -82.67689886 -9.738645576e-05
-47.99973636 -25.75727023 -113.8534894
-46.28925936 -2.498586707e-05 -22.47692739
63.53915164 -2.498586707e-05 -89.47272439
-47.99973636 -49.52441866 -153.2886334
-51.99973636 -22.70838934 -78.53305839
-47.99973636 -98.83029489 -10.31414339
7.734428641 0.5450981541 -9.738645576e-05
48.00026364 -8.838492446 -142.2198214
48.00026364 -84.7177557 -30.62395839
52.00026364 -68.90077233 -67.02347239
52.00026364 -36.83491945 -71.06082139
52.00026364 -40.45133723 -230.6922354
48.00026364 -21.13566315 -231.5519514
69.92115464 -2.498586707e-05 -141.6185574
-72.74953836 -2.498586707e-05 -15.15003739
-66.15915436 -31.17855717 -9.738645576e-05
-47.99973636 -28.82262092 -14.70888539
48.00026364 -51.22649417 -226.5916554
-14.14943536 -2.498586707e-05 -58.95772539
72.26800064 -42.18650983 1.391738614
48.00026364 -76.90489158 -133.3769414
-51.99973636 -6.160092266 -65.04510839
-51.99973636 -41.35360973 -218.8007954
-49.12646736 -91.85094555 -88.62108239
52.00026364 -50.23799791 -4.416181386
-47.99973636 -66.56989208 -148.6471144
48.00026364 -67.90094338 -50.95775739
29.98697264 -2.498586707e-05 -67.81068539
-47.99973636 -51.07964759 -117.4096864
62.61355064 -67.93346842 -9.738645576e-05
48.00026364 -44.06186965 -81.20655439
71.27137764 -2.498586707e-05 -13.60235539
52.00026364 -7.936148486 -128.2359574
57.33864164 -2.498586707e-05 -65.04003539
4.523122641 -2.498586707e-05 -233.4621994
52.00026364 -43.72362402 -217.9093944
-51.99973636 -86.68976021 -97.63981639
13.44900664 -2.498586707e-05 -206.2349924
-40.08725736 -112.2191484 -9.738645576e-05
-47.99973636 -32.26421762 -206.9824384
52.00026364 -64.1575797 -134.3853844
-15.58154836 -2.498586707e-05 -17.87566239
-51.99973636 -81.18949176 -39.52801139
4.017354641 -2.498586707e-05 -39.19466839
52.00026364 -55.62738942 -141.3123094
-13.90024436 -2.498586707e-05 -46.50453039
48.00026364 -88.82296733 -13.19156439
-51.99973636 -116.4220504 -15.78800139
52.00026364 -91.61179636 -64.92245139
48.00026364 -75.86304828 -87.18770539
26.94382864 -48.44759017 -9.738645576e-05
23.01053264 -2.498586707e-05 -251.6467654
-51.99973636 -36.65512715 -58.26384039
52.00026364 -41.333405 -109.6083724
61.89572964 -2.498586707e-05 -46.19316639
-70.09755036 -2.498586707e-05 -162.0616394
57.53856164 -2.498586707e-05 -106.8437644
-47.99973636 -10.73007219 -180.5941014
-47.99973636 -56.70744294 -140.8911394
28.58803964 -2.498586707e-05 -21.81717039
5.280651641 -2.498586707e-05 -206.8207314
-12.79274436 -2.498586707e-05 -162.7539774
52.00026364 -24.62327992 -245.4837094
-51.94249536 -2.498586707e-05 -124.4934864
-51.99973636 -30.23872388 -7.329295386
-34.63831436 -2.498586707e-05 -33.99129139
46.43293064 -2.498586707e-05 -142.2592924
52.00026364 -49.46082548 -110.8135254
-31.32442236 -2.498586707e-05 -13.88599939
52.00026364 -42.51854989 -149.9714864
-47.99973636 -62.15982018 -50.37413239
-47.99973636 -68.29391075 -104.6628674
-47.99973636 -22.016629 -31.81129839
0.1327516414 -2.498586707e-05 -8.612183386
-51.99973636 -7.713952716 -173.9266594
-47.99973636 -30.04896371 -96.57378339
-47.99973636 -15.7739616 -162.8602264
-27.97228036 -2.498586707e-05 -173.1956064
-51.99973636 -30.03815175 -71.95435539
-45.67166236 -118.9447241 -9.738645576e-05
16.97098164 -2.498586707e-05 -28.34473339
18.52392164 -2.498586707e-05 -225.8650194
52.00026364 -13.87162825 -35.45690039
-51.99973636 -15.21281883 -204.6055364
-47.99973636 -19.84900717 -89.44248139
-36.43187936 -7.008789996 -9.738645576e-05
-16.86438536 -81.18972814 0.2118266135
-51.99973636 -63.90233289 -23.72861239
48.00026364 -5.526565696 -46.97175639
48.00026364 -76.95520778 -10.77007339
48.00026364 -13.28189573 -243.5015244
-51.99973636 -62.42734716 -14.43221939
-55.66281036 -106.7506699 -9.738645576e-05
-8.401182359 -2.498586707e-05 -209.2494584
52.00026364 -68.57729228 -38.43911639
52.00026364 -34.20804027 -186.4150574
-51.99973636 -81.16078771 -110.9277094
-68.87891736 -16.44658451 -9.738645576e-05
-47.99973636 -14.5426077 -35.21830339
34.85393464 -2.498586707e-05 -162.1195614
31.46023064 -80.12609505 -9.738645576e-05
52.00026364 -59.84189519 -196.4197054
42.40443664 -41.81188272 -9.738645576e-05
52.00026364 -81.48643647 -63.19298139
-47.99973636 -41.47764923 -46.19891539
-2.479772359 -2.498586707e-05 -98.58623139
-51.99973636 -7.142651766 -83.86953939
48.00026364 -40.57623145 -185.3775204
-33.00058336 -91.30306547 -9.738645576e-05
-59.49611136 -2.498586707e-05 -149.5747094
-51.99973636 -29.88830515 -228.5666584
52.00026364 -21.43966617 -47.17032239
-47.99973636 -86.66890255 -80.70452639
34.69675364 -2.498586707e-05 -133.0082114
-29.77537936 -25.7868824 -9.738645576e-05
-35.80815336 -2.498586707e-05 -211.9340784
-51.99973636 -67.26914101 -58.61989639
48.00026364 -51.83037919 -216.2115184
-64.81011836 -2.498586707e-05 -5.871311386
-51.99973636 -52.76409838 -198.0376044
-47.99973636 -27.13685215 -59.04851839
-29.63395036 -2.498586707e-05 -138.7614664
-47.99973636 -24.81707927 -170.7170434
69.91776364 -5.041187366 -9.738645576e-05
-51.99973636 -95.7572784 -22.55552539
42.22251064 -2.498586707e-05 -33.99346239
52.00026364 -86.91967886 -24.96074039
48.00026364 -103.925484 -12.60535039
68.92953564 -2.498586707e-05 -35.91102739
-70.60493336 -2.498586707e-05 -152.9884184
-51.99973636 -45.66602136 -139.9282944
53.78792764 -91.23855791 -9.738645576e-05
-47.99973636 -47.31170215 -130.1242044
52.00026364 -8.071487116 -194.6621284
-47.99973636 -62.017849 -89.08110939
-24.70262636 -2.498586707e-05 -48.16737339
-47.99973636 -16.31913733 -171.1414794
65.19212364 -2.498586707e-05 -216.3282734
48.00026364 -81.79151137 -56.30424839
-31.49655136 -2.498586707e-05 -226.4661154
-51.99973636 -101.1185059 -49.07857939
-47.99973636 -55.4985835 -78.73919639
-48.30028336 -2.498586707e-05 -151.8596184
52.00026364 -5.234981676 -93.36137239
-47.99973636 -31.89444724 -155.4437494
52.00026364 -42.95682489 -34.59091839
-62.07944736 -2.498586707e-05 -109.3463864
-56.60166836 -2.498586707e-05 -138.1692984
48.00026364 -29.41968649 -8.774048386
-64.47727236 -43.8392193 -9.738645576e-05
-47.99973636 -17.16622765 -54.03245639
-47.99973636 -2.380474686 -76.57974739
48.00026364 -32.85071801 -159.9104404
48.00026364 -80.7721645 -117.9565954
-47.99973636 -94.3858497 -61.52207239
-47.99973636 -17.69105003 -46.94763939
21.67087064 -2.498586707e-05 -146.0245944
52.00026364 -65.78234599 -30.34546939
48.00026364 -58.80769221 -180.0167354
-47.99973636 -8.813079956 -162.7935104
-38.97984736 -2.498586707e-05 -43.80170839
-51.99973636 -3.371639996 -43.58418739
18.04799864 -2.498586707e-05 -218.9241124
-33.59512636 -55.77484003 -9.738645576e-05
-67.55261636 -79.20822643 -9.738645576e-05
52.50124064 2.294578994 -78.79094139
41.15896564 -2.498586707e-05 -218.7408844
52.00026364 -27.82705069 -38.41459139
48.00026364 -80.75099891 -75.93677339
48.20547864 -2.498586707e-05 -182.8332054
52.00026364 -104.9992635 -33.52349239
-3.272271359 -2.498586707e-05 -184.0778204
52.00026364 -44.40885845 -67.20953939
48.00026364 -66.71015404 -2.076001386
-34.77886336 -2.498586707e-05 -27.09653639
52.00026364 -32.70825298 -172.7023954
-47.99973636 -92.15859035 -27.35925839
48.00026364 -14.92035303 -68.13671739
-47.99973636 -2.910446116 -142.4122184
54.83184264 -5.709420346 -9.738645576e-05
51.78243664 -102.6994455 -56.54872339
-51.99973636 -12.10050462 -193.6040474
-16.92723436 -2.498586707e-05 -234.1859594
-2.327927359 -2.498586707e-05 -212.4519124
-47.99973636 -26.88212504 -191.4072404
52.00026364 -36.88752914 -217.3662714
52.00026364 -22.67020704 -177.1240754
-47.99973636 -26.06104523 -247.9268544
19.64974064 -2.498586707e-05 -113.7551684
-1.762520359 -25.80313982 -9.738645576e-05
48.00026364 -30.49850386 -246.0292074
52.00026364 -30.66082061 -196.5038764
27.39288364 -21.53200659 -9.738645576e-05
-61.97129836 -2.498586707e-05 -29.63993339
48.00026364 -58.82610073 -72.23538139
29.80160064 -2.498586707e-05 -86.38105439
48.00026364 -5.242608566 -32.41177439
48.00026364 -72.40025644 -156.7706224
-72.26391036 -2.498586707e-05 -96.99651739
-47.99973636 -22.87447132 -213.9067744
-12.82378936 -2.498586707e-05 -72.21673139
61.78131864 -104.2140219 -9.738645576e-05
-31.41459436 -2.498586707e-05 -156.6405704
52.00026364 -51.73744303 -87.76902539
-18.36867636 -57.19885138 -9.738645576e-05
52.00026364 -36.980605 -141.7022104
-35.68174836 -2.498586707e-05 -19.61776639
52.00026364 -25.25952721 -62.56980339
48.00026364 -92.72408701 -30.24525439
-47.99973636 -37.4784422 -27.01859839
-47.99973636 -84.93613385 -5.033897386
-51.99973636 -19.04028538 -145.4473354
52.00026364 -3.014994496 -70.82778839
33.95622164 -115.577793 2.355980614
23.70540664 -2.498586707e-05 -98.37183439
-47.99973636 -29.54223558 -38.69451139
-67.32052936 -122.2925853 -9.738645576e-05
-47.99973636 -33.49884989 -171.8416004
52.00026364 -18.13856283 -169.5790564
52.00026364 -84.23373276 -95.79343339
-51.99973636 -41.11931686 -6.907719386
52.00026364 -55.52545006 -191.2298044
48.00026364 -45.86421833 -230.8190784
52.00026364 -37.99229879 -122.4021434
-47.99973636 -24.48908656 -201.6528984
48.00026364 -6.843366756 -148.6130614
-47.99973636 -22.19266849 -222.3239774
48.00026364 -35.32822272 -47.06181839
48.00026364 -63.81238377 -169.8166904
52.00026364 -72.20266147 -144.8732314
48.00026364 -14.17550099 -114.5851504
45.86724464 -2.498586707e-05 -167.4794584
31.33212364 -2.498586707e-05 -123.1493504
52.00026364 -2.446072816 -222.5948554
-51.99973636 -76.29942029 -83.68023139
-47.99973636 -68.39645714 -73.40189739
52.00026364 -90.92054361 -74.72671139
-47.99973636 -63.34503357 -110.3530234
-51.99973636 -18.08849552 -232.5468614
12.37180864 -2.498586707e-05 -162.6185934
33.04414864 -73.67806672 -9.738645576e-05
48.00026364 -10.0774952 -231.4276004
52.00026364 -22.91109621 -146.2389624
-38.83399036 -2.498586707e-05 -240.5251594
-50.80640636 -70.69387778 -165.1889104
-47.99973636 -56.99302199 -113.0211124
52.00026364 -53.08152041 -221.3425794
48.00026364 -16.90558618 -210.9999734
-51.99973636 -34.72601479 -133.8319034
-3.568371359 -2.498586707e-05 -233.9959574
-47.99973636 -62.78214493 -98.23227039
48.00026364 -7.823314096 -180.3291044
62.98000764 -94.73132381 -9.738645576e-05
64.11229664 -2.498586707e-05 -72.94732839
-47.99973636 -62.12093203 -164.5773664
-47.99973636 -25.46973747 -146.3424494
-60.49102636 -2.498586707e-05 -69.81617939
48.00026364 -45.48065796 -20.90402639
-47.99973636 -52.34873761 -28.59029539
-53.89857136 -2.498586707e-05 -175.5883354
48.00026364 -37.13604937 -204.7525614
-47.99973636 -1.811290466 -198.9958194
-66.41618936 -2.498586707e-05 -19.68789739
-47.99973636 -52.94042989 -222.1863114
-20.08233136 -2.498586707e-05 -23.68262839
-51.99973636 -46.75244834 -189.8215484
-51.99973636 -13.88147559 -247.2968364
52.00026364 -14.77121344 -57.41881839
-47.99973636 -59.39455334 -9.694125386
-16.20479536 -2.498586707e-05 -107.7906164
52.00026364 -72.26662161 -82.28671739
-51.99973636 -44.92845032 -160.7290674
38.57667364 -2.498586707e-05 -237.1175464
-47.99973636 -38.54403239 -117.2196624
-6.126031359 -2.498586707e-05 -3.623536386
-51.99973636 -6.796826426 -213.7842294
-47.99973636 -29.44799671 -28.61686739
52.00026364 -56.64237116 -18.90657439
-51.99973636 -74.28265436 -138.1350684
-50.07394436 -16.94169644 -5.646080386
4.550500641 -37.58041941 -9.738645576e-05
-47.99973636 -49.30623774 -212.6988584
48.00026364 -0.3838049559 -246.9530734
-47.57470636 -2.498586707e-05 -16.09667839
52.00026364 -46.02640324 -171.3308524
48.12940364 -78.47227702 -9.738645576e-05
-51.99973636 -41.21353347 -73.93290939
-51.99973636 -3.225949856 -71.50847039
52.00026364 -38.49728824 -135.3546384
48.00026364 -6.647043476 -216.1852434
52.00026364 -1.232019536 -156.1003594
52.00026364 -42.82973081 -246.3989254
-47.02743936 -2.498586707e-05 -120.2911324
-26.14163936 -85.92357875 -9.738645576e-05
48.00026364 -47.73006368 -193.7950984
54.74406464 -2.498586707e-05 -145.2044644
3.907750641 -2.498586707e-05 -31.38242639
-51.99973636 -56.9645707 -94.75296739
-47.99973636 -7.032923156 -193.5780634
52.00026364 -26.20205871 -214.6371074
52.00026364 -38.97308609 -158.7686974
25.62298164 -36.74700454 -9.738645576e-05
-44.46088936 -80.66567511 -9.738645576e-05
39.24029564 -2.498586707e-05 -172.8660114
48.00026364 -58.25924916 -127.2078914
15.15100764 -34.87068866 -9.738645576e-05
14.78731264 -2.498586707e-05 -97.33505339
-51.99973636 -69.96939683 -128.7377934
52.00026364 -35.81621891 -235.2413274
52.00026364 -83.67840161 -19.45665339
-47.99973636 -8.620321866 -220.1366934
48.00026364 -68.21779446 -107.8558604
52.00026364 -5.017672106 -23.01322039
-47.99973636 -70.68584755 -155.9339124
48.00026364 -89.85351325 -4.534547386
52.00026364 -28.68383146 -116.5984214
48.00026364 -24.60436631 -201.1742804
-51.99973636 -60.68328077 -188.7391684
48.00026364 -6.734997766 -119.7432584
36.09038064 -39.80950954 -9.738645576e-05
52.00026364 -26.17062958 -101.3577914
-51.99973636 -114.8765724 -9.487767386
-51.99973636 -28.65006542 -242.2610564
52.00026364 -5.919733296 -206.1900754
-47.99973636 -74.52313924 -126.0329254
52.00026364 -119.9105613 -4.985169386
65.56045164 -32.39412515 -9.738645576e-05
52.00026364 -74.77732363 -96.26767039
48.00026364 -108.6185758 -25.14475939
19.00801564 -2.498586707e-05 -43.06656839
47.05021164 -2.498586707e-05 -44.10328839
-47.99973636 -49.1302435 -250.2850564
48.00026364 -10.82665283 -132.1453064
-33.90345836 2.416317884 -92.09535239
-47.99973636 -54.97645222 -130.8228924
-51.99973636 -72.23470975 -34.83028639
27.03322664 -2.498586707e-05 -73.35659139
48.00026364 -81.45391757 -102.5115684
-51.99973636 -58.88290663 -196.6360274
48.00026364 -58.72132402 -173.4847414
48.00026364 -37.39789413 -64.57295739
48.00026364 -21.15668791 -102.1736444
48.00026364 -14.54200595 -173.1174184
48.00026364 -17.43441659 -85.49016839
-47.99973636 -74.6160527 -13.16046839
48.00026364 -75.22908131 -56.14993739
48.00026364 -38.83165712 -13.55649039
-51.99973636 -64.23400067 -93.64748139
-57.95605236 -2.498586707e-05 -24.85252139
-51.99973636 -35.30804126 -18.90415939
-47.99973636 -6.239613216 -207.1780694
-1.176107359 -2.498586707e-05 -140.1380744
-51.99973636 -46.34560451 -172.0679424
48.00026364 -4.425572226 -187.2234284
-16.30092836 -2.498586707e-05 -226.3875734
27.41889464 -2.498586707e-05 -241.8103564
-47.99973636 -42.95764379 -232.5518214
-47.99973636 -39.3647189 -163.8613964
-47.99973636 -39.12301595 -79.07252239
-47.99973636 -0.4567605759 -130.0070264
48.13395464 -56.92069775 -234.7988604
-8.083486359 -2.498586707e-05 -37.76424739
72.83379364 -2.498586707e-05 -78.46384239
-14.04551836 -2.498586707e-05 -211.8584584
-47.17618636 -2.498586707e-05 -88.05599839
-51.99973636 -24.07976015 -46.62546939
-18.20511436 -2.498586707e-05 -192.1242914
52.00026364 -6.039550946 -86.57432839
48.00026364 -48.48005576 -181.8945914
21.05829464 -2.498586707e-05 -20.99687239
52.00026364 -60.97546107 -165.7611144
45.57009664 -102.0662167 -9.738645576e-05
48.00026364 -12.05560574 -99.83145739
-47.99973636 -9.561944756 -98.02602739
66.76863664 -121.8331071 -9.738645576e-05
41.05288364 -2.498586707e-05 -150.3674124
-52.32739736 -21.80157076 -9.738645576e-05
-20.45500036 -2.498586707e-05 -113.6943814
-63.33673036 -2.498586707e-05 -58.49078439
-51.99973636 -24.03122094 -24.06532539
48.00026364 -35.81788053 -98.68505039
-47.99973636 0.6130796341 -217.6708504
-68.57422136 -2.498586707e-05 -83.66816039
-51.99973636 -19.80365656 -58.92459939
-52.49875936 1.737714284 -64.92701339
-38.48551636 -2.498586707e-05 -223.6934044
65.51164364 -2.498586707e-05 -15.72212939
52.00026364 -69.3827798 -122.5249874
53.56592464 -58.49228574 -9.738645576e-05
48.00026364 -29.18218246 -14.90066139
48.00026364 -61.91275319 -61.95275639
-51.00986136 -2.498586707e-05 -189.2336204
-17.50629836 -2.498586707e-05 -153.6218954
-6.823296359 -2.498586707e-05 -87.10724439
-12.21821736 -2.498586707e-05 -52.38783439
-51.99973636 -61.48679692 -154.9889024
-51.99973636 -35.67915342 -120.8443574
48.00026364 -31.75826161 -209.9618274
48.00026364 -75.0704677 -65.17707639
-47.99973636 -34.19193535 -184.3584884
3.727483641 -2.498586707e-05 -121.7218444
52.00026364 -17.21425543 -108.1302304
-51.99973636 -63.95961621 -74.99560839
27.59838864 -2.498586707e-05 -57.29899739
48.00026364 -27.35677534 -145.0567984
-47.99973636 -31.08515042 -123.2017844
48.00026364 -74.59640315 -18.44470839
-49.47969436 -2.498586707e-05 -48.20999939
-55.63874336 -54.51513863 -9.738645576e-05
52.00026364 -12.37416496 -161.3187544
-51.99973636 -30.32188084 -114.0986364
48.00026364 -61.34214781 -106.3596274
-66.77052736 -2.498586707e-05 -185.4082374
48.00026364 -68.26096389 -149.6471254
-51.99973636 -88.59477596 -2.318742386
-47.99973636 -24.0265492 -85.04960439
52.00026364 -69.96753673 -56.23804939
52.00026364 -87.98738364 -54.76195839
69.50836564 -2.498586707e-05 -236.6456764
48.00026364 -44.44093573 -241.8959544
-47.99973636 -16.59369622 -135.1711584
14.51573764 1.609626944 -9.738645576e-05
52.00026364 -40.19837055 -2.204024386
-51.99973636 -8.968780486 -151.2521654
-19.70978836 -4.771810706 -9.738645576e-05
36.96705664 -84.33657863 -9.738645576e-05
-47.99973636 -15.07474638 -110.6843834
52.00026364 -17.78507283 -122.8049104
32.30172564 -2.498586707e-05 -6.833178386
-31.16686036 -50.25493607 -9.738645576e-05
48.00026364 -63.04250133 -33.92893039
-47.99973636 -12.78476049 -29.45360339
24.25826064 -2.498586707e-05 -121.9862514
-41.73602736 -2.498586707e-05 -128.6571394
51.18945064 -69.90925226 -168.6429994
48.00026364 -21.07404316 -185.2867274
-4.524804359 -32.36646017 -9.738645576e-05
-45.01798236 -2.498586707e-05 -105.3359904
52.00026364 -37.53792421 -196.2789244
-51.99973636 -25.34618565 -252.3551664
48.00026364 -79.81980574 -69.93441739
48.00026364 -15.59923291 -23.31404539
48.24304564 -129.9817021 1.537985614
-51.99973636 -41.5722716 -100.2417084
52.00026364 -61.28567575 -76.70519439
-51.99973636 -31.54277511 -212.4182614
-14.48633236 -2.498586707e-05 -11.97470939
52.00026364 -11.22302957 -149.5061554
-51.99973636 -82.92349401 -67.98171939
48.00026364 -54.48631031 -45.26808139
-51.99973636 -119.4113249 -4.104913386
-47.99973636 -81.96712804 -84.42450339
-47.99973636 -39.86021662 -250.8769404
-47.99973636 -63.72754155 -120.5882944
0.7786706414 -55.80537899 -9.738645576e-05
-51.99973636 -32.65093484 -100.1938054
-49.37283236 -60.46399807 -214.3533404
-54.69644636 -27.64843383 -9.738645576e-05
48.00026364 -36.08527386 -113.3824064
-47.99973636 -49.68948504 -238.9549384
-6.282306359 -2.498586707e-05 -239.3245404
-47.99973636 -99.48304014 -34.21069839
48.00026364 -4.596705266 -161.5695064
-51.99973636 -12.29142019 -88.43330739
48.00026364 -53.16318849 -102.9413164
52.00026364 -45.46016216 -48.97421239
-51.99973636 -6.713774256 -188.9984534
52.00026364 -35.49194779 -7.087114386
-56.42788136 -2.498586707e-05 -94.41793839
-47.99973636 -73.5688144 -68.14330939
37.41662164 -24.23104285 -9.738645576e-05
48.00026364 -44.46292661 -93.62264339
52.00026364 -21.97078727 -88.66052239
-47.99973636 -70.37330626 -54.22535739
52.00026364 -28.04130149 -234.1951604
52.00026364 -72.74322038 -109.1051344
52.00026364 -57.1513468 -119.6160434
-51.99973636 -81.66988993 -53.29254039
-47.99973636 -24.20427857 -97.70346839
-47.99973636 -4.927719666 -25.34508039
52.00026364 -50.78841393 -121.4599324
48.00026364 -48.20641579 -159.6691634
-51.99973636 -90.08557629 -18.07516239
-47.99973636 -48.21126897 -79.72118439
-27.66207436 -2.498586707e-05 -214.3994744
48.00026364 -9.079310056 -170.7971034
-51.99973636 0.9982287641 -222.0374924
57.07823664 -70.06678199 -9.738645576e-05
48.00026364 -20.51455631 -57.13921039
48.00026364 -37.9973187 -83.32002639
-51.99973636 -47.52943154 -46.28403339
-47.99973636 -4.206970966 -39.30094539
-47.99973636 -72.26530805 -110.9719354
48.00026364 -92.46646417 -52.65353839
48.00026364 -57.73527649 -161.7219664
53.66654064 -2.498586707e-05 -120.0401654
48.00026364 -17.29012932 -155.4540264
-61.80777336 -2.498586707e-05 -242.2338084
48.00026364 -100.888248 -38.75994239
52.00026364 -9.044714746 -51.31905739
48.00026364 -32.02657144 -129.4624854
-36.77713436 -2.498586707e-05 -230.9320974
-47.99973636 -34.53691753 -6.795958386
58.52825164 -12.80180302 -9.738645576e-05
-48.21137836 -2.498586707e-05 -172.1449094
-51.99973636 -42.22847252 -211.9238354
48.67630964 -2.498586707e-05 -192.2562124
-54.90961136 -2.498586707e-05 -0.8656083865
-47.99973636 -5.525657006 -177.8692564
-47.99973636 -79.71948479 -106.8762464
52.00026364 -44.71047183 -12.42919839
-47.99973636 -12.10137798 -251.3646874
-51.99973636 -33.36042047 -160.7045654
-51.99973636 -73.62708441 -6.051901386
48.00026364 -59.90709443 -83.73735239
-51.99973636 -8.389061016 -54.37257439
18.01765064 -65.15688823 -9.738645576e-05
-47.99973636 -18.51154448 -180.8622884
25.18717764 -2.498586707e-05 -82.16957339
-47.99973636 -5.773939146 -232.9856914
49.67870664 -2.498586707e-05 -202.4460314
-51.99973636 -37.28145243 -46.87484239
-51.99973636 -28.80404818 -108.2743744
48.00026364 -64.65232453 -139.1909874
-47.99973636 -15.82477652 -65.52333339
-51.99973636 -65.39066576 -183.8439404
48.00026364 -27.5913741 -135.7612954
46.12390364 -57.49099004 -9.738645576e-05
52.00026364 -53.10808807 -149.6786864
-51.99973636 -48.69852611 -64.62149539
-12.30845636 -2.498586707e-05 -130.4409454
52.00026364 -63.23198681 -98.82486039
-47.99973636 -14.38191625 -21.73178439
-51.99973636 -39.44208088 -143.5450584
-47.99973636 -63.34721666 -57.09884039
52.00026364 -16.04460757 -198.1401054
-47.99973636 -30.12200039 -141.5695414
-51.99973636 -6.840832516 -182.1695634
-68.59788036 -48.59488946 0.6178306135
-47.99973636 -56.55513922 -234.8786484
-51.99973636 -0.3163620459 -238.0374084
-60.73313036 -115.0974228 -9.738645576e-05
48.00026364 -55.20829454 -61.64037939
48.51800364 -109.3253298 -38.55315339
48.00026364 -105.7717936 -5.901440386
-47.99973636 -37.83854571 -90.12899539
-51.99973636 -37.10132134 -239.1567824
-51.99973636 -51.80694397 -181.8359574
-47.99973636 -54.90192098 -64.80478939
-47.99973636 -68.83899696 -39.68107039
48.00026364 -20.03373636 -135.8301694
52.00026364 -61.15895738 -92.24708539
52.00026364 -95.19094718 -33.57499639
48.09506764 -111.7534327 -1.500097386
52.00026364 -81.55874082 -86.21045039
-51.99973636 -5.621851246 -131.9303174
-47.99973636 -42.99570417 -134.2147974
-47.99973636 -44.84889147 -68.64837439
-47.99973636 -4.153084396 -159.4277984
-51.99973636 -36.13662924 -65.83656839
-47.99973636 -91.67861524 -40.75102439
52.00026364 -21.40461803 -39.89813039
-47.99973636 -17.20222948 -213.0673054
-51.99973636 -65.14909612 -133.2032684
6.924215641 -30.10840186 -9.738645576e-05
-64.90679036 -2.498586707e-05 -141.6067284
-47.99973636 -53.69494697 -216.5140164
-47.99973636 -44.81472191 -242.1636044
19.83687964 -2.498586707e-05 -201.4222254
48.00026364 -52.3957183 -12.50235239
-47.99973636 -17.33279318 -245.1068154
41.29037364 -2.498586707e-05 -126.3066904
48.00026364 -21.2314783 -16.93256039
-47.99973636 -66.89517372 -3.849807386
-47.99973636 -8.278140826 -79.94956039
48.00026364 -86.11154931 -92.17052539
52.00026364 -48.69662071 -63.43812739
44.58803064 -2.498586707e-05 -109.1129294
-14.20341036 -72.98906516 -9.738645576e-05
52.00026364 -32.6900242 -222.3625524
-42.86298436 -35.02301167 -9.738645576e-05
-51.99973636 -58.47102202 -48.66018739
-47.99973636 -18.08745068 -127.5855524
-57.09595436 -2.498586707e-05 -208.5129554
52.00026364 -62.60503958 -201.4346634
-51.99973636 -24.19845258 -73.02902739
52.00026364 -62.41142115 -159.9048814
-47.99973636 -54.12424498 -37.12702639
52.00026364 -27.48388351 -123.3807434
-47.99973636 -29.53001957 -235.5277344
-47.99973636 -59.65340718 -41.61956339
48.26818564 -2.498586707e-05 -2.137727386
-47.49875936 2.439290794 -211.7812434
64.97722064 -2.498586707e-05 -188.6385974
52.00026364 -64.77441131 -44.19342139
53.82516264 -2.498586707e-05 -98.29201939
39.13513264 -2.498586707e-05 -243.4562724
52.00026364 -27.29235428 -78.35942439
60.83370564 -75.53856188 -9.738645576e-05
-26.87044936 -2.498586707e-05 -4.280196386
52.00026364 -4.986218276 -145.0365094
-51.99973636 -69.2359181 -145.6377804
-47.99973636 -42.45377221 -125.3832904
48.00026364 -45.20027509 -175.2592484
48.00026364 -37.89627994 -93.41316339
-47.99973636 -72.86009859 -44.47614439
23.35632164 -7.443027406 -9.738645576e-05
-47.99973636 -17.38588475 -105.5141084
52.00026364 -51.91155703 -35.25061639
-51.99973636 -64.0792965 -85.24778739
-51.92320236 -2.498586707e-05 -21.99961739
48.00026364 -53.56497452 -21.57442039
52.00026364 -27.79345023 -179.5457524
48.00026364 -68.11790415 -133.9089064
-47.99973636 -72.98334433 -101.5191954
48.00026364 -34.55374185 -152.3558584
-47.99973636 -43.69854854 -144.5287544
52.00026364 -54.01075028 -8.610471386
-51.99973636 -52.03920126 -146.0716744
-51.99973636 -13.73654457 -52.03599739
-47.99973636 -56.41631115 -17.44261739
48.00026364 -72.38119099 -37.32197339
-47.99973636 -18.68693655 -156.5721064
-51.99973636 -47.91480857 -200.8974654
-26.23341836 -2.498586707e-05 -77.16768839
-47.99973636 -53.52813308 -55.51370439
48.00026364 -115.4473248 -11.12475139
10.83775064 -2.498586707e-05 -119.5174624
-42.52265536 -64.65997106 -9.738645576e-05
-47.99973636 -49.55935086 -227.3667994
-21.90629636 -2.498586707e-05 -247.9748284
-51.99973636 -33.86361696 -222.1644684
-51.99973636 -59.72140216 -19.98001239
48.00026364 -46.61232054 -105.2992994
-51.99973636 -52.870897 -236.6347524
53.01289264 -2.498586707e-05 -171.4022014
48.00026364 -54.69533524 -67.97609939
48.00026364 -36.1821634 -181.3473374
12.27692864 -2.498586707e-05 -62.87956239
-51.99973636 -17.65682529 -86.19285739
-51.99973636 -56.2309384 -125.2126364
48.00026364 -25.30301487 -154.3795994
48.00026364 -104.6991524 -48.24632239
52.00026364 -45.1419315 -24.80215839
64.86395264 -2.498586707e-05 -115.1437984
-58.47566336 -2.498586707e-05 -75.23301239
-51.99973636 -92.45611594 -46.26606539
-51.99973636 -41.70422528 -202.4104654
-51.99973636 -34.03640661 -203.5102634
48.00026364 -70.36721657 -9.311474386
-51.99973636 -36.27136279 -81.72696939
52.00026364 -5.832278826 -241.0205964
48.00026364 -26.395713 -240.6988824
48.00026364 -6.644420106 -69.45285639
48.00026364 -5.752621206 -62.18875039
67.78783964 -127.583264 -9.738645576e-05
-51.99973636 -77.25162527 -66.94229539
52.00026364 -97.42241964 -54.79371239
-47.99973636 -83.43025618 -25.17306039
52.00026364 -44.39138677 -114.2518614
52.00026364 -2.726041636 -126.2976704
48.00026364 -54.54859454 -195.2207614
-47.99973636 -43.71975286 -97.03624939
-51.99973636 -40.01414701 -196.7583194
52.00026364 -74.77340871 -60.70326239
-31.88521636 -97.02934867 -9.738645576e-05
6.899828641 -2.498586707e-05 -94.91019939
-63.12827736 -2.498586707e-05 -40.71190739
-47.99973636 -96.1214613 -49.38911039
30.61339264 -2.498586707e-05 -207.8646974
-51.99973636 -30.82528441 -248.2632334
-47.99973636 -77.97104281 -74.02157739
48.00026364 -12.543819 -31.85611339
50.60870364 -85.77764166 -108.1837704
-47.99973636 -6.788378336 -30.56509839
15.39861164 -51.54057887 -9.738645576e-05
-47.99973636 -47.10711682 -17.97790039
48.00026364 -31.68862975 -141.6059674
-47.99973636 -3.232432156 -52.64896839
-47.99973636 -103.8200012 -51.79055639
48.00026364 -26.24635679 -183.2947594
-47.99973636 -61.28314133 -170.5776904
48.00026364 -45.83859776 -71.51159439
-51.99973636 -103.190279 -39.75810139
-51.99973636 -88.77072293 -85.04412239
-51.99973636 -25.37873438 -55.66756039
-47.99973636 -83.71154974 -113.7565944
5.717863641 -2.498586707e-05 -81.62989139
48.00026364 -27.01062685 -106.6842824
-47.99973636 -68.16704207 -48.86898239
-51.99973636 -49.00532071 -30.36434639
-47.99973636 -93.10792001 -32.90772939
-6.985661359 -2.498586707e-05 -165.9217974
-51.99973636 -53.41034983 -120.4864064
-51.99973636 -28.21843652 -88.03545039
52.00026364 -30.73481948 -242.2570374
48.00026364 -24.25813239 -226.6906534
-51.99973636 -1.468135916 -90.25598739
-47.99973636 -42.95685842 -222.2192864
64.59946464 -2.498586707e-05 -227.0700454
-47.99973636 -27.7633701 -166.0737434
18.12012664 -2.498586707e-05 -126.6634034
-35.18835236 -46.51682749 -9.738645576e-05
52.00026364 -5.083811146 -183.5229174
52.00026364 -17.48003174 -17.12965639
18.07703864 -2.498586707e-05 -53.45837839
-51.99973636 -111.2881286 -4.433233386
-51.99973636 -81.86467661 -45.27106739
-47.99973636 -69.21654438 -132.4150154
-47.99973636 -60.691618 -184.5653874
52.00026364 -10.3132293 -116.0042814
-51.99973636 -20.35867187 -121.0676104
56.69477064 -2.498586707e-05 -58.05645639
-51.99973636 -79.65876214 -10.31793839
48.00026364 -40.59343802 -142.6819854
52.00026364 -44.36855151 -199.8070594
48.00026364 -29.61903541 -56.74794139
-47.99973636 -100.794141 -59.79991039
66.83280764 -2.498586707e-05 -164.0217334
48.00026364 -70.17497471 -97.28982739
-51.99973636 -58.78075591 -37.88274439
-51.99973636 -69.53758588 -159.9886864
-47.99973636 -30.81378883 -201.6622674
50.94223264 -2.498586707e-05 -161.6357634
-47.99973636 -19.98812842 -37.19277839
52.00026364 -33.68972081 -230.2232944
-51.99973636 -92.36373614 -11.67786939
8.584027641 -2.498586707e-05 -227.5720364
-47.99973636 -76.46270351 -26.03551539
48.00026364 -86.47229537 -45.20545039
13.06359664 -2.498586707e-05 -113.1746104
-51.99973636 -64.28510298 -140.2493264
-51.99973636 -46.3037816 -5.254963386
43.14572564 -52.72591358 -9.738645576e-05
71.65202264 -2.498586707e-05 -130.0227134
-51.99973636 -5.314607256 -155.9324334
52.00026364 -78.96879549 -99.73122639
-51.35693636 -111.2974495 -33.37253139
-50.84534636 -70.73375254 -9.738645576e-05
-47.99973636 -18.69729798 -203.4325084
-51.99973636 -30.56614195 -57.72799239
-47.99973636 -15.68698662 -192.8101834
-51.99973636 -44.11270581 -180.8422844
48.00026364 -27.81233239 -221.4586294
-68.70806236 -2.498586707e-05 -245.4855854
52.00026364 -11.31517249 -84.74610239
-47.99973636 -38.4514587 -169.2068704
12.70314564 -2.498586707e-05 -186.2984994
48.00026364 -34.00492674 -2.876107386
48.00026364 -111.154791 -14.64386339
-47.99973636 -25.51131571 -240.3973204
-51.99973636 -37.10031772 -180.9425704
48.00026364 -31.72329794 -84.00339539
-51.99973636 -50.25453725 -76.70259939
13.54450964 -28.0109832 -9.738645576e-05
48.00026364 -61.49462863 -154.3805614
-47.99973636 -61.55619763 -26.51540339
48.00026364 -46.93908535 -30.43071839
52.00026364 -13.30039562 -193.2776314
-50.12819136 -57.61171488 -1.500097386
52.00026364 -20.79877397 -214.4776044
-51.99973636 -94.86430722 -67.24941639
-51.99973636 -15.94939585 -69.26871639
48.00026364 -52.59006637 -108.3149214
52.00026364 -4.361618026 -40.62077039
-47.99973636 -48.16431629 -108.4642944
48.00026364 -23.50433562 -29.36870039
-47.99973636 -40.47363209 -111.7509254
52.00026364 -20.83607889 -220.1648254
-51.99973636 -45.49142645 -155.3582264
-47.99973636 -62.68741849 -144.8938074
-47.99973636 -98.10740103 -27.00806339
29.01862564 -2.498586707e-05 -174.6419154
-47.99973636 -26.66913078 -226.9043094
-47.99973636 -43.66017239 -37.19726139
-27.24112336 -101.1815374 0.2979916135
52.00026364 -88.85062477 -34.14196639
-51.99973636 -51.90212668 -192.7145054
52.00026364 -65.33399585 -105.6739134
48.00026364 -40.18921834 -72.39397939
-51.99973636 -34.85337925 -24.27207939
52.00026364 -11.85784294 -22.32988339
-47.99973636 -104.2519609 -29.05597439
-47.99973636 -10.36093122 -171.4803404
-51.99973636 -7.912278456 -138.6487094
-51.99973636 -28.50019098 -66.79549239
-41.88179336 -2.498586707e-05 -69.25891939
52.00026364 -88.69133341 -41.18823339
52.00026364 -50.15741751 -203.6103414
48.00026364 -78.06292822 -5.505379386
48.00026364 -46.36961639 -215.4767264
48.00026364 -62.48616232 -41.42655639
52.00026364 -40.37129111 -99.74639639
-51.99973636 -27.45981094 -157.3073254
48.00026364 -9.124568126 -207.8060124
48.00026364 -13.49943246 -167.4320904
52.00026364 -50.82118426 -240.3134174
48.00026364 -26.92704881 -89.02329239
-51.99973636 -33.91020126 -192.8017144
-47.99973636 -93.11485558 -78.04219539
2.771703641 -49.85659353 -9.738645576e-05
-27.73368536 -2.498586707e-05 -40.90938339
-70.61004836 -2.498586707e-05 -231.4897334
-51.99973636 -19.87267754 -93.34087839
-34.67310136 -85.75201579 -9.738645576e-05
52.00026364 -0.01652146587 -134.2469084
-51.99973636 -51.61305136 -6.047664386
48.00026364 -30.84385012 -187.5961184
52.00026364 -14.92763935 -62.77390539
-51.99973636 -8.605023726 -59.72222239
52.00026364 -57.48409957 -43.35146739
-47.99973636 -49.39088404 -158.7807344
52.50124064 2.141658204 -212.8742024
48.00026364 -16.19271511 -104.1725394
48.00026364 -39.0790928 -59.49464339
64.47362464 -2.498586707e-05 -41.50689739
-51.99973636 -76.267926 -47.14045639
48.00026364 -13.99589656 -147.2985514
48.00026364 -55.75329457 -229.4274324
48.00026364 -12.84268708 -43.55880739
48.00026364 -14.1505797 -141.6675684
48.00026364 -4.149624206 -251.1802034
48.81564164 -2.498586707e-05 -233.2777474
-47.99973636 -0.2338362659 -31.18423539
-51.99973636 -58.91733131 -110.0610584
62.28120664 -2.498586707e-05 -244.8535164
-51.99973636 -84.34595501 -30.89660439
-23.93062536 -45.78627955 -9.738645576e-05
-51.99973636 -79.15050173 -128.0678634
-51.99973636 -74.25782656 -89.33289739
-51.99973636 -29.74438192 -77.78729839
-47.99973636 -26.73267786 -6.780498386
48.11288164 -2.498586707e-05 -104.0317744
-51.99973636 -13.335256 -124.2495164
-51.99973636 -38.63397047 -107.2890934
52.00026364 -48.4774433 -249.8482694
48.00026364 -84.41289844 -6.884252386
-47.99973636 -68.02946912 -62.39365239
-47.99973636 -38.34752434 -210.6430534
48.00026364 -13.91246277 -235.1100934
48.00026364 -101.5716106 -26.42358039
48.00026364 -58.36493724 -143.4819444
52.00026364 -22.4300518 -235.1632104
-53.47537936 -2.498586707e-05 -200.1053404
-51.99973636 -12.6030906 -64.18037939
-25.32555736 -2.498586707e-05 -236.0190564
52.00026364 -51.160734 -172.9249714
-51.99973636 -7.405274106 -229.0468484
48.00026364 -5.739241206 -228.3739194
-48.59262736 0.4399463941 -206.9911904
-47.99973636 -63.09214793 -18.41228239
52.00026364 -102.5154828 -44.76246939
52.00026364 -10.98404511 -203.0937154
-47.99973636 -64.1864317 -175.0085024
52.00026364 -62.03061091 -87.02494339
-47.99973636 -38.27393398 -36.91586739
-17.88070136 -2.498586707e-05 -182.6848134
48.00026364 -21.31876824 -124.8292144
-51.99973636 -50.9835446 -209.6708014
-51.99973636 -53.78370902 -134.0721084
52.00026364 -46.53847377 -58.60362939
-51.99973636 -68.75034737 -151.6403904
48.00026364 -8.400467546 -108.0119724
52.00026364 -44.34858754 -5.469249386
52.00026364 -77.4872816 -14.17490139
48.00026364 -66.31438607 -87.13008039
-47.99973636 -3.980347186 -116.9676474
-51.99973636 -59.84907315 -6.185425386
-51.99973636 -93.66650399 -6.254642386
52.00026364 -92.59659863 -24.52556239
-51.99973636 -83.25509756 -87.60256839
48.00026364 -51.01841911 -125.3467314
49.94148464 -10.63706071 -15.30009339
-58.13368836 -21.2467541 -9.738645576e-05
-47.99973636 -55.46716795 -97.82536239
48.00026364 -96.08045118 -6.714844386
-47.99973636 -22.10826824 -4.275699386
52.00026364 -22.39577826 -191.9122164
8.872912641 -2.498586707e-05 -201.0440724
-51.99973636 -6.146522066 -144.3270654
52.00026364 -13.9119174 -184.6770184
-51.99973636 -4.244185326 -18.54199839
-47.99973636 -85.90086003 -66.34570339
51.95224464 -92.80810929 -85.53796739
52.00026364 -73.87281835 -134.9082994
-47.99973636 -41.73610456 -139.3090844
48.00026364 -97.58095483 -51.11996639
-51.99973636 -27.74140602 -41.66326639
-51.99973636 -33.47890598 -50.61744039
67.85022564 -92.77937987 -9.738645576e-05
-47.99973636 -38.83705088 -17.36639939
52.00026364 -46.62184117 -222.5379514
48.00026364 -37.53844063 -251.3526134
48.00026364 -61.91372708 -184.8964714
-51.99973636 -16.98930659 -184.8606314
48.00026364 -11.05501347 -63.54333239
52.00026364 -92.16180678 -13.73043239
-51.99973636 -23.6898132 -125.3113294
-47.99973636 -90.43110857 -69.43916739
-47.99973636 -12.79372839 -45.08924639
52.00026364 -57.77672944 -33.59682939
-51.99973636 -78.95261556 -94.92099039
48.00026364 -42.51914138 -122.3402884
-51.99973636 -70.9288141 -70.23453339
48.00026364 -5.980484736 -156.2995894
-47.99973636 -73.20009677 -120.9795334
-51.99973636 -10.70210027 -157.2233954
-51.99973636 -31.52365394 -182.3190614
-51.99973636 -23.79916845 -192.7728054
48.00026364 -65.11793295 -95.99394339
37.45790164 -2.498586707e-05 -230.1088804
48.00026364 -74.09265779 -127.6002914
-51.99973636 -52.69162745 -71.39236139
48.00026364 -47.33373399 -42.56596439
52.00026364 -89.83397697 -95.00200539
-51.99973636 -38.83386158 -190.9557424
48.00026364 -52.54967608 -97.40776439
52.00026364 -18.39991433 -25.14247039
48.00026364 -26.4891208 -176.4689904
48.00026364 -35.95572024 -52.87634039
47.01432164 -14.78980755 -9.738645576e-05
-7.236562359 -2.498586707e-05 -139.7460844
-51.99973636 -18.85713773 -226.9966154
-47.99973636 -44.23685037 -8.089434386
48.00026364 -45.99339383 -35.96649839
-51.99973636 -50.19548718 -54.93123039
48.00026364 -21.00922244 -205.2696134
-56.83584836 -11.94467335 -9.738645576e-05
-45.18764936 -2.498586707e-05 -167.9093784
52.00026364 -14.4384653 -250.8753224
48.00026364 -83.59440561 -113.5866354
-51.99973636 -97.76176584 -17.71118939
-51.99973636 -43.9468809 -85.34661239
-51.99973636 -39.54935071 -246.9690794
52.00026364 -19.03056387 -34.80839239
-51.99973636 -57.73308367 -229.7564124
48.00026364 -46.65320973 -76.64556639
-47.99973636 -53.2744402 -21.59060539
-47.99973636 -36.23414745 -103.9532004
48.00026364 -2.194991006 -50.95798039
48.00026364 -75.4177233 -144.0744894
8.533252641 -2.498586707e-05 -72.96807339
-47.99973636 -101.2109183 -42.41407039
-32.54249836 -20.60331501 -9.738645576e-05
69.30244764 -10.59240749 -9.738645576e-05
48.00026364 -96.88282916 -18.64032839
52.00026364 -16.26144348 -88.58474139
54.39621264 -79.36259818 -9.738645576e-05
51.29570564 -47.61692311 -9.738645576e-05
52.00026364 -42.84416769 -130.9555384
52.00026364 -115.0864499 -3.092757386
52.00026364 -79.75105175 -112.5514224
-51.99973636 -47.08834451 -23.83345439
-51.99973636 -93.93409724 -37.61113339
52.00026364 -13.37641606 -126.3935754
-47.99973636 -46.62183558 -120.0365404
48.00026364 -28.79842836 -205.0873364
-51.99973636 -53.79193672 -139.2439974
-47.99973636 -10.47383257 -227.4275034
52.00026364 -17.31365263 -234.4265334
-47.99973636 -90.52317529 -57.61999739
-47.99973636 -39.73379314 -69.97925839
52.00026364 -4.145479756 -117.4466284
-51.99973636 -19.47909165 -171.9740684
-51.99973636 -23.88223562 -178.3788184
-51.99973636 -75.45415201 -30.52298439
48.00026364 -17.71035796 -52.57676539
-47.99973636 -58.30437156 -154.2695574
14.23731164 -2.498586707e-05 -167.9524254
48.00026364 -23.5145255 -43.78520239
52.00026364 -74.57018787 -68.39679539
-37.12828636 -2.498586707e-05 -2.855015386
-72.83867636 -2.498586707e-05 -249.3157754
48.00026364 -22.88717742 -81.92548639
52.00026364 -10.34073132 -60.37707139
-47.99973636 -17.17090002 -250.4554924
52.00026364 -66.46657336 -22.16358939
-47.99973636 -38.76262888 -146.7133094
-51.99973636 -81.0583602 -63.00327339
-47.99973636 -19.95757603 -80.23385339
-47.99973636 -32.14563997 -135.7771074
48.00026364 -24.48638195 -165.0099784
52.00026364 -63.29550195 -148.1086834
48.00026364 -66.6490653 -120.8082584
-51.99973636 -53.85104603 -112.2881634
21.84055464 -2.498586707e-05 -215.4564804
-47.99973636 -3.784510346 -245.2658274
52.00026364 -42.23716566 -83.86325039
-44.85841936 -2.498586707e-05 -92.63681739
-52.13502736 -2.498586707e-05 -140.6998304
-27.46515636 -2.771289306 -9.738645576e-05
-47.99973636 -22.06719913 -20.55889539
52.00026364 -104.0725319 -28.44195439
52.00026364 -56.44826661 -83.71774139
48.00026364 -55.95227287 -122.5916544
48.00026364 -79.02900102 -27.48725939
-51.99973636 -9.374197806 -92.64975239
-47.99973636 -34.54628816 -68.61934339
40.54295664 -2.498586707e-05 -188.5930404
52.00026364 -39.8765972 -177.0732754
-51.11403836 -2.498586707e-05 -39.83331039
-51.99973636 -80.54844155 -27.46412639
-51.99973636 -15.44921175 -210.0933624
-47.99973636 -28.53329256 -252.4438784
-51.99973636 -70.55190538 -21.00346439
-51.43073536 -61.63182601 -207.8923644
48.00026364 -38.61452203 -246.3533454
27.07165664 -3.934737726 -9.738645576e-05
-52.49875936 1.041013134 -227.1204574
52.00026364 -51.76529342 -180.8407424
-52.49875936 1.856297104 -71.48251039
-36.31698236 -2.498586707e-05 -48.15801039
48.00026364 -85.08338916 -52.40240639
-47.99973636 -39.11735128 -235.9150674
-47.99973636 -54.4962365 -206.8584154
-51.99973636 -32.63152809 -232.8699514
-69.04641636 -90.04608396 -9.738645576e-05
-51.99973636 -26.65699415 -17.01624739
48.00026364 -67.75748356 -115.7698384
52.00026364 -19.46053484 -60.12207339
-51.99973636 -39.58408939 -54.08922139
48.00026364 -87.80596159 -72.33438839
41.16505164 -2.498586707e-05 -20.87616339
48.00026364 -9.498261486 -124.0253874
-51.99973636 -59.4000705 -173.1543974
-47.99973636 -26.99597283 -127.7514754
-47.99973636 -89.6917268 -52.03904139
-47.99973636 -19.98545845 -117.9344614
-47.99973636 -14.33711882 -145.1002454
48.00026364 -7.618628706 -202.8597964
-51.99973636 -13.41517466 -141.0415884
-51.99973636 -81.36664058 -5.520902386
-51.99973636 -4.478984406 -219.0342494
52.00026364 -55.74293369 -164.6351604
52.00026364 -46.4955155 -146.7976184
52.00026364 -23.52651231 -207.2717754
-47.99973636 -71.37356562 -31.80720639
-47.99973636 -67.74857933 -28.01351839
52.00026364 -20.82113131 -139.6309004
-47.99973636 -36.62552755 -85.19173739
48.00026364 -53.1977122 -52.96847339
48.00026364 -11.42912239 -157.7406094
-51.99973636 -18.59574562 -161.5031924
48.00026364 -2.280417586 -123.2009064
-51.99973636 -19.46216673 -239.2175904
44.24439464 -114.7006434 -9.738645576e-05
48.00026364 -33.44696395 -32.83181339
48.00026364 -38.88591772 -199.9901234
-47.99973636 -13.92930168 -175.8694324
-51.99973636 -36.79852147 -227.0903314
-47.99973636 -77.79881283 -19.63032839
-36.61390736 -24.74633785 -9.738645576e-05
-47.99973636 -51.02631472 -200.8331004
-47.99973636 -34.86130429 -189.3805554
48.00026364 -76.60160129 -122.8396584
-51.99973636 -0.9134768159 -250.2983934
-58.54962136 -2.498586707e-05 -195.7502944
48.00026364 -8.798766866 -78.63265639
-51.99973636 -28.02908343 -31.37190339
48.00026364 -7.902995866 -246.3008704
-3.123497359 -2.498586707e-05 -221.6367824
-47.99973636 -96.87780389 -5.649269386
48.00026364 -12.08293452 -177.6043554
-37.56668836 -2.498586707e-05 -141.2420704
-47.99973636 -46.95562436 -175.7916624
48.00026364 -23.95294457 -194.9573864
-51.99973636 -58.45843687 -63.30756039
-51.99973636 -84.97221078 -75.84095639
52.00026364 -27.02578836 -111.6601804
52.00026364 -34.10720137 -131.7379154
-47.99973636 -4.395280716 -94.62051139
52.00026364 -70.82117442 -154.1224314
52.00026364 -2.331374146 -65.82536039
48.00026364 -74.63964646 -24.43375939
45.98216464 -2.498586707e-05 -211.7570804
52.00026364 -55.60497187 -108.9303454
52.00026364 -62.54145289 -16.73193139
-51.99973636 -57.97256169 -100.5521544
48.00026364 -43.9404813 -208.4975404
-51.99973636 -54.64471706 -81.68677739
48.00026364 -96.41833397 -26.81537439
52.00026364 -114.3740536 -8.083003386
-47.99973636 -47.9830075 -100.6721144
48.00026364 -30.66690146 -27.46111839
-15.77038036 -2.498586707e-05 -174.7230934
48.00026364 -72.89774457 -105.9571224
52.00026364 -71.31024651 -20.40780239
48.00026364 -119.7293154 -8.472798386
51.00183164 -52.64386945 -9.738645576e-05
48.00026364 -39.86061004 -152.6082404
-61.26588136 -32.36382696 -9.738645576e-05
-51.99973636 -38.27225299 -32.88075539
52.00026364 -23.82145771 -117.8969994
48.00026364 -4.269183556 -134.1218974
23.01724164 -2.498586707e-05 -165.4182714
52.00026364 -25.6423102 -50.49614039
52.00026364 -27.14874406 -92.24585639
-51.99973636 -71.6706609 -13.92671839
-51.99973636 -50.37547181 -37.35649039
-51.99973636 -66.23492358 -100.5883444
52.00026364 -12.66443382 -103.0406944
48.00026364 -51.139832 -7.624953386
52.00026364 -18.86007743 -152.8568244
48.00026364 -56.18777472 -153.6137674
33.19115864 -2.498586707e-05 -145.9556984
52.00026364 -55.40409004 -98.94242439
48.00026364 -3.777619966 -208.3336334
-51.99973636 -105.343652 -33.35589739
-51.99973636 -53.29700908 -168.1106244
-51.99973636 -45.29501017 -127.8710374
-51.99973636 -7.529496926 -196.5598564
52.00026364 -50.00570196 -189.3639844
52.00026364 -38.10994082 -26.01940239
-51.99973636 -44.33690931 -194.2213344
-68.00507736 -2.498586707e-05 -56.30960339
-47.99973636 -58.0215874 -161.7000534
-47.99973636 -80.07249798 -68.95808339
-47.99973636 -46.87405079 -163.1099984
52.00026364 -102.8056265 -6.422961386
-60.10183836 -2.498586707e-05 -54.50026539
