# .PCD v0.7 - Point Cloud Data file format
VERSION 0.7
FIELDS x y z
SIZE 4 4 4
TYPE F F F
COUNT 1 1 1
WIDTH 1171
HEIGHT 1
VIEWPOINT 0 0 0 1 0 0 0
POINTS 1171
DATA ascii
145.772565 -2.498582387e-05 -125.9103524
-15.550234 -2.498582387e-05 -130.9032354
-286.024832 -2.498582387e-05 -250.8718614
234.911431 -1.216782056 -9.738643121e-05
365.826332 -2.498582387e-05 -16.13489539
-55.529468 49.69228608 -9.738643121e-05
-478.54893 -2.498582387e-05 -175.3070634
-301.568948 -2.498582387e-05 -161.3633354
-142.332982 -2.498582387e-05 -183.9643124
-497.722635 -2.498582387e-05 -159.2197964
-574.653518 -2.498582387e-05 -108.8977874
508.18184 -2.498582387e-05 -31.73206739
103.781777 -2.498582387e-05 -21.80740739
430.319601 52.41558058 -9.738643121e-05
-63.001371 -2.498582387e-05 -189.9838934
-62.815718 -2.498582387e-05 -229.9081354
-671.853525 -2.498582387e-05 -151.3370364
287.448122 -2.498582387e-05 -21.37437539
-47.443253 -2.498582387e-05 -250.1490564
392.843077 37.51492048 -9.738643121e-05
492.491786 -2.498582387e-05 -118.0207704
-575.796163 -2.498582387e-05 -62.87687539
-525.245223 -2.498582387e-05 -230.4207944
-15.13292 -2.498582387e-05 -86.08098339
-530.782856 -2.498582387e-05 -58.61989239
-241.2684 -2.498582387e-05 -251.9262254
-134.724256 18.52099438 -9.738643121e-05
238.003582 -2.498582387e-05 -86.99876939
485.152666 -2.498582387e-05 -228.7688344
-445.014018 -2.498582387e-05 -46.62894539
337.88249 -2.498582387e-05 -20.26919539
66.165301 -2.498582387e-05 -131.7618594
564.445905 16.20904988 -9.738643121e-05
479.530426 -2.498582387e-05 -154.6408584
678.874583 -2.498582387e-05 -152.5991884
431.717875 15.59077748 -9.738643121e-05
11.949054 -2.498582387e-05 -69.94319739
-654.906768 -2.498582387e-05 -200.9073884
150.000215 44.19375028 -230.6640144
463.232267 -2.498582387e-05 -89.88066239
699.472531 -2.498582387e-05 -191.4331384
-394.763895 -2.498582387e-05 -113.7619684
710.000215 -0.3728770358 -235.1416104
309.121549 -2.498582387e-05 -211.7802014
347.517651 -2.498582387e-05 -124.4349434
-615.610941 -2.498582387e-05 -219.9363284
-228.567079 -2.498582387e-05 -210.9253104
-119.827595 -2.498582387e-05 -110.3030244
-548.210294 -2.498582387e-05 -239.5848684
678.99311 -2.498582387e-05 -24.90967739
597.155425 -2.498582387e-05 -60.58204539
-410.717785 -2.498582387e-05 -22.42152939
612.404572 -2.498582387e-05 -154.6734584
325.353891 -2.498582387e-05 -187.6613794
506.232567 -2.498582387e-05 -194.7245114
-601.140342 20.15886428 -9.738643121e-05
-448.943017 -2.498582387e-05 -191.1307474
191.080139 15.91946468 -9.738643121e-05
150.000215 33.68552538 -49.72826039
71.507171 -2.498582387e-05 -219.8554154
359.388765 -2.498582387e-05 -96.04753239
-158.293243 -2.498582387e-05 -228.6733764
-641.525299 44.92536188 -9.738643121e-05
495.65916 66.77110948 -9.738643121e-05
70.594144 -2.498582387e-05 -44.63351639
663.478376 54.66078478 -9.738643121e-05
-701.427694 -2.498582387e-05 -21.55867839
-652.109284 -2.498582387e-05 -20.97940839
599.212192 22.53472088 -9.738643121e-05
204.71969 -2.498582387e-05 -200.6530074
-319.987044 -2.498582387e-05 -22.76722139
360.312437 57.53501028 -9.738643121e-05
-524.86844 -2.498582387e-05 -22.11999339
7.707926003 -2.498582387e-05 -159.5196054
545.199211 -2.498582387e-05 -116.0470164
-331.169086 -2.498582387e-05 -127.8741844
8.048830003 46.94812388 -9.738643121e-05
-372.457489 -2.498582387e-05 -109.9123814
-285.438718 -1.670035796 -9.738643121e-05
-307.679162 -2.498582387e-05 -211.3416224
-522.910925 67.99997498 2.299674614
-140.258276 48.58586508 -9.738643121e-05
529.656464 -2.498582387e-05 -24.72266739
51.012415 -2.498582387e-05 -84.37459939
350.778968 23.57587558 -9.738643121e-05
-602.451387 -2.498582387e-05 -90.48536539
-226.244692 -2.498582387e-05 -17.06286339
-408.193264 47.16224928 -9.738643121e-05
-636.091776 -2.498582387e-05 -110.5589264
26.209655 -2.498582387e-05 -109.5427934
310.817476 48.72008248 -9.738643121e-05
-172.500964 47.68741928 -9.738643121e-05
-368.454643 -2.498582387e-05 -145.3984234
-203.129272 -2.498582387e-05 -17.16857239
48.526699 -2.498582387e-05 -172.0440314
106.497622 -2.498582387e-05 -230.0799234
-83.92884 -2.498582387e-05 -53.02595939
-717.433956 -2.498582387e-05 -89.99659439
-680.951201 -2.498582387e-05 -190.8092264
-183.671404 -2.498582387e-05 -153.3490144
-554.937783 44.15984138 -9.738643121e-05
241.714766 -2.498582387e-05 -171.9166584
-687.375969 -2.498582387e-05 -247.5995394
-613.155068 -2.498582387e-05 -19.99800539
144.000215 0.02753203418 -169.0308494
-691.336737 42.78330128 -9.738643121e-05
-293.189859 51.73230268 -9.738643121e-05
-143.794313 -2.498582387e-05 -20.36511239
558.270428 -2.498582387e-05 -79.06060739
-334.838577 10.51865413 -9.738643121e-05
116.839825 10.92615324 -9.738643121e-05
274.765972 -2.498582387e-05 -118.4091594
-218.039295 -2.498582387e-05 -55.58247839
-107.610054 -2.498582387e-05 -14.84261139
91.638513 17.98141178 -9.738643121e-05
-376.970226 46.58836878 -9.738643121e-05
144.000215 30.77541098 -149.1450194
417.524981 -2.498582387e-05 -26.36851339
286.03925 -2.498582387e-05 -178.0674494
555.462945 -1.919685486 -9.738643121e-05
-85.046842 -2.498582387e-05 -11.37874339
399.919344 -2.498582387e-05 -76.66135339
-676.480017 -2.498582387e-05 -120.0769434
150.000215 10.76460536 -222.6556304
-72.526001 -2.498582387e-05 -146.1887854
218.767842 -2.498582387e-05 -16.63911339
157.494207 -2.498582387e-05 -68.52450139
-231.595978 12.15606968 -9.738643121e-05
-201.199664 -2.498582387e-05 -92.03443339
691.07993 -2.498582387e-05 -50.46111239
-595.340927 -2.498582387e-05 -250.4414204
-473.296719 -2.212361296 -9.738643121e-05
-717.673138 -2.498582387e-05 -56.28506339
-534.997276 -2.498582387e-05 -88.33484039
-102.284645 37.19880978 -9.738643121e-05
336.342259 -2.498582387e-05 -154.5720394
495.362327 -2.498582387e-05 -16.68100839
506.901207 -2.498582387e-05 -58.33052239
467.841389 43.79855178 -9.738643121e-05
583.528967 -2.498582387e-05 -199.6111194
-491.219754 41.39673288 -9.738643121e-05
146.00471 49.99997498 -84.89478039
-263.2063 52.78075328 -9.738643121e-05
-352.376976 0.05221054418 -9.738643121e-05
-194.606025 -2.498582387e-05 -136.2329304
-219.611429 -2.498582387e-05 -98.37350839
-346.90582 -2.498582387e-05 -115.1885414
243.622122 -2.498582387e-05 -126.6904074
278.076359 -2.498582387e-05 -77.48488739
641.278777 -2.498582387e-05 -182.7026794
391.900225 -2.498582387e-05 -248.6292484
565.988164 -2.498582387e-05 -150.4727844
58.932675 -0.1760249758 2.424426614
399.409363 -2.498582387e-05 -10.65905439
434.453499 -2.498582387e-05 -203.9665164
103.039012 -2.498582387e-05 -152.5850974
188.429199 -2.498582387e-05 -12.40560639
87.225779 -2.498582387e-05 -196.3621484
520.887937 -2.498582387e-05 -180.3677574
432.182768 -2.498582387e-05 -12.85168339
-392.160635 58.43045488 -9.738643121e-05
534.925607 -2.498582387e-05 -250.9596564
593.962055 -2.498582387e-05 -126.3878274
127.274089 -2.498582387e-05 -67.75221439
-200.925975 12.36699638 -9.738643121e-05
671.29065 18.00644438 -9.738643121e-05
8.976839003 -2.498582387e-05 -11.75867239
549.603823 -2.498582387e-05 -39.98404939
-284.18755 -2.498582387e-05 -88.87482039
-13.078861 18.45716668 -9.738643121e-05
85.722725 40.97373068 -9.738643121e-05
638.05652 -2.498582387e-05 -44.08114339
594.233046 -2.498582387e-05 -89.01304939
-372.389572 -2.498582387e-05 -193.1490694
-174.689914 -2.498582387e-05 -52.86360239
713.056059 -2.498582387e-05 -44.51787039
312.720901 -2.498582387e-05 -56.53744739
20.062324 63.40286298 -9.738643121e-05
-333.021041 48.72782948 -9.738643121e-05
126.714302 -2.498582387e-05 -94.16050239
403.650657 16.16978258 -9.738643121e-05
-489.99166 -2.498582387e-05 -30.67359439
631.875358 -2.498582387e-05 -97.20457039
-162.058093 -2.498582387e-05 -188.4190564
-249.824528 17.14363878 -9.738643121e-05
-78.866554 17.28657868 -9.738643121e-05
71.278526 -2.498582387e-05 -113.3049804
-687.998372 22.72384408 -9.738643121e-05
-25.53124 -2.498582387e-05 -15.62697939
-441.98606 42.34476698 -9.738643121e-05
-673.586098 -2.498582387e-05 -54.77287839
662.482506 -2.498582387e-05 -69.10468839
-77.43037 -2.498582387e-05 -119.3611424
304.469674 -2.498582387e-05 -251.9262594
114.815528 -2.498582387e-05 -175.4622414
-633.828645 -2.498582387e-05 -157.8331144
-596.66207 -2.498582387e-05 -223.4167884
472.605961 -2.498582387e-05 -71.55235839
-544.743693 -2.498582387e-05 -194.7345734
631.412153 -2.498582387e-05 -76.41322639
-425.009236 -2.498582387e-05 -223.1380294
144.000215 38.43056738 -11.10743439
-709.818709 -2.498582387e-05 -140.4842674
-281.231651 -2.498582387e-05 -38.18360739
150.000215 13.32140778 -91.34962039
599.734568 43.04355438 -9.738643121e-05
-244.263008 -2.498582387e-05 -160.4594844
145.387515 16.15253898 -7.725567386
578.812246 -2.498582387e-05 -48.68498139
-105.286723 -2.498582387e-05 -37.87550939
689.235547 -2.498582387e-05 -235.0540584
212.943503 -2.498582387e-05 -149.9557154
-165.847999 18.36535588 -9.738643121e-05
314.160155 -2.498582387e-05 -149.5938444
241.297228 33.87280568 -9.738643121e-05
-630.233389 -2.498582387e-05 -200.1829544
545.072726 -2.498582387e-05 -213.4658654
318.446444 31.83321508 -9.738643121e-05
-214.549112 -2.498582387e-05 -224.6440974
466.389983 -2.498582387e-05 -20.61406439
150.000215 3.996919204 -188.0254904
-604.224365 -2.498582387e-05 -177.9518854
145.353465 -2.498582387e-05 -29.36232639
-506.777439 -2.498582387e-05 -230.6598484
114.371399 -2.498582387e-05 -138.0224234
-557.156909 -2.498582387e-05 -80.25892739
-565.256115 -2.498582387e-05 -201.7842544
-512.264589 -2.498582387e-05 -97.24224039
-28.332798 -2.498582387e-05 -204.5031824
312.56132 -2.498582387e-05 -126.2266354
-662.329783 -2.498582387e-05 -224.2266744
380.37812 -2.498582387e-05 -191.3841214
-82.84939 -2.498582387e-05 -194.8441234
-10.371107 -2.498582387e-05 -194.8199664
727.393232 -2.498582387e-05 -251.1663794
182.01149 -2.498582387e-05 -162.7961834
-109.734629 -2.498582387e-05 -132.5932094
246.243847 -2.498582387e-05 -64.19671039
252.589301 -2.498582387e-05 -149.8544114
258.67726 -2.498582387e-05 -7.905481386
464.282577 -2.498582387e-05 -231.2651484
150.000215 4.876356214 -248.8877914
-579.712562 -2.498582387e-05 -12.07750539
-265.777418 -2.498582387e-05 -48.60737939
155.226802 47.61824048 -9.738643121e-05
-428.015927 -2.498582387e-05 -105.9029564
690.622078 -2.498582387e-05 -207.6853664
-635.626639 -2.498582387e-05 -72.81007939
-571.209919 53.86376378 -9.738643121e-05
-4.018322997 -2.498582387e-05 -232.5932444
-385.343232 16.89149918 -9.738643121e-05
75.91858 -2.498582387e-05 -171.8653514
287.994886 16.88677128 -9.738643121e-05
55.441584 -2.498582387e-05 -252.0886424
-459.841993 -2.498582387e-05 -147.3265614
-439.20285 14.34076418 -9.738643121e-05
-349.93734 -2.498582387e-05 -213.8690794
205.958477 -2.498582387e-05 -130.6687764
524.819835 24.05613408 -9.738643121e-05
-134.178594 -2.498582387e-05 -243.8149434
-292.645524 -2.498582387e-05 -201.2902334
295.930087 -2.498582387e-05 -114.9184514
210.827377 22.48774198 -9.738643121e-05
-52.641071 -2.498582387e-05 -143.6751854
-638.209219 -2.498582387e-05 -128.7928654
438.374923 -2.498582387e-05 -69.78979039
289.71971 56.61873548 -9.738643121e-05
-459.933912 -2.498582387e-05 -83.53136539
-31.782784 -2.498582387e-05 -168.2499464
167.056327 -2.498582387e-05 -83.73211339
-233.368878 -2.498582387e-05 -69.68293339
704.36356 -2.498582387e-05 -109.5357574
357.723254 -2.498582387e-05 -54.96154439
-231.251906 -2.498582387e-05 -41.09301539
-67.901131 -2.498582387e-05 -23.21285939
120.498126 -2.498582387e-05 -207.1583444
-660.973156 -2.498582387e-05 -133.1294644
669.073805 -2.498582387e-05 -105.4233374
426.617929 -2.498582387e-05 -103.4926814
710.000215 -1.985027346 -12.75520139
-544.271146 -2.498582387e-05 -173.1142494
-696.509632 -2.498582387e-05 -182.0538154
-16.569379 -2.498582387e-05 -43.86706439
-462.896971 -2.498582387e-05 -207.2922724
150.000215 36.80124088 -133.4925154
-691.711353 -2.498582387e-05 -60.67636239
-115.129302 52.82531948 -9.738643121e-05
-265.859973 -2.498582387e-05 -212.1438474
483.92694 -2.498582387e-05 -191.8661814
-88.016506 -2.498582387e-05 -218.4822814
693.860254 -2.498582387e-05 -78.65771139
497.245042 -2.498582387e-05 -153.7086864
-533.122243 -2.498582387e-05 -110.6456694
-562.233169 -2.498582387e-05 -15.94660039
-315.510268 -2.498582387e-05 -54.32933939
-403.880474 -2.498582387e-05 -133.4100294
-498.606849 -2.498582387e-05 -110.8675114
469.743893 -2.498582387e-05 -51.90917039
-155.911237 -2.498582387e-05 -86.72468039
-490.270221 -2.498582387e-05 -10.69173939
-457.564649 -2.498582387e-05 -34.20549839
-502.071745 15.31529308 -9.738643121e-05
419.326728 -2.498582387e-05 -78.79747039
567.468021 -2.498582387e-05 -16.01290939
-372.90061 -2.498582387e-05 -236.7918874
367.039176 -2.498582387e-05 -228.5273844
685.504499 -2.498582387e-05 -8.560798386
642.147945 26.70499528 -9.738643121e-05
535.501583 53.64591818 -9.738643121e-05
173.804065 22.72768458 -9.738643121e-05
-469.465576 -2.498582387e-05 -116.5786794
576.412548 -2.498582387e-05 -124.0968454
-565.74405 -2.498582387e-05 -47.90518739
-283.791877 -2.498582387e-05 -163.7397174
-329.618073 -2.498582387e-05 -226.7468724
485.958475 18.95660168 -9.738643121e-05
-230.947119 -2.498582387e-05 -192.2912444
223.538466 -2.498582387e-05 -208.8990984
721.445747 49.16651948 -9.738643121e-05
-555.162073 -2.498582387e-05 -118.3478294
563.409619 35.42089968 -9.738643121e-05
-262.887106 -2.498582387e-05 -99.26542839
70.925762 -2.498582387e-05 -82.25669739
-349.976853 -2.498582387e-05 -52.21906539
715.840919 18.20264498 -9.738643121e-05
-402.208193 -2.498582387e-05 -169.9733624
629.917773 -2.498582387e-05 -121.9081014
132.323561 -2.498582387e-05 -136.8576574
-636.933774 8.629188674 -9.738643121e-05
555.568842 -2.498582387e-05 -180.7258714
-393.70594 -2.498582387e-05 -19.15501039
-727.073409 -2.498582387e-05 -130.5167564
-731.495872 -2.498582387e-05 -196.9066444
-214.237641 -2.498582387e-05 -127.0117884
-616.972283 -2.498582387e-05 -107.5199324
692.123248 -2.498582387e-05 -168.6377654
-582.878683 -2.498582387e-05 -46.27226539
678.47085 -2.498582387e-05 -248.9282484
144.000215 35.79383468 -109.5760904
-583.108825 13.43669688 -9.738643121e-05
46.192174 -2.498582387e-05 -58.15185839
-92.389088 -2.498582387e-05 -164.0604834
219.591828 -2.498582387e-05 -168.2951504
434.425678 -2.498582387e-05 -226.2563774
-344.820919 35.14769718 -9.738643121e-05
-448.137984 -2.498582387e-05 -16.96686539
-164.302253 -2.498582387e-05 -147.8025654
337.046474 -2.498582387e-05 -64.06877239
303.309766 -2.498582387e-05 -186.7594474
-259.420407 -2.498582387e-05 -17.25689439
-316.156728 -2.498582387e-05 -170.1717874
183.623443 67.99997498 0.8384146136
145.343015 49.99997498 -48.18214139
-654.811116 -2.498582387e-05 -160.2561074
364.154412 9.734174914 -9.738643121e-05
-708.05648 67.99997498 2.074270614
636.545365 -2.498582387e-05 -160.7039754
10.907225 -2.498582387e-05 -176.2355144
144.000215 35.54500328 -183.4757934
-718.090163 -2.498582387e-05 -18.24244739
414.775547 -2.498582387e-05 -43.13243439
351.756042 -2.498582387e-05 -194.3861304
718.001795 -2.498582387e-05 -195.6641594
-125.800601 -2.498582387e-05 -90.35168239
-125.903064 -2.498582387e-05 -147.0845994
121.610353 -2.498582387e-05 -237.7502494
321.240687 -2.498582387e-05 -6.627306386
725.942412 -2.498582387e-05 -133.5761314
10.282341 -2.498582387e-05 -216.4918834
-6.551993997 -2.498582387e-05 -149.3616714
383.819277 -2.498582387e-05 -22.89300839
-49.516804 -2.498582387e-05 -65.42309439
-64.543785 -2.498582387e-05 -83.24689039
-604.656609 -2.498582387e-05 -129.6002074
610.485456 -2.498582387e-05 -245.6798684
527.293551 -2.498582387e-05 -121.2590724
-187.37229 -2.498582387e-05 -116.4896144
721.545406 -2.498582387e-05 -100.3434414
1.733743003 -2.498582387e-05 -56.57005239
675.126176 -2.498582387e-05 -121.2920054
385.008356 -2.498582387e-05 -115.9826454
-185.420016 -2.498582387e-05 -75.45650239
-218.702516 -2.498582387e-05 -143.2311814
-372.368941 -2.498582387e-05 -49.34166939
-555.962001 26.28417388 -9.738643121e-05
1.198491003 -2.498582387e-05 -93.56410239
144.000215 38.90567078 -163.7795964
144.000215 15.19404188 -46.19316039
29.326535 -2.498582387e-05 -151.5036834
300.872026 -2.498582387e-05 -92.21948439
625.5529 66.95022168 -9.738643121e-05
-421.505467 57.17779418 -9.738643121e-05
596.539893 -2.498582387e-05 -20.39805839
586.541292 -2.498582387e-05 -163.2872384
144.000215 12.63374648 -205.3001234
-459.676062 67.99997498 0.5285276136
-166.433499 -2.273767706 -9.738643121e-05
-343.437189 -2.498582387e-05 -32.96803039
-226.383797 -2.498582387e-05 -158.5880424
-212.178797 -2.498582387e-05 -181.3933754
118.697458 -2.498582387e-05 -14.50157239
-84.28885 62.35843588 -9.738643121e-05
222.046297 -2.498582387e-05 -91.57638939
-203.11132 -2.498582387e-05 -71.05903839
-433.280121 -2.498582387e-05 -196.6252634
-279.843715 -2.498582387e-05 -126.7761554
-383.785171 -2.498582387e-05 -72.17625739
124.235783 40.42913188 -9.738643121e-05
-21.874121 67.99997498 2.486033614
-320.666781 -2.498582387e-05 -85.05150339
84.461628 -2.498582387e-05 -232.1386564
-32.428632 -2.498582387e-05 -76.01470339
69.67936 44.78867048 -9.738643121e-05
131.527406 -2.498582387e-05 -51.84362539
-295.549777 -2.498582387e-05 -14.57835639
-89.612351 -2.498582387e-05 -91.49807639
-615.383477 -2.498582387e-05 -80.05582039
-175.396272 -2.498582387e-05 -216.3788554
-184.598059 15.40838188 -9.738643121e-05
49.801833 -2.498582387e-05 -130.6687794
343.936569 56.69072688 -9.738643121e-05
155.085041 -2.498582387e-05 -1.032825386
519.182722 -2.498582387e-05 -219.6881524
-319.063887 14.79317308 -9.738643121e-05
96.775575 -2.498582387e-05 -89.84274639
87.595584 -2.498582387e-05 -24.21314939
-465.577397 -2.498582387e-05 -185.2410144
-396.51012 -2.498582387e-05 -213.8665594
-349.127956 -2.498582387e-05 -179.2023684
207.49364 -2.498582387e-05 -100.1716084
448.226379 18.01377598 -9.738643121e-05
-357.64524 -2.498582387e-05 -15.66934539
-540.028169 -2.498582387e-05 -45.07423339
235.168804 -2.498582387e-05 -38.89524839
-242.845946 -2.498582387e-05 -218.6535174
-700.91793 -2.498582387e-05 -89.45443839
-592.642184 -2.498582387e-05 -150.7077724
-474.220625 58.25317388 -9.738643121e-05
-504.757899 -2.498582387e-05 -24.00750139
268.067874 -2.498582387e-05 -194.3057254
290.108942 -2.498582387e-05 -214.7552584
-712.036951 -2.498582387e-05 -105.2450204
234.284219 -2.498582387e-05 -240.9241594
456.223162 -2.498582387e-05 -245.2569864
211.166643 -2.498582387e-05 -184.4265514
493.034976 -2.498582387e-05 -44.74036039
462.382802 -2.498582387e-05 -143.5380704
546.737553 -2.498582387e-05 -238.5079444
383.992311 -2.498582387e-05 -74.18671839
446.020105 -2.498582387e-05 -172.6912564
-138.449031 -2.498582387e-05 -118.0687384
684.762073 52.24887968 -9.738643121e-05
584.012076 -2.498582387e-05 -235.5438104
-27.461323 36.65405768 -9.738643121e-05
697.343576 64.52105098 -9.738643121e-05
275.267541 -2.498582387e-05 -147.7999214
-701.886163 -2.498582387e-05 -240.6481984
656.035207 -2.498582387e-05 -213.6848744
-49.96247 -2.498582387e-05 -199.8547984
255.470392 62.15076728 -9.738643121e-05
168.10611 -2.498582387e-05 -191.4454144
363.193359 -2.498582387e-05 -162.7534084
-400.344668 -2.498582387e-05 -86.01033639
366.621287 -2.498582387e-05 -135.0248074
-659.571856 15.86013838 -9.738643121e-05
548.331228 -2.498582387e-05 -197.6452464
407.813933 -2.498582387e-05 -181.4350044
-726.865171 15.59286018 -9.738643121e-05
-385.534382 -2.498582387e-05 -176.3330614
-695.484879 -2.498582387e-05 -207.8868894
653.061167 -2.498582387e-05 -38.78566139
-524.080129 40.64270228 -9.738643121e-05
-616.848117 17.25045878 -9.738643121e-05
-502.171808 -2.498582387e-05 -127.4700394
-296.957061 -2.498582387e-05 -59.86674339
150.000215 34.39786258 -247.9736394
-365.24088 -2.498582387e-05 -80.14639939
150.000215 33.15732598 -76.39934139
189.555739 -2.498582387e-05 -127.3086574
-142.203713 -2.498582387e-05 -207.2533124
-687.171109 -2.498582387e-05 -231.7335014
557.864284 -2.498582387e-05 -105.2926804
-364.532127 -2.498582387e-05 -125.6605284
431.355229 -2.498582387e-05 -147.3145724
678.855882 -2.498582387e-05 -63.64877339
-424.170466 -2.498582387e-05 -87.26922439
-410.895832 31.56628688 -9.738643121e-05
-432.103034 -2.498582387e-05 -171.1253754
544.48655 -2.498582387e-05 -55.22277239
-245.162733 -2.498582387e-05 -115.2926094
620.287718 -2.498582387e-05 -214.6913104
-691.820707 -2.498582387e-05 -116.3614684
-408.897559 15.84105148 -9.738643121e-05
72.346978 -2.498582387e-05 -28.22402339
-667.93429 -2.498582387e-05 -176.4122204
622.565813 8.261331584 -9.738643121e-05
-305.760516 42.24115288 -9.738643121e-05
-152.883145 -2.498582387e-05 -53.52928739
91.160604 -2.498582387e-05 -114.3675454
150.000215 46.36761208 -213.1943844
-714.644263 -2.498582387e-05 -213.6662964
-540.244501 -2.498582387e-05 -73.51918539
-643.312213 -2.498582387e-05 -87.72056239
728.964901 -2.498582387e-05 -184.1632374
-488.131668 -2.498582387e-05 -209.3902534
-297.818171 11.21993039 -9.738643121e-05
-424.377954 -2.498582387e-05 -14.24809439
-623.580671 -2.498582387e-05 -238.8609274
261.958667 -2.498582387e-05 -246.2250844
-382.125617 -2.498582387e-05 -0.7747903864
205.030233 -2.498582387e-05 -238.4211344
-470.499785 -2.262285716 -64.92701339
441.192352 -2.498582387e-05 -110.4488864
-209.586363 37.39453398 -9.738643121e-05
325.542172 -2.498582387e-05 -89.72713139
354.783988 42.95843318 -9.738643121e-05
-573.363663 -2.498582387e-05 -124.4189964
-232.854281 62.10063378 -9.738643121e-05
188.299766 -2.498582387e-05 -177.0384524
-587.039074 52.82099258 -9.738643121e-05
653.211233 -2.498582387e-05 -6.012494386
-53.505636 -2.498582387e-05 -13.02584639
-97.875242 52.62159558 -9.738643121e-05
242.880452 -2.498582387e-05 -210.6693374
488.8594 -2.498582387e-05 -140.0469494
-667.399075 -2.498582387e-05 -15.93632439
370.32155 -2.498582387e-05 -85.03147339
-607.546192 -2.498582387e-05 -238.4950774
-538.394132 67.99997498 1.493127614
441.747556 -2.498582387e-05 -46.33354839
77.917022 -2.498582387e-05 -60.80682339
78.828253 9.300923744 -9.738643121e-05
-177.173469 32.94020838 -9.738643121e-05
-359.057584 67.88431448 -9.738643121e-05
-504.510888 67.99997498 0.1055896136
-538.722065 -2.498582387e-05 -15.14789939
-438.182018 -2.498582387e-05 -60.49146339
-154.854201 -2.498582387e-05 -174.7751374
-248.513096 -2.498582387e-05 -79.24441739
498.53843 -2.498582387e-05 -236.4268734
192.103306 -2.498582387e-05 -94.35798239
193.480939 51.63713138 -9.738643121e-05
325.894629 -2.498582387e-05 -220.4949744
-533.401189 -2.498582387e-05 -215.7962234
-560.065186 -2.498582387e-05 -229.7389634
57.51755 -2.498582387e-05 -22.31382439
-246.019463 -2.498582387e-05 -187.5635604
527.313499 -2.498582387e-05 -104.6839354
259.573991 -2.498582387e-05 -120.5564544
447.244047 51.58393918 -9.738643121e-05
452.437474 -2.498582387e-05 -78.31650539
374.84699 -2.498582387e-05 -53.85588939
665.762001 -2.498582387e-05 -172.6570344
-691.612066 -2.498582387e-05 -157.3480254
93.791422 -2.498582387e-05 -56.17453839
499.058697 8.061367764 -9.738643121e-05
-431.442243 -2.498582387e-05 -250.8305974
-488.98409 -2.498582387e-05 -244.1766634
406.345303 -2.498582387e-05 -212.5536104
-21.744429 -0.8166905658 -9.738643121e-05
-687.387065 -2.498582387e-05 -10.55337739
170.045171 -2.498582387e-05 -206.8771474
-48.260555 32.82333558 -9.738643121e-05
475.886811 -2.498582387e-05 -118.0943544
505.592957 43.01111268 -9.738643121e-05
-53.190621 64.75444358 -9.738643121e-05
-598.102791 66.35634448 -9.738643121e-05
629.204462 -2.498582387e-05 -228.0466444
-514.799482 -2.498582387e-05 -63.24801839
-412.138178 -2.498582387e-05 -73.83042739
-251.019339 -2.498582387e-05 -145.0372794
454.055961 -2.498582387e-05 -203.5991364
550.039357 -2.498582387e-05 -147.9142624
42.913916 -2.498582387e-05 -230.3017644
-55.961518 -2.498582387e-05 -216.3273134
150.500215 -1.863898766 -155.4203774
660.588564 -2.498582387e-05 -149.1935444
-108.826271 -2.498582387e-05 -72.31774039
-632.960992 60.56966348 -9.738643121e-05
-425.06696 -2.498582387e-05 -139.1877004
177.428321 37.44749698 -9.738643121e-05
-165.711589 -2.498582387e-05 -19.87569439
216.109252 -2.498582387e-05 -119.3405854
-451.02636 54.47298658 -9.738643121e-05
327.550246 -2.498582387e-05 -112.6575484
539.022736 -2.498582387e-05 -182.1002274
-200.602151 49.55291318 -9.738643121e-05
-492.067044 -2.498582387e-05 -192.5038324
-324.471458 -2.498582387e-05 -37.19680639
-216.756417 14.97769618 -9.738643121e-05
-633.571707 -2.498582387e-05 -11.93175839
136.027697 -2.498582387e-05 -203.0741604
470.316907 -2.498582387e-05 -103.2171764
144.000215 19.70675468 -105.5614704
-366.564091 35.64596778 -9.738643121e-05
-284.817505 23.87085948 -9.738643121e-05
237.497531 51.05017628 -9.738643121e-05
144.000215 6.726442634 -67.84503439
-38.13502 -2.498582387e-05 -149.3019084
-83.07914 -2.498582387e-05 -179.7590924
521.8938 -2.498582387e-05 -243.1020214
494.926772 -2.498582387e-05 -82.67686339
-30.302846 -2.498582387e-05 -237.5504744
201.755381 -2.498582387e-05 -19.41859939
145.107373 -2.498582387e-05 -235.5104004
-414.467458 -2.498582387e-05 -112.4548504
-394.901729 -2.498582387e-05 -145.9634844
268.759441 -2.498582387e-05 -161.3541064
-198.593391 -2.498582387e-05 -211.3968714
661.910231 -2.498582387e-05 -229.2201014
-2.023226997 -2.498582387e-05 -78.74702539
-441.458254 -2.498582387e-05 -132.2175214
208.55965 51.04256278 -9.738643121e-05
269.984463 50.13476668 -9.738643121e-05
550.139709 47.69240638 -9.738643121e-05
-101.110505 -2.498582387e-05 -176.2723034
729.24568 -2.498582387e-05 -71.26713439
-525.290331 -2.498582387e-05 -74.69104039
8.227293003 -2.498582387e-05 -39.18979039
-326.377049 -2.498582387e-05 -65.73108739
401.093677 -2.498582387e-05 -227.5716724
-316.693364 -2.498582387e-05 -133.3865864
-721.438068 -2.498582387e-05 -161.7998994
58.281548 14.57057108 -9.738643121e-05
-142.994867 -2.498582387e-05 -145.1257684
562.873485 -2.498582387e-05 -33.11613239
334.394739 -2.481713916 -9.738643121e-05
600.491108 -2.498582387e-05 -75.13839539
-154.211922 53.89577938 -9.738643121e-05
-386.132715 -2.498582387e-05 -55.09459839
174.816948 -2.498582387e-05 -35.13885539
-69.103224 42.60593278 -9.738643121e-05
-624.620353 46.60783858 -9.738643121e-05
-126.359449 -2.498582387e-05 -164.1063224
-588.194545 -2.498582387e-05 -31.86264039
526.832469 -2.498582387e-05 -85.85394339
595.866327 4.950763424 -9.738643121e-05
270.411952 -2.498582387e-05 -90.19437639
350.362052 -2.498582387e-05 -247.0322414
395.788094 -2.498582387e-05 -105.1289484
408.156309 47.49803918 -9.738643121e-05
-670.627818 67.99997498 1.980518614
-123.102224 -2.498582387e-05 -50.73179339
350.540161 -2.498582387e-05 -212.9199944
-311.383522 -2.498582387e-05 -225.6699414
520.197454 -2.498582387e-05 -137.1317244
264.495146 -2.498582387e-05 -66.48757039
-77.578957 -2.498582387e-05 -229.8094104
-341.809772 -2.423296896 -93.72748439
579.142256 -2.498582387e-05 -185.5314494
-7.883198997 -2.498582387e-05 -14.67210439
-23.205408 -2.498582387e-05 -220.0441454
280.003018 -2.498582387e-05 -132.1690984
41.179598 -2.498582387e-05 -28.03469139
374.293097 -1.218685696 -9.738643121e-05
64.220932 -2.498582387e-05 -161.7400404
399.788085 -2.498582387e-05 -141.3779244
-25.070424 -2.498582387e-05 -182.3149354
-328.731375 67.14365468 -9.738643121e-05
-446.836873 -2.498582387e-05 -227.7084424
597.270081 64.39418758 -9.738643121e-05
461.106909 57.26018738 -9.738643121e-05
-714.214838 -2.498582387e-05 -232.7015174
38.634519 -2.498582387e-05 0.5564006136
620.655064 -2.498582387e-05 -42.69076739
-524.34874 18.42285528 -9.738643121e-05
-411.843149 -2.498582387e-05 -58.59712439
36.60655 -2.498582387e-05 -120.9744014
260.526108 31.67255948 -9.738643121e-05
585.431802 17.57478068 -9.738643121e-05
-210.949906 -2.498582387e-05 -166.8117114
159.761885 -2.498582387e-05 -221.0180334
-713.656058 -1.049306646 -9.738643121e-05
588.12649 51.90836048 -9.738643121e-05
-273.914686 -2.498582387e-05 -181.5105874
-654.621059 38.48458288 -9.738643121e-05
115.736041 53.60461678 -9.738643121e-05
-607.718298 -2.498582387e-05 -2.977253386
-65.629011 -2.498582387e-05 -108.9594754
343.259713 -2.498582387e-05 -50.81197839
352.234695 -2.498582387e-05 -22.83319439
-608.022393 -2.498582387e-05 -50.44585339
-724.484472 51.45401918 -9.738643121e-05
318.092144 -2.498582387e-05 -239.9900764
463.136044 4.628063804 -9.738643121e-05
-596.771254 -2.498582387e-05 -164.6778634
425.600096 -2.498582387e-05 -237.8388844
430.55243 66.97148788 -9.738643121e-05
646.892226 -2.498582387e-05 -251.4955854
18.511387 36.83152338 -9.738643121e-05
-548.331922 -2.498582387e-05 -142.3437194
-701.343248 15.50641938 -9.738643121e-05
335.83975 -2.498582387e-05 -232.7400494
151.379183 -2.498582387e-05 -16.14996439
56.232642 56.23436748 -9.738643121e-05
148.539034 49.99997498 -99.17917239
-438.906686 -2.498582387e-05 -80.28655939
394.972074 -2.498582387e-05 -188.1367714
732.346454 -2.498582387e-05 -39.51504739
-295.357123 -2.498582387e-05 -239.8199234
676.126522 -2.498582387e-05 -204.3732844
-639.886517 -2.498582387e-05 -42.38684439
87.499855 -2.498582387e-05 -143.7846224
-205.95153 -2.498582387e-05 -47.62326839
-226.542956 46.67337288 -9.738643121e-05
116.570747 25.36678868 -9.738643121e-05
516.664328 -2.498582387e-05 -204.7129564
161.219283 -2.498582387e-05 -40.00032839
623.107274 -2.498582387e-05 -192.5665704
508.291816 -2.498582387e-05 -173.3495864
269.921137 -2.498582387e-05 -104.5948744
160.424441 -2.498582387e-05 -133.1201434
106.172141 -2.498582387e-05 -126.1969354
-26.22023 -2.498582387e-05 -95.24534039
605.486867 -2.498582387e-05 -117.2049714
-395.87206 -2.498582387e-05 -249.7908044
-110.982495 25.75634418 -9.738643121e-05
-109.010625 -2.498582387e-05 -208.9058684
-650.396413 -2.498582387e-05 -232.9160324
-167.463181 -2.498582387e-05 -95.47272739
91.258745 -2.498582387e-05 -247.7498544
-510.723328 -2.498582387e-05 -165.2834594
62.548802 -2.498582387e-05 -232.3201474
-95.23957 -2.498582387e-05 -22.73787939
-608.214488 52.47076548 -9.738643121e-05
-427.448853 -2.498582387e-05 -47.51262039
568.522481 67.89869818 -9.738643121e-05
-114.951996 67.10793798 -9.738643121e-05
294.42059 -2.498582387e-05 -55.06872439
150.000215 19.39045948 -133.5986304
-459.364922 -2.498582387e-05 -53.19650439
144.000215 35.78653278 -62.58645139
358.923736 -2.498582387e-05 -181.4200534
-339.486089 -2.498582387e-05 -198.2182164
-16.366508 -2.498582387e-05 -164.3568164
-218.074362 -2.498582387e-05 -247.2342504
-681.642217 -2.498582387e-05 -43.02206339
-491.928077 -2.498582387e-05 -146.2067204
27.148752 -2.498582387e-05 -191.3009734
56.004339 -2.498582387e-05 -97.69081339
217.826545 4.094455144 -9.738643121e-05
569.180952 -2.498582387e-05 -67.02473239
713.188123 -2.498582387e-05 -251.4694714
529.166748 -2.498582387e-05 -148.7099444
-430.97558 -2.498582387e-05 -236.5685094
355.413812 -2.498582387e-05 -109.6783394
28.633344 -2.498582387e-05 -207.4168914
-731.037868 -2.498582387e-05 -238.1378854
446.013596 -2.498582387e-05 -16.00592839
-716.791193 -2.498582387e-05 -186.6519334
-212.967956 -2.498582387e-05 -210.5623004
312.451784 16.14272158 -9.738643121e-05
144.000215 30.63240798 -227.8934014
382.271772 54.58277018 -9.738643121e-05
428.381166 -2.498582387e-05 -182.5689874
-575.186823 -2.498582387e-05 -141.1821594
-555.907076 -2.498582387e-05 -251.4310884
319.123661 -2.498582387e-05 -200.3337434
-201.194998 67.24815558 -9.738643121e-05
564.378156 -2.498582387e-05 -92.78312539
506.000719 -2.498582387e-05 -96.19943939
-616.11134 -2.498582387e-05 -35.77890939
200.818176 -2.498582387e-05 -44.20495439
300.181318 -2.498582387e-05 -148.0285914
30.765655 -2.498582387e-05 -95.21113839
150.000215 9.503257544 -114.4286894
-373.591684 -2.498582387e-05 -32.43109539
264.089261 -2.498582387e-05 -41.61483439
517.236636 9.466318524 -9.738643121e-05
106.658304 -2.498582387e-05 -214.0638994
-442.327995 28.30788728 -9.738643121e-05
150.000215 49.92512508 -16.45994639
377.739628 -2.498582387e-05 -242.1803904
293.511677 -2.498582387e-05 -240.7024514
150.000215 15.87758188 -159.8100964
323.250785 -2.498582387e-05 -160.2009494
387.165581 -2.498582387e-05 -163.4789124
510.49185 57.30273068 -9.738643121e-05
649.249956 55.61922578 -9.738643121e-05
-95.020431 24.48974348 -9.738643121e-05
-15.638361 55.70565958 -9.738643121e-05
-148.524162 20.46332218 -9.738643121e-05
391.82644 23.53608198 -9.738643121e-05
-320.37219 -2.498582387e-05 -112.3784954
-566.310763 -2.498582387e-05 -170.6949424
421.815391 -2.498582387e-05 -133.1764644
-279.277748 -2.498582387e-05 -231.1546264
283.105335 -2.498582387e-05 -34.58731139
-584.777369 27.23463468 -9.738643121e-05
-399.764328 -2.498582387e-05 -44.10196139
192.876206 -2.498582387e-05 -207.8956564
561.372076 -2.498582387e-05 -236.8880804
240.293245 -2.498582387e-05 -100.6805524
52.80591 -2.498582387e-05 -203.3778204
-620.234803 -2.498582387e-05 -169.3962264
569.701219 -2.498582387e-05 -208.4082484
-293.248731 -2.498582387e-05 -73.18183339
-122.55954 -2.498582387e-05 -73.76306239
725.926794 -2.498582387e-05 -166.9527694
-119.556804 -2.498582387e-05 -239.4372884
22.934964 -2.498582387e-05 -122.9537434
109.910768 -2.498582387e-05 -41.21078839
-64.105136 -2.498582387e-05 -173.9819514
533.128397 67.99997498 1.056621614
317.033476 67.11438028 -9.738643121e-05
-131.142739 -2.498582387e-05 -10.35150539
189.852574 -2.498582387e-05 -228.9970434
144.000215 29.61535558 -38.02904539
252.54878 -2.498582387e-05 -26.94114639
-728.188608 -2.498582387e-05 -210.9391404
605.538268 -2.498582387e-05 -97.88464439
673.800233 31.50315948 -9.738643121e-05
-279.126315 -2.498582387e-05 -72.11866239
-455.410029 -2.498582387e-05 -249.8064324
394.097132 61.53554128 -9.738643121e-05
601.017478 -2.498582387e-05 -162.3198854
715.023753 -1.570655736 -9.738643121e-05
633.308346 -2.498582387e-05 -12.39551939
-366.080555 -0.01254803582 -9.738643121e-05
661.726327 -2.498582387e-05 -82.83492339
-719.350171 -2.498582387e-05 -37.78166139
625.431607 50.90073808 -9.738643121e-05
433.081555 35.94920818 -9.738643121e-05
422.052761 -2.498582387e-05 -212.4748734
-667.280597 -2.498582387e-05 -190.4532634
-96.099642 -2.498582387e-05 -61.90709339
487.339386 51.50073378 -9.738643121e-05
-263.77725 -2.498582387e-05 -62.11720139
-170.314685 -2.498582387e-05 -235.1532224
-454.280483 36.41979638 -9.738643121e-05
603.485662 -2.498582387e-05 -136.1556944
623.483317 -2.498582387e-05 -146.7181264
-510.369324 -2.498582387e-05 -217.5062284
-232.14447 -1.459133126 -9.738643121e-05
-588.922873 -2.498582387e-05 -198.4913624
693.838401 -2.498582387e-05 -120.4853084
244.066884 -2.498582387e-05 -187.6841224
-147.772076 -2.498582387e-05 -67.70810239
173.901785 -2.498582387e-05 -134.8128484
-358.472051 -2.498582387e-05 -155.3624274
-455.940724 -2.498582387e-05 -115.4398674
-366.399036 -2.498582387e-05 -206.5292744
-93.360069 -0.3141953758 -9.738643121e-05
127.128398 -1.623961506 -9.738643121e-05
715.239815 -2.498582387e-05 -153.4329534
-681.929229 -2.498582387e-05 -87.49751339
-291.104471 -2.498582387e-05 -47.46126639
-152.260102 67.99997498 0.07519261357
-481.504866 31.98358078 -9.738643121e-05
303.152561 -2.498582387e-05 -19.02283839
-98.805801 -2.498582387e-05 -123.9203224
-340.711307 -2.498582387e-05 -142.7517244
-614.676985 -2.498582387e-05 -65.94120939
-59.314881 -2.498582387e-05 -243.5044844
-629.944015 -2.498582387e-05 -139.4667214
564.669573 -2.498582387e-05 -117.4401344
-201.163529 -2.498582387e-05 -32.02126339
-51.198939 19.66783398 -9.738643121e-05
36.038917 -2.498582387e-05 -43.83274739
-29.649129 -2.498582387e-05 -251.0094034
480.19896 -2.498582387e-05 -169.8140644
33.349899 61.30964868 -9.738643121e-05
-491.633763 -2.498582387e-05 -172.1927514
-599.885144 -2.498582387e-05 -17.81262939
-657.857072 -2.498582387e-05 -250.8720894
328.795014 -2.498582387e-05 -174.6650264
-570.499785 -2.360112006 -75.19103339
-640.92294 -2.498582387e-05 -186.2111514
656.557406 67.99997498 1.880506614
-691.085612 -2.498582387e-05 -32.49467139
-232.607672 -2.498582387e-05 -105.0269234
-437.586099 -2.498582387e-05 -183.9294304
-554.52621 -2.498582387e-05 -4.023332386
-497.636705 -2.498582387e-05 -72.22778039
-339.83269 -2.498582387e-05 -61.47685039
-78.17557 1.513345254 -9.738643121e-05
30.015408 -2.498582387e-05 -235.4181414
-411.651919 -2.498582387e-05 -223.7287634
-10.024572 -2.498582387e-05 -117.3091464
-541.458495 -2.498582387e-05 -226.4544374
614.688285 -2.498582387e-05 -68.74794039
-155.517364 -2.498582387e-05 -116.5101374
701.157857 -2.498582387e-05 -140.9830854
-292.345872 -2.498582387e-05 -114.8308854
-359.048029 -2.498582387e-05 -243.9519454
-729.990177 -2.498582387e-05 -48.17411439
328.220668 50.42378678 -9.738643121e-05
-670.958218 -2.498582387e-05 -107.9856544
6.657958003 0.6582750042 1.980234614
144.040708 -2.200021936 -143.8139364
-37.322802 49.18417908 -9.738643121e-05
-384.651573 -2.498582387e-05 -104.6756634
-592.524632 -2.498582387e-05 -76.17529239
725.486035 -2.498582387e-05 -215.1393224
-318.84964 52.07753818 -9.738643121e-05
-1.401867997 -2.498582387e-05 -245.5692304
149.165889 49.99997498 -133.3278514
487.290682 -2.498582387e-05 -243.3745984
255.739616 -2.498582387e-05 -234.5493714
508.164847 -2.498582387e-05 -45.19313539
-461.860074 -2.498582387e-05 -161.5273974
404.73659 -2.498582387e-05 -240.9273234
-497.393911 27.62754378 -9.738643121e-05
-198.375278 -2.498582387e-05 -3.738346386
581.086072 -2.498582387e-05 -89.77133739
85.701853 -2.498582387e-05 -180.6716474
186.24073 -2.498582387e-05 -47.98262239
-243.698572 52.45001968 -9.738643121e-05
137.106977 37.13652778 -9.738643121e-05
138.821636 -2.498582387e-05 -99.25666539
131.113413 -2.498582387e-05 -171.5669674
-267.052166 -2.498582387e-05 -236.2077494
392.20749 -2.498582387e-05 -217.8356844
-614.572421 -2.498582387e-05 -138.1745284
-103.016858 -2.498582387e-05 -236.4239694
612.945085 33.94152848 -9.738643121e-05
643.061945 -2.498582387e-05 -217.1223154
2.340402003 -2.498582387e-05 -126.1353694
240.543354 14.53321928 -9.738643121e-05
458.599446 28.89988158 -9.738643121e-05
-587.719148 -2.498582387e-05 -119.8703864
294.757091 44.55647118 -9.738643121e-05
694.966809 -2.498582387e-05 -220.0100224
527.734022 -2.498582387e-05 -11.44392039
-732.977397 -2.498582387e-05 -22.09061739
-337.085144 -2.353709256 -9.738643121e-05
89.700521 -2.498582387e-05 -11.31890739
-424.223802 44.40145288 -9.738643121e-05
692.826612 -2.498582387e-05 -91.67257239
-72.420007 -2.498582387e-05 -45.33640139
378.824985 -2.498582387e-05 -210.0897134
665.865512 -2.498582387e-05 -36.30535939
609.617312 -2.498582387e-05 -50.51696239
228.243197 -2.498582387e-05 -77.90474739
527.994705 -2.498582387e-05 -61.34321939
-678.549143 -2.498582387e-05 -140.1704234
250.531662 -2.498582387e-05 -92.63746239
-324.452525 2.672815874 -9.738643121e-05
-138.965265 -2.498582387e-05 -32.45026239
-403.138717 -2.498582387e-05 -185.3220134
186.065844 3.131709614 -9.738643121e-05
330.803694 27.79183628 -9.738643121e-05
535.754083 37.57884038 -9.738643121e-05
660.798075 -2.498582387e-05 -119.5476024
412.470832 -2.498582387e-05 -14.41297139
-635.741709 -2.498582387e-05 -230.7275204
655.354092 -2.498582387e-05 -55.65812939
79.132672 -2.498582387e-05 -130.9567694
-480.627481 -2.498582387e-05 -109.9832374
378.957535 -2.498582387e-05 -131.0472364
533.027541 -2.498582387e-05 -165.9417154
150.000215 29.07692788 -17.77482839
-516.374551 8.212709794 -9.738643121e-05
-553.673998 -2.498582387e-05 -39.88911539
-25.996159 -2.498582387e-05 -138.6085634
-358.225293 -2.498582387e-05 -108.9287624
289.020556 -1.846167826 -9.738643121e-05
-493.18023 54.16973128 -9.738643121e-05
489.099196 -2.498582387e-05 -203.7074594
82.778321 66.89692148 -9.738643121e-05
-728.434497 -2.498582387e-05 -117.6805054
413.26251 -2.498582387e-05 -116.3987514
-259.585729 65.16959868 -9.738643121e-05
249.154566 3.660560674 -9.738643121e-05
717.947044 -2.498582387e-05 -63.02573939
41.387897 -2.498582387e-05 -102.5344504
-19.950398 -2.498582387e-05 -27.24587539
-279.695368 -2.498582387e-05 -207.3993334
119.038402 -2.498582387e-05 -191.5532544
-138.698608 -2.498582387e-05 -90.12042439
-374.588727 25.59349948 -9.738643121e-05
-664.031507 -2.498582387e-05 -78.14784339
384.144246 -2.498582387e-05 -8.934408386
-595.401832 -2.498582387e-05 -52.76936239
-590.570794 -2.498582387e-05 -95.29216039
482.509884 -2.498582387e-05 -216.2309264
283.198712 67.99997498 1.195539614
150.000215 14.46841228 -78.59885839
653.427571 -2.498582387e-05 -176.5251954
144.59795 -2.498582387e-05 -218.3304324
118.171949 -2.498582387e-05 -103.6831774
-0.04016899688 15.26584898 -9.738643121e-05
-692.752842 -2.498582387e-05 -79.61306839
143.42369 6.154042504 -9.738643121e-05
-437.792226 0.1559114042 -9.738643121e-05
-259.862595 -2.498582387e-05 -194.7376244
-473.004688 -2.498582387e-05 -34.86575839
720.813622 -2.498582387e-05 -83.46038439
-47.740519 -2.498582387e-05 -43.21694739
-565.139451 -2.498582387e-05 -100.4633374
150.000215 0.6134962742 -91.62081739
169.26786 67.99997498 1.335667614
440.995941 -2.498582387e-05 -125.2998984
593.926087 -2.498582387e-05 -32.96413539
-583.105995 -2.498582387e-05 -247.0903304
391.544631 -2.498582387e-05 -129.0992944
400.672213 -2.498582387e-05 -154.0164134
-401.385336 -2.498582387e-05 -202.1727594
499.859485 31.69999358 -9.738643121e-05
-619.061748 -2.498582387e-05 -193.7206824
219.677539 57.06494478 -9.738643121e-05
482.721177 -2.498582387e-05 -79.13101239
94.285091 30.33794838 -9.738643121e-05
649.394068 -2.498582387e-05 -74.69427939
218.867295 -2.498582387e-05 -221.1012744
-85.848979 -2.498582387e-05 -103.5498524
-109.439271 -2.498582387e-05 -0.1013873864
-533.49892 -2.498582387e-05 -200.4733304
-243.466658 -2.498582387e-05 -173.0559364
-474.985127 -2.498582387e-05 -80.57571439
40.046184 36.54972158 -9.738643121e-05
468.320889 -2.498582387e-05 -191.8040074
-67.353797 12.14350658 -9.738643121e-05
-86.107295 -2.498582387e-05 -153.1315514
217.622464 -2.498582387e-05 -237.9249874
178.861218 -2.498582387e-05 -113.5462294
131.259287 12.76159458 -9.738643121e-05
150.000215 14.82699258 -57.25803539
-628.275225 -2.498582387e-05 -219.3665204
-268.347564 -2.498582387e-05 -36.28767039
-655.598875 -2.498582387e-05 -56.69504539
540.333483 -2.498582387e-05 -31.36890139
-574.024344 -2.498582387e-05 -183.5805884
-275.647537 -2.498582387e-05 -141.6111824
-274.586919 47.44359208 -9.738643121e-05
-176.394261 -2.498582387e-05 -65.30237539
-729.954317 -2.498582387e-05 -89.10034539
-371.481829 -2.498582387e-05 -96.48702839
257.918338 -2.498582387e-05 -186.9230334
690.604172 -2.498582387e-05 -147.7569804
-597.294757 -2.498582387e-05 -210.8945204
-149.900277 -2.498582387e-05 -219.3660024
-457.103349 -2.498582387e-05 -234.9686024
-615.714166 -2.498582387e-05 -93.65846139
-522.952209 -2.498582387e-05 -125.9657674
-298.127899 63.43257348 -9.738643121e-05
232.020167 -2.498582387e-05 -51.01917339
-30.882758 11.89284221 -9.738643121e-05
-344.084088 18.96618108 -9.738643121e-05
157.520257 -2.498582387e-05 -117.5836304
611.667211 -2.498582387e-05 -173.2361504
-283.130661 10.63413862 -9.738643121e-05
80.869444 -2.498582387e-05 -210.6147634
232.167123 -2.498582387e-05 -12.55235539
167.329999 -2.498582387e-05 -249.7055724
700.694105 33.55108848 -9.738643121e-05
453.630632 -2.498582387e-05 -99.81716139
390.654313 -2.498582387e-05 -88.79137239
275.713577 -2.498582387e-05 -17.09074639
11.700273 -2.498582387e-05 -27.19557339
144.000215 19.53623568 -216.1048364
-651.272687 -2.498582387e-05 -125.2772764
4.438382003 -2.498582387e-05 -186.9060404
144.000215 33.00073928 -122.9507614
-292.76611 -2.498582387e-05 -26.92913639
-602.756021 -2.498582387e-05 -142.1147074
-517.540774 -2.498582387e-05 -194.1710414
593.656162 -2.498582387e-05 -48.62982339
-118.540365 -2.498582387e-05 -188.2203244
712.947937 30.30370838 -9.738643121e-05
-307.946357 -2.498582387e-05 -25.87921039
144.000215 17.33654938 -183.7267644
-190.906097 -2.498582387e-05 -189.9375494
-301.719042 -2.498582387e-05 -176.9517474
729.00363 11.30464918 -9.738643121e-05
669.09521 43.59187048 -9.738643121e-05
-99.970851 -2.498582387e-05 -251.3153424
-363.63462 -2.498582387e-05 -219.1979624
378.556455 41.71812338 -9.738643121e-05
-482.236714 -2.498582387e-05 -97.65497639
645.203132 -2.498582387e-05 -199.3776294
-258.391658 -2.498582387e-05 -4.645240386
-399.205938 -2.498582387e-05 -102.2141664
-380.791433 -2.498582387e-05 -146.0625324
-26.453224 -2.498582387e-05 -52.08816339
243.754878 66.20186508 -9.738643121e-05
-169.428115 -2.498582387e-05 -202.5581344
175.970178 -2.498582387e-05 -176.5946644
26.178453 -2.498582387e-05 -36.42152439
101.538202 -2.498582387e-05 -67.75415539
551.211196 9.644325234 -9.738643121e-05
-445.802191 -2.498582387e-05 -106.9068124
245.727604 -2.498582387e-05 -160.2701464
-398.616267 22.61558748 -9.738643121e-05
-109.227263 -2.498582387e-05 -104.0476264
61.160032 -2.498582387e-05 -53.99098439
378.364022 19.78953338 -9.738643121e-05
584.659759 -2.498582387e-05 -59.50971039
-680.933977 35.47596258 -9.738643121e-05
-535.350136 10.01213941 -9.738643121e-05
-398.170103 -2.498582387e-05 -30.60870939
-468.13353 -2.498582387e-05 -131.8784214
-167.420281 -2.498582387e-05 -82.42232739
-384.271832 -2.498582387e-05 -227.1683724
677.836446 -2.498582387e-05 -140.0277484
-58.169842 -2.498582387e-05 -156.1187384
-176.214234 -2.498582387e-05 -183.5597194
-533.364397 -2.498582387e-05 -30.94002939
421.118821 21.72182018 -9.738643121e-05
691.761407 -2.498582387e-05 -181.9357484
-423.42656 -2.498582387e-05 -152.3321964
404.440438 -2.498582387e-05 -49.66751839
-304.220241 -2.498582387e-05 -49.64932439
103.15508 67.99997498 1.182826614
-97.03637 -2.498582387e-05 -49.73179139
-477.167531 -2.498582387e-05 -163.1789604
-720.115693 -2.498582387e-05 -174.7465644
-267.289876 -2.498582387e-05 -124.2197504
-488.35218 5.528814064 -9.738643121e-05
265.603257 -2.498582387e-05 -227.4033294
339.241113 -2.498582387e-05 -221.0448484
731.834688 64.43833338 -9.738643121e-05
626.984105 34.81689688 -9.738643121e-05
-669.0647 -2.498582387e-05 -36.05208039
289.961612 -2.498582387e-05 -80.00277139
-657.846317 50.19654838 -9.738643121e-05
309.982613 -2.498582387e-05 -71.10140239
180.113656 -2.498582387e-05 -21.25521039
579.674527 -2.498582387e-05 -12.12008939
150.000215 9.001148714 -176.9780164
12.60269 -2.498582387e-05 -103.8850654
686.793461 8.485265234 -9.738643121e-05
596.070409 -2.498582387e-05 -234.3238104
280.379468 -2.498582387e-05 -188.7789094
402.343364 29.60606528 -9.738643121e-05
-421.259097 -2.498582387e-05 -192.5354364
150.000215 8.366317844 -38.20092439
-331.914615 -2.498582387e-05 -151.0618274
468.242697 -2.498582387e-05 -216.9524744
-231.588166 -2.498582387e-05 -81.64155039
-462.628621 -2.498582387e-05 -21.94002839
-242.129245 -2.498582387e-05 -19.16476539
-257.123548 -2.498582387e-05 -109.8779474
-218.882582 -2.498582387e-05 -191.7718694
82.998258 -2.498582387e-05 -82.29177039
-30.225212 -2.498582387e-05 -123.8799904
-661.046451 -2.498582387e-05 -145.1900204
-504.873548 -2.498582387e-05 -42.25393939
-460.564871 -2.498582387e-05 -6.725687386
317.236577 -2.498582387e-05 -42.18097639
168.224163 -2.498582387e-05 -107.0543054
41.382905 -2.498582387e-05 -207.1992204
-558.003672 -2.498582387e-05 -28.64962339
-1.302205997 -2.498582387e-05 -205.0349154
-196.486354 -2.498582387e-05 -162.5305184
475.364022 -2.498582387e-05 -12.58846039
462.057485 -2.498582387e-05 -131.5073314
576.209433 -2.498582387e-05 -157.1207734
132.330555 -2.498582387e-05 -28.51197039
-243.887598 28.02946818 -9.738643121e-05
-478.322646 -2.498582387e-05 -219.6674084
692.015576 42.67920948 -9.738643121e-05
691.929235 -2.498582387e-05 -21.72887539
-330.470816 -2.498582387e-05 -187.8647714
721.606113 -2.498582387e-05 -227.2116274
-286.220888 -2.498582387e-05 -151.9892884
404.600615 -1.818068726 -9.738643121e-05
437.205737 -2.498582387e-05 -1.962629386
-262.616273 23.38665058 -9.738643121e-05
-621.128295 -2.498582387e-05 -148.2084254
529.63358 -2.498582387e-05 -207.3807034
43.233269 -2.498582387e-05 -145.3090734
-6.455590997 28.41349258 -9.738643121e-05
274.967596 -2.498582387e-05 -216.8262764
-207.974945 25.55451158 -9.738643121e-05
41.315995 -2.498582387e-05 -162.5160334
48.731924 -2.498582387e-05 -184.1557604
640.968726 -2.498582387e-05 -30.95635439
-187.966377 -2.498582387e-05 -244.3269094
661.25665 -2.498582387e-05 -96.39458839
150.000215 35.18922738 -29.30413539
