# .PCD v0.7 - Point Cloud Data file format
VERSION 0.7
FIELDS x y z
SIZE 4 4 4
TYPE F F F
COUNT 1 1 1
WIDTH 1246
HEIGHT 1
VIEWPOINT 0 0 0 1 0 0 0
POINTS 1246
DATA ascii
136.085871 -2.498422839e-05 -9.742695386
146.867304 -2.498422839e-05 34.61513261
96.833165 -2.498422839e-05 88.16790661
197.638633 -16.46160344 135.8250876
104.900102 -53.0387312 137.1052166
88.329314 -2.498422839e-05 26.76483161
39.595456 -2.498422839e-05 -40.94132339
13.489684 -67.05606855 148.9999026
15.605035 -6.564925104 -145.0000974
102.076731 -2.498422839e-05 -95.69715739
106.767164 -2.498422839e-05 39.12472861
103.759851 -63.55747205 -151.0000974
55.427447 -2.498422839e-05 99.84023361
-2.899999299e-05 -115.7925822 -84.49137739
8.19884 -49.46614341 148.9999026
-2.899999299e-05 -21.84322912 -123.4380054
71.909843 -2.498422839e-05 47.17496861
198.402618 -2.498422839e-05 -138.1663454
171.384028 -2.498422839e-05 -71.29489139
111.047209 -2.498422839e-05 103.3973396
205.724929 1.771509086 129.1700496
100.350312 -4.288094124 143.4818236
228.684336 -2.498422839e-05 75.05156161
-2.899999299e-05 -31.64338543 -41.68987439
8.323131 -2.498422839e-05 -19.69852339
126.885145 -2.498422839e-05 -54.33934539
24.339738 -2.498422839e-05 -63.77156339
90.791754 -23.81629353 -151.0000974
141.030512 -2.498422839e-05 61.04001961
101.273254 -29.01342077 137.3906566
53.66992 -8.081758024 147.1556406
29.227965 -48.921803 -151.0000974
46.166738 -32.37599527 141.7276376
-2.899999299e-05 -69.9751919 38.09932961
45.16344 -59.331552 141.8065996
90.564354 -2.498422839e-05 80.73467161
241.291492 -25.63193502 126.3709706
26.265901 -2.498422839e-05 16.03116161
118.475431 0.8368626558 22.73320761
154.775808 -2.498422839e-05 114.7869596
123.300926 -2.498422839e-05 114.4796696
191.366689 -5.672447064 136.3186986
237.150803 -2.498422839e-05 109.7852166
-2.899999299e-05 -128.3809104 72.70140561
110.050107 -22.69299597 -145.0000974
152.346702 -2.498422839e-05 -46.68635139
242.51737 -49.77518473 -151.0000974
177.906651 -2.498422839e-05 -43.51800639
-2.899999299e-05 -70.94342142 98.35780161
71.587846 -61.88773278 139.7269516
34.912952 -7.445873704 -151.0000974
-2.899999299e-05 -105.3110939 -93.88918439
-2.899999299e-05 -28.74984176 -92.98525139
-1.537974 0.4126126058 -145.0000974
114.342305 -51.33126215 -145.0000974
-2.899999299e-05 -87.45573865 -105.0156254
103.072158 -2.498422839e-05 -130.1240464
56.367218 -37.01724905 -151.0000974
231.846861 -1.036844954 -151.0000974
-2.899999299e-05 -26.32321237 -5.142946386
166.333601 -2.498422839e-05 122.2318896
158.835387 -1.254929404 -151.0000974
38.593505 -65.06847079 148.3421766
222.884775 -39.51684891 -151.0000974
-2.899999299e-05 -63.46720296 29.86910461
126.0345 -58.24073366 141.4604396
198.087224 -2.498422839e-05 73.19395761
81.169716 -35.34945967 138.9728406
152.22626 -57.31365974 -145.0000974
93.973721 -2.498422839e-05 -135.4731934
52.947486 1.470817286 -151.0000974
-2.899999299e-05 -40.29901427 -123.9059694
73.778618 -2.498422839e-05 -31.79858839
120.231415 -66.42362079 141.9171506
162.119994 -9.059623934 138.6204576
234.556437 -2.498422839e-05 -114.0666184
219.254739 -18.7694986 -151.0000974
-2.899999299e-05 -6.778999494 -137.6292884
109.157132 -2.498422839e-05 -49.94155039
44.512695 -2.498422839e-05 10.73805061
203.402807 -23.2140099 -145.0000974
33.598893 0.8684087958 142.7166616
205.229762 -2.498422839e-05 -95.24513039
109.511617 -34.08182418 142.7608156
185.985752 -2.498422839e-05 -121.6436124
142.014314 -2.498422839e-05 125.1775266
122.826695 -2.606551464 -151.0000974
150.525132 -2.498422839e-05 -123.7119414
177.032561 -7.707843194 137.4468156
8.492726 -2.498422839e-05 130.9839256
109.200359 -2.498422839e-05 -142.4049184
223.797117 -38.59885645 127.7478086
172.24095 -2.498422839e-05 -17.68935139
153.628333 -2.498422839e-05 -132.5314814
236.969231 -2.498422839e-05 -43.85834439
243.581989 -42.15091204 -145.0000974
72.031766 -2.498422839e-05 -20.50106839
193.298956 -2.498422839e-05 15.67587061
172.206929 -2.498422839e-05 -130.8867754
154.328363 -2.498422839e-05 43.14436561
135.841213 -2.498422839e-05 -99.94987739
-2.899999299e-05 -30.43609996 -117.3249914
-2.899999299e-05 -6.663893564 118.6735906
213.260427 -2.498422839e-05 64.29632861
85.153116 -2.498422839e-05 -17.21401939
107.501885 -2.498422839e-05 52.98975661
12.972612 -2.498422839e-05 -48.78065839
160.634779 -63.26048673 138.7373456
243.465553 -56.02765052 126.1998676
87.093866 -13.49664779 -151.0000974
-2.899999299e-05 -23.46222181 96.22000761
213.063228 -29.04243062 128.5925856
-2.899999299e-05 -7.914911924 -120.8539074
-2.899999299e-05 -94.42108386 -86.12970839
154.841313 -39.51208577 -145.0000974
56.917475 -65.15735877 146.9000526
226.714747 -56.72623219 127.5181866
124.782865 -2.498422839e-05 74.08741761
111.030831 -42.56670581 -145.0000974
116.58689 -31.33346614 136.1854456
104.686979 -2.498422839e-05 -115.4862094
197.609078 -52.94031305 135.8274136
79.532887 -47.07216737 139.1016626
43.86805 -2.498422839e-05 -122.8492794
226.87162 -2.498422839e-05 12.60767461
115.459597 -2.498422839e-05 -23.74266639
250.094168 -57.22004226 -145.0000974
124.563684 -2.498422839e-05 -94.52240739
30.679714 -38.7673754 -145.0000974
39.52085 -2.498422839e-05 -69.35017039
117.650157 -29.53878809 -151.0000974
114.801144 -2.498422839e-05 -108.5210234
193.051749 -64.37940261 -145.0000974
127.886538 -2.498422839e-05 37.53099361
121.805172 -12.46649718 -145.0000974
56.163898 -2.498422839e-05 0.5808576141
-2.899999299e-05 -84.38900047 56.65418661
87.497744 -65.66349689 -151.0000974
128.251921 1.678764616 -145.0000974
195.531164 -29.61082332 129.9723906
-2.899999299e-05 -57.65683021 124.9933086
173.414098 -54.71080663 131.7130426
-2.899999299e-05 -69.24241585 -89.85907039
103.532135 -2.498422839e-05 -77.04819139
-0.563631 -122.2893155 -78.35913639
55.502278 -2.498422839e-05 -62.48930339
228.194758 -2.498422839e-05 -34.68576739
90.797355 0.2452585358 -151.0000974
-2.899999299e-05 -37.38334988 -23.87981839
-1.641315 -64.43576098 -122.6084964
-2.347921 -29.26102725 -151.0000974
94.076071 -2.498422839e-05 5.298476614
18.260562 -46.86850341 148.9999026
169.382744 -49.60129621 138.0488676
203.226545 -61.33391937 129.3667496
161.089197 -45.20400252 138.7015826
113.399739 0.4536062658 142.4548146
-2.899999299e-05 -5.033586164 48.95411161
24.555983 -2.498422839e-05 -94.73512739
209.775197 -2.498422839e-05 45.59107861
215.441465 -2.498422839e-05 -100.7296964
-2.899999299e-05 -5.960168984 -6.358487386
15.486025 -2.498422839e-05 30.84083361
238.965605 -61.94938977 132.5725926
227.658389 -2.498422839e-05 -98.13993139
-2.899999299e-05 -99.03328393 -76.14738939
245.571485 -2.498422839e-05 23.67558761
12.625824 -2.498422839e-05 0.9773836141
98.792647 -51.54350586 -151.0000974
-2.899999299e-05 -60.80857089 110.6919786
56.476757 -52.42856765 -145.0000974
126.385328 -39.44035683 -151.0000974
144.925539 -2.498422839e-05 -61.79114039
211.677052 -2.498422839e-05 -54.53861039
147.671183 -46.61014971 139.7576006
72.36408 -6.797353734 145.6843816
178.599511 -65.37660764 -151.0000974
78.283665 -36.77217694 -151.0000974
-2.899999299e-05 -105.3148336 78.98597061
232.306335 -2.498422839e-05 95.66561761
-2.899999299e-05 -30.80419257 101.0554276
-2.899999299e-05 -58.4231407 7.095308614
-1.490345 1.999975016 -66.19701839
164.817441 -17.72709412 -151.0000974
3.509357 -2.498422839e-05 -80.23689339
-2.899999299e-05 -68.8653556 -21.57696139
-2.899999299e-05 -88.21635974 66.44850361
-2.899999299e-05 -54.89929534 -34.18307039
250.972686 -2.498422839e-05 -54.87858939
139.958309 -14.93485032 -145.0000974
135.242459 -50.34972764 -145.0000974
52.836434 -2.498422839e-05 56.02355861
225.714542 -2.498422839e-05 -87.88885439
211.333315 -47.29252924 128.7287326
146.419365 1.126222246 -87.86411439
169.628961 -2.498422839e-05 -89.94822739
104.462726 -2.498422839e-05 128.5621176
245.819615 -8.797547984 126.0145986
205.688988 -2.498422839e-05 109.8734516
157.779013 -33.53593875 -151.0000974
35.858945 -2.498422839e-05 -133.2041384
136.696281 -2.498422839e-05 90.31733661
-2.899999299e-05 -71.71259389 -102.5290624
59.087933 -2.498422839e-05 135.2562206
226.960204 -16.45019525 133.5174356
173.846034 -13.98867822 -151.0000974
86.173754 -24.4807803 138.5790146
-0.473861 -25.24015928 -82.13114339
-2.899999299e-05 -95.58362333 104.5880666
202.039977 -16.65818971 -151.0000974
-2.899999299e-05 -136.5779463 75.93583361
84.615352 -68.00002402 140.4138216
147.481042 -2.498422839e-05 -37.96872739
4.818069 -2.498422839e-05 -133.9004454
7.996168 -2.498422839e-05 -105.0785614
160.059246 -2.498422839e-05 -50.42119839
-2.899999299e-05 -39.772857 -102.8662904
72.879275 -2.498422839e-05 -114.0028784
56.931253 -25.2109196 140.8804516
133.489038 -21.84634651 134.8552166
93.79823 -2.498422839e-05 102.8656046
176.358993 -61.40515463 137.4998266
38.687384 -32.3845795 148.3347886
-2.899999299e-05 -107.3562488 96.70330161
180.199285 -2.498422839e-05 27.04522061
114.229311 1.450678596 -41.69926339
164.369014 -2.498422839e-05 25.40191861
57.177921 -50.22581138 140.8610376
-2.899999299e-05 -8.386420104 83.84181361
5.147789 -2.498422839e-05 -121.2836364
-2.899999299e-05 -84.89665724 -94.90793339
63.898075 -2.498422839e-05 98.93352361
26.696223 -2.498422839e-05 44.01328161
196.4659 -51.55577729 -145.0000974
104.661028 -2.498422839e-05 63.64005261
84.640158 2.058825086 138.6997106
-2.899999299e-05 -54.89873155 -77.76957439
56.783403 -28.40982652 -145.0000974
98.738703 -2.498422839e-05 20.82987861
117.247059 -22.53463092 136.1334896
204.274596 -2.498422839e-05 -76.19749539
142.94797 -19.76595758 134.1107816
110.794579 -50.59264652 142.6598446
174.011102 -2.498422839e-05 -104.1337504
-2.899999299e-05 -29.71587345 14.28665361
185.853943 -30.5088097 136.7525596
67.694788 -57.87011466 146.0518626
72.030988 -2.498422839e-05 27.69096661
193.758083 -2.498422839e-05 89.84330161
164.161058 -25.35448544 138.4598226
226.625655 -3.744751494 -145.0000974
138.961266 1.294599726 -82.25487939
-2.899999299e-05 -18.81509707 118.8862876
116.655376 -8.299651794 -151.0000974
143.347221 -3.146851554 -145.0000974
141.379143 -28.9803626 -151.0000974
55.933415 -2.498422839e-05 35.66978761
-2.899999299e-05 -20.93539589 -11.56417739
55.081821 -18.83646033 147.0445216
8.929524 -68.00002402 -150.7409704
169.070689 -2.498422839e-05 -113.5941954
51.293464 -2.498422839e-05 -79.15635239
226.283588 -2.498422839e-05 55.01297561
41.448334 -2.498422839e-05 -52.89161839
75.367556 -17.72249122 -151.0000974
209.667534 -7.572885374 -151.0000974
245.348816 -11.32239468 -145.0000974
87.87741 -2.498422839e-05 45.83167161
197.24912 -2.864514264 129.8371836
-0.315664 -114.4076731 104.9999026
76.893953 -56.71209939 -151.0000974
122.787719 -2.498422839e-05 83.16912461
206.920216 -2.498422839e-05 -136.7455774
148.917753 -2.712482184 133.6409486
151.728749 -35.33041643 139.4382636
-2.899999299e-05 -56.70884221 48.69902361
149.44457 -2.498422839e-05 22.50630261
-2.899999299e-05 -126.3651696 -67.56637139
62.381429 -2.498422839e-05 -14.60513439
-2.899999299e-05 -29.55780168 109.6571496
-2.899999299e-05 -11.85060778 -76.86877339
209.261238 -58.95294942 -145.0000974
48.931516 -49.4260256 141.5100446
97.47343 -63.91597916 137.6897096
27.66552 -67.93951311 -145.0000974
6.097556 -12.78660703 142.9999026
248.859042 -40.14847378 131.7939646
-2.899999299e-05 -141.2320805 -69.49804239
-2.899999299e-05 -22.96661159 43.04061261
-2.899999299e-05 -39.71623321 135.3204076
211.476205 -2.498422839e-05 115.8068166
-2.899999299e-05 -58.98767817 -64.11088539
45.171124 -37.90814524 -151.0000974
187.132262 -64.52747258 130.6333986
186.330088 -38.48821467 130.6965316
217.079191 -2.498422839e-05 -122.9268544
231.527965 -2.498422839e-05 124.8947366
-2.899999299e-05 -109.6101256 -66.79910739
237.992747 -2.498422839e-05 40.88747161
31.813775 -40.83707378 142.8572416
238.933866 -34.60235234 -151.0000974
29.081062 -2.498422839e-05 23.77438461
181.149986 -46.77083225 131.1042146
122.056506 -5.184042864 135.7549776
112.507327 -2.498422839e-05 -122.2906964
135.877214 -2.498422839e-05 -121.4169594
70.485367 -30.16034088 -151.0000974
171.545934 -67.33527823 131.8600706
187.654137 -17.04561789 -145.0000974
194.456768 -39.36497567 -145.0000974
-2.899999299e-05 -45.80053169 -5.034546386
89.78241 -16.8410395 138.2950066
131.871397 -45.29758981 134.9825276
62.776459 -8.223093144 146.4389416
-2.899999299e-05 -68.51010584 72.96322361
2.980955 -54.57632098 142.9999026
215.753679 -31.33495938 -151.0000974
35.251144 -50.56683891 142.5867146
225.601719 -61.75592705 -151.0000974
200.568931 -2.498422839e-05 -17.87603639
114.914083 -2.498422839e-05 94.51450661
60.428422 0.2295101958 -48.90878839
182.766771 -56.85548203 -151.0000974
235.351788 -2.498422839e-05 -132.8436374
17.449388 -62.61396914 142.9999026
98.288565 -21.04790723 -145.0000974
48.537888 -2.498422839e-05 42.79839661
123.323458 -21.36108061 -145.0000974
224.775393 -11.90417963 -151.0000974
27.142533 -2.498422839e-05 -82.94590239
32.142904 -30.74050853 -145.0000974
82.377144 -2.498422839e-05 113.9839706
28.694126 -0.8624891742 148.9999026
65.55482 -17.19185938 -151.0000974
243.872582 -2.498422839e-05 -63.47752939
160.857431 -17.57476946 132.7012746
-0.8822 -145.000025 88.16191561
161.487811 -2.498422839e-05 66.68334161
33.099499 -2.498422839e-05 64.76052161
46.02594 -2.089363264 141.7387186
-2.899999299e-05 -60.72757685 -3.417482386
208.190908 -2.498422839e-05 -43.06264339
50.847976 -3.823074674 -145.0000974
140.18104 -62.64897791 -151.0000974
-2.899999299e-05 -22.4008916 65.52532061
-2.113532 -49.19283925 148.9999026
2.528663 -38.38419018 142.9999026
112.37017 -2.498422839e-05 -69.93874639
201.168965 -2.498422839e-05 2.130746614
-2.899999299e-05 -33.26816048 -16.90204039
188.504346 -6.684058984 -145.0000974
20.631669 -29.43960746 142.9999026
125.706668 0.1014684658 -44.66353239
174.19472 -2.498422839e-05 131.1531996
75.12449 -8.035705884 -145.0000974
224.025907 0.9158029058 127.7298026
-2.899999299e-05 -13.66429889 -21.72292539
83.262314 -50.79271496 -145.0000974
240.939225 -0.7366819242 132.4172656
54.566116 -14.64484037 -145.0000974
-2.899999299e-05 -37.17995554 54.45936461
230.710162 -2.498422839e-05 32.73824561
171.866803 -2.498422839e-05 101.3983246
-2.899999299e-05 -39.25590867 -39.11119439
102.984834 -36.82852221 -151.0000974
222.120536 -2.498422839e-05 30.87060161
-2.899999299e-05 -37.26846424 -131.7580864
130.095209 -35.53314412 -145.0000974
249.082016 -2.498422839e-05 -113.6454274
186.674299 -2.498422839e-05 -138.7941674
-2.899999299e-05 -15.88466439 51.45267561
8.013121 -55.44630955 -151.0000974
39.615368 -8.783581704 142.2432426
178.108908 -7.860934164 -145.0000974
110.583015 -2.498422839e-05 21.80482761
146.513325 -27.81721624 -145.0000974
-2.899999299e-05 -5.401508954 64.04771261
163.133208 -2.498422839e-05 -125.4970254
167.482837 -39.13817689 -151.0000974
-2.899999299e-05 -69.59989486 -1.892146386
6.876159 -6.877290704 -151.0000974
41.065449 -2.498422839e-05 -97.16991739
129.927939 -2.498422839e-05 56.34572661
4.449511 -44.68991617 -151.0000974
214.620474 -65.74037766 134.4885906
184.552507 -49.20404855 -145.0000974
91.710802 -45.43950269 -151.0000974
223.012574 -2.498422839e-05 -138.4428194
249.512924 -66.96203251 131.7425026
143.009012 -2.498422839e-05 -70.57862239
-2.899999299e-05 -76.98567396 -60.07681139
150.818735 -23.78632835 -151.0000974
141.577462 -43.29905563 -151.0000974
102.809156 -13.97241994 -145.0000974
185.898935 -2.498422839e-05 6.976176614
213.512658 -2.498422839e-05 -63.59545439
129.441343 -2.498422839e-05 -5.434167386
134.840697 -2.498422839e-05 -41.91144339
59.371937 -2.498422839e-05 107.3593726
-2.899999299e-05 -71.16685576 -71.24657339
207.329078 -2.498422839e-05 -2.766077386
-2.899999299e-05 -48.99914558 -41.65496139
172.70043 -2.498422839e-05 -9.844792386
234.487628 -50.50058332 -145.0000974
12.24568 -42.13412345 142.9999026
191.056594 -18.87558089 130.3245466
195.155173 -27.80884884 -151.0000974
171.878792 -14.67934168 137.8524256
111.601607 -16.76344619 136.5777966
43.443555 -23.4301522 -145.0000974
93.515107 -20.86243397 144.0197646
169.809811 -2.498422839e-05 52.81659261
158.525621 -2.498422839e-05 91.05621361
41.103774 -12.23926095 -151.0000974
141.135016 -2.498422839e-05 8.021034614
53.682681 -2.498422839e-05 -97.72737939
148.571832 -2.498422839e-05 14.74400961
219.971623 -56.07254724 134.0674476
31.029488 -2.498422839e-05 35.99727561
71.142579 -42.91144597 -151.0000974
164.065551 -65.12169972 -151.0000974
73.242088 -2.498422839e-05 -105.0226454
182.279024 -2.498422839e-05 100.2864196
121.832786 -36.63137112 141.7911206
226.624321 -2.498422839e-05 -75.87093739
164.066223 -2.498422839e-05 -31.94118739
173.49871 -2.498422839e-05 114.4143456
102.641177 -2.498422839e-05 80.15012961
6.978451 -21.0371406 -145.0000974
14.624836 -2.498422839e-05 -125.3660134
-2.899999299e-05 -2.682246184 -34.25139139
237.136483 -22.40848076 132.7165476
29.976077 -63.96428159 148.9999026
43.516146 -2.498422839e-05 111.5036236
-2.451515 -2.649099414 142.9999026
15.381532 -2.498422839e-05 -81.29040239
86.440478 -9.064515034 138.5580226
6.995506 -2.498422839e-05 72.38941961
135.835316 -2.498422839e-05 68.45329261
17.955873 -2.498422839e-05 51.94729861
227.086658 -51.02315012 -151.0000974
228.159535 -19.90592707 -145.0000974
218.82041 -2.388114344 134.1580496
63.23564 -33.56992188 -151.0000974
154.823108 -2.498422839e-05 70.87307661
165.155993 -2.498422839e-05 -144.9244724
156.149958 -2.498422839e-05 -28.05975739
204.137188 -40.77339837 135.3136416
-2.899999299e-05 -20.36114091 136.6080626
34.331599 -67.91205531 142.6590846
49.735713 -2.498422839e-05 -57.23925339
-2.899999299e-05 -45.63879228 57.96529661
-2.899999299e-05 -92.18609921 86.08184761
-0.23881 -52.13304886 -137.4736374
-2.899999299e-05 -71.20467006 -51.72661439
166.939446 -2.498422839e-05 4.274280614
68.64031 -2.498422839e-05 -133.5553944
121.306424 -2.498422839e-05 42.21178061
232.221298 -2.498422839e-05 -23.65740639
181.77794 -58.54379689 131.0547936
137.121669 -8.368478074 140.5878626
67.034008 -58.31248937 -151.0000974
151.531356 -7.596475844 139.4537986
39.450745 -2.498422839e-05 -16.61287739
86.555772 -2.498422839e-05 6.189877614
143.657758 -2.498422839e-05 -17.39441139
41.549128 1.698863696 -145.0000974
-2.899999299e-05 -22.5882049 -113.8687134
107.047641 -53.30122214 -145.0000974
26.733302 -55.34426392 -145.0000974
79.118548 -2.498422839e-05 101.3528536
228.409905 -29.98432559 -145.0000974
116.821982 -2.498422839e-05 69.43289461
205.244239 -39.42107274 -145.0000974
50.651748 -34.52919686 147.3931746
160.531625 -68.00002402 132.8766136
233.24915 -62.69886099 127.0039176
83.838562 -2.498422839e-05 17.19309461
232.532815 -55.89532102 133.0788626
-2.899999299e-05 -50.25851225 67.05907461
23.442925 -2.498422839e-05 142.9202276
70.867209 -33.1839989 145.8021876
-2.899999299e-05 -56.65571322 116.9613226
71.850061 -2.498422839e-05 132.7411826
-2.899999299e-05 -117.7738861 70.76223161
66.445485 -2.498422839e-05 69.20998861
189.905834 -2.398578654 -151.0000974
244.635239 -65.05315738 -145.0000974
7.337301 -2.498422839e-05 6.960048614
76.115606 -2.498422839e-05 -82.76118639
145.190432 -2.498422839e-05 0.09501461414
81.100603 -2.498422839e-05 -122.3024164
25.595843 -2.498422839e-05 30.39842061
217.621379 -45.4028129 -151.0000974
17.42335 -56.65249015 148.9999026
-2.899999299e-05 -36.73366962 30.25424261
-2.899999299e-05 -54.47006766 131.7582696
127.641322 -60.23591096 -151.0000974
34.397048 -3.030242454 -145.0000974
213.557842 -5.149637454 128.5536586
159.022618 -2.498422839e-05 123.7243246
23.512535 -40.83797436 -145.0000974
115.700141 -2.498422839e-05 -7.194501386
31.821636 -61.00921566 -145.0000974
162.942188 -2.498422839e-05 -66.12931839
130.702853 -2.498422839e-05 113.5673056
11.142892 -0.5921131842 -145.0000974
97.231459 -12.06259163 137.7087526
87.743519 -3.756132424 -145.0000974
113.78718 -33.98440348 -145.0000974
87.324059 -39.49047575 138.4884826
133.040745 -27.68429731 140.9090376
151.98136 -28.21423945 133.3998376
9.653282 -2.498422839e-05 63.90279161
122.559109 -2.498422839e-05 -110.4651684
182.152089 -34.15414792 -151.0000974
170.187418 -2.498422839e-05 70.66686261
169.693308 -28.66754076 132.0058756
229.321626 -43.15286161 -151.0000974
119.890755 -55.9794419 135.9254256
-2.899999299e-05 -9.243874654 13.42402061
171.014454 -55.47283374 -151.0000974
127.659627 -2.498422839e-05 -61.68185439
18.369 -24.35165427 -145.0000974
83.880229 -10.64686642 -145.0000974
63.36292 1.559403036 146.3927866
105.81144 -2.498422839e-05 15.96356661
80.977443 -40.73035108 -145.0000974
202.205057 -2.498422839e-05 66.04441961
197.65031 -2.498422839e-05 8.913105614
235.43825 -5.242601924 -145.0000974
216.77845 -67.37065306 -145.0000974
37.205456 -2.498422839e-05 97.53742061
64.330423 -29.44367162 -145.0000974
-2.899999299e-05 -59.40726933 -90.84754439
-2.899999299e-05 -26.07413571 4.899307614
25.811113 -2.498422839e-05 63.77968861
165.921128 -59.46423512 -145.0000974
25.184916 -2.498422839e-05 104.2698066
193.131623 -2.498422839e-05 80.16217061
-2.899999299e-05 -52.94729895 -15.42200039
235.520955 -2.498422839e-05 71.27769661
165.36818 -2.498422839e-05 33.41492061
175.803686 -2.498422839e-05 -28.06976539
234.511855 -2.498422839e-05 102.9449986
252.420981 -2.498422839e-05 -104.6580144
244.686059 -31.02718191 -145.0000974
91.323947 -56.29419428 144.1922116
198.48364 -43.8083115 129.7400246
71.351608 -10.51954961 -151.0000974
9.22999 -38.51394755 -145.0000974
138.807186 1.478178166 -111.0583164
-2.899999299e-05 -7.071686714 -15.41459539
119.054433 -18.57208532 142.0097816
151.06817 -52.17286508 133.4717076
187.482049 -35.39437828 -145.0000974
193.682522 -2.498422839e-05 -6.857732386
56.506484 -5.566912084 140.9138816
25.378339 0.8420530058 -145.0000974
-2.899999299e-05 -100.211591 73.58754261
-2.899999299e-05 -88.87497454 -63.40028639
245.842081 -24.9858777 132.0314036
82.56999 -28.3401807 -145.0000974
1.767778 -26.6790583 -145.0000974
22.645566 -2.498422839e-05 -51.42673539
196.440734 -2.498422839e-05 38.62810661
116.358333 -2.498422839e-05 -87.12228139
179.66929 -21.87486354 131.2207476
244.732731 -59.59128203 -151.0000974
213.019417 -2.498422839e-05 100.6791316
17.101005 -2.498422839e-05 101.6838866
115.188438 -2.498422839e-05 -33.30787639
104.6902 -67.54418065 -145.0000974
31.034962 -2.498422839e-05 -39.03718439
79.07606 -60.11343458 145.1561386
65.009802 -39.30453591 140.2446546
76.178068 -30.11703982 139.3656926
48.830553 -2.498422839e-05 -128.1220054
202.315173 -51.94458738 129.4384766
-2.899999299e-05 -13.2334943 102.2640806
180.686308 -60.32200818 -145.0000974
130.666446 -2.498422839e-05 130.2771126
210.905198 -32.08038573 134.7809886
94.644619 -47.09743673 137.9123416
147.328808 -68.00002402 137.5566906
31.447505 -55.27094348 148.6053716
42.035627 -65.88311614 142.0527636
185.779094 -2.498422839e-05 -58.38095139
57.635763 -45.66766622 -151.0000974
86.536753 -2.498422839e-05 38.38996761
192.906585 -2.498422839e-05 -126.7748034
104.760192 -2.498422839e-05 1.605137614
118.98304 -2.498422839e-05 -76.37000639
202.622867 -21.28595033 129.4142606
-2.899999299e-05 -34.21979143 -2.959420386
176.67313 -30.75287799 -145.0000974
4.282194 -26.30762956 148.9999026
131.142284 -15.0712784 135.0399106
86.664062 -2.498422839e-05 -64.04206039
68.129415 -2.498422839e-05 -41.42380539
55.549356 0.9128881858 20.97898861
243.635093 -2.498422839e-05 -36.56185839
112.223461 -40.70920081 142.5473896
103.247005 -43.40435552 143.2538496
73.812442 -64.53071566 -145.0000974
152.729521 -61.4671341 -151.0000974
-2.367539 -64.44793605 148.9999026
-2.899999299e-05 -46.93489705 115.8937206
33.825031 -2.498422839e-05 -73.76941839
-2.899999299e-05 -79.46378261 99.32076661
139.485213 -42.42798791 134.3833066
24.993255 -2.498422839e-05 -103.6844574
187.73713 -25.5864853 -151.0000974
28.600964 -23.6870513 142.9999026
212.224058 -2.266603144 -145.0000974
167.654589 -2.498422839e-05 -39.15546539
156.377978 -2.498422839e-05 24.10669961
94.24131 -2.498422839e-05 -55.64439339
39.200892 -2.498422839e-05 -2.893090386
-2.899999299e-05 -31.18320573 -135.4178624
10.058183 -32.85388281 148.9999026
54.87224 -2.498422839e-05 -36.65204239
245.150752 1.689366676 -145.0000974
54.126556 -40.58572213 141.1011856
-2.899999299e-05 -6.857918044 -107.0222624
119.786696 -2.498422839e-05 -16.87355739
229.685698 -2.498422839e-05 -53.22629039
13.983631 -9.960353004 -151.0000974
42.34316 -2.498422839e-05 91.92106561
114.06184 -50.58198624 136.3841716
7.73153 -2.498422839e-05 -70.48142439
188.55199 -44.65738523 136.5402196
37.130387 -51.25383511 -151.0000974
144.60704 -2.498422839e-05 97.25400561
133.501015 -5.729745034 -151.0000974
138.93755 -49.98449525 -151.0000974
20.428436 -9.957480394 148.9999026
42.598947 -2.498422839e-05 58.32157361
124.255998 -47.18332015 135.5818736
99.342894 -15.72061134 143.5611086
163.796493 -12.87878468 -145.0000974
97.998538 -46.71415008 -145.0000974
19.714036 -54.08071287 -145.0000974
60.242272 -35.7266402 -145.0000974
-2.899999299e-05 -48.14861586 -120.4557514
205.783783 -2.498422839e-05 21.83608961
209.482534 -6.327527084 134.8929546
85.164997 -32.79001835 -151.0000974
228.864084 -2.498422839e-05 107.9369516
-2.899999299e-05 -135.1524271 -92.34814739
75.09694 -49.242041 -145.0000974
144.605746 -56.88583521 133.9803116
213.111963 -22.7976688 134.6073136
226.898342 -2.498422839e-05 5.584577614
233.308854 -12.64802851 133.0177876
194.357994 -2.498422839e-05 23.92875261
20.541799 -20.91058803 142.9999026
31.243281 -45.93047197 -145.0000974
220.058178 -15.25425907 -145.0000974
10.306247 -2.498422839e-05 41.90744461
166.134971 -37.99336601 138.3044726
31.629503 -2.498422839e-05 -93.18867839
3.09184 -4.826676934 -145.0000974
184.353076 -4.361910474 130.8521256
97.753649 -2.498422839e-05 -66.19213239
74.80448 -2.498422839e-05 -56.42183839
137.051878 -2.498422839e-05 -89.88063439
-1.57014 -2.498422839e-05 33.82967961
-2.899999299e-05 -64.42813156 -36.27833439
130.682019 -65.10855613 141.0946726
233.33443 -61.73374509 -151.0000974
96.710487 -2.498422839e-05 -30.03363439
240.366772 -29.26912786 132.4623186
80.04209 -32.21815496 145.0801106
-2.899999299e-05 -64.85093851 95.00904861
104.233834 -2.498422839e-05 -88.83069839
129.898105 -52.47883794 141.1563686
193.804031 -38.52171763 130.1083186
63.038703 -52.7459314 146.4183026
245.108121 -2.498422839e-05 4.252861614
43.990182 -57.19481518 -145.0000974
196.595188 -21.9678397 -145.0000974
91.293858 -29.83955974 138.1760526
73.855503 -2.498422839e-05 53.80590461
179.525059 -9.396233454 131.2320996
166.306933 -2.498422839e-05 61.26577161
-2.373614 -61.04657918 142.9999026
217.872242 -11.13990265 -151.0000974
95.460182 -2.498422839e-05 -115.5823074
134.923474 -58.45383919 -145.0000974
-2.899999299e-05 -51.77586848 -58.12694639
211.834886 -2.498422839e-05 123.1528796
-2.899999299e-05 -16.22505797 87.56356061
-2.899999299e-05 -48.06330298 38.36008361
197.412439 -2.498422839e-05 52.08099061
185.890409 -12.38622579 -151.0000974
231.590441 -2.498422839e-05 -138.5934244
158.587953 -2.498422839e-05 78.97235061
31.291027 -46.66384523 146.6179616
182.406736 -68.00002402 -145.8941694
-2.899999299e-05 -5.126439664 -54.47791939
-2.899999299e-05 -28.77611455 33.06349761
-2.899999299e-05 -62.59530151 -49.19986239
113.207487 -2.498422839e-05 85.37924261
194.752499 -67.2260965 -151.0000974
13.10171 -63.52841386 -145.0000974
197.708216 -47.79440062 -151.0000974
164.736568 -59.30932358 132.3959796
88.297636 -2.498422839e-05 133.2904306
62.934028 -2.498422839e-05 -138.3053304
221.147355 -2.498422839e-05 107.1179646
98.38001 -2.498422839e-05 110.8933546
-2.899999299e-05 -14.50224882 -92.98987839
213.229143 -33.4245247 -145.0000974
81.241612 -13.41148533 144.9857066
-2.899999299e-05 -122.8197653 100.5995896
18.239061 -2.498422839e-05 -18.72267639
44.174583 -0.1862166642 -151.0000974
191.066002 -2.498422839e-05 -29.87013339
243.633896 -32.02492885 126.1866186
150.168407 -41.99242367 -151.0000974
150.939832 -19.91193236 -145.0000974
202.463033 -64.0846597 -145.0000974
88.077372 -2.498422839e-05 72.70657761
211.284726 -2.498422839e-05 -10.35575339
147.113866 0.5507088258 -151.0000974
109.50067 -2.498422839e-05 -19.79257739
94.526792 -32.78352171 -145.0000974
208.767094 -2.498422839e-05 31.13684861
6.170032 -45.26289081 142.9999026
220.374382 -68.00002402 -150.7318384
108.405454 -2.498422839e-05 96.46515661
179.292031 -2.498422839e-05 -88.05707239
88.691005 -2.498422839e-05 -130.6504284
148.452992 2.402392876 -114.0799374
209.348967 -29.1030208 -151.0000974
27.124596 -2.498422839e-05 80.49537061
47.905367 -63.49701258 -151.0000974
-2.899999299e-05 -24.75470239 23.32109361
140.035992 -25.81909054 -145.0000974
134.117878 -2.498422839e-05 104.8740436
53.621398 -54.48731438 -151.0000974
213.003548 -2.498422839e-05 75.86922861
196.423925 -60.33718909 129.9021286
5.479876 -2.498422839e-05 -52.66423539
13.513516 -51.51955066 -151.0000974
182.263413 -2.498422839e-05 -98.25468339
99.622654 -2.498422839e-05 9.155134614
98.676522 -68.00002402 -150.7582434
102.566534 -38.0942636 137.2888726
95.389798 -2.498422839e-05 -48.24733739
178.150876 -1.508804164 -151.0000974
-2.899999299e-05 -76.72140592 113.7536926
221.194946 -2.498422839e-05 -23.40398439
16.24582 -2.498422839e-05 -74.44030639
53.80058 -58.61961958 -145.0000974
120.822656 -63.53418988 135.8520836
104.329634 -23.00658451 137.1501136
135.26216 -2.498422839e-05 23.20997461
-2.899999299e-05 -47.19311089 106.2357136
157.525491 -29.33520283 138.9820516
98.791263 -29.71384611 143.6045236
-2.899999299e-05 -12.49025502 -9.133422386
202.353277 -5.364637814 -145.0000974
22.270821 -2.498422839e-05 -136.1988474
248.977555 -27.97245957 125.7660636
78.779233 -55.19476784 139.1609766
141.318247 -2.767474134 140.2575856
-2.181288 -24.49660334 148.9999026
81.832312 -4.032987504 138.9206936
-2.899999299e-05 -63.3179027 -14.34789439
-1.604811 -106.4066055 64.76449361
1.97307 -43.03177249 -145.0000974
243.146968 -2.498422839e-05 -55.32161739
21.321387 -31.37359746 -151.0000974
189.844628 -2.498422839e-05 -85.89510039
47.916295 -25.92708704 141.5899446
40.467899 -2.498422839e-05 126.3648856
89.563348 -36.99634312 144.3307736
62.368418 -32.77731836 140.4525366
220.306811 -16.53654552 134.0410676
108.07347 -58.46454893 -151.0000974
40.180956 -16.90114467 148.2172416
210.129249 -61.73590018 -151.0000974
170.461331 -63.23450412 -151.0000974
-0.648367 -40.3948515 -151.0000974
-0.86888 1.999975016 -75.63946939
-2.899999299e-05 -61.67155558 -107.4340504
234.243292 -2.498422839e-05 -88.92004539
108.179267 -24.86634063 -151.0000974
168.536543 -3.359493474 132.0969156
126.341157 -46.08525626 -151.0000974
116.522738 -2.498422839e-05 53.83089061
210.929387 -14.91510312 -145.0000974
24.464137 -2.498422839e-05 -38.09120639
170.019813 -7.127212664 137.9987296
1.590668 -21.76698284 142.9999026
228.712378 -2.498422839e-05 -130.2822284
151.475028 -62.38630058 139.4582316
226.532832 -27.91917984 -151.0000974
65.756705 -2.498422839e-05 -118.4655054
234.6799 -25.28899375 -145.0000974
225.169382 -47.50072583 127.6398096
240.7671 -2.498422839e-05 34.10116861
242.072667 -2.498422839e-05 72.04966361
-2.899999299e-05 -138.8173209 92.81632361
227.767942 -7.804486854 133.4538656
37.276806 -2.498422839e-05 -103.4258214
-0.752273 -2.498422839e-05 -26.45581639
106.664423 -2.498422839e-05 45.70223361
158.459257 -2.498422839e-05 6.073393614
-2.899999299e-05 -80.75943992 -78.38459339
212.928828 -51.51647306 -145.0000974
32.694408 -2.498422839e-05 -3.791362386
4.822286 -2.498422839e-05 -12.22431539
150.955611 -2.498422839e-05 95.59971361
245.866789 -2.498422839e-05 -12.72341839
36.907121 -26.23501721 142.4563866
131.218494 -65.19720731 -145.0000974
101.187497 -2.498422839e-05 -139.5491224
-2.899999299e-05 -45.06762165 25.33351461
21.838374 -15.4457491 -151.0000974
4.792714 -2.498422839e-05 -97.72728839
-2.899999299e-05 -67.13759581 109.0339696
92.447322 -2.498422839e-05 -90.56425939
169.571107 -23.73387365 -145.0000974
-2.899999299e-05 -9.630327574 -62.25756439
46.626863 -2.498422839e-05 -43.89667939
142.262149 -2.498422839e-05 -7.208709386
232.426273 -13.88758071 -151.0000974
176.377815 -44.73283756 137.4983456
141.983864 -2.498422839e-05 -23.68385639
161.099704 -40.40612245 -151.0000974
24.577892 -39.0515058 148.9999026
108.181258 -2.498422839e-05 76.74614761
-2.899999299e-05 -60.57539391 62.83453261
-2.164831 -26.66716637 -73.20254439
39.743435 -35.74765927 -145.0000974
247.086603 -50.64036694 125.9148846
90.300456 -2.498422839e-05 59.61192861
125.505997 -18.78671198 135.4834956
83.088235 -2.498422839e-05 -53.50390939
23.749799 -28.74521334 148.9999026
53.98952 -65.39535183 141.1119706
69.685003 -47.70518881 145.8952296
151.500278 -2.498422839e-05 -32.58481539
15.208961 -2.498422839e-05 37.64287961
185.977446 -2.498422839e-05 -18.74874039
163.374426 -2.498422839e-05 52.02906261
8.82064 -0.7500249842 144.0423806
117.227049 -2.498422839e-05 -55.12183639
137.569983 -2.498422839e-05 -53.98578939
102.093088 -5.239720634 137.3261336
215.159434 -41.64874122 128.4276106
123.999842 -28.32107544 -151.0000974
138.836628 -2.498422839e-05 -127.1639784
131.172381 -2.498422839e-05 -28.53614539
225.178669 -1.364790554 133.6576456
40.953017 -2.498422839e-05 21.01337161
-2.899999299e-05 -19.16517095 -133.5031734
174.654391 -22.6348477 -151.0000974
36.363309 -2.498422839e-05 -85.72868639
-2.899999299e-05 -57.16760615 79.98698761
22.315539 -2.498422839e-05 130.6931626
-2.899999299e-05 -31.61873919 66.88881561
147.454192 -21.76975929 139.7746776
200.419936 -2.498422839e-05 -81.33315139
22.985019 -5.493157774 -145.0000974
37.992155 -43.24570925 -151.0000974
223.101464 -63.32595574 133.8211246
119.111016 -37.19164641 -151.0000974
39.554735 -2.498422839e-05 -127.9607114
90.819737 -53.60076589 -151.0000974
65.126211 1.516213476 19.93902161
183.831484 -2.498422839e-05 108.6723146
67.711677 -12.4378577 140.0320126
212.427996 -2.498422839e-05 -83.39240939
-2.899999299e-05 -25.41249128 89.11257561
10.180433 -18.43371765 148.9999026
-2.899999299e-05 -42.83788196 11.76783161
125.885491 -54.08931218 -151.0000974
43.823277 -2.498422839e-05 117.8879276
59.06252 -2.498422839e-05 68.10845761
122.80219 -4.805620854 -145.0000974
51.632931 -2.498422839e-05 -26.54424239
192.589055 -2.498422839e-05 -69.82681639
161.642071 -23.90778896 132.6395226
233.811277 -2.498422839e-05 116.5426276
172.385021 -3.414117144 -145.0000974
46.225402 -2.498422839e-05 -8.763773386
106.642095 -68.00002402 142.2446686
128.738537 -35.63665953 135.2290896
115.018269 -49.20585056 -151.0000974
49.853 -28.22755942 147.4560376
179.34607 -29.699296 137.2647396
23.181331 -60.11526016 148.9999026
-2.899999299e-05 -22.06478936 -37.43069739
94.524753 -36.8529401 -151.0000974
220.208477 -58.02168961 128.0302416
97.111173 -18.91629097 -151.0000974
162.609047 -44.66551408 132.5634196
66.407063 -0.4184707642 -145.0000974
59.907495 -2.498422839e-05 -8.766670386
1.038843 -51.01448853 -145.0000974
65.920836 -2.498422839e-05 49.24824161
212.869591 -2.498422839e-05 18.10360561
66.338811 -2.498422839e-05 -6.656962386
226.328185 -2.498422839e-05 93.56600461
141.449421 -17.29753028 140.2472626
206.004579 -2.498422839e-05 -34.88417239
-2.899999299e-05 -15.80722355 -108.7566714
88.113301 -63.76263235 -145.0000974
29.030934 -65.97619133 -151.0000974
235.14363 -40.36861432 -151.0000974
8.922569 -55.74391856 148.9999026
95.823253 -3.584148764 -151.0000974
39.812001 -56.00029221 142.2277666
50.171927 -41.7675647 -151.0000974
73.113747 0.2729795858 139.6068596
161.172535 -4.896406954 -145.0000974
169.729663 -2.498422839e-05 -136.6812074
10.639642 -2.498422839e-05 55.08169361
23.27629 -55.44269184 142.9999026
251.140216 -13.79081734 -145.0000974
105.675781 -31.03048878 -151.0000974
88.256924 -2.498422839e-05 -0.7639443859
-2.899999299e-05 -63.30652088 116.8864506
168.08751 -64.7073129 138.1508046
141.142153 1.533664976 -96.94426839
43.823724 -59.75803311 147.9305506
3.816354 -13.55350781 -151.0000974
241.491239 -48.22515969 -145.0000974
211.568444 -22.52097098 -151.0000974
28.302358 -2.498422839e-05 -68.71284139
-2.899999299e-05 -9.223340224 -112.8291244
205.222585 -49.46207869 -151.0000974
166.746581 -18.25123227 138.2563376
232.312039 -34.01130519 -151.0000974
237.668514 1.619241246 126.6560346
111.617102 -2.498422839e-05 -99.53865939
166.233207 -47.14423998 -145.0000974
178.509627 -2.498422839e-05 17.35069061
-2.899999299e-05 -1.248286294 -91.68516739
147.266468 -2.498422839e-05 61.50150261
91.045348 -3.084084294 144.2141386
55.515146 -16.11754575 -151.0000974
-2.899999299e-05 -30.12200049 -58.14982339
249.738689 -17.31189289 131.7247346
-2.899999299e-05 -1.006397424 43.40440161
64.901522 -25.78945685 140.2531766
40.117516 -18.14880147 -145.0000974
10.072981 -2.498422839e-05 -130.5352264
155.321416 -1.070170634 -145.0000974
-2.899999299e-05 -11.32987879 69.88032361
-2.899999299e-05 -55.38962165 -21.94486639
89.47693 -50.29790479 144.3375746
221.450743 -14.36854833 127.9324726
85.915667 -52.44862443 138.5993256
79.455297 -58.20762804 -145.0000974
-2.899999299e-05 -43.63490595 -24.58452039
188.783867 -2.498422839e-05 26.69352661
75.035468 -2.498422839e-05 -89.70918339
91.443588 -2.498422839e-05 91.26724261
140.580513 -2.498422839e-05 15.14539661
-2.899999299e-05 -33.60326981 -96.86362139
96.897709 -6.186168534 -145.0000974
184.272227 -12.85250853 136.8770436
106.656896 -2.498422839e-05 -56.16598339
206.835598 -2.498422839e-05 -49.68027439
-2.899999299e-05 -24.58931755 105.9430816
206.850508 -2.498422839e-05 -111.2682404
204.655971 1.919859656 135.2728126
140.689976 -2.498422839e-05 108.9991996
137.842621 -37.02461368 -151.0000974
145.310552 -33.88682931 -145.0000974
174.59474 -68.00002402 -146.7108864
20.257048 -2.498422839e-05 -127.9256294
128.268078 -2.498422839e-05 19.78367161
44.202193 -35.14849785 147.9007646
156.130672 -39.48988375 133.0732796
247.416879 -2.498422839e-05 -68.54192839
-2.899999299e-05 -77.62384998 -53.92940439
86.932206 -23.05324508 144.5378486
-0.77927 1.613349176 -151.0000974
192.877895 -2.498422839e-05 -135.4359064
-2.899999299e-05 -3.686645134 16.86685561
-2.899999299e-05 -16.23379918 37.07426261
-2.899999299e-05 -92.9089986 -76.82454039
99.558536 -29.22836223 -145.0000974
-2.899999299e-05 -85.48599145 92.28347061
240.242914 -12.91861433 -151.0000974
11.312892 -45.42713058 -151.0000974
194.788251 -0.5658685942 136.0494166
223.374397 -10.07348165 -145.0000974
-2.899999299e-05 -65.13392927 -8.471855386
134.413578 0.5076869258 -145.0000974
3.166466 -63.64898576 -151.0000974
26.149824 -7.723466304 148.9999026
-2.899999299e-05 -90.60988905 -90.93172039
29.999971 -13.53489363 145.8915516
-2.899999299e-05 -64.73472136 -66.22788039
252.089497 0.1946067958 -145.0000974
-0.184171 -115.7196243 64.99990261
170.875947 -2.498422839e-05 -81.89366239
53.112057 -13.47847695 141.1810286
-2.899999299e-05 -19.92817739 5.203481614
210.98699 -2.498422839e-05 -26.54689739
245.090374 -0.1199924542 -151.0000974
137.238495 -48.93914152 134.5601276
68.873965 -5.866752044 139.9405386
162.040578 -7.979561364 132.6081596
141.39955 -2.498422839e-05 -37.39325839
154.344214 1.183457426 133.2138766
83.598712 -2.498422839e-05 -114.8874974
-2.899999299e-05 -30.30291836 115.8778766
238.196397 -2.498422839e-05 -24.84614439
247.175784 0.5710386458 131.9264396
93.0983 -2.498422839e-05 -7.177182386
157.896982 -50.79369093 138.9528146
74.373332 -49.96959003 -151.0000974
180.487172 -2.498422839e-05 -51.02261339
169.360093 -8.369579384 -151.0000974
108.669421 -35.00486793 136.8085646
-2.899999299e-05 -7.429754584 -0.4592743859
8.966637 -2.498422839e-05 -38.55515439
116.418305 -7.385718934 -145.0000974
247.411837 -2.498422839e-05 82.28281061
3.952113 -2.498422839e-05 -0.7340573859
222.075017 -2.498422839e-05 -41.73573739
-2.899999299e-05 -79.1612789 90.42670861
97.232308 -2.498422839e-05 73.29552961
164.461434 -30.70972473 -151.0000974
239.027121 -55.91121127 -151.0000974
239.57599 -16.87149199 132.5245546
193.710483 -7.762532894 130.1156806
104.008076 -1.696134584 -145.0000974
6.29421 -12.06992466 148.9999026
-2.899999299e-05 -39.10894978 96.05695561
48.198918 -9.225316524 -151.0000974
117.028527 -2.498422839e-05 37.94322361
-1.918092 1.999975016 76.21550061
4.715477 -2.498422839e-05 -65.25858339
-2.899999299e-05 -25.18761539 131.8881526
-2.899999299e-05 -53.61709977 10.72753961
72.583004 -62.00719306 145.6671526
52.44576 -2.498422839e-05 -105.0486944
136.049827 -7.687744224 -145.0000974
81.138587 -2.498422839e-05 -30.96025639
118.850917 -56.69905449 -145.0000974
-2.899999299e-05 -26.86974247 -130.6445184
17.867256 -37.60012651 142.9999026
9.439293 -2.498422839e-05 -93.65581939
82.520602 -2.498422839e-05 -98.62773739
227.50181 -59.16461946 133.4748106
60.761813 -2.498422839e-05 -91.52673739
-2.899999299e-05 -109.457984 -85.52919139
61.564933 -2.498422839e-05 38.96747561
-1.283257 -61.49438185 -145.0000974
-2.899999299e-05 -39.61857129 3.190702614
-2.899999299e-05 -82.8228326 -66.00533639
122.958644 -64.38605368 -145.0000974
59.370245 0.1466565058 -108.9087884
224.344753 -38.68125039 133.7232756
237.059937 1.926759046 -151.0000974
76.253874 -2.498422839e-05 -144.5809704
82.168421 -61.57374052 138.8942406
57.224014 -51.39430237 146.8759276
119.964412 -2.498422839e-05 -105.0770734
-2.899999299e-05 -104.9893951 -70.58697739
73.811128 -45.42930315 139.5519746
-2.899999299e-05 -33.97592079 136.9479346
227.928424 -2.498422839e-05 -59.41974839
192.491926 -2.498422839e-05 116.9149026
7.560342 -22.82797276 -151.0000974
-2.899999299e-05 -119.1584605 91.74766261
237.930229 -2.498422839e-05 60.51806961
95.101798 -2.498422839e-05 25.54285961
44.359176 -23.40365457 -151.0000974
9.397908 -2.498422839e-05 138.1250526
115.995123 -7.318434814 142.2505536
134.164229 -19.90816573 140.8206176
148.023677 -18.3749949 -151.0000974
250.927351 -6.567389524 -151.0000974
4.613124 -2.498422839e-05 -115.2504124
-2.899999299e-05 -4.843528154 23.84722361
10.066202 -37.5447094 -151.0000974
154.079909 -2.498422839e-05 2.066344614
195.678089 -2.498422839e-05 100.2853796
171.228209 -15.02669088 -145.0000974
-2.899999299e-05 -28.55671123 -101.6350614
229.998309 -14.75053136 127.2597646
14.260237 -2.498422839e-05 129.5928516
-2.899999299e-05 -4.815405744 -45.70325339
125.495312 -57.8713501 135.4843366
-2.899999299e-05 -111.0089619 84.71401861
-0.07447299999 -25.14149959 78.74440161
-2.899999299e-05 -4.590481814 94.46243461
155.143015 0.5654009558 -107.4829294
91.836842 -2.498422839e-05 -83.84390339
-2.899999299e-05 -54.97306598 -1.659659386
-2.899999299e-05 -46.10899567 -61.43987939
241.132594 -2.498422839e-05 -123.5634504
112.877691 -0.7803423142 136.4773666
180.571657 -2.498422839e-05 -61.17200639
-2.899999299e-05 -6.921969404 -68.24031639
12.774314 -2.498422839e-05 25.60161261
-2.899999299e-05 -122.0456328 -101.6831274
-2.899999299e-05 -58.95296834 95.05400661
128.665749 -41.25504646 -145.0000974
174.943113 -2.498422839e-05 -114.1104064
-2.899999299e-05 -96.91665069 80.46302761
145.539641 -2.498422839e-05 84.40877561
53.501944 -2.498422839e-05 -52.71065939
151.104938 -58.64463986 133.4688136
42.201689 -2.498422839e-05 74.38006361
124.708552 -2.498422839e-05 134.9193486
-2.899999299e-05 -49.64777686 15.06814961
-2.899999299e-05 -45.63457757 -102.4911264
-2.899999299e-05 -14.68239204 -49.50176139
74.949281 -37.38983289 145.4809226
-2.899999299e-05 -29.33717872 48.40772561
72.92832 -68.00002402 140.9792056
59.917444 -2.498422839e-05 85.44238061
-2.899999299e-05 -41.4911599 -13.54617639
-2.899999299e-05 -67.42693656 88.55034561
227.902732 -40.62680032 -145.0000974
-2.899999299e-05 -15.91097858 -84.86719639
181.668352 -2.498422839e-05 -106.9161564
-2.899999299e-05 -1.457185654 106.1631816
-2.899999299e-05 -67.56674505 47.49288161
92.868125 -2.498422839e-05 108.9681536
-2.899999299e-05 -20.42206429 59.18291161
-2.899999299e-05 -30.63641226 -22.09714139
99.033015 -2.498422839e-05 0.5495946141
62.58871 -42.61011005 -151.0000974
229.629911 -2.498422839e-05 -92.46717639
-2.899999299e-05 -20.41146613 -50.78780939
176.65555 -2.498422839e-05 54.67236961
-2.899999299e-05 -96.15510259 -68.53983139
185.68681 -68.00002402 135.0547416
183.704509 -2.498422839e-05 -43.68638439
212.934561 -13.59095104 134.6212746
187.886574 -2.498422839e-05 57.60181561
24.121345 -2.498422839e-05 49.20608961
97.068416 -2.498422839e-05 -98.61063839
-2.899999299e-05 -135.8949602 -75.15121539
130.928111 -2.498422839e-05 31.33658761
-2.899999299e-05 -10.36633378 131.8696596
225.956708 -2.498422839e-05 60.79185961
182.206316 -2.498422839e-05 127.7199526
207.261883 -15.3528335 129.0491616
75.621608 -2.498422839e-05 105.9560626
178.921473 -2.498422839e-05 -36.85790939
33.302967 -5.549452544 142.7400396
245.786286 -7.396682684 132.0357956
1.458745 -2.498422839e-05 4.473592614
131.946047 -4.266552124 140.9951916
160.272703 -60.62839551 -145.0000974
27.021171 -2.498422839e-05 -129.6243734
-2.899999299e-05 -4.675047194 88.31927561
181.020865 -2.498422839e-05 -124.5631274
171.583972 -34.05171128 -145.0000974
56.148569 -2.498422839e-05 -121.8875784
0.651024 -27.44436141 142.9999026
5.495484 0.5123591558 -145.0000974
98.939111 -60.78422467 143.5928876
-2.899999299e-05 -120.5136807 84.91950361
-2.899999299e-05 -98.44020402 68.11476261
108.472254 -2.498422839e-05 -136.7006674
-2.899999299e-05 -35.36350677 131.3692286
46.380467 -6.365385344 147.7293316
-2.899999299e-05 -4.698245434 39.00331261
100.893788 -2.498422839e-05 92.22939861
-2.899999299e-05 -5.313420934 -95.73341739
97.225794 -1.264053374 137.7091986
223.819228 -28.411426 127.7460686
-2.899999299e-05 -88.18649258 73.22576361
122.062934 -26.93440323 -145.0000974
2.609182 -2.498422839e-05 -19.66788939
119.244333 2.051843676 135.9762196
-2.899999299e-05 -43.07017194 47.25097961
63.046407 -2.498422839e-05 -29.36375039
168.503841 -2.498422839e-05 -24.77584539
97.67802 -52.41114373 -145.0000974
221.917835 -52.96146889 -145.0000974
-2.899999299e-05 -95.11670024 -62.93054739
-2.899999299e-05 -21.26370802 -59.07252939
52.326298 -64.45420649 -145.0000974
-0.170054 -110.4791088 -105.0000974
-2.899999299e-05 -69.81778751 -39.48718439
184.596077 -2.498422839e-05 12.52541661
83.701712 -2.498422839e-05 68.28288861
29.164797 -2.498422839e-05 -107.8547614
44.226479 -43.50644431 -151.0000974
189.719373 -22.93219188 -145.0000974
69.241415 -25.03957879 145.9301406
67.257898 -4.349289374 146.0862466
102.899434 -2.498422839e-05 105.5455586
38.153799 -22.20065024 148.3767826
3.658766 -2.498422839e-05 77.73830561
184.657971 -2.498422839e-05 -80.89564339
137.703151 -2.498422839e-05 84.73608861
-2.175786 -27.45673793 -141.0000974
240.835602 -2.498422839e-05 -74.49621539
-2.899999299e-05 -37.00840731 38.22515861
-2.899999299e-05 -46.90809622 -139.6430534
39.68235 -29.78974426 -151.0000974
238.757875 -49.12485964 132.5889416
7.551623 -2.498422839e-05 -60.26551039
106.897634 -2.498422839e-05 -123.0128604
28.2838 -2.498422839e-05 -51.86897539
83.503571 -51.35610321 -151.0000974
115.427124 -2.498422839e-05 106.9736726
213.259266 -39.81316581 -151.0000974
216.773468 -2.498422839e-05 32.69232061
200.303887 -47.4114541 -145.0000974
8.12653 -59.2265403 -145.0000974
217.984189 -3.133250864 -145.0000974
245.358705 -31.87203331 132.0694466
248.206951 -63.61024703 125.8267116
78.824758 -24.13265413 -145.0000974
52.005635 -2.498422839e-05 -141.0310694
91.303083 -17.41678153 -145.0000974
-2.899999299e-05 -35.69658445 -62.97742039
179.525565 -2.498422839e-05 61.23832061
58.831257 -5.078238914 -151.0000974
-2.899999299e-05 -36.85523896 64.85387361
-2.899999299e-05 -35.84249848 -56.59844739
128.12972 -2.498422839e-05 -68.81558239
-2.899999299e-05 -50.96320018 -112.9843514
248.339642 -2.498422839e-05 38.89048761
100.378401 -55.12674392 143.4796126
-2.899999299e-05 -16.48445864 -36.03625539
124.747482 -43.13318109 141.5617296
109.489609 -2.498422839e-05 131.0528546
43.670879 -11.52868919 -145.0000974
-2.899999299e-05 -26.6873745 61.91645961
227.137653 -2.498422839e-05 28.38189561
-2.899999299e-05 -41.69111525 125.5192186
29.999971 -40.41612499 148.7391726
-2.899999299e-05 -19.7892801 -65.43921039
121.58784 -66.71783216 -151.0000974
9.238162 -2.498422839e-05 -83.04146339
251.624342 -2.498422839e-05 -126.9993844
184.06867 -2.498422839e-05 -72.26024839
69.132167 -2.498422839e-05 100.8754366
