# .PCD v0.7 - Point Cloud Data file format
VERSION 0.7
FIELDS x y z
SIZE 4 4 4
TYPE F F F
COUNT 1 1 1
WIDTH 1155
HEIGHT 1
VIEWPOINT 0 0 0 1 0 0 0
POINTS 1155
DATA ascii
171.3491895 -2.498874368e-05 179.3042166
-42.24400754 -2.498874368e-05 151.0835126
139.1194615 0.3845387913 -9.74081363e-05
-64.86479654 -2.498874368e-05 169.9356436
125.3218265 -2.498874368e-05 205.8203866
18.33477546 -2.498874368e-05 85.73389059
-311.5138985 1.375240691 -9.74081363e-05
152.9371085 -2.498874368e-05 110.5151716
-156.7494195 -2.498874368e-05 52.34709859
-417.3438285 -2.498874368e-05 40.94631759
-19.43088554 -2.498874368e-05 132.7730026
30.44209746 -29.84756789 -9.74081363e-05
64.04582246 -2.498874368e-05 49.20364759
-235.0046235 -2.498874368e-05 23.35404059
68.30915246 -2.498874368e-05 10.42594459
88.87649146 -52.41119727 -9.74081363e-05
-223.3311955 -2.498874368e-05 76.01484759
-414.1420485 -2.498874368e-05 242.0019806
-67.78983254 -2.498874368e-05 138.4560026
-139.8578895 -2.498874368e-05 148.9532486
-13.16923854 -2.498874368e-05 181.6023856
-65.06884154 -2.498874368e-05 38.38204659
-207.0086135 -2.498874368e-05 4.150554592
375.7800845 -36.5167737 -9.74081363e-05
82.74444246 -2.498874368e-05 121.0257556
-251.7093485 -2.498874368e-05 207.1239206
-24.57767854 -2.498874368e-05 82.25403359
-25.84263554 -2.498874368e-05 246.7751356
-421.9529085 -2.498874368e-05 183.7911086
272.9394815 -67.09030287 -9.74081363e-05
3.276184461 -2.498874368e-05 63.98486459
-428.0071985 -8.164224629 66.19004459
241.6327415 -8.093172089 -9.74081363e-05
-290.7044585 -2.498874368e-05 243.9892506
245.6634935 -2.498874368e-05 239.1033256
214.5263865 -18.32218454 -9.74081363e-05
-224.0158515 -2.498874368e-05 236.7897956
-141.6318205 -2.498874368e-05 38.10957359
-363.1508385 -68.00002403 -2.419159408
175.1674925 -2.498874368e-05 222.5311186
210.7755895 -2.498874368e-05 53.25566159
-27.36752054 -2.498874368e-05 23.86518759
117.3589135 -38.21462096 -9.74081363e-05
-406.3356585 -2.498874368e-05 116.8740046
-323.2644785 -2.498874368e-05 91.25714059
253.8850245 -2.498874368e-05 91.72698759
423.9376045 -2.498874368e-05 185.8181326
311.9428465 -2.498874368e-05 74.49401259
-336.7552285 -27.71205511 -9.74081363e-05
202.5562575 -2.498874368e-05 199.9508946
418.0277505 -2.498874368e-05 66.71372559
351.4367175 -2.498874368e-05 246.9969836
262.7119495 -21.85875624 -9.74081363e-05
393.9387645 -2.498874368e-05 182.6033316
-29.32061554 -2.498874368e-05 198.8400916
138.9176175 -2.498874368e-05 56.60891959
-230.8285065 -2.498874368e-05 94.13066659
219.2754905 -2.498874368e-05 184.9137336
-389.6810885 -2.498874368e-05 34.99760059
-298.4438085 -2.498874368e-05 169.9981736
-277.7958885 -2.498874368e-05 55.78385259
-409.0964885 -41.27279933 7.989256592
-67.59545354 -58.5607909 -9.74081363e-05
306.3267895 -2.498874368e-05 110.8672146
-200.4244565 -2.498874368e-05 109.7267826
40.82654946 -2.498874368e-05 56.36625659
383.0517565 -2.498874368e-05 164.9912966
-236.2440465 -2.498874368e-05 160.9648506
402.1550805 -2.498874368e-05 138.4676066
-382.4539385 -2.498874368e-05 64.43458359
-413.3386785 -21.67847827 21.04577659
-172.9177215 -2.498874368e-05 70.94291159
341.3970295 -2.498874368e-05 74.29957059
75.77330146 -63.25436153 -9.74081363e-05
-333.3326485 -2.498874368e-05 11.31838759
-212.3576285 -2.498874368e-05 224.2436156
155.0100105 -2.498874368e-05 201.5237336
93.62888046 -2.498874368e-05 72.82914159
-354.2042085 -2.498874368e-05 14.08657659
156.5747755 -2.498874368e-05 226.7402046
-387.9732485 -2.498874368e-05 213.1044906
-321.4871985 -2.498874368e-05 52.93995759
-274.1365385 -2.498874368e-05 235.3829866
-201.9774305 -2.498874368e-05 138.4460506
-17.39106954 -2.498874368e-05 47.07016459
146.6012995 -17.63021322 -9.74081363e-05
-307.3325285 -66.17050721 -9.74081363e-05
-394.3572285 -2.498874368e-05 9.201577592
-425.6225085 -2.498874368e-05 232.1290686
-425.4499785 -2.498874368e-05 132.7537126
348.9221265 -2.498874368e-05 26.57137859
309.4528785 -2.498874368e-05 167.2524846
102.6610155 -2.498874368e-05 107.8365586
-171.8344635 -1.231819199 -9.74081363e-05
192.8071475 -2.498874368e-05 38.20884559
-12.24279754 -58.8383848 -9.74081363e-05
199.5982075 1.769844371 -9.74081363e-05
-416.7322185 -43.42760067 -2.320850408
-203.1271835 -2.498874368e-05 249.0534626
256.3964945 -2.498874368e-05 104.9414316
288.6126735 -2.498874368e-05 110.1760526
241.9652235 -2.498874368e-05 147.1670586
-125.0065675 -2.498874368e-05 25.31165359
81.65331746 -2.498874368e-05 134.7354086
-382.4331085 -2.498874368e-05 152.6542196
-98.82987154 -2.498874368e-05 80.81615159
114.6101135 -2.498874368e-05 55.53094559
18.55416846 -2.498874368e-05 190.8290416
-206.1305205 -2.498874368e-05 79.16244959
374.6374375 -2.498874368e-05 202.1024436
300.6630315 -22.93505207 -9.74081363e-05
-371.0131885 -2.498874368e-05 125.1596746
329.7590075 -2.498874368e-05 26.29873559
-15.11472054 -2.498874368e-05 6.467240592
-76.45134254 -31.50009262 -9.74081363e-05
-331.0835985 -2.498874368e-05 101.1407376
321.4573115 -2.498874368e-05 66.27185759
388.1330995 -2.498874368e-05 250.0629706
-104.2128785 1.707102681 -9.74081363e-05
-189.7636115 -2.498874368e-05 32.58277459
-86.78106154 -2.498874368e-05 121.2396696
-280.6053385 -2.498874368e-05 205.2943756
-38.74704554 -2.498874368e-05 133.0901586
409.3828035 -2.498874368e-05 178.2431466
29.04794046 -2.498874368e-05 106.1964416
-143.7033165 -2.498874368e-05 97.21195159
-325.0820285 -2.498874368e-05 188.6551866
309.7961435 -48.88502158 -9.74081363e-05
-160.3687295 -2.498874368e-05 166.7647136
-170.0753495 -2.498874368e-05 91.23391959
17.55048646 -2.498874368e-05 49.51735359
-104.0846045 -2.498874368e-05 24.83746259
-355.6919785 -2.498874368e-05 30.10940759
-174.8021845 -2.498874368e-05 146.3391486
272.5520465 -2.498874368e-05 123.9031356
202.4851405 -43.62341038 -9.74081363e-05
391.7744505 -2.498874368e-05 121.4029606
-147.7175805 -2.498874368e-05 159.5979666
249.4401545 -2.498874368e-05 40.17674659
-204.6581145 -2.498874368e-05 57.52233959
45.73616946 -65.14876854 -9.74081363e-05
60.06038446 1.577165771 218.2133906
370.7044245 -2.498874368e-05 163.5219806
159.9405755 -2.498874368e-05 174.3758296
-422.8292785 -2.498874368e-05 157.9700426
423.8596365 -2.498874368e-05 234.0865836
-201.7071125 -68.00002403 -1.393787408
-294.3007085 -2.498874368e-05 55.59598259
132.1513815 -2.498874368e-05 109.9109706
-136.6177255 -2.498874368e-05 67.31267959
9.663977461 -2.498874368e-05 6.176710592
92.93131146 -2.498874368e-05 37.01820159
392.6010055 -50.45368713 -9.74081363e-05
-46.17887554 -2.498874368e-05 63.90579259
-224.4807695 -2.498874368e-05 40.85540159
-116.0036085 -2.498874368e-05 201.8077456
164.4774615 -2.498874368e-05 249.3489156
-363.9759385 -2.498874368e-05 91.50847759
323.0186085 -11.87575657 -9.74081363e-05
112.9869175 -2.498874368e-05 241.5111126
-60.20293554 -31.10879969 -9.74081363e-05
199.8759065 -2.498874368e-05 226.0929096
-315.6024785 -2.498874368e-05 13.44146959
423.0418365 -2.498874368e-05 160.3338276
344.5718755 -2.498874368e-05 133.0072636
-277.2729585 -2.498874368e-05 85.27230359
18.92435446 -2.498874368e-05 176.8727406
-311.7913885 -39.84349741 -9.74081363e-05
242.4656945 -2.498874368e-05 172.3941766
146.8011175 -2.498874368e-05 173.0151536
332.5204935 -2.498874368e-05 122.9848956
-312.3362385 -13.2563458 -9.74081363e-05
-100.8086665 -2.498874368e-05 54.54083659
126.4778855 -30.12049037 -9.74081363e-05
-102.1694795 -2.498874368e-05 198.4664296
-85.22318154 -2.498874368e-05 30.22997159
-393.5345385 -2.498874368e-05 117.1963156
144.0800985 -2.498874368e-05 217.7330186
173.7247135 -2.498874368e-05 89.09731059
335.6114025 -2.498874368e-05 56.32384459
244.8346035 -2.498874368e-05 64.97506759
237.5857285 -26.98655918 -9.74081363e-05
-87.51575954 -2.498874368e-05 91.91754059
106.5602255 -2.498874368e-05 178.7042266
361.4319715 -29.42566676 -9.74081363e-05
-256.5083985 -1.853552369 -9.74081363e-05
42.38058446 -2.498874368e-05 149.8741156
229.1239355 -2.498874368e-05 32.13401059
141.6424015 -2.498874368e-05 149.7625116
-196.1478055 -2.498874368e-05 234.9593456
93.01747946 -20.18944363 -9.74081363e-05
-113.4331815 -2.498874368e-05 164.3180676
414.3367695 -2.498874368e-05 218.8089506
290.3201595 -2.498874368e-05 211.6183696
-419.6573685 -31.78448401 40.49249959
-70.19559954 -2.498874368e-05 186.2593536
376.8392685 -11.75845166 -9.74081363e-05
397.3744935 -2.498874368e-05 109.2913576
106.7218975 -2.498874368e-05 230.1760786
258.7036105 -2.498874368e-05 142.8527476
-330.7783985 -57.978746 -9.74081363e-05
356.4464395 -2.498874368e-05 38.57894159
-270.0977385 -2.498874368e-05 184.4024926
262.6709325 -43.93824905 -9.74081363e-05
-166.7578485 -2.498874368e-05 103.7843086
-250.5576085 -2.498874368e-05 21.16609959
-142.4211755 -2.498874368e-05 234.3619376
368.9122945 -66.69458027 -9.74081363e-05
-113.8752385 -2.498874368e-05 147.9605256
-32.34684254 -2.498874368e-05 236.7162976
-425.3740185 -2.498874368e-05 22.35432059
353.6556705 -40.91579134 -9.74081363e-05
408.3909495 -2.498874368e-05 12.35453659
128.0935525 -4.203489329 -9.74081363e-05
-355.4323085 -2.498874368e-05 178.5701176
-162.5344595 -2.498874368e-05 182.2083066
5.679869461 -47.78896342 -9.74081363e-05
-291.4063385 -2.498874368e-05 149.1062346
-5.869267539 -2.498874368e-05 205.3478376
412.8085355 -2.498874368e-05 198.8051666
236.0016385 -2.498874368e-05 125.8726506
-48.06082554 -2.498874368e-05 187.4298866
59.99185546 -2.498874368e-05 146.7110496
270.2943355 -2.498874368e-05 99.57482059
0.8133354606 -2.498874368e-05 78.92894559
186.8013245 -48.12811004 -9.74081363e-05
-152.1315215 -2.498874368e-05 9.530249592
-108.0817855 -2.498874368e-05 122.9595166
346.8406465 -2.498874368e-05 156.9360776
-151.0223835 -29.13207939 -9.74081363e-05
367.3250315 -2.498874368e-05 174.9255406
40.28633746 -16.25988114 -9.74081363e-05
-382.9922785 -2.498874368e-05 187.8428486
162.0904375 -2.498874368e-05 63.66650359
-119.1927655 -2.498874368e-05 128.1736246
184.9481535 -2.498874368e-05 23.94770159
-289.4826585 -2.015347309 -9.74081363e-05
183.3116685 -27.60658414 -9.74081363e-05
197.0525995 -2.498874368e-05 128.5655286
377.2774305 -2.498874368e-05 54.85244859
-63.55687654 -2.498874368e-05 110.7588256
-38.58592954 -2.498874368e-05 0.5434275919
-126.2349795 -2.498874368e-05 11.17721959
99.94626146 -2.498874368e-05 166.8693956
-414.5319585 -2.498874368e-05 90.81929859
415.6086775 -2.498874368e-05 42.82206059
278.9980135 -2.498874368e-05 149.5171276
268.0913775 -2.498874368e-05 199.2716396
-282.4557185 -16.38703523 -9.74081363e-05
173.0824495 -8.942448129 -9.74081363e-05
349.9497475 -2.498874368e-05 51.02874759
219.2218885 -2.498874368e-05 158.6417586
49.87400646 -2.498874368e-05 74.41182459
177.2860735 -62.06295595 -9.74081363e-05
364.8438705 -2.498874368e-05 79.24829959
-212.1208255 -2.498874368e-05 155.5352446
-42.02365954 -2.498874368e-05 99.84971159
-407.9084285 -2.498874368e-05 62.30552259
-0.9040095394 -2.498874368e-05 144.8152666
-365.7774585 -2.498874368e-05 71.69238659
210.7631545 -2.498874368e-05 80.69050859
323.0481695 -2.498874368e-05 155.6906936
327.3811415 -2.498874368e-05 11.30890459
41.63897846 -2.498874368e-05 195.9956726
-360.0987285 -2.498874368e-05 205.5858466
376.3688225 -2.498874368e-05 228.3981356
-337.2676385 -2.498874368e-05 162.1915396
-343.1317385 -55.81611655 -9.74081363e-05
-218.7249285 -14.99906827 -9.74081363e-05
124.4980215 -2.498874368e-05 161.2071066
-339.4915685 1.384269181 49.40322359
-325.0073785 -2.498874368e-05 136.2040026
280.9090395 -2.498874368e-05 176.0553066
291.2149255 -2.498874368e-05 87.84853559
374.9659505 -2.498874368e-05 102.2780826
105.8256405 -2.498874368e-05 6.906857592
-414.5014985 -2.575027639 24.62247259
77.28584246 -2.498874368e-05 218.2240796
-285.7429485 -49.73958601 -9.74081363e-05
86.55330446 -8.077285999 -9.74081363e-05
123.9343925 -2.498874368e-05 78.41985059
-31.00618554 -2.498874368e-05 104.2165776
311.5889295 -2.498874368e-05 54.62745059
-377.7993685 -25.0264229 -9.74081363e-05
332.0568095 -2.498874368e-05 45.53355159
-367.9318885 -2.498874368e-05 43.81798359
137.3692265 -2.498874368e-05 43.42167559
416.1678875 -2.498874368e-05 246.5214416
16.79492146 -7.213032239 -9.74081363e-05
18.83859946 -30.64286514 -9.74081363e-05
-226.0235255 -2.498874368e-05 119.4380916
24.76623346 -2.498874368e-05 155.2957646
96.96288946 -2.498874368e-05 25.66206859
266.6198875 -2.498874368e-05 174.1163306
382.3204345 -2.498874368e-05 24.01873159
-38.03117954 -31.28447678 -9.74081363e-05
-206.3210375 -2.498874368e-05 44.04001859
-187.4867465 -9.256121329 -9.74081363e-05
-38.64392454 -2.498874368e-05 26.47660959
-237.4944425 -2.498874368e-05 118.5540146
-421.2996085 -2.498874368e-05 100.7877936
-221.8580545 -49.17047683 -9.74081363e-05
62.88707746 -20.71222233 -9.74081363e-05
-394.3240685 -6.427681929 -9.74081363e-05
50.90355646 -2.498874368e-05 17.53691859
-147.6052955 -2.498874368e-05 60.93400459
-150.9577305 -7.675134589 -9.74081363e-05
128.9802895 -2.498874368e-05 132.4717726
-152.6718745 -2.498874368e-05 188.3474846
-310.7924685 -2.498874368e-05 250.4474416
274.1999235 -2.498874368e-05 227.9668936
42.78327346 -2.498874368e-05 92.97682359
-401.8620885 -2.498874368e-05 175.0290676
215.5659505 -2.498874368e-05 104.1158636
-220.2262785 -2.498874368e-05 12.25562759
106.0231205 -2.498874368e-05 139.7557576
-25.09880554 -27.02220099 -9.74081363e-05
348.4271095 -2.498874368e-05 1.082283592
403.0125595 -2.498874368e-05 38.29325659
-186.9168535 -2.498874368e-05 184.3810326
-272.9628485 -2.498874368e-05 166.1501796
-243.7454985 -45.0399634 -9.74081363e-05
-185.6976845 -22.49583665 -9.74081363e-05
-152.0441985 -2.498874368e-05 79.97145159
102.6630245 -2.498874368e-05 189.5102076
-183.2950335 -2.498874368e-05 135.2442526
-166.6600305 -2.498874368e-05 236.4745266
-122.3440445 -2.498874368e-05 241.3397756
284.5511565 -10.37200923 -9.74081363e-05
365.9195605 -2.498874368e-05 113.8151536
-31.73963254 -2.498874368e-05 173.1388926
386.4713105 -2.498874368e-05 98.42522059
283.4646395 -2.498874368e-05 239.5634626
241.9822755 -59.21148167 -9.74081363e-05
204.0484795 -2.498874368e-05 10.41891259
-315.8616085 -2.498874368e-05 40.92859059
155.6601815 -68.00002403 -2.116851408
-290.9194885 -2.498874368e-05 178.7996446
-383.6989885 -2.498874368e-05 92.91793359
-92.84216354 -2.498874368e-05 71.61436559
-402.9242885 -2.498874368e-05 94.20087459
309.9194595 -2.498874368e-05 33.39433359
364.3883485 0.9794837113 -9.74081363e-05
-321.0857885 -2.498874368e-05 174.1772676
-188.3660015 -2.498874368e-05 55.62503859
-355.3632285 -17.71601082 -9.74081363e-05
185.4444015 -2.498874368e-05 83.29416559
-92.27163954 -2.498874368e-05 133.1675176
333.5629035 -2.498874368e-05 89.40682959
164.7284115 -27.54336177 -9.74081363e-05
332.8817315 -57.62103523 -9.74081363e-05
143.3180385 -2.498874368e-05 115.6373616
316.2703555 -2.498874368e-05 115.3117826
-412.5320385 -34.21830445 18.56293659
-218.7996075 -2.498874368e-05 251.6313546
-357.5691285 -2.498874368e-05 100.2908866
-66.73054854 -2.498874368e-05 158.7240766
235.1953095 -2.498874368e-05 58.27993159
-11.34840754 -2.498874368e-05 91.44473459
-242.7694485 -2.498874368e-05 105.7512606
385.6212095 -2.498874368e-05 213.6987556
-255.7375585 -2.498874368e-05 40.53340059
-5.748404539 -2.498874368e-05 232.1495086
-131.5898085 -2.498874368e-05 234.2154706
151.4948805 -2.498874368e-05 154.2333956
202.1863165 -56.68198606 -9.74081363e-05
-253.9909985 -2.498874368e-05 100.3465326
43.34687646 -27.90754307 -9.74081363e-05
-292.0080685 -2.498874368e-05 137.0265466
-285.2507185 -60.50520071 -9.74081363e-05
365.3343025 -2.498874368e-05 93.78208359
21.84623146 -67.79428795 -9.74081363e-05
-135.4672895 -2.498874368e-05 108.6551266
387.9738755 -11.14428508 -9.74081363e-05
-22.00560854 -2.498874368e-05 187.6747956
177.0851185 -2.498874368e-05 211.4321246
-425.0962885 -9.440611639 41.05051159
-334.2881985 -8.100137939 -9.74081363e-05
296.8080565 -2.498874368e-05 185.0839146
11.19237046 -2.498874368e-05 28.91435959
-73.63858854 -2.498874368e-05 244.3732426
-365.1370885 -2.498874368e-05 134.0855856
120.6964445 -2.498874368e-05 10.55196759
-209.7680925 -2.498874368e-05 179.0960426
-365.2131385 -2.498874368e-05 152.5770086
-75.31514254 -2.498874368e-05 115.1001306
-125.0299925 -2.498874368e-05 171.1781566
-355.0403785 -45.75910956 -9.74081363e-05
-368.7989185 -2.498874368e-05 216.8329796
67.57593446 -2.498874368e-05 34.53353959
-88.37948154 -2.498874368e-05 233.7538306
-415.9069785 -2.498874368e-05 252.4994766
255.9418275 -2.498874368e-05 30.23285259
27.15426346 -2.498874368e-05 15.81534359
-187.4649365 -47.55563151 -9.74081363e-05
384.1442395 -65.6674925 -9.74081363e-05
57.59005746 -11.49625342 -9.74081363e-05
336.0537515 -2.498874368e-05 168.2673426
44.27770246 -2.498874368e-05 35.53182659
-315.2119485 -2.498874368e-05 222.6734656
-61.58067054 -2.498874368e-05 70.66301559
-138.7979395 -2.498874368e-05 181.0606336
347.1597745 -62.02387157 -9.74081363e-05
418.2183335 -2.498874368e-05 16.34316659
-304.0667585 -55.59533416 -9.74081363e-05
267.8080455 -2.498874368e-05 238.0909206
-428.0918085 -21.84008183 -2.000097408
-152.8866655 -2.498874368e-05 121.2879716
-196.7930045 -2.498874368e-05 0.6721855919
110.3311985 -2.498874368e-05 33.33892959
176.9796415 -2.498874368e-05 45.66422959
163.6398155 -2.498874368e-05 33.04235559
39.39608746 -2.498874368e-05 227.0854566
-16.24981654 -39.71237323 -9.74081363e-05
-70.18137654 -2.498874368e-05 97.69239459
28.35552046 -2.498874368e-05 230.0920146
-369.1522085 0.8480598913 -9.74081363e-05
220.2952725 -2.498874368e-05 76.12471059
-8.142660539 -9.369235329 -9.74081363e-05
416.7406835 -2.498874368e-05 118.0559746
254.5826835 -37.2440686 -9.74081363e-05
-108.1803105 -2.498874368e-05 222.6999696
-403.4255485 -2.498874368e-05 231.9215186
-277.4201785 -37.83837857 -9.74081363e-05
181.1432585 -2.498874368e-05 113.7738036
387.7985145 -2.498874368e-05 191.0824846
-384.0293285 -2.498874368e-05 128.0711816
-423.5453585 -19.54815263 52.45871359
-97.95251254 -40.59940303 -9.74081363e-05
-297.8715685 -2.498874368e-05 79.07915059
147.4185735 -49.33147943 -9.74081363e-05
-418.5696385 -2.498874368e-05 8.918326592
-177.3256795 -2.498874368e-05 119.4478526
-279.7018285 -2.498874368e-05 9.991399592
-309.6098085 -2.498874368e-05 32.59378259
-140.6071085 -29.27066045 -9.74081363e-05
-314.0138285 -25.82798744 -9.74081363e-05
246.4249045 -2.498874368e-05 182.0076006
-111.2848985 -2.498874368e-05 240.3918386
-100.9795715 -2.498874368e-05 38.15576559
-346.7768585 -2.498874368e-05 142.5203106
344.0514385 -2.498874368e-05 89.89075859
79.41659546 -2.498874368e-05 187.6633896
-316.2604085 -2.498874368e-05 104.9812386
-152.3570535 -2.498874368e-05 146.3403096
-410.9054985 -54.02506935 -0.6014834081
-292.1401185 -30.31905616 -9.74081363e-05
-312.5852485 -2.498874368e-05 155.9754886
-36.76132154 -2.498874368e-05 161.5454746
-54.20261954 -2.498874368e-05 247.2039106
208.4217475 -7.110956939 -9.74081363e-05
216.1302295 -2.498874368e-05 63.57108159
-235.0068005 -2.498874368e-05 211.9152486
187.2482765 -2.498874368e-05 51.05701859
241.7857235 -2.498874368e-05 212.9202316
-200.2317975 -24.83016199 -9.74081363e-05
-318.8068885 -2.498874368e-05 124.0154956
-350.6083685 -2.498874368e-05 231.4142426
261.4020735 -2.498874368e-05 79.95721259
210.5256705 -2.498874368e-05 206.5074936
-256.2923885 -65.59401474 -9.74081363e-05
-74.80885554 -7.982326969 -9.74081363e-05
250.9995665 -2.498874368e-05 202.3862086
128.0584725 -2.498874368e-05 100.4591226
209.5648275 -2.498874368e-05 188.3433786
340.9314765 -35.01877309 -9.74081363e-05
42.18843846 -2.498874368e-05 209.0691266
233.3871065 -2.498874368e-05 166.1788466
27.48714446 -2.498874368e-05 94.36240259
-202.0544445 -2.498874368e-05 153.5235906
-351.8948185 -7.235423919 -9.74081363e-05
-235.6607755 -2.498874368e-05 13.11592959
167.5485115 -2.498874368e-05 192.8571046
-28.06176854 -50.61920165 -9.74081363e-05
-27.48999754 -2.498874368e-05 223.9555986
2.078780461 -36.41640844 -9.74081363e-05
-192.8229545 -2.498874368e-05 204.6036626
23.79209846 -2.498874368e-05 212.6175936
-299.7620585 -2.498874368e-05 1.804793592
13.43121646 -2.498874368e-05 62.77300559
-101.7338285 -2.498874368e-05 184.9718086
-32.50860554 -2.498874368e-05 15.04052659
409.7263445 -2.498874368e-05 59.44782059
-415.5198085 -40.46715365 27.75823359
58.71696346 -2.498874368e-05 228.2536986
-42.65409754 -2.498874368e-05 122.4932926
220.6612275 -2.498874368e-05 5.301535592
158.7047925 -2.498874368e-05 101.1210506
-284.6260285 -2.498874368e-05 161.5921856
23.26296946 -2.498874368e-05 72.52857459
-234.9379845 -2.498874368e-05 84.76449759
-59.75237454 -2.498874368e-05 5.818463592
-361.9180485 -29.64541377 -9.74081363e-05
-278.8227185 -2.498874368e-05 36.21727659
-267.6212485 -2.498874368e-05 249.9647386
96.85276646 -2.498874368e-05 211.3602826
25.70925746 -2.498874368e-05 130.4444176
301.5899005 -2.498874368e-05 53.12141559
-218.7122585 -2.498874368e-05 188.3274936
427.1960705 -2.498874368e-05 133.6896346
-37.96878354 -2.498874368e-05 222.0460656
116.2366345 -2.498874368e-05 210.2381036
228.0718435 -2.498874368e-05 82.57288559
-344.2372785 -2.498874368e-05 183.3127176
185.2673695 -2.498874368e-05 237.0477956
81.28343746 -2.498874368e-05 30.51552159
83.04653946 -2.498874368e-05 10.52252059
-402.3757585 -66.27111289 -9.74081363e-05
-178.9121485 -2.498874368e-05 245.6113466
-275.3805285 -2.498874368e-05 138.1179916
351.0219095 -2.498874368e-05 222.6430926
-244.7441985 -6.511978969 -9.74081363e-05
-269.2506185 -2.498874368e-05 30.25919759
-193.3508555 -2.498874368e-05 87.07487259
-296.6664985 -2.498874368e-05 219.2936756
-408.0282585 -2.498874368e-05 35.39276359
-92.54153854 -2.498874368e-05 7.791214592
75.16162146 -2.498874368e-05 77.47026059
187.7965795 -18.61639016 -9.74081363e-05
-264.5578685 -10.1644983 -9.74081363e-05
283.5422045 -2.498874368e-05 250.8798466
11.91374446 -2.498874368e-05 134.4034906
-25.69933354 -16.46635714 -9.74081363e-05
220.4122475 -2.498874368e-05 140.1829886
133.9556005 -2.498874368e-05 170.5543376
-252.6057985 -2.498874368e-05 140.8692866
-415.4360385 -13.43884733 -2.000097408
60.18603846 -52.24364301 -9.74081363e-05
-321.3146385 -42.93441311 -9.74081363e-05
276.1243055 -2.723628579 -9.74081363e-05
-22.20683054 -2.498874368e-05 72.52939959
-341.0326285 -2.498874368e-05 86.76008559
402.1023545 -57.46050798 -9.74081363e-05
-158.9449345 -2.498874368e-05 220.6891276
-302.2348185 -2.498874368e-05 91.45163059
-332.9587385 -2.498874368e-05 149.2882996
372.5987785 -2.498874368e-05 5.574627592
-171.7528425 -2.498874368e-05 200.8644606
62.48932546 -2.498874368e-05 167.4338896
-421.9687685 -40.63590574 47.60608759
402.3308275 -2.498874368e-05 237.7052576
195.6466785 -24.72685804 -9.74081363e-05
-45.64373154 -2.498874368e-05 141.7387306
-127.8103965 -42.88985284 -9.74081363e-05
-237.7527145 -2.498874368e-05 190.9678556
-83.15840754 -2.498874368e-05 17.16466059
-400.6550685 -2.498874368e-05 107.1010446
219.8349215 -2.498874368e-05 28.13891359
-131.0340585 -4.904880069 -9.74081363e-05
125.1083115 -2.498874368e-05 120.8052976
73.41198846 -2.498874368e-05 200.2137816
-272.7694285 -2.498874368e-05 221.8635466
380.2087105 -2.498874368e-05 122.2368426
-339.7995685 -2.498874368e-05 69.66420259
-169.3952755 -2.498874368e-05 34.21542959
-307.3752085 -2.498874368e-05 206.8878976
69.36342946 -2.498874368e-05 21.20328359
325.8729335 -23.4200122 -9.74081363e-05
63.04782246 -2.498874368e-05 60.59716859
387.0009635 -2.498874368e-05 52.17679559
-336.6156585 1.398689921 30.86065359
294.0566775 -2.498874368e-05 221.6250316
-189.6521665 -2.498874368e-05 120.1752146
377.5217835 -2.498874368e-05 66.27549659
365.4869255 0.3970448313 220.6875886
205.0203935 -2.498874368e-05 43.47246359
278.9809355 -2.498874368e-05 115.9805496
-94.46911654 -28.72964515 -9.74081363e-05
-368.7332585 -56.40748673 -9.74081363e-05
-11.26621854 -2.498874368e-05 169.6287666
-277.6425885 -2.498874368e-05 195.9595356
381.2942595 -2.498874368e-05 146.0690876
272.3717565 -2.498874368e-05 44.67472459
153.7824785 -2.498874368e-05 33.20843559
312.9478215 -2.498874368e-05 154.0623666
294.1239085 -30.22058821 -9.74081363e-05
290.6899995 -2.498874368e-05 198.9145936
-128.2184925 -2.498874368e-05 221.0638716
409.5352165 -2.498874368e-05 77.78059759
328.0675145 -3.038606669 -9.74081363e-05
-181.2618515 -2.498874368e-05 9.012200592
426.0801645 -5.420946879 -9.74081363e-05
421.1980895 -25.75467488 -9.74081363e-05
127.3471085 -2.498874368e-05 59.98131759
-156.1786595 -2.498874368e-05 107.2063286
185.7998015 -2.498874368e-05 187.1078386
98.17914346 -48.83098242 -9.74081363e-05
-251.5730685 -2.498874368e-05 150.5537596
183.7402645 -2.498874368e-05 204.0855536
340.2569985 -2.498874368e-05 186.9872226
-120.0288545 -7.132315149 -9.74081363e-05
-386.6595485 -2.498874368e-05 226.6005526
145.4554685 -2.498874368e-05 193.7969916
286.6297575 -43.53179708 -9.74081363e-05
133.5206215 -2.498874368e-05 79.89166859
338.6633205 -2.498874368e-05 109.5774306
307.5406025 -2.498874368e-05 228.0580766
-40.74687254 -2.498874368e-05 212.2214396
-187.5504405 -2.498874368e-05 18.89022459
238.0925665 -2.498874368e-05 233.0599916
-56.28338054 -2.498874368e-05 62.55449659
362.8356015 -2.498874368e-05 189.2748396
-51.25712754 -2.498874368e-05 175.9616676
-230.5887975 -2.498874368e-05 31.94652759
-17.80058454 -2.498874368e-05 98.63497059
160.8617435 -2.498874368e-05 7.517768592
-321.1778985 -59.0182477 -9.74081363e-05
183.9935605 -2.498874368e-05 11.59832259
-358.4838085 -2.498874368e-05 65.37639159
-146.0690445 -2.498874368e-05 19.37463259
-212.2004625 -2.498874368e-05 115.8023946
-139.9758175 -2.498874368e-05 198.5003946
-383.0579385 -2.498874368e-05 202.4536366
-197.2083965 -2.498874368e-05 24.87580659
-219.6061395 -2.498874368e-05 163.5421886
-219.5723345 -2.498874368e-05 129.6869506
42.79487746 -2.498874368e-05 45.26084859
352.3019965 -2.498874368e-05 138.7828656
421.7012285 -2.498874368e-05 84.54764259
227.4576245 -2.498874368e-05 189.9671636
2.805434461 -2.498874368e-05 226.4495556
-367.6373885 -2.498874368e-05 161.8771246
-98.83279454 -2.498874368e-05 106.7326976
-214.8773455 -2.498874368e-05 205.8880876
-166.0157445 -2.498874368e-05 54.87362159
252.4299325 -56.76920535 -9.74081363e-05
6.987984461 -2.498874368e-05 210.1244796
417.7196645 -2.498874368e-05 107.0221736
330.7899205 -2.498874368e-05 225.1329696
-101.0082205 -2.498874368e-05 13.41033759
-260.2530685 -2.498874368e-05 87.73418159
284.0867345 -62.08082583 -9.74081363e-05
291.3963835 -2.498874368e-05 67.51491459
-209.3706375 -2.498874368e-05 93.96592359
-379.7769185 -2.498874368e-05 28.84240659
6.891159461 -6.746032089 -9.74081363e-05
73.92043846 -2.498874368e-05 155.5338306
-415.5544685 -17.80836731 11.68316059
-128.8920695 -2.498874368e-05 57.63948159
131.9449765 -2.498874368e-05 29.61623959
262.1156905 -2.498874368e-05 219.2018736
-39.57456954 -41.19667066 -9.74081363e-05
-183.1711615 -2.498874368e-05 39.46729759
180.8283465 -2.498874368e-05 67.28949859
-275.4384185 -9.886824609 -9.74081363e-05
-293.6940185 -2.498874368e-05 103.7007436
62.20485346 -2.498874368e-05 184.9327766
85.13663646 -61.58957127 -9.74081363e-05
-3.128343539 -61.54634246 -9.74081363e-05
-421.1704585 -21.34594633 28.96736059
-96.54062554 -50.4019768 -9.74081363e-05
-137.1167315 -2.498874368e-05 29.74565359
-54.84173054 -2.498874368e-05 85.01649259
82.42834646 -34.64140845 -9.74081363e-05
-418.6420485 -22.80339045 -2.000097408
178.1513555 -2.498874368e-05 144.8277266
-69.95748954 -68.00002403 -2.221941408
306.0815155 -2.498874368e-05 24.08605659
-37.86336754 -2.498874368e-05 202.9574336
364.8224825 -2.498874368e-05 123.2218676
-92.81239554 -67.77807762 -9.74081363e-05
163.9195775 -2.498874368e-05 152.5502996
-188.0792035 -2.498874368e-05 96.26060659
413.2009545 -42.85520498 -9.74081363e-05
11.91046146 -17.0245259 -9.74081363e-05
-9.987842539 -2.498874368e-05 223.6902436
-368.0545085 -2.498874368e-05 21.93342659
-268.5385785 -2.498874368e-05 107.3673846
-213.4496235 -32.90665978 -9.74081363e-05
-397.4111685 -2.498874368e-05 213.5625826
-216.0712345 -57.19826342 -9.74081363e-05
-168.5862805 -2.498874368e-05 161.2379626
-388.2296285 -29.31595828 -9.74081363e-05
263.1034665 -2.498874368e-05 117.5547056
111.2279715 -2.498874368e-05 126.8567986
-90.22033154 -2.498874368e-05 151.2662926
167.7252475 -45.00741011 -9.74081363e-05
-98.68167554 -2.498874368e-05 176.0460996
332.4161955 -2.498874368e-05 148.5597286
354.5729605 -2.498874368e-05 94.04333459
367.3101055 -14.84925297 -9.74081363e-05
-315.4390385 -2.498874368e-05 77.89975459
407.1334385 1.239973191 -0.5756434081
95.16175046 -2.498874368e-05 113.4941296
139.1717695 -42.64697228 -9.74081363e-05
-234.2447285 -2.498874368e-05 170.2297276
66.43091546 -2.498874368e-05 83.47675159
-363.1122885 -8.108763709 -9.74081363e-05
230.8820755 -2.498874368e-05 93.43295359
-328.3319485 -2.498874368e-05 202.7041686
-348.4669485 -25.2866241 -9.74081363e-05
-404.5295185 -22.0384169 -9.74081363e-05
281.5702015 -2.498874368e-05 49.17530759
368.3784145 -2.498874368e-05 236.3154926
327.9366885 -2.498874368e-05 131.4435646
356.8572835 -49.70221716 -9.74081363e-05
-259.4035785 -2.498874368e-05 61.99255259
258.3496565 -2.498874368e-05 2.909289592
104.7865285 -63.10338206 -9.74081363e-05
316.0636385 -2.498874368e-05 46.43018859
331.3093115 -2.498874368e-05 98.46774359
-85.64235354 -2.498874368e-05 224.8283196
309.4433885 -2.498874368e-05 100.0329886
-276.9557885 -2.498874368e-05 96.49156959
-146.5193855 -53.44244943 -9.74081363e-05
-186.3229835 -2.498874368e-05 154.6597476
-55.70155354 -2.498874368e-05 232.1312266
416.8616705 -2.498874368e-05 207.1924586
166.2068115 -2.498874368e-05 22.94286059
71.46943946 -24.32725907 -9.74081363e-05
-21.93989554 -2.498874368e-05 12.79922159
149.3696885 -2.498874368e-05 64.12944659
-59.84084054 -2.498874368e-05 213.6157806
183.3114585 -2.498874368e-05 104.0637176
-240.8622985 -2.498874368e-05 247.2240666
203.6617605 -2.498874368e-05 212.7856106
368.8182725 -2.498874368e-05 43.98342959
187.8916685 -2.498874368e-05 150.8244346
99.83405846 -28.17690513 -9.74081363e-05
132.5712585 -2.498874368e-05 142.5626036
-178.1897595 -55.34218302 -9.74081363e-05
-91.25470554 -2.498874368e-05 51.98132459
326.0216145 -2.498874368e-05 212.9272006
-47.94389254 -2.498874368e-05 24.93968559
296.3647125 -2.498874368e-05 164.2396436
400.6520145 -26.3614184 -9.74081363e-05
123.7664705 -2.498874368e-05 186.5839416
-22.18097554 -2.498874368e-05 145.3512416
4.501991461 -2.498874368e-05 104.5470706
-171.0833835 -38.36872843 -9.74081363e-05
-409.0002685 -2.498874368e-05 9.108820592
54.14525246 -2.498874368e-05 189.4596536
408.1600685 -2.498874368e-05 149.1459536
-362.2245385 -2.498874368e-05 80.22168259
-159.8536355 -2.498874368e-05 250.6679876
398.1003265 -2.498874368e-05 146.7675016
-95.79271754 -2.498874368e-05 244.5021816
427.2295935 -2.498874368e-05 65.97966259
-377.3498085 -2.498874368e-05 7.364435592
-403.7643085 -2.498874368e-05 73.02191059
-270.4132085 -2.498874368e-05 148.3931196
270.3126765 -2.498874368e-05 152.6025186
235.0104595 -2.498874368e-05 71.90240459
101.7762225 -2.498874368e-05 77.12655459
-428.0126385 -46.48382787 66.20707859
53.99935446 -2.498874368e-05 32.36644759
248.6161955 -2.498874368e-05 119.7830426
249.2869695 -2.498874368e-05 191.0643576
298.1036015 -2.498874368e-05 204.5186596
93.45996846 -2.498874368e-05 132.1627066
-149.6781505 -2.498874368e-05 70.54456859
-374.8412685 -2.498874368e-05 70.21890159
77.97540146 -2.498874368e-05 97.75981759
71.21397646 -2.498874368e-05 122.1813506
-125.0655115 -2.498874368e-05 200.3900696
-421.1736285 -2.498874368e-05 50.59347759
119.9733445 -2.498874368e-05 144.2536796
-246.8211585 -2.498874368e-05 29.56527459
-103.0898065 -8.824100509 -9.74081363e-05
-204.2137645 -2.498874368e-05 229.1137726
-129.0440065 -23.77443224 -9.74081363e-05
121.9308055 -10.96859266 -9.74081363e-05
18.24295546 -2.498874368e-05 37.48786959
2.583667461 -2.498874368e-05 51.22219559
102.0746295 -2.498874368e-05 222.3020236
-85.11435154 -2.498874368e-05 140.3576996
-215.4478655 -2.498874368e-05 242.8761666
-382.8650085 -2.498874368e-05 178.7121326
-197.5822935 -2.498874368e-05 37.29808059
210.5661255 -2.498874368e-05 94.57247459
61.38847246 -2.498874368e-05 123.2759416
47.17996646 -2.498874368e-05 243.9329616
-175.3313255 -2.498874368e-05 107.9223496
184.4079615 -2.498874368e-05 174.6521886
-95.63794754 -2.498874368e-05 28.26827259
116.8758025 -2.498874368e-05 179.1570626
176.1647995 -2.498874368e-05 236.4845246
-231.9786365 -33.64790183 -9.74081363e-05
-413.5632785 -50.00002499 7.110932592
331.5872185 -47.60285099 -9.74081363e-05
43.15808946 -2.498874368e-05 80.53788659
-411.4747785 -2.498874368e-05 201.9212346
-16.75631054 -2.498874368e-05 243.4812746
127.9961915 -2.498874368e-05 231.3086566
256.1485965 -2.498874368e-05 21.16226659
-336.2570985 -2.498874368e-05 226.7109976
7.236058461 -2.498874368e-05 124.0497346
40.95186146 -2.498874368e-05 23.94153559
302.2939795 -2.498874368e-05 9.948594592
-128.2515865 -53.01875368 -9.74081363e-05
323.2881245 -2.498874368e-05 102.7300116
-219.6762315 -2.498874368e-05 100.1329206
225.3390675 -2.498874368e-05 203.5194796
-220.9058335 -24.7540528 -9.74081363e-05
136.3788815 -54.95659636 -9.74081363e-05
-395.9615785 -2.498874368e-05 141.3559116
-96.94957654 -2.498874368e-05 208.6001176
-319.7676585 -2.498874368e-05 25.23100059
294.4307625 -2.498874368e-05 125.7360066
294.7477925 -0.07514471874 -9.74081363e-05
-241.3137085 -59.45301549 -9.74081363e-05
340.7057065 -25.44744958 -9.74081363e-05
-422.7652285 -37.0454191 33.87523259
217.9855815 -2.498874368e-05 227.1450466
-178.7293285 -2.498874368e-05 49.90930459
-282.7915485 -2.498874368e-05 182.6788846
-402.7558285 -40.44380461 -9.74081363e-05
380.1781795 -2.498874368e-05 46.31089659
2.263995461 -2.498874368e-05 27.81128459
-416.1416785 -2.498874368e-05 109.0840766
-421.7308985 -50.00002499 43.33475159
-240.4062675 2.247368431 -9.74081363e-05
-118.8804185 -2.498874368e-05 41.14880959
390.7041105 -2.498874368e-05 31.18899559
-419.7997985 -35.00321841 -2.000097408
-286.6657085 -2.498874368e-05 231.2057676
-163.0954425 -28.06495034 -9.74081363e-05
-8.184452539 -2.498874368e-05 136.5514056
380.1475535 -2.498874368e-05 135.6812446
-231.1915365 -2.498874368e-05 48.52656559
166.3803705 -2.498874368e-05 220.8568676
-397.1716785 -29.09899225 -9.74081363e-05
170.1760215 -2.498874368e-05 164.5183836
-223.7723675 -7.127853229 -9.74081363e-05
-148.3059425 -44.36126433 -9.74081363e-05
-190.5982955 -2.498874368e-05 75.28029559
349.0435455 -11.23701698 -9.74081363e-05
-333.9507285 -68.00002403 -0.7488444081
223.0359615 -2.498874368e-05 129.5520316
234.9352875 -0.02696599874 -9.74081363e-05
-78.24522154 -2.498874368e-05 252.0246996
417.7316975 -8.717810739 -9.74081363e-05
340.2491635 -2.498874368e-05 239.1342476
167.4596825 -2.498874368e-05 13.52635659
-33.10843654 -68.00002403 -1.694407408
401.8079435 -2.498874368e-05 97.87044559
-262.3147985 -2.498874368e-05 231.0725626
-26.27648954 -2.498874368e-05 46.43115559
279.6548555 -2.498874368e-05 65.45515159
-130.5341765 -2.498874368e-05 87.12838159
199.9111195 -2.498874368e-05 188.8860446
-69.23997654 -2.498874368e-05 75.56028459
85.88784246 -2.498874368e-05 231.4580376
-34.66709554 -2.498874368e-05 247.9433606
-115.5431975 -2.498874368e-05 92.97998159
206.1784775 -2.498874368e-05 240.2603866
57.30394546 -2.498874368e-05 207.2236436
-406.4334285 -2.498874368e-05 252.2501096
-257.9362285 -29.54874776 -9.74081363e-05
64.46798246 -2.498874368e-05 200.4546126
-58.28336754 -2.498874368e-05 191.0280276
-184.6125635 -2.498874368e-05 169.3797276
-402.2461185 -2.498874368e-05 241.4158436
83.83578046 -2.498874368e-05 171.1104926
73.25039046 -2.498874368e-05 236.1646596
12.99978246 -2.498874368e-05 107.0700356
-45.06598954 -2.498874368e-05 6.943700592
-375.9765785 -2.498874368e-05 58.39872959
-280.6351485 -1.770088439 -9.74081363e-05
307.7839235 -2.498874368e-05 89.38717459
145.6537205 -2.498874368e-05 50.88027559
381.5011785 -2.498874368e-05 175.6938986
-424.8348585 -2.498874368e-05 110.6678576
-314.1402385 -2.498874368e-05 146.9924556
37.19338846 -2.498874368e-05 160.3339576
6.102107461 -2.498874368e-05 169.2042106
381.2677515 -2.498874368e-05 11.90386959
-315.4238085 -2.498874368e-05 242.9521646
77.76847846 -2.498874368e-05 207.8694896
268.3229645 -2.498874368e-05 17.47871159
-195.3127755 -2.498874368e-05 190.0466556
72.52902646 -2.498874368e-05 46.84937359
-348.6066285 -2.498874368e-05 159.2299976
395.0266555 -2.498874368e-05 198.8365756
384.3791145 -46.04578575 -9.74081363e-05
-104.7104215 -2.498874368e-05 165.3647876
96.27239346 -2.498874368e-05 45.14302359
-199.5567315 -40.97203833 -9.74081363e-05
380.7628805 -20.92544766 -9.74081363e-05
265.2155375 -2.498874368e-05 165.4611476
393.1112665 -2.498874368e-05 67.65725759
-335.0775485 -2.498874368e-05 124.9325506
406.0333955 -2.498874368e-05 110.6246556
-381.8170385 -2.498874368e-05 161.3879946
205.9520075 -2.498874368e-05 139.0725016
119.7938945 -24.47737614 -9.74081363e-05
392.3374525 -2.498874368e-05 9.750154592
-427.3641985 -2.498874368e-05 62.38869959
414.3829045 -2.498874368e-05 136.0514566
250.6886665 -2.498874368e-05 146.8165496
405.0788375 -2.498874368e-05 202.8608866
-294.5387785 -2.498874368e-05 157.2516986
-250.1349685 -21.42011905 -9.74081363e-05
-342.1407785 -2.498874368e-05 214.3481826
186.3040195 -6.977039169 -9.74081363e-05
189.1660265 -2.498874368e-05 59.55052159
222.6374575 -2.498874368e-05 97.50808459
109.5881915 -14.04414648 -9.74081363e-05
-252.2517485 -2.498874368e-05 122.7684206
-347.1680885 -2.498874368e-05 32.93843259
-82.91015854 -2.498874368e-05 188.1085856
-32.27936654 -2.498874368e-05 124.5267096
116.8959615 -2.498874368e-05 68.52761759
-204.1124245 -2.498874368e-05 197.0559206
-398.6130885 -2.498874368e-05 55.12114859
-37.78527554 -2.498874368e-05 109.6235486
-147.6798525 -2.498874368e-05 222.3301396
224.8891445 -2.498874368e-05 18.11778159
-318.5283885 -2.498874368e-05 182.9995396
-193.1286255 -18.06575749 -9.74081363e-05
-307.3915085 -32.40347739 -9.74081363e-05
-414.1689485 -2.498874368e-05 16.35433259
-359.7849985 -2.498874368e-05 119.5071816
-326.4980585 -2.498874368e-05 239.2231756
0.2924714606 -2.498874368e-05 153.3601586
-96.32823054 -2.498874368e-05 125.5576356
382.8684045 -2.498874368e-05 90.57303359
-118.7076855 -2.498874368e-05 31.52238659
138.0352475 -2.498874368e-05 210.4928816
-158.0867865 -60.09291762 -9.74081363e-05
137.8963985 -23.41927662 -9.74081363e-05
335.0529145 -2.498874368e-05 37.46934759
-373.4402685 -2.498874368e-05 199.5242676
-360.2861385 -2.498874368e-05 171.4724536
139.9783685 -2.498874368e-05 69.04695859
36.41287346 -2.498874368e-05 140.5444846
298.8886685 -2.498874368e-05 136.3545046
-304.4278485 -17.02748662 -9.74081363e-05
-251.4788485 -2.498874368e-05 237.1699866
362.3277785 -2.498874368e-05 147.6998706
133.1681775 -2.498874368e-05 179.1025016
103.0748865 -2.498874368e-05 57.22121059
164.4640965 -2.498874368e-05 51.85902759
151.9904735 -2.498874368e-05 233.9938186
148.7909445 -2.498874368e-05 94.32564559
339.8388915 -2.498874368e-05 26.23939159
-1.789748539 -2.498874368e-05 174.1757686
-137.6849455 -2.498874368e-05 123.4291196
374.0732995 -2.498874368e-05 26.34429759
42.85967646 -2.498874368e-05 178.1853406
226.7368835 -2.498874368e-05 110.7228636
-243.4935485 -2.498874368e-05 213.0143596
-109.2720915 -56.26412222 -9.74081363e-05
348.8503275 -2.498874368e-05 12.41001059
-320.7741185 -2.498874368e-05 198.7204906
-309.5747685 -2.498874368e-05 185.3498336
-158.6040225 -2.498874368e-05 240.6762866
-389.2285885 -2.498874368e-05 109.8255596
-360.6925985 -2.498874368e-05 188.7545626
-414.9043985 -2.498874368e-05 217.4580816
90.10294146 -2.498874368e-05 65.07169659
-163.4410225 -2.498874368e-05 46.57411059
263.6592725 -2.498874368e-05 135.9332416
-130.2054625 -2.498874368e-05 47.65922059
-301.9302485 -2.498874368e-05 144.8692176
-86.50005854 -46.94998731 -9.74081363e-05
234.2040155 -67.47959904 -9.74081363e-05
-248.4000585 -2.498874368e-05 84.11863359
220.7072905 -41.71121076 -9.74081363e-05
349.4232055 -2.498874368e-05 165.2932156
22.26809946 -2.498874368e-05 163.4173116
57.31108146 -2.498874368e-05 11.96132559
92.88367146 -2.498874368e-05 200.5484236
30.61761346 -2.498874368e-05 76.76990359
-270.6742485 -32.6897629 -9.74081363e-05
-277.4774985 -2.498874368e-05 73.10040559
-270.0974485 -55.48724475 -9.74081363e-05
-57.53240254 -2.498874368e-05 24.24711259
-284.8836685 -2.498874368e-05 51.14666659
241.7395395 -44.19466763 -9.74081363e-05
-1.527868539 -2.498874368e-05 110.4888036
399.1463635 -2.498874368e-05 30.66834259
-200.2022635 -2.498874368e-05 169.9005666
357.1330225 -2.498874368e-05 118.9692936
-125.3450695 -2.498874368e-05 103.3213006
-120.6138555 -2.498874368e-05 136.5064846
-114.9936745 -2.498874368e-05 68.88606359
152.9442545 -2.498874368e-05 209.7169366
298.3112945 -48.28799184 -9.74081363e-05
102.3427995 -7.931139339 -9.74081363e-05
54.43742546 -46.06181858 -9.74081363e-05
217.8519095 -2.498874368e-05 212.1932376
-425.0199985 -12.60449732 56.99701359
56.52096446 -2.498874368e-05 160.4050796
-8.500049539 -2.498874368e-05 240.0923796
-330.2751885 -2.498874368e-05 66.66140359
-343.1688985 -2.498874368e-05 105.2424126
-150.2774935 -2.498874368e-05 42.59068859
40.00588646 -2.498874368e-05 118.7079296
-77.98760754 -2.498874368e-05 123.0506306
379.7875695 -2.498874368e-05 250.8811596
150.5894835 -32.22418064 -9.74081363e-05
-344.6055885 -36.16753664 -9.74081363e-05
-365.3815885 -2.498874368e-05 224.4772336
427.3501165 -31.55639881 -9.74081363e-05
-39.06814754 -2.498874368e-05 177.1669746
-135.9786925 -38.33473593 -9.74081363e-05
-406.5356985 -2.498874368e-05 164.9463006
-185.3981795 -59.57059811 -9.74081363e-05
-289.3555085 -2.498874368e-05 215.2766116
-133.9691665 -2.498874368e-05 156.5969966
6.818418461 -2.498874368e-05 235.3622456
-112.6619255 -2.498874368e-05 3.407929592
-417.3600085 -2.498874368e-05 144.7229046
-280.1962485 -67.12658854 -9.74081363e-05
-370.1130085 -2.498874368e-05 172.5661696
-272.2479185 -2.498874368e-05 126.1341926
306.2870795 -31.90011425 -9.74081363e-05
-27.22792654 -2.498874368e-05 111.6305966
251.2455705 -2.498874368e-05 53.16954659
418.0515675 -51.10618838 -9.74081363e-05
-113.3415515 -2.498874368e-05 214.7175356
-417.2020385 -2.498874368e-05 32.05370759
-31.33102154 -2.498874368e-05 151.3799696
299.8784205 -2.498874368e-05 240.6367616
250.9755345 -2.498874368e-05 166.3774446
-52.25069554 -2.498874368e-05 124.6050176
396.2261805 -11.99690229 -9.74081363e-05
171.5220445 -2.498874368e-05 60.30886559
-409.4913085 -25.78160203 9.204716592
-37.39135454 -2.498874368e-05 85.56518059
-301.8682085 -2.498874368e-05 28.72638259
-393.7164285 -46.94553991 -9.74081363e-05
117.5905835 -56.99413494 -9.74081363e-05
18.89261246 -2.498874368e-05 146.5047066
-369.6622385 -2.498874368e-05 63.74411759
16.99160046 -2.498874368e-05 10.01606559
-56.89944054 -2.498874368e-05 204.7709576
203.7711365 -2.498874368e-05 57.64971859
-88.44537354 -2.498874368e-05 100.1328936
-293.8012485 -2.498874368e-05 63.84801459
-118.1246355 -2.498874368e-05 15.77916159
-136.7688085 -12.32285083 -9.74081363e-05
-228.2139635 -2.498874368e-05 164.5820436
-38.44112554 -19.69048083 -9.74081363e-05
-269.9562085 -2.498874368e-05 192.6628396
-248.5828085 1.131989021 -9.74081363e-05
264.5912295 -2.498874368e-05 63.01694759
136.8890555 -2.498874368e-05 94.73981659
221.9653985 -2.498874368e-05 244.5954276
-115.1639075 -40.83886002 -9.74081363e-05
351.7292245 -2.498874368e-05 150.3143836
231.9285215 -8.887159249 -9.74081363e-05
135.0130945 -2.498874368e-05 225.1749066
49.77083346 -2.498874368e-05 3.746961592
115.7436075 -2.498874368e-05 218.4291646
398.0865715 -2.498874368e-05 230.6830416
-242.8962385 -2.498874368e-05 64.42411159
-27.60382054 -2.498874368e-05 133.4660176
-84.63003454 -2.498874368e-05 68.01824359
-22.68120354 -2.498874368e-05 215.8963966
89.07019046 -2.498874368e-05 91.42427559
157.2477885 -2.498874368e-05 82.79751859
266.4923625 -2.498874368e-05 246.5024966
36.02844146 -2.498874368e-05 132.3642846
-48.08406554 -2.498874368e-05 238.9814366
-424.5434385 -2.498874368e-05 240.2454016
-276.5943685 -2.498874368e-05 47.68843159
-70.43942154 -47.22167884 -9.74081363e-05
-386.5987785 -68.00002403 -1.225633408
336.4312465 -2.498874368e-05 64.45600759
-260.2539685 -2.498874368e-05 7.020448592
-372.1387885 -2.498874368e-05 230.2992146
-424.8071385 -25.29104955 40.15981359
-288.2459085 -10.64067032 -9.74081363e-05
-48.87231354 -2.498874368e-05 224.6651706
226.9499205 -2.498874368e-05 59.65898259
-232.9204145 -2.498874368e-05 224.0621656
-16.76480254 -2.498874368e-05 33.58351359
229.6868575 -51.57631677 -9.74081363e-05
-184.4238605 -2.498874368e-05 220.6128316
50.39911446 -2.498874368e-05 148.5101956
392.9408085 2.087093631 -9.74081363e-05
269.3886045 -7.498515919 -9.74081363e-05
233.9131535 -2.498874368e-05 15.77494159
43.00907046 -49.87955294 -9.74081363e-05
88.84351246 -2.498874368e-05 183.3410596
-242.0305085 -21.04736263 -9.74081363e-05
-415.3801385 -2.498874368e-05 179.0400716
26.61642546 -2.498874368e-05 191.6996836
397.4211665 -2.498874368e-05 45.46732259
250.1885265 -2.498874368e-05 248.7300746
108.9555045 -2.498874368e-05 203.7779906
-133.3119675 -2.498874368e-05 138.2833346
165.9448305 -2.498874368e-05 70.79276159
-52.04984654 -2.498874368e-05 15.75670959
-191.5469015 -2.498874368e-05 212.5936766
-397.7017485 -2.498874368e-05 33.96583759
-177.0661155 -2.498874368e-05 230.5816546
274.2201265 -57.29971918 -9.74081363e-05
81.82627046 -2.498874368e-05 49.14005159
239.1030635 -2.498874368e-05 31.13773959
236.2711995 -35.9177843 -9.74081363e-05
203.8974655 -64.55517404 -9.74081363e-05
-392.3588785 -2.498874368e-05 74.71070559
-97.31962854 -2.498874368e-05 46.69235559
-346.5992785 -48.55791082 -9.74081363e-05
300.7432475 -11.28688401 -9.74081363e-05
361.5009885 -2.498874368e-05 211.0401946
173.4019315 -2.498874368e-05 111.6061906
179.9969465 -2.498874368e-05 96.74647259
323.2505345 -33.06448952 -9.74081363e-05
-412.0028185 -37.01142294 -0.9252824081
208.1441425 -23.18261369 -9.74081363e-05
186.9006165 -67.57849172 -9.74081363e-05
-217.1114815 -2.498874368e-05 232.7276446
88.59481546 0.2796789813 -9.74081363e-05
-386.7302785 -40.44965142 -9.74081363e-05
-201.9812185 -56.78127298 -9.74081363e-05
-59.69712554 -2.498874368e-05 117.7687086
368.6617785 -6.965652769 -9.74081363e-05
-248.4115985 -2.498874368e-05 219.5915986
-178.1916855 -2.498874368e-05 127.3970176
127.0921395 -2.498874368e-05 37.50223159
-48.45069654 -2.498874368e-05 47.84542659
-193.7184305 -68.00002403 -1.630888408
333.6884445 -2.498874368e-05 72.19076959
289.6580035 -2.498874368e-05 118.0987956
-405.8229485 -8.570303459 -9.74081363e-05
-362.5260385 -2.498874368e-05 243.7851616
-256.0766485 -2.498874368e-05 76.44738359
-217.6382335 -2.498874368e-05 58.61061259
-339.8599485 -2.498874368e-05 78.70324459
331.3086215 -2.498874368e-05 178.3243616
-115.1370365 -2.498874368e-05 119.2403206
149.0075845 -2.498874368e-05 165.2396266
37.94515946 -2.498874368e-05 101.5525656
-164.8761195 -2.498874368e-05 19.19423559
-59.29955854 -60.10793629 -9.74081363e-05
293.8004735 -2.498874368e-05 43.66731759
278.9789865 -2.498874368e-05 75.28860859
350.6508335 -2.498874368e-05 204.2223856
-140.8104165 -2.498874368e-05 163.5401236
-301.0230785 -2.498874368e-05 161.8511116
-259.1416785 -46.23821805 -9.74081363e-05
-375.3389885 -2.498874368e-05 49.36989359
-315.3278885 -2.498874368e-05 168.0853706
-197.0790065 -2.498874368e-05 243.8966826
-15.27145354 -2.498874368e-05 151.8746596
-141.6418255 -2.498874368e-05 74.04059759
-402.2806885 -2.498874368e-05 123.7087426
-278.3247685 -56.61431368 -9.74081363e-05
-51.06786954 -2.498874368e-05 147.5422176
-306.4637685 -48.02762979 -9.74081363e-05
316.6996195 -2.498874368e-05 238.0748216
41.78218646 -58.26849154 -9.74081363e-05
203.9462935 -2.498874368e-05 182.0532176
-204.0656355 -2.498874368e-05 100.7330706
-414.3188485 -10.47639299 24.06013259
351.1824125 -2.498874368e-05 237.2472856
-400.4233485 -2.498874368e-05 193.8559686
-201.2886685 -2.498874368e-05 72.90763759
-102.6326175 -2.498874368e-05 88.09560159
82.19577546 -2.498874368e-05 247.1183936
-103.8737915 -2.498874368e-05 243.1250716
