# .PCD v0.7 - Point Cloud Data file format
VERSION 0.7
FIELDS x y z
SIZE 4 4 4
TYPE F F F
COUNT 1 1 1
WIDTH 1236
HEIGHT 1
VIEWPOINT 0 0 0 1 0 0 0
POINTS 1236
DATA ascii
-120.408423 -2.035019019 47.49990261
-228.948668 -5.035667069 47.49990261
0.2920910009 -46.91425549 40.49725561
-140.591077 -2.498850685e-05 -39.93246539
-179.038453 -5.302299139 41.49990261
-209.295873 -2.498850685e-05 -1.472797387
-0.0002729991102 -142.1085267 -29.36194939
-198.425866 -48.4823706 47.49990261
-166.547748 -29.41295257 41.49990261
-185.067453 -23.96307766 41.49990261
-156.131626 -36.66949358 41.49990261
-116.500889 -50.30124116 47.49990261
-145.652692 -30.02442534 47.49990261
-31.483305 -10.98617488 47.49990261
-194.072032 -2.498850685e-05 -31.66288239
-113.876166 -20.61627653 41.49990261
-204.614 -29.35440231 47.49990261
-150.543072 -4.801404169 47.49990261
-9.622257999 -2.498850685e-05 34.52931661
-212.639554 -41.59771028 41.49990261
-138.553576 -38.29894639 47.49990261
-110.196934 -43.07287652 41.49990261
-131.543235 -50.48561673 41.49990261
-45.859722 -2.498850685e-05 15.79270061
-104.37686 -24.15064544 47.49990261
-0.0002729991102 -62.71418387 20.00851261
-0.0002729991102 -124.805707 -30.92623639
-111.447658 -2.498850685e-05 25.02139461
-31.758253 -1.879782379 41.49990261
-118.89271 -2.498850685e-05 29.55561661
-15.014597 -36.52500117 47.49990261
-0.0002729991102 -59.76683433 -33.04923039
-54.078464 -67.86762871 47.49990261
-48.218613 1.455347551 41.49990261
-141.051391 -63.27331566 41.49990261
-129.965175 -35.74827717 47.49990261
-45.382368 -2.498850685e-05 -42.11842339
-53.862415 -41.86309574 41.49990261
-93.646169 -2.498850685e-05 -9.490034387
-229.738775 -58.62519939 47.49990261
-2.773831999 -2.498850685e-05 40.65984361
-116.04066 -2.498850685e-05 -45.97282639
-104.217158 -11.49304366 47.49990261
-22.367637 -20.9501456 47.49990261
-108.324751 -33.88490213 41.49990261
-169.070414 -42.27139896 41.49990261
-59.508616 -39.05091278 47.49990261
-240.703543 -53.83381094 41.49990261
-199.328681 -2.498850685e-05 27.22564261
-0.0002729991102 -81.42311012 -41.28900139
-169.347353 -19.61507186 47.49990261
-163.54001 -58.07396932 47.49990261
-0.0002729991102 -29.76147928 -6.179926387
-0.0002729991102 -46.99476136 -15.25509239
-188.539448 -55.98932846 41.49990261
-209.573787 -60.09978535 41.49990261
-30.129367 -67.16703001 47.49990261
-0.0002729991102 -34.6797155 -26.80954539
-5.490218999 -64.00055589 41.49990261
-113.797296 -5.518432659 47.49990261
-0.0002729991102 -59.24160689 -0.8594103869
-0.0002729991102 -145.9628877 -35.31398739
-154.927577 -41.4323097 47.49990261
-102.930627 -68.00002403 41.96777661
-26.731583 -2.498850685e-05 32.69688561
-103.215957 -2.498850685e-05 1.850113613
-120.725596 -2.498850685e-05 -13.29026139
-208.667038 -34.56220724 47.49990261
-69.861533 -61.63929403 47.49990261
-18.686663 -21.58360449 41.49990261
-89.542111 -14.20277127 47.49990261
-61.115606 -2.498850685e-05 27.17578961
-192.209456 -45.94277279 41.49990261
-170.905008 -0.6192473185 47.49990261
-186.542069 -2.498850685e-05 -46.06360739
-189.755956 -67.00639006 41.49990261
-83.797109 -12.83950212 41.49990261
-175.582871 -2.498850685e-05 9.846914613
-0.0002729991102 -31.35048135 23.29412961
-143.795119 -2.498850685e-05 -14.77003939
-195.673672 -2.498850685e-05 39.85512061
-161.581704 -8.494722229 41.49990261
-232.567912 -2.498850685e-05 3.503188613
-123.717052 -2.498850685e-05 11.65146961
-0.0002729991102 -51.80978781 2.457563613
-170.133289 -2.498850685e-05 34.14558061
-14.611184 -32.96330875 41.49990261
-0.0002729991102 -30.26576574 3.141191613
-31.738245 -33.78666 47.49990261
-248.18519 -56.4268146 47.49990261
-95.396535 -59.81835323 41.49990261
-77.552289 -2.498850685e-05 6.348592613
-76.18222 -7.518404039 47.49990261
-239.405472 -66.1055158 47.49990261
-102.097379 -18.84905903 41.49990261
-33.991486 -22.9102745 41.49990261
-229.663232 -52.24870599 41.49990261
-56.831658 -2.498850685e-05 -39.08467339
-131.204855 -11.09188216 47.49990261
-179.375755 -2.498850685e-05 2.894919613
-221.229445 -7.205065999 41.49990261
-139.813147 -40.09489457 41.49990261
-212.792288 -46.45197186 47.49990261
-116.079038 -2.498850685e-05 -6.751627387
-114.070327 -13.75600412 41.49990261
-119.564783 -20.68875241 47.49990261
-185.345205 -8.827686699 41.49990261
-169.59834 -35.43475749 47.49990261
-52.937616 -10.86809854 41.49990261
-180.708214 -2.498850685e-05 -18.59870039
-156.323378 -9.054093509 47.49990261
-38.020984 -24.94533479 47.49990261
-247.785488 -34.2333551 47.49990261
-60.455101 -7.896623389 47.49990261
-124.057168 -59.07233423 41.49990261
-190.708659 -36.88978932 47.49990261
-44.908515 -67.98901474 47.49990261
-179.424832 -55.85711427 41.49990261
-57.674813 -52.97921516 41.49990261
-0.0002729991102 -154.4220024 -38.48371839
-233.74096 1.940211631 41.49990261
-96.685275 -2.498850685e-05 -32.46687139
-183.451821 -64.57977789 41.49990261
-244.402428 1.780341141 47.49990261
-82.963361 -39.22898619 47.49990261
-191.495258 -20.73266366 41.49990261
-29.377947 -2.498850685e-05 19.29155861
-8.163743999 -2.498850685e-05 18.88977461
-67.550585 -2.498850685e-05 41.35900261
-172.008769 -54.36713535 41.49990261
-71.521478 -34.30505018 47.49990261
-242.353347 -2.498850685e-05 -4.090911387
-55.59173 -61.37752468 47.49990261
-248.718374 -2.498850685e-05 9.535380613
-78.355722 -27.93058634 41.49990261
-156.260593 -19.47569484 47.49990261
-90.830799 -21.24678382 41.49990261
-45.641927 -34.42210091 47.49990261
-20.079875 -11.38265544 41.49990261
-162.054914 -15.55092119 47.49990261
-237.408259 -20.37070203 41.49990261
-206.668975 -36.88740388 41.49990261
-19.392766 -2.498850685e-05 41.09084261
-198.579304 -56.07891399 47.49990261
-193.410275 -2.498850685e-05 -39.10426139
-245.018637 -1.913026969 41.49990261
-242.859729 -39.56612715 41.49990261
-184.661454 -22.61723995 47.49990261
-105.936978 -2.498850685e-05 20.20478561
-178.395831 -30.14655844 47.49990261
-86.466796 -2.498850685e-05 15.00934361
-74.441708 -7.152405659 41.49990261
-146.342385 -61.49313767 47.49990261
-163.24043 -32.17974119 47.49990261
-195.171437 -15.66678954 47.49990261
-84.757721 1.831213861 41.49990261
-172.794371 -2.498850685e-05 -19.20588839
-38.80957 1.823852091 41.49990261
-0.0002729991102 -26.99440356 -24.71455439
-141.401306 -2.498850685e-05 -0.7568123869
-0.0002729991102 -37.46154846 22.70502261
-0.0002729991102 -157.4953311 -43.76760039
-234.936226 -2.498850685e-05 20.91734861
-187.160176 -49.37652488 47.49990261
-51.75285 -2.498850685e-05 9.981420613
-0.0002729991102 -24.0736961 -33.94792039
-21.058618 -2.498850685e-05 -24.82228039
-0.0002729991102 -27.22833776 17.73993061
-239.115367 -64.76703528 41.49990261
-225.938912 -52.47767897 47.49990261
-48.518641 -39.83490205 47.49990261
-37.545858 -4.870297489 47.49990261
-0.0002729991102 -25.21594054 29.70334661
-91.569833 -62.28181077 47.49990261
-53.572638 -2.498850685e-05 38.08290761
-160.607894 -47.4007097 41.49990261
-6.840479999 -20.30622859 47.49990261
-207.618586 -2.498850685e-05 -43.63451439
-134.480516 -24.06176023 47.49990261
-251.739936 -22.12491129 41.49990261
-119.078184 -61.08986274 47.49990261
-113.598366 -15.77089098 47.49990261
-12.760844 -9.858849429 47.49990261
-72.373552 -39.98690949 41.49990261
-0.0002729991102 -80.9645167 -29.63980639
-57.252035 -66.37132473 41.49990261
-196.363881 -41.35996182 41.49990261
-5.274363999 -32.82908056 47.49990261
-189.217746 -27.78320453 47.49990261
-210.598613 -3.210474589 47.49990261
-167.265996 -2.498850685e-05 28.24364661
-194.69548 -6.221710429 47.49990261
-0.0002729991102 -72.31682768 -37.58685239
-250.61983 -47.59011293 47.49990261
-82.539085 -61.58211575 47.49990261
-0.0002729991102 -35.8514742 -44.35895639
-203.376403 -2.498850685e-05 -48.53686639
-116.687825 -31.50093543 47.49990261
-141.866489 -21.72418799 47.49990261
-249.546499 -62.49680612 47.49990261
-0.0002729991102 -116.7121988 -45.20613139
-252.192579 -2.498850685e-05 39.54715661
-0.0002729991102 -140.7445538 -41.14869339
-82.404046 -45.71802148 47.49990261
-29.787363 -17.42163301 41.49990261
-0.0002729991102 -12.96711248 -17.33772239
-124.407946 -2.498850685e-05 0.3899116131
-235.5084 -5.538248499 47.49990261
-72.22993 -2.498850685e-05 28.00159461
-100.456028 -42.94559693 41.49990261
-251.724185 -63.0163132 41.49990261
-150.109241 -38.1920979 41.49990261
-28.062831 -47.12251931 41.49990261
-21.592726 -2.498850685e-05 -30.60743639
-0.0002729991102 -153.9264566 -32.60689039
-202.081571 -2.498850685e-05 38.16524361
-0.0002729991102 -88.72963776 -22.39398039
-138.063908 -2.498850685e-05 10.14531061
-155.302664 -2.498850685e-05 35.91085661
-4.641088999 -49.94869829 47.49990261
-248.777636 -2.498850685e-05 -39.84030539
-0.0002729991102 -138.5617797 -33.88071739
-47.333048 -38.77154231 41.49990261
-0.0002729991102 -29.86471461 -14.95745339
-96.504862 -37.30220085 41.49990261
-0.0002729991102 -98.29573361 -45.09797039
-55.820912 -47.57692539 41.49990261
-156.680873 -63.64175151 41.49990261
-159.665305 -2.498850685e-05 -11.52948139
-137.04046 -2.498850685e-05 25.62798661
-77.94414 -2.498850685e-05 -4.164714387
-142.90483 -2.498850685e-05 -28.08875339
-58.738495 -2.498850685e-05 11.48629361
-0.0002729991102 -101.9964921 -27.45843139
-0.0002729991102 -56.59300974 28.58859661
-109.081271 -2.498850685e-05 -32.78454539
-138.912249 -57.18260153 41.49990261
-194.137514 -2.498850685e-05 17.65772761
-0.0002729991102 -63.89636276 -29.19341139
-158.278364 -2.498850685e-05 -19.80130539
-70.347555 -47.87694988 41.49990261
-29.457012 -7.055891899 41.49990261
-223.319747 -2.498850685e-05 22.81599961
-0.0002729991102 -49.57830241 -43.37183939
-167.46711 -5.402925469 41.49990261
-0.0002729991102 -73.99160897 -27.24538539
-228.288111 -2.498850685e-05 -27.02658039
-49.222671 -2.498850685e-05 -48.36951139
-85.886742 -68.00002403 45.06171061
-170.31865 -2.498850685e-05 -26.55639839
-155.969184 -2.498850685e-05 -47.75403839
-0.0002729991102 -80.36923854 -7.227869387
-81.763324 -2.498850685e-05 26.29875561
-88.749996 -2.498850685e-05 -13.85407639
-0.0002729991102 -0.8679916385 -28.27513139
-0.0002729991102 -36.7784599 -20.37244939
-0.0002729991102 -150.4078028 -48.49423539
-36.640715 -2.498850685e-05 29.94854061
-133.856553 -2.498850685e-05 -27.41326539
-128.290535 -2.498850685e-05 32.32300161
-221.263023 -54.85851434 41.49990261
-138.864808 -68.00002403 43.25958661
-77.810235 -62.81455483 41.49990261
-163.616605 -2.498850685e-05 8.949702613
-148.963746 -24.88738692 41.49990261
-2.877390999 -2.498850685e-05 -2.961603387
-92.657794 -2.498850685e-05 7.808294613
-0.0002729991102 -18.25571656 29.32006961
-0.0002729991102 -59.51953399 -19.75751039
-21.2447 -54.16226957 47.49990261
-0.0002729991102 -44.37092164 14.14928261
-67.583391 -2.498850685e-05 -3.884448387
-99.276496 -2.498850685e-05 27.12736761
-122.179363 -2.498850685e-05 -25.16999139
-0.0002729991102 -4.501929899 15.67920461
-213.644972 -32.3949251 47.49990261
-95.761548 1.582710011 41.49990261
-235.017045 -41.79390814 41.49990261
-0.0002729991102 -16.456382 -28.06198339
-144.980765 -2.498850685e-05 7.447720613
-5.169182999 -56.08205416 47.49990261
-33.912079 -60.74853449 41.49990261
-129.330029 -41.08203769 47.49990261
-4.937653999 -7.770382589 47.49990261
-129.695263 -1.938534459 47.49990261
-0.0002729991102 -88.92079132 -14.89855939
-100.751983 -5.277040749 41.49990261
-174.76325 -28.413726 41.49990261
-183.889897 -2.498850685e-05 11.32638261
-164.400987 -67.68543234 41.49990261
-158.269831 -27.01156286 47.49990261
-33.418061 -68.00002403 42.47627561
-123.501826 -68.00002403 46.78425561
-0.0002729991102 -55.32647935 17.68634661
-59.402618 -2.498850685e-05 37.36289361
-0.0002729991102 -55.56012083 -47.16739939
-63.024145 -20.62227963 47.49990261
-0.0002729991102 -68.2650726 -48.20187139
-145.891748 -2.498850685e-05 30.23508761
-6.721848999 -2.498850685e-05 24.57205361
-133.438453 -5.862943029 41.49990261
-31.295782 -2.498850685e-05 27.57890561
-108.957607 -2.498850685e-05 39.74983761
-184.875833 -59.4942499 47.49990261
-0.0002729991102 -76.93553271 -22.87260239
0.3320140009 -137.6465951 -26.57967939
-1.760378999 -2.498850685e-05 -19.64261239
-0.0002729991102 -101.7002495 -33.17978039
-218.443633 -65.39241032 41.49990261
-119.417168 -38.65355546 47.49990261
-102.203726 -2.498850685e-05 -43.54996539
-48.812073 -2.498850685e-05 4.637282613
-243.539998 -2.498850685e-05 -39.49682939
-15.559384 -2.498850685e-05 -12.98926539
1.971667001 -113.6020383 -24.62946339
-126.819144 -2.498850685e-05 27.20860261
-0.0002729991102 -14.45772775 1.130945613
-0.0002729991102 -90.32633147 -33.31951939
-232.006601 -2.498850685e-05 -8.745802387
-0.0002729991102 -46.15034647 5.128117613
-16.438252 -2.498850685e-05 22.88184361
-204.387667 -2.498850685e-05 -37.26140339
-238.102792 -52.21512715 47.49990261
-170.756904 -2.498850685e-05 -6.328581387
-247.415153 -2.498850685e-05 27.83146061
-192.989377 -13.9206008 41.49990261
-33.96138 -2.498850685e-05 -43.32765539
-165.706335 -49.38274838 47.49990261
-0.0002729991102 -167.193213 -47.54473139
-218.55888 -2.498850685e-05 -36.86230639
-0.0002729991102 -40.95311818 -11.96051739
-17.724073 -2.498850685e-05 14.55596861
-177.030035 -2.498850685e-05 -41.00966639
-204.658288 -2.498850685e-05 -28.80110839
-119.879633 -2.498850685e-05 -40.32485739
-0.0002729991102 -112.7054699 -36.78042239
-223.801888 -2.498850685e-05 -2.635437387
-0.0002729991102 -133.2549359 -34.70716839
-61.795804 -2.498850685e-05 2.285151613
-197.421231 -2.498850685e-05 -20.75954439
-0.0002729991102 -50.47985539 -2.502951387
-221.238776 -27.12104436 47.49990261
-0.0002729991102 -111.9917671 -43.18427839
-0.0002729991102 -69.25034156 -33.04979639
-0.0002729991102 -45.65965131 -36.35430039
-179.59021 -0.2242375085 41.49990261
-0.0002729991102 -55.57853187 8.719271613
-71.68702 -53.85402975 47.49990261
-0.0002729991102 -57.56036448 34.62808661
-0.0002729991102 -42.92156293 24.47441161
-0.0002729991102 -24.26817573 -16.31636439
-130.771928 -30.73446904 47.49990261
-233.085785 -2.498850685e-05 -24.50049939
-0.0002729991102 -35.58928419 -7.687263387
-150.983329 -64.24081389 41.49990261
-0.0002729991102 -130.0472415 -39.59017739
-40.489611 -2.498850685e-05 -19.25643839
-62.858918 -42.82285018 47.49990261
-0.0002729991102 -49.70257213 25.63890561
-150.852828 -2.498850685e-05 -44.45027739
-131.152019 -27.77633753 41.49990261
-0.0002729991102 -52.06681121 -14.66069839
-106.027153 -18.48764909 47.49990261
-205.744621 -54.56506016 47.49990261
-0.0002729991102 -94.89486711 -36.38261439
-0.0002729991102 -13.63692458 -12.35518539
-0.0002729991102 -48.26419058 -27.74772039
-0.0002729991102 -50.47362948 18.87643661
-14.909674 -2.498850685e-05 37.30711961
-0.0002729991102 -7.212300599 -24.61581639
-52.851212 -55.39699565 41.49990261
-231.437368 -63.31569536 47.49990261
-83.384988 -4.856604899 47.49990261
-0.0002729991102 -20.00736446 3.122040613
-107.785155 -54.81282992 41.49990261
-125.31194 -25.89433158 47.49990261
-107.486396 -2.498850685e-05 -1.030231387
-10.552944 -2.498850685e-05 14.55166161
-95.410528 -53.25600803 41.49990261
-61.687735 -25.38439977 47.49990261
-0.0002729991102 -60.12863606 -40.85257939
-0.0002729991102 -41.81706473 31.58057661
-0.0002729991102 -18.32383224 34.25439761
-0.0002729991102 -20.50690419 -13.12422739
-176.9995 -63.78834804 41.49990261
-193.89205 -57.9558399 47.49990261
-86.432421 -2.498850685e-05 -40.65758839
-0.0002729991102 -94.97239375 -30.70331439
-189.521255 -2.498850685e-05 -33.54614039
-153.944377 -2.498850685e-05 12.81237761
-39.150217 -49.77449957 41.49990261
-0.0002729991102 -36.37113104 9.148956613
-247.532923 -16.91117319 47.49990261
-224.772399 -2.498850685e-05 -32.33273939
-0.0002729991102 -22.51611622 -4.719799387
-69.032312 -2.498850685e-05 18.99250961
-160.838619 -4.846330639 47.49990261
-62.220195 -59.74849074 41.49990261
-44.006994 -28.3706932 47.49990261
-111.954047 -38.51740606 41.49990261
-0.0002729991102 -4.982658589 -1.547529387
-174.173192 -20.31878131 47.49990261
-62.57999 -53.54157901 47.49990261
-11.69956 -2.498850685e-05 6.582280613
-62.26527 -54.58923975 41.49990261
-176.35182 -2.498850685e-05 31.70146461
-162.863157 -2.498850685e-05 -15.55810139
-0.0002729991102 -128.1310971 -34.44708539
-54.83931 -31.51717255 47.49990261
-0.0002729991102 -88.16015574 -42.30104139
-216.947712 -3.068138719 47.49990261
-160.681811 -51.37173811 47.49990261
-0.0002729991102 -16.21641675 20.01727461
-39.489448 -2.498850685e-05 -30.87249039
-0.0002729991102 -68.04666999 -20.52859339
-140.139949 -47.9119569 41.49990261
-197.422978 -1.818030369 47.49990261
-84.914031 -15.59253875 47.49990261
-78.881406 -2.498850685e-05 18.01019061
-0.0002729991102 -53.91342204 -29.28573439
-21.223743 -2.498850685e-05 -44.91840839
-90.31497 -55.27969106 47.49990261
-0.0002729991102 -64.90144347 6.642851613
-0.0002729991102 -74.66275919 -1.053026387
-210.911548 -2.498850685e-05 37.55652261
0.06951800089 -65.42688467 15.51102861
-81.480844 -67.09712831 41.49990261
-0.0002729991102 -11.7433088 27.98052061
-9.397064999 -4.541405579 41.49990261
-0.0002729991102 -52.09181882 31.48726761
-117.904578 -2.498850685e-05 16.49996861
-241.317824 -26.7906572 41.49990261
-95.413848 -29.77314639 47.49990261
-124.500019 -44.76736133 41.49990261
-113.756673 -59.1201457 47.49990261
-28.517793 -36.61047084 41.49990261
-0.0002729991102 -73.19018311 -45.88614039
-0.0002729991102 -107.7234478 -39.66969339
-0.0002729991102 -84.37537225 -26.40134139
-25.951216 -3.923883299 41.49990261
-95.730915 -2.498850685e-05 -45.37392639
-0.0002729991102 -24.01549788 -21.00432139
-26.572174 -2.498850685e-05 -2.611037387
-21.252338 -40.79588666 41.49990261
2.454876001 -16.23976003 40.49990261
-40.049485 -2.498850685e-05 2.662533613
2.417397001 -169.3359845 -43.17383439
-0.0002729991102 -41.11285915 36.60777061
-0.0002729991102 -120.292334 -32.09761239
-0.0002729991102 -41.43137759 -21.42704639
-101.349724 -2.498850685e-05 15.55081861
-20.560077 -2.498850685e-05 25.28583461
-123.912802 -5.099778559 47.49990261
-26.710311 -22.62679406 47.49990261
-0.0002729991102 -74.33997909 -10.59818639
-0.0002729991102 -8.831516409 17.36815061
-0.0002729991102 -17.49910666 24.73688861
-0.0002729991102 -38.1567513 1.549787613
-0.0002729991102 -137.270563 -44.72094439
-0.0002729991102 -24.1570636 -28.37088139
-1.795907999 -8.572444599 41.49990261
-175.800089 -56.01427283 47.49990261
-31.666734 -13.1535122 41.49990261
-22.56121 -68.00002403 46.56204961
-0.0002729991102 -0.9261855185 9.268814613
-41.853422 -2.498850685e-05 11.33554161
-203.771477 -25.20684149 41.49990261
-41.253821 -2.498850685e-05 32.98015861
-241.917459 -2.498850685e-05 -26.42246739
-0.0002729991102 -76.97464195 -37.48247439
-196.616548 -39.0991867 47.49990261
-0.0002729991102 -65.17276131 0.3822776131
-0.0002729991102 -48.99277458 9.231659613
-0.0002729991102 -2.783642069 4.025588613
-22.160084 -2.498850685e-05 11.48393761
-0.0002729991102 -64.33574883 -24.05267839
-124.248119 -54.50321898 41.49990261
-223.925264 -2.498850685e-05 -41.70167239
-145.673851 -24.23632732 47.49990261
-0.0002729991102 -9.872490319 -5.992764387
-215.582633 -28.27024443 47.49990261
-240.437136 -2.498850685e-05 32.79750261
-0.0002729991102 -54.78545123 -33.75641539
-209.664495 -18.82560723 41.49990261
-230.677636 -24.99888781 41.49990261
-97.638701 -13.97431452 41.49990261
-26.641618 -2.498850685e-05 -31.42640639
-141.897868 -2.498850685e-05 19.90742461
-0.0002729991102 -119.3556172 -40.93035539
-222.669545 -2.498850685e-05 8.291607613
-0.0002729991102 -77.90469252 -44.11264939
-187.861527 -68.00002403 45.46617561
-73.747177 -40.33267399 47.49990261
-0.0002729991102 -62.27989568 11.43436661
-0.0002729991102 -83.10980373 -47.31610539
-0.0002729991102 -128.1334656 -26.19679139
1.180207001 -25.13068271 41.49990261
-102.759673 -11.31939967 41.49990261
-219.135099 -23.89100174 41.49990261
-157.863789 -67.98124217 41.49990261
-34.59363 -2.498850685e-05 -25.31322039
-94.401859 -57.77171725 47.49990261
-0.0002729991102 -30.99471876 -44.99339539
-195.792737 -63.16488559 47.49990261
-17.216167 -27.61410935 47.49990261
-0.0002729991102 -160.7063018 -47.69117739
-190.551526 -2.498850685e-05 -15.90987539
-0.0002729991102 -94.1087077 -21.61735939
-97.238238 -68.00002403 44.85633861
-0.0002729991102 -4.635391109 -15.77868639
-68.909346 -65.69152268 41.49990261
-242.970821 -12.35592685 41.49990261
-203.578924 -2.498850685e-05 25.85581061
-41.165726 -2.498850685e-05 -46.19853439
-207.681044 -26.11514481 47.49990261
-0.0002729991102 -47.74386709 33.40436161
-0.0002729991102 -111.3097276 -29.69076839
-151.768454 -2.498850685e-05 40.86622761
-207.07282 -6.971770189 47.49990261
-7.978933999 -2.498850685e-05 -11.51600539
-44.140828 -2.498850685e-05 -33.46046339
-199.546139 -2.498850685e-05 -14.03370639
-215.33997 -2.498850685e-05 27.18286161
-28.935848 -2.498850685e-05 8.363149613
-8.896214999 -54.74068171 41.49990261
-0.0002729991102 -58.59874844 -5.486416387
-85.863935 -27.8028304 47.49990261
-118.852205 -2.498850685e-05 -30.60432039
-52.459039 -2.498850685e-05 -38.62259839
-176.502123 -2.498850685e-05 -3.854010387
-248.012203 -2.498850685e-05 38.20420861
-177.413189 -2.498850685e-05 18.46858661
-41.823625 -7.316509639 41.49990261
-243.682552 -2.498850685e-05 -31.78740639
-188.713416 -11.62373904 41.49990261
-158.466708 -32.97430241 41.49990261
-245.835403 -2.498850685e-05 33.32838461
-221.803002 -1.395111579 41.49990261
-0.0002729991102 -60.28618931 -15.46966839
-0.0002729991102 -51.8427548 -24.52902139
-199.527885 -2.498850685e-05 19.05408861
-62.941198 -7.343908989 41.49990261
-74.391671 -2.498850685e-05 -28.07462539
-118.151716 -1.286666409 41.49990261
-9.941621999 -2.498850685e-05 -26.19106539
-129.324585 -15.33863754 47.49990261
-0.0002729991102 -28.827077 -1.979747387
-188.980409 1.394384281 47.49990261
-230.056918 -47.97753776 41.49990261
-217.298783 -68.00002403 44.70190861
-62.94397 -38.04527046 41.49990261
-205.630745 -2.498850685e-05 7.579666613
-128.109695 -2.498850685e-05 -49.17772939
-11.592971 -2.498850685e-05 -32.04111739
-154.020788 -27.06363504 47.49990261
-116.39679 -68.00002403 44.85483161
-166.291937 -68.00002403 45.30799661
-220.653121 -16.08752284 41.49990261
-214.014835 -11.39971301 41.49990261
-236.137187 -51.36407483 41.49990261
-240.888681 -2.845878659 41.49990261
-145.438414 -2.498850685e-05 -9.539270387
-118.861669 -46.79681162 47.49990261
-204.362437 -45.33455335 41.49990261
-147.53488 1.012669911 41.49990261
-106.163475 -42.79178712 47.49990261
-152.559865 -55.30697158 47.49990261
-80.166712 -2.498850685e-05 -28.39006039
-179.27048 -59.24087248 47.49990261
-90.276927 -2.498850685e-05 12.95201261
-3.841031999 -2.498850685e-05 -10.88051939
-200.455897 -29.79010798 47.49990261
-216.574198 -44.66989033 47.49990261
-22.810142 -25.1007206 47.49990261
-82.319909 -2.498850685e-05 -20.77136239
-94.161886 -2.249755239 41.49990261
-213.039093 -55.34400106 47.49990261
-247.530228 -2.498850685e-05 23.68700261
-190.81569 -2.498850685e-05 -42.33725039
-133.670047 -19.99643233 47.49990261
-174.937653 -5.746927339 41.49990261
-154.640204 -46.11960526 47.49990261
-44.714155 -2.498850685e-05 4.740439613
-0.0002729991102 -2.583035789 20.51261661
-81.019028 -24.82164596 41.49990261
-63.439217 -2.498850685e-05 -13.37401939
-141.32627 -23.83115132 41.49990261
-224.570232 -56.30436892 47.49990261
-120.80119 -38.62751811 41.49990261
-64.761812 -45.13131238 41.49990261
-190.084126 -2.498850685e-05 17.78319061
-116.04628 -42.06546474 47.49990261
-0.5985069991 -57.81405279 41.49990261
-228.893478 -2.498850685e-05 -32.64728639
-71.973415 -58.19540551 47.49990261
-4.668983999 -2.498850685e-05 4.029241613
-113.097712 -2.498850685e-05 7.460914613
-28.565375 -2.498850685e-05 -21.42302739
-71.221853 -2.498850685e-05 5.985049613
-147.293432 -13.24508472 41.49990261
-195.411091 -2.498850685e-05 28.18584461
-179.208188 -67.9946648 41.49990261
-17.412251 -39.75368298 47.49990261
-171.695211 -12.49127845 47.49990261
-175.683125 -2.498850685e-05 5.831059613
-26.976806 -7.363818239 47.49990261
-228.00707 -42.16008536 47.49990261
-71.193354 -36.15681165 41.49990261
-160.315891 -2.498850685e-05 15.23650961
-14.978696 -46.93560942 47.49990261
-4.222109999 -68.00002403 45.21688261
-104.350476 -2.498850685e-05 -22.92158239
-82.353602 -21.58434129 47.49990261
-94.623737 -2.498850685e-05 -4.394713387
-235.223005 -64.4219661 47.49990261
-165.368494 -39.78501068 41.49990261
-159.00522 -2.498850685e-05 -39.37134739
-70.969191 -2.498850685e-05 22.70791761
-243.548452 -13.72354218 47.49990261
-145.116819 -2.498850685e-05 -2.027624387
-164.415639 -2.498850685e-05 -11.95235439
-250.366919 -2.498850685e-05 13.09574961
-180.020922 -6.494771589 47.49990261
-111.419375 -2.498850685e-05 -35.93273839
-157.955298 -23.10662677 47.49990261
-192.392261 -57.55623527 41.49990261
-115.552067 -36.74083433 41.49990261
-17.099 -15.81484733 41.49990261
-35.774229 -51.72694651 41.49990261
-17.562939 -33.57440421 47.49990261
-120.211714 -6.287524209 47.49990261
-34.431813 -36.58821618 47.49990261
-12.774838 -26.85975043 47.49990261
-99.030815 -51.85514794 41.49990261
-215.232589 -2.498850685e-05 -33.11982039
-28.87145 -31.18655805 47.49990261
-67.577448 -27.4960058 41.49990261
-132.095768 -45.45766206 41.49990261
-46.609613 -45.07100963 41.49990261
-240.654363 -43.20268109 41.49990261
-100.617803 -24.97935803 47.49990261
-123.991949 -37.49537706 47.49990261
-168.388121 -44.13710118 47.49990261
-227.850026 -2.498850685e-05 28.70857061
-191.177891 -7.764216189 47.49990261
-167.658518 -33.48618949 41.49990261
-208.67332 -2.498850685e-05 -8.811701387
-229.152391 -59.84988539 41.49990261
-70.503587 -13.81949458 41.49990261
-170.0027 -2.498850685e-05 -2.572370387
-247.800684 -27.67973184 41.49990261
2.175147001 -13.5170548 47.49990261
-90.494506 -46.46188537 41.49990261
-2.337062999 -2.498850685e-05 23.51763661
-57.119612 -2.498850685e-05 40.40370961
-81.678919 -2.498850685e-05 39.51040861
-165.320444 -2.498850685e-05 35.80871161
-67.657808 -20.2141969 47.49990261
-21.365589 -2.498850685e-05 -15.77089739
-235.451278 -2.498850685e-05 26.16109761
-91.763 -6.573993979 47.49990261
-54.447424 -63.92863692 41.49990261
-124.257728 -2.498850685e-05 -46.05518739
-200.520057 -59.23245645 47.49990261
-36.736125 -68.00002403 44.24885661
-47.20621 -60.11513971 41.49990261
-74.289546 -61.77183276 41.49990261
-0.2620849991 -40.59691234 47.49990261
-94.153502 1.517077541 47.49990261
-162.069958 -32.31975228 41.49990261
-204.260483 -2.498850685e-05 -18.53155539
-153.493894 -30.6844573 47.49990261
-66.961521 -35.93170188 41.49990261
-33.066368 -14.27878714 47.49990261
-211.938299 -2.498850685e-05 -41.72984739
-218.92335 -33.05735309 47.49990261
-219.373365 -61.87699872 41.49990261
-2.131616999 -5.464268619 47.49990261
-203.859579 -39.24253873 47.49990261
-4.205891999 -3.220130649 41.49990261
-222.675303 -2.498850685e-05 2.318398613
-247.508581 -32.59132323 41.49990261
-205.662576 -59.2029354 41.49990261
-83.7773 -45.04165862 41.49990261
-93.220558 -2.498850685e-05 28.10825861
-231.28951 -2.498850685e-05 0.1393396131
-242.606334 -21.1491804 47.49990261
-185.810826 -2.498850685e-05 -7.757944387
-108.3034 -2.498850685e-05 30.29447061
-12.963606 -4.102306609 47.49990261
-119.379304 -2.498850685e-05 -8.124206387
-175.554027 -2.498850685e-05 -10.14569839
-22.967313 -1.614242279 41.49990261
-179.12921 -34.06759502 41.49990261
-217.558437 -36.6706552 47.49990261
-129.907061 -58.8971372 41.49990261
-97.783086 -55.89206283 41.49990261
-241.55155 -53.02670218 47.49990261
-210.304118 -23.73525276 47.49990261
-198.899758 -2.498850685e-05 -30.51586439
-160.088211 -57.34865629 47.49990261
-162.697854 -2.498850685e-05 -30.90896639
-113.716707 -2.498850685e-05 -43.34031039
-15.443072 -68.00002403 45.32199561
-169.585311 -56.89955024 41.49990261
-34.172729 -64.72573916 41.49990261
-214.529004 -2.498850685e-05 34.29307761
-24.406741 -25.41531843 41.49990261
-190.095547 -54.71948363 47.49990261
-89.499197 -2.498850685e-05 5.173007613
-89.814098 -2.498850685e-05 -17.36314739
-106.012926 -36.71169667 41.49990261
-171.923136 -2.498850685e-05 37.10256161
-181.954268 -2.498850685e-05 17.53096461
-200.675144 -17.85260897 47.49990261
-133.752441 -2.498850685e-05 -18.43579339
-239.108422 -39.58905525 47.49990261
-109.378309 -49.51620015 47.49990261
-41.262685 -2.498850685e-05 -12.08902239
-18.078678 -36.89358272 41.49990261
-16.659025 -2.498850685e-05 34.36167161
-159.540148 -36.93270829 41.49990261
-62.586671 -2.498850685e-05 38.55318861
-245.898551 -2.498850685e-05 -44.61431339
-28.987243 -2.498850685e-05 40.96835161
-182.822099 0.7966581815 41.49990261
-159.152253 -10.85600033 41.49990261
-127.528443 -31.71144438 47.49990261
-7.446861999 -59.64628705 47.49990261
-225.214627 -43.26525798 41.49990261
-169.689035 -2.498850685e-05 -36.74104139
-186.483894 -7.474712699 47.49990261
-187.339253 -36.90573423 47.49990261
-49.725652 0.1308164915 47.49990261
-30.523712 -57.54067403 41.49990261
-88.936602 -2.498850685e-05 -42.87914439
-194.979933 -2.498850685e-05 -42.05559839
-231.505302 -2.498850685e-05 39.94986561
-184.124726 -11.93414786 41.49990261
-110.53196 -4.843597879 47.49990261
-20.385336 -49.09934681 47.49990261
-157.227766 -2.498850685e-05 38.67777661
-95.395065 -2.498850685e-05 9.675297613
-205.368698 -21.18612635 41.49990261
-5.524695999 -60.69554802 41.49990261
-100.799374 -41.94920261 47.49990261
-156.836911 -2.498850685e-05 -2.450562387
-164.786682 -26.63753626 41.49990261
-203.005845 -56.37981492 47.49990261
-199.972879 -2.498850685e-05 -10.79872839
-172.708287 -68.00002403 43.22097461
-73.047212 -10.0976537 41.49990261
-66.736582 -2.498850685e-05 12.68174361
-48.109224 -66.7274716 41.49990261
-7.645884999 -25.08704757 47.49990261
-192.804112 -65.91959388 41.49990261
-231.496641 -54.90452351 41.49990261
-47.241527 -31.6320826 47.49990261
-192.520641 -3.873748179 47.49990261
-135.48853 -48.43452375 41.49990261
-70.973213 -48.08065738 47.49990261
-214.770281 -2.498850685e-05 -26.94462039
-219.53805 -58.70425875 41.49990261
-66.967141 -62.88924389 47.49990261
-217.51145 -16.3339004 41.49990261
-203.798928 -12.6919693 47.49990261
-65.92003 -2.498850685e-05 36.40660861
-188.931451 -1.733889719 47.49990261
-165.294852 -20.98836698 47.49990261
-184.739337 -68.00002403 45.64029361
-226.92857 -2.498850685e-05 -2.589410387
-2.154746999 -40.14277784 41.49990261
-86.115242 -3.362961719 47.49990261
-197.010983 -2.498850685e-05 30.85257561
-188.448902 -65.73143383 47.49990261
-121.201599 -58.83313208 47.49990261
-207.841199 -2.498850685e-05 -35.87617839
-31.782546 -33.57099531 41.49990261
-215.364442 -2.498850685e-05 -21.69478139
-151.939868 -2.498850685e-05 4.517873613
-148.634541 -2.498850685e-05 -46.57785839
-214.60985 -35.81988945 47.49990261
-123.049679 -65.05057056 47.49990261
-46.943072 -35.26732943 41.49990261
-0.8487279991 -2.211706859 41.49990261
-110.575572 -43.74079025 47.49990261
-48.789054 -2.498850685e-05 9.303223613
-126.487818 -26.25860545 41.49990261
-55.428876 -57.13128243 41.49990261
-32.398592 -2.498850685e-05 -23.22497539
-152.483409 -16.24968722 47.49990261
-53.068962 -2.498850685e-05 35.10488461
-199.146879 -36.92733393 41.49990261
-162.095997 -2.498850685e-05 -18.47344939
-169.314978 -30.97725127 41.49990261
-6.507098999 -2.498850685e-05 21.39122461
-181.031988 -3.060257019 41.49990261
-83.657573 -2.498850685e-05 -27.71872439
-46.358836 -8.391758929 41.49990261
-17.090361 -64.48371055 47.49990261
-109.540233 -2.498850685e-05 -20.90893639
-202.669635 -2.498850685e-05 -31.25313739
-208.250716 -10.39465787 47.49990261
-148.026248 -26.06190587 47.49990261
-2.631711999 -46.51206329 47.49990261
-125.439684 -4.055712999 41.49990261
-118.031007 -44.89049586 41.49990261
-45.658694 -37.38322882 47.49990261
-37.197375 -31.64452949 47.49990261
-122.335878 -22.28325113 41.49990261
-176.470816 -25.95889173 47.49990261
-232.024617 -2.498850685e-05 7.667932613
-65.154456 -2.498850685e-05 -5.483305387
-146.262982 -21.40215166 47.49990261
-31.361365 -21.70565399 41.49990261
-113.366771 -64.46526826 47.49990261
-67.84441 -52.98209111 47.49990261
-102.670974 -65.16976325 41.49990261
-76.60255 -2.498850685e-05 19.75950261
-59.772889 -0.05618411851 41.49990261
-164.837992 -2.498850685e-05 0.0109666131
-93.536663 -61.9923547 41.49990261
-140.312472 -2.498850685e-05 -19.16006139
-107.044939 -2.498850685e-05 12.06437761
-22.373396 -2.498850685e-05 -42.33859239
-172.846677 -2.498850685e-05 -41.56060939
-158.405932 -10.96016023 47.49990261
-7.768750999 -2.498850685e-05 16.10038561
-222.523327 -2.498850685e-05 -39.25820639
-120.378227 -2.498850685e-05 15.18114761
-68.956057 -33.19719316 47.49990261
-136.049683 -2.498850685e-05 -7.390372387
-237.837223 -48.29495712 41.49990261
-126.20777 -68.00002403 47.39034861
-116.321652 -66.4076962 41.49990261
-7.130374999 -2.498850685e-05 29.01307661
-9.122095999 -21.82482326 47.49990261
-38.438369 -0.3722042785 47.49990261
-227.460077 -2.498850685e-05 -38.25413239
-181.49941 -10.66239719 47.49990261
-99.617766 -2.042625559 41.49990261
-218.494258 -2.498850685e-05 10.41607061
-230.972031 -2.498850685e-05 -21.46734639
-178.624622 -46.32652642 47.49990261
-143.69296 2.477077751 47.49990261
-193.493597 -11.26963715 41.49990261
-164.259994 -8.275854369 41.49990261
-51.703216 -68.00002403 46.25554961
-58.651523 -2.498850685e-05 32.25941161
-162.045491 -11.12461875 41.49990261
-226.391654 -25.05170593 41.49990261
-75.421697 -2.498850685e-05 -30.51763539
-20.426827 -2.498850685e-05 30.02289361
-25.671066 -45.99754391 41.49990261
-93.449527 -37.77251315 41.49990261
-58.910678 -16.65928427 47.49990261
-127.856769 -40.80394339 41.49990261
-145.745716 -2.498850685e-05 -5.090646387
-236.587473 -2.498850685e-05 31.32498161
-173.651621 -2.498850685e-05 -16.72019639
-98.012951 -60.04851582 41.49990261
-249.42316 -2.498850685e-05 5.554586613
-111.497187 -21.72249626 41.49990261
-66.681319 0.7105145415 -21.85344939
-164.868876 -2.498850685e-05 -43.52119739
-92.937375 -2.498850685e-05 10.51400561
-72.346717 -2.498850685e-05 24.90034161
-81.365139 -13.72030569 41.49990261
-123.599409 -52.00222863 41.49990261
0.6884190009 -2.498850685e-05 -20.46486039
-9.810464999 -2.498850685e-05 23.99488161
-204.260184 -2.498850685e-05 -34.68781139
-155.379751 -23.10554012 47.49990261
-187.127035 -2.498850685e-05 -28.45851539
-32.738101 -2.498850685e-05 -19.84160739
-232.764245 -2.498850685e-05 32.51249361
-101.981421 -2.983458909 41.49990261
-157.859812 -34.63417896 47.49990261
-249.402215 -62.02282794 41.49990261
-147.603706 -67.09509817 47.49990261
-250.799085 -34.9844675 41.49990261
-121.481958 -2.498850685e-05 -30.56318739
-12.093301 -56.08434488 47.49990261
-197.648819 -2.498850685e-05 -18.27436039
-246.645175 0.7083076515 47.49990261
-150.258085 -27.00800982 41.49990261
-246.22499 -8.606894039 47.49990261
-150.260214 0.02009078149 -21.04901639
-155.999852 -66.3634366 41.49990261
-100.792084 -2.498850685e-05 8.018764613
-143.875249 -24.52287033 41.49990261
-128.133368 -2.498850685e-05 25.13022561
-194.665715 -2.498850685e-05 12.34483661
-40.822246 -49.1451745 47.49990261
-70.516186 -8.209702299 41.49990261
-150.142468 -34.01121516 47.49990261
-14.755675 -2.498850685e-05 -5.680843387
-65.407262 -52.95173584 47.49990261
-42.038434 -2.498850685e-05 -43.92329439
-206.584237 -22.69273228 47.49990261
-146.659742 -24.09969994 41.49990261
-220.378754 0.5705581915 41.49990261
-67.366248 -2.498850685e-05 20.96444361
-197.541145 -36.86512394 47.49990261
-56.622189 -2.498850685e-05 34.91088161
-170.413426 0.9142252915 41.49990261
-242.776977 -56.61295517 47.49990261
-136.601615 -68.00002403 46.37282561
-52.190059 -2.498850685e-05 -46.30332839
-226.244574 -2.498850685e-05 -25.83375639
-238.957562 -26.57521376 41.49990261
-75.671344 -2.498850685e-05 -15.25725139
-83.188445 0.06974962149 41.49990261
-88.861982 -2.498850685e-05 10.67735261
-188.385517 -65.08772621 41.49990261
-119.033832 -8.312799589 47.49990261
-169.269856 -35.48863198 41.49990261
-163.430278 -49.89030703 47.49990261
-109.707393 -1.344568429 41.49990261
-195.57276 -2.498850685e-05 -48.09239539
-6.311523999 -2.498850685e-05 -22.74781539
-99.469195 -2.498850685e-05 4.483801613
-96.967584 -2.498850685e-05 40.30111561
-120.091037 -2.498850685e-05 17.47931961
-92.101446 -66.7792648 41.49990261
-24.659618 -21.18603183 47.49990261
-92.895796 -36.0349007 47.49990261
-209.3269 -7.365425799 47.49990261
-217.169664 -25.05213155 41.49990261
-191.494929 -45.93001336 47.49990261
-39.931584 -2.498850685e-05 12.55281161
-226.521786 -2.498850685e-05 -19.95940439
-198.528194 -2.498850685e-05 -33.91286439
-222.613765 -49.62778143 47.49990261
-169.692927 -40.11392339 41.49990261
-60.63549 -37.10886828 47.49990261
-115.609691 -2.361150859 41.49990261
-92.649516 0.7680194115 41.49990261
-224.151617 -2.498850685e-05 -34.48370439
-177.437506 -32.60328022 41.49990261
-154.655121 -10.54138126 47.49990261
-225.09141 -2.498850685e-05 -39.79796139
-103.764073 -20.31636286 41.49990261
-0.05343199911 -0.1470614385 41.49990261
-10.5129 -2.934705799 47.49990261
-117.960914 -51.94237806 47.49990261
-27.221953 -2.135727469 41.49990261
-184.525301 -2.498850685e-05 24.76630461
-222.86009 -18.37081391 47.49990261
-62.849923 -62.95497422 41.49990261
-208.492645 -35.71302745 41.49990261
-234.605218 -2.498850685e-05 -22.96410539
-1.929745999 -2.498850685e-05 9.549963613
-13.957397 -48.8362129 47.49990261
-230.789968 -2.498850685e-05 2.234070613
-201.654203 -2.498850685e-05 -47.26468339
-60.722514 -40.81113024 47.49990261
-204.085016 -27.2913133 47.49990261
-162.179985 -17.67076559 47.49990261
-96.688573 -2.498850685e-05 -2.446467387
-196.344837 -48.86114019 47.49990261
-113.341729 -2.498850685e-05 30.79535561
-19.489001 -23.53439453 41.49990261
-240.353962 -58.98658864 47.49990261
-125.986686 -2.498850685e-05 -29.73245139
-99.314471 0.3544994115 41.49990261
-190.070814 -25.34602285 41.49990261
-43.276193 -2.498850685e-05 -12.88668439
-239.140969 -66.83378491 41.49990261
-38.853437 -3.530907689 41.49990261
-172.270377 -2.498850685e-05 -27.19747239
-240.139791 -2.498850685e-05 -27.44223739
-76.065192 -66.09722198 47.49990261
-195.875764 -58.41617422 47.49990261
-6.276301999 -2.498850685e-05 30.85641161
-229.872155 -42.93104055 47.49990261
-72.328862 -55.88668078 41.49990261
-81.827856 -12.4528969 47.49990261
-49.199689 -1.808175739 47.49990261
-162.542621 -66.93206454 41.49990261
-74.344586 -39.62122531 41.49990261
-234.55634 -2.498850685e-05 14.16675861
-173.141064 -33.55334282 41.49990261
-21.610264 -11.13469061 47.49990261
-133.534049 -48.78541068 41.49990261
-79.951172 -2.498850685e-05 33.05253361
-138.615845 -2.498850685e-05 -40.06979239
-6.891743999 -2.498850685e-05 27.05526861
-109.274844 -2.498850685e-05 32.00420861
-24.392604 -2.498850685e-05 40.14542261
-126.149668 -2.498850685e-05 -49.07853739
-125.367634 -2.498850685e-05 12.69809561
-147.062237 -26.01058029 41.49990261
-162.868213 -57.09372953 41.49990261
-64.967922 -2.498850685e-05 -14.97735539
-221.640829 -33.87163425 47.49990261
-147.176166 -18.35375169 41.49990261
-245.375597 -14.30736971 47.49990261
-21.690436 -42.66280407 41.49990261
-228.164066 -68.00002403 45.08422261
-181.480015 -8.098193349 47.49990261
-62.281936 -36.26904627 41.49990261
-239.232063 -2.498850685e-05 30.34176561
-234.128874 -2.498850685e-05 -45.85445839
-32.387278 -32.01619364 47.49990261
-133.16739 -59.73352015 41.49990261
-10.821287 -65.17175951 47.49990261
-5.741828999 -31.01806701 47.49990261
-29.41503 -2.498850685e-05 10.16508261
-22.980706 -24.23377459 41.49990261
-42.869148 -35.33686582 41.49990261
-54.863002 -2.498850685e-05 35.51051761
-156.91036 -68.00002403 43.06716161
-63.736617 -2.498850685e-05 -2.373125387
-64.505494 -2.498850685e-05 -17.91083039
-195.253276 -11.76254449 41.49990261
-188.061131 -2.498850685e-05 -45.04901639
-233.997848 -2.498850685e-05 34.87103661
-162.803647 -33.94269574 47.49990261
-5.080325999 -2.498850685e-05 22.50851061
-15.354327 -2.498850685e-05 -9.155137387
-110.455612 -22.69317476 47.49990261
-144.616897 0.7673112215 47.49990261
-132.067675 -7.027252639 41.49990261
-209.270664 -2.498850685e-05 38.28820661
-18.161134 -1.242327339 41.49990261
-166.775763 -19.97149699 47.49990261
-86.545927 -14.87115225 47.49990261
-205.682532 -39.97984837 47.49990261
-164.406206 -2.498850685e-05 -13.72742339
-116.856961 -35.53902421 41.49990261
-81.442 -44.22875597 47.49990261
-113.564755 -68.00002403 45.91196761
-135.961779 -2.498850685e-05 -32.99540739
-213.760287 -34.27366271 47.49990261
-144.77969 -68.00002403 45.79704161
-162.582326 -5.112915039 47.49990261
-231.980729 -50.47505923 47.49990261
-167.280019 -2.498850685e-05 26.48112361
-37.920808 1.312282401 47.49990261
-243.417015 -37.89734958 41.49990261
-169.311309 -2.498850685e-05 35.70010861
-198.709962 -35.56245376 47.49990261
-126.929058 -6.257109899 41.49990261
-21.474698 -68.00002403 45.20051261
-176.096015 -2.498850685e-05 19.60129861
-117.395065 -2.498850685e-05 -29.67771639
-157.001115 -24.53184235 47.49990261
-85.101171 -68.00002403 43.54939061
-43.383549 -2.498850685e-05 28.15008661
-189.018903 -44.62484118 47.49990261
-22.650263 -55.09692793 47.49990261
-152.371445 -2.498850685e-05 -22.36292439
-146.731529 -2.498850685e-05 -2.479112387
-29.956092 -15.75439375 41.49990261
-64.77066 -2.498850685e-05 20.39673161
-226.031875 -19.02416042 47.49990261
-168.855195 -21.18508442 47.49990261
-87.476731 -2.498850685e-05 -14.87872639
-231.508499 -47.24056071 41.49990261
-160.333074 -2.498850685e-05 33.80341861
-44.246782 -2.498850685e-05 15.58386761
-188.001551 -2.498850685e-05 -46.78093639
-186.289486 -48.00510633 47.49990261
-196.926905 -3.362495149 47.49990261
-26.990282 0.2675696215 41.49990261
-186.136404 -9.036956019 47.49990261
-177.130091 -2.498850685e-05 10.25214161
-30.111131 -2.713098489 47.49990261
-202.066613 -17.0771569 47.49990261
-25.269958 -2.498850685e-05 11.44916261
-70.97906 -35.79541675 47.49990261
-0.9198379991 -46.93936917 41.49990261
-82.800294 1.592867751 41.49990261
-155.68697 -21.56762424 47.49990261
-35.601312 -68.00002403 45.30485461
-34.8499 -46.47274381 41.49990261
-223.574048 -2.498850685e-05 -31.36788939
-75.878356 -42.39954306 47.49990261
-197.713607 -2.498850685e-05 13.45519961
-118.983152 -48.32614822 47.49990261
-22.640954 -2.498850685e-05 -44.33340039
-81.58079 -2.498850685e-05 -22.10954339
-21.598442 -2.498850685e-05 32.29430861
0.2307860009 -29.8063656 47.49990261
-124.084114 -25.02694187 47.49990261
-252.144692 -2.498850685e-05 5.360598613
-156.669317 -2.498850685e-05 -46.44253239
-163.566684 -37.95576122 41.49990261
-232.540181 -2.498850685e-05 40.99058661
-169.314036 -43.00548282 47.49990261
-195.989447 -5.542108029 47.49990261
-216.925615 -37.98655491 47.49990261
-28.502434 -1.437930339 41.49990261
-72.031877 2.135938881 41.49990261
-119.882369 -4.878830059 47.49990261
-163.855016 -2.498850685e-05 -36.56409139
-7.748930999 -2.498850685e-05 23.55896361
-61.039148 -19.30387356 41.49990261
-225.532043 -2.498850685e-05 -2.356836387
-202.659384 -2.498850685e-05 -32.66850239
-30.351287 -1.955985939 41.49990261
-61.404412 -54.27373929 47.49990261
-171.734539 -2.498850685e-05 -39.99201839
-240.242118 -27.64221135 41.49990261
-159.001503 -24.65916904 41.49990261
-164.239846 -2.498850685e-05 -7.033028387
-197.087975 -40.20081254 41.49990261
-4.639383999 -59.65669053 41.49990261
-195.427112 -2.498850685e-05 -31.53482639
-27.31918 -45.99068339 41.49990261
-244.043806 -40.22250803 41.49990261
-21.610412 -67.96773635 47.49990261
-8.755233999 -2.498850685e-05 -26.79198039
-199.854327 -14.46423275 47.49990261
-226.221434 -2.498850685e-05 -39.11988139
-193.820145 -2.498850685e-05 -22.45934839
-98.543425 -2.498850685e-05 28.21085561
-194.756081 -2.498850685e-05 18.80219061
-238.381558 -2.498850685e-05 31.32178261
-44.49475 -13.75825596 41.49990261
-18.184064 0.08576985149 41.49990261
-97.471696 -2.498850685e-05 6.470000613
-222.333909 -2.498850685e-05 7.074706613
-147.810878 -4.419560469 41.49990261
-55.372563 -55.88147225 41.49990261
-51.218896 -19.67328431 47.49990261
-7.149381999 -50.45637457 41.49990261
-203.214678 -2.498850685e-05 3.858539613
-73.048122 -12.61796347 47.49990261
-104.719475 -61.01172512 41.49990261
-170.833782 -1.818625079 47.49990261
-89.777561 -30.08368872 47.49990261
-226.449783 -28.71493988 41.49990261
-167.805876 -19.36350303 47.49990261
-156.253386 -63.31959189 47.49990261
-123.081252 -40.51939476 47.49990261
-39.460994 -2.498850685e-05 -29.68930539
-127.560208 -2.498850685e-05 31.39276561
-59.438334 -2.498850685e-05 10.53771161
-103.638231 -54.5933052 41.49990261
-159.384293 -2.498850685e-05 -10.38923639
-169.314535 0.5608392815 41.49990261
-4.697761999 -61.48426624 41.49990261
-8.265487999 -60.43336008 47.49990261
-154.842606 -2.498850685e-05 -47.64761339
-47.236306 -61.24973095 47.49990261
-197.443727 -0.7017993885 47.49990261
-154.603492 -9.426294849 47.49990261
-170.536303 -33.72170262 41.49990261
-48.444381 -2.498850685e-05 -23.84313339
-21.724353 -24.90857317 47.49990261
-166.789196 -2.498850685e-05 -15.21619039
-178.39527 -67.27215285 41.49990261
-184.628938 -3.077617379 41.49990261
-222.257333 -2.498850685e-05 14.32319261
-52.399535 -2.498850685e-05 -39.70000239
-219.91138 -48.04542666 47.49990261
-19.098431 -11.79446221 41.49990261
-102.155746 -2.498850685e-05 40.22256761
-217.468564 -2.498850685e-05 31.92522061
-114.656482 -2.765176849 41.49990261
-33.7628 -2.498850685e-05 -19.89914739
-59.412928 -38.03983658 47.49990261
-44.69228 -2.498850685e-05 -42.86305139
-165.03068 1.900444041 47.49990261
-89.590921 -2.498850685e-05 2.434766613
-156.331034 -10.0450539 47.49990261
-217.897213 -2.498850685e-05 -37.59881939
-109.095261 -2.498850685e-05 -24.02756139
-90.738263 -49.72395178 41.49990261
-179.750931 -4.720604969 41.49990261
-200.026348 -58.45718979 47.49990261
-8.236554999 -51.25163524 41.49990261
-248.867853 -2.498850685e-05 -45.82141939
-1.479868999 -58.00644438 41.49990261
-9.895475999 -2.498850685e-05 33.67354061
-154.584386 -2.498850685e-05 35.37266261
-14.970863 -37.42037073 47.49990261
-56.174017 -2.498850685e-05 -28.55262839
-239.346447 -40.44831155 47.49990261
-4.674338999 -63.64494464 41.49990261
-38.84934 -25.21168747 47.49990261
-146.199958 -2.498850685e-05 -4.354318387
-54.009121 -64.6096424 41.49990261
-63.28689 -27.10972998 41.49990261
-71.661452 -2.498850685e-05 5.318629613
-152.115923 -48.59894202 47.49990261
-19.686321 -2.498850685e-05 -39.63134039
-108.716792 -2.498850685e-05 31.46211561
-119.58301 -2.498850685e-05 -39.60746239
-54.148213 -31.85610034 47.49990261
-229.123079 -58.16587114 47.49990261
-232.630711 -51.87654206 47.49990261
-19.691019 0.5280827615 41.49990261
-50.578357 -28.49448156 47.49990261
-32.197393 -33.23221682 47.49990261
-79.873335 -2.498850685e-05 -33.72165939
-179.083395 -67.26411555 41.49990261
-223.8987 -2.498850685e-05 22.45975561
-218.319049 -2.498850685e-05 7.055968613
-84.351128 -15.91037461 47.49990261
-62.779255 -60.0619397 41.49990261
-122.221893 -2.498850685e-05 -25.72556339
-196.832443 -2.498850685e-05 30.35527861
-43.212674 -2.498850685e-05 -27.37130639
-163.120598 -2.498850685e-05 -31.17173739
-246.874717 -6.690750529 47.49990261
-240.323956 -54.07481868 41.49990261
-116.878992 -50.12072907 47.49990261
-28.142043 -1.635552609 41.49990261
-148.055489 -25.67178611 47.49990261
-85.82506 -28.18971818 47.49990261
-223.491814 2.233890651 41.49990261
-212.760601 -55.42399685 47.49990261
-81.623485 -66.8515875 41.49990261
-134.469279 -5.539542289 47.49990261
-67.767553 -2.498850685e-05 41.45273761
-73.620202 2.171878821 41.49990261
-235.187189 -64.19692016 47.49990261
-59.631629 0.1055389815 41.49990261
-17.238109 -64.56449027 47.49990261
-53.053567 -10.98751886 41.49990261
-89.671103 -14.20910788 47.49990261
-29.838836 -64.15952357 41.49990261
-65.819942 0.3312064515 -16.68369339
-74.287993 1.584541191 -14.18821439
-141.921545 1.710747351 -20.77639039
-150.260214 0.02009078149 -21.04901639
-146.034557 0.9707447415 21.49308661
-250.138284 -2.498850685e-05 34.03671861
-21.598442 -2.498850685e-05 32.29430861
-95.412134 -2.498850685e-05 30.96856961
-168.481243 -2.498850685e-05 40.40975561
-67.011924 -2.498850685e-05 33.47120761
-232.764245 -2.498850685e-05 32.51249361
