# .PCD v0.7 - Point Cloud Data file format
VERSION 0.7
FIELDS x y z
SIZE 4 4 4
TYPE F F F
COUNT 1 1 1
WIDTH 1211
HEIGHT 1
VIEWPOINT 0 0 0 1 0 0 0
POINTS 1211
DATA ascii
-30.79972618 -2.498431456e-05 74.30705861
176.0007278 -81.68885246 238.1832336
12.24415182 -2.498431456e-05 55.64611361
184.0007278 -204.2716895 226.5987126
129.1867978 -2.498431456e-05 136.7974656
180.0007278 -182.9568526 155.5693426
-137.1176352 -2.498431456e-05 82.43823561
-168.9620862 -2.498431456e-05 49.44478061
199.1476108 -2.498431456e-05 98.21477361
176.0007278 -66.82024317 166.2703416
-180.0002492 -38.26600473 33.11458461
176.0007278 -58.0412013 129.8665496
180.0007278 -12.27518677 25.58393561
63.91810682 -19.02025739 -9.738560357e-05
176.0007278 -74.55564806 197.3949986
-31.90923518 -2.498431456e-05 161.6838076
-176.0002492 -28.8053403 59.10015861
27.16818682 -2.498431456e-05 158.7273016
-149.4348182 -2.498431456e-05 200.8601526
176.0007278 -145.7002949 124.9741706
-180.0002492 -13.12772582 202.6358586
-180.0002492 -40.87140493 118.6636816
176.0007278 -77.04191128 82.77658761
81.03653082 -67.4613133 -9.738560357e-05
184.0007278 -213.47586 209.7153056
-180.0002492 -47.7604545 154.1638276
11.82051882 -2.498431456e-05 81.26423061
-23.88318218 -13.63027667 -9.738560357e-05
180.0007278 -231.0981333 139.6636046
176.0007278 -96.59040018 121.5478646
116.9660528 -46.96506959 -9.738560357e-05
176.0007278 -36.45304396 65.70842961
180.0007278 -240.4169692 236.1071846
190.7296088 -198.0328814 87.99990261
180.0007278 -234.7354357 180.0684336
184.0007278 -236.4237623 210.1500746
180.0007278 -64.36874034 50.74739161
180.0007278 -1.050665524 251.1847236
-180.0002492 -43.02813123 83.11247061
110.9339788 -2.498431456e-05 105.0846396
121.0411008 -2.498431456e-05 174.3113816
132.7508738 -2.498431456e-05 114.4069936
180.0007278 -208.3797207 192.7933926
138.6795178 -17.1956754 -9.738560357e-05
116.1824508 -2.498431456e-05 73.95251561
178.5069358 -64.72348068 17.40162761
191.7864138 -17.91421407 243.9999026
-136.6148292 -24.90625076 -9.738560357e-05
176.0007278 -75.26156176 143.2283376
-170.8373052 -17.30482373 -9.738560357e-05
200.9794108 -199.2937716 243.9999026
40.51674482 -2.498431456e-05 239.0193786
199.8571348 -144.7555897 87.99990261
-67.45783918 -2.498431456e-05 60.16712461
-174.7958102 -68.00002402 -1.400869386
180.0007278 -142.0220765 159.8157876
-176.0002492 -55.83089018 104.8889506
186.5743018 -135.5096846 247.8591206
-6.307763179 -12.3572712 -9.738560357e-05
180.0007278 -178.8504498 175.8137206
57.70524782 -2.498431456e-05 17.18162961
184.0509318 -105.2067569 89.07830461
174.1636468 -2.498431456e-05 14.62844361
120.6612768 -18.2592818 -9.738560357e-05
-174.3833342 -2.498431456e-05 170.2241216
85.96096882 -46.16677375 -9.738560357e-05
184.0007278 -154.8546689 202.8325246
-119.2193292 -2.498431456e-05 251.2691236
184.0007278 -85.10495667 174.6781556
184.1348848 -2.498431456e-05 106.4885476
142.7050688 -2.498431456e-05 88.80983261
-119.3932802 -2.498431456e-05 81.42617461
-176.0002492 -100.1427282 226.9298786
184.0007278 -247.6162517 157.1032976
-19.00442018 -2.498431456e-05 88.19982761
184.0007278 -246.9855597 120.8580466
-84.73149418 -2.498431456e-05 101.1280216
180.0007278 -5.488608194 76.07587561
183.0188088 -95.72121639 246.2116426
180.2787258 -224.1401758 242.0379696
-142.0318632 -66.61987625 -9.738560357e-05
-30.95564918 -2.498431456e-05 22.05465961
162.9161398 -2.498431456e-05 125.2285166
53.49054582 -2.498431456e-05 34.14252261
-76.10191718 -2.498431456e-05 16.90448161
-180.0002492 -29.78740568 131.6711516
23.91859382 -2.498431456e-05 23.84591161
-81.37957618 -2.498431456e-05 250.5816216
155.7769118 -2.498431456e-05 206.8156416
-176.0002492 -64.71613968 210.9665536
-49.95812318 -2.498431456e-05 138.1516366
184.0007278 -155.3610371 106.7122136
184.0007278 -154.6618181 149.2081376
176.0007278 -125.8944389 134.4584926
74.75362482 -2.498431456e-05 116.8104066
-101.6795892 -2.498431456e-05 56.25437661
-180.0002492 -49.63921694 187.7125006
-144.3360932 -2.498431456e-05 251.5575066
-7.906390179 -2.498431456e-05 142.2050166
-176.0002492 -35.21878254 226.4099666
164.1787328 -66.43138809 -9.738560357e-05
134.2984338 -2.498431456e-05 197.4153326
99.71411182 -2.498431456e-05 73.33547861
-108.2287062 -2.498431456e-05 191.8417416
152.7019518 -8.120807754 -9.738560357e-05
193.4712998 -49.91997291 247.9999026
69.07914182 -2.498431456e-05 61.74970661
176.0007278 -109.3293939 222.3939516
171.5373778 -2.498431456e-05 173.7094186
184.3294888 -163.6171387 247.0682486
180.0007278 -208.8268531 96.42618861
176.0007278 -37.31053554 210.9635826
180.0007278 -188.2793207 228.5050676
105.7856138 -2.498431456e-05 202.4034446
148.1816488 -2.498431456e-05 143.1248256
-117.5168382 -2.498431456e-05 159.7344056
176.0007278 -51.01033529 158.7126146
134.8428378 -2.498431456e-05 235.0997956
-180.0002492 -2.718476694 215.3217106
76.68225682 -2.498431456e-05 202.4099626
184.0007278 -49.78892797 103.1749546
60.32509282 -2.498431456e-05 235.7996756
148.0201568 -2.498431456e-05 247.8586676
5.812643821 -2.498431456e-05 112.7872556
157.8417308 -2.498431456e-05 49.50841761
-152.9601542 -2.498431456e-05 85.80279761
91.34205982 -2.498431456e-05 36.56599561
180.0007278 -53.90410195 192.4382996
184.0007278 -20.58523521 100.4254886
-180.0002492 -20.39849444 167.3645676
134.3615798 -51.96356129 -9.738560357e-05
-165.3629192 -44.92383162 -9.738560357e-05
-178.3386242 -2.498431456e-05 250.1475056
155.2277958 -2.498431456e-05 226.5461016
189.3990408 -75.04437386 243.9999026
104.8958418 -2.498431456e-05 252.2271486
88.71269482 -2.498431456e-05 251.5720806
187.1933578 -2.498431456e-05 0.6675816144
189.3922608 -62.59386115 91.99990261
-122.5374182 -48.62793807 -9.738560357e-05
194.8700238 -236.9899729 247.9999026
180.3467288 -28.73175861 -9.738560357e-05
-180.0002492 -69.8584683 179.3217206
-182.2437162 -2.498431456e-05 130.5354746
182.7138908 -239.831801 90.02684061
176.0007278 -10.82536334 237.2926456
176.0007278 -28.48316595 26.70019861
199.7796288 -2.498431456e-05 187.5097786
184.0007278 -90.67058098 133.9893826
-180.0002492 -11.3839932 12.74366661
180.0007278 -99.4698221 166.9304706
-118.0142072 -2.498431456e-05 49.16122561
37.58969482 -2.498431456e-05 7.877958614
184.0007278 -62.37332728 115.5081626
180.0007278 -214.4729001 141.7245416
-26.60014618 -68.00002402 -2.379349386
-176.0002492 -26.74279268 190.8316646
13.44305182 -2.498431456e-05 195.0912126
-142.5809372 -2.498431456e-05 104.0437216
43.16364282 -2.498431456e-05 64.79110361
166.9611178 -2.498431456e-05 109.4962606
99.42190182 -2.498431456e-05 223.9983436
180.0007278 -16.58909888 139.6771196
180.0007278 -101.4419062 151.4713326
-95.22944918 -2.498431456e-05 156.5592466
-135.2408282 -2.498431456e-05 15.56001761
-62.40353118 -2.498431456e-05 168.9511846
-191.0001512 -2.498431456e-05 32.63981161
-58.34079918 -2.498431456e-05 250.5298576
-75.21354418 -2.498431456e-05 115.1046416
184.7596478 -32.53441518 242.2428736
38.85386982 -2.498431456e-05 205.3423666
184.0007278 -11.56045658 223.6598546
184.0007278 -44.74617028 146.3576596
-56.26641918 -2.498431456e-05 220.6158196
105.6361308 -12.47535637 -9.738560357e-05
84.50339582 -17.19657077 -9.738560357e-05
85.77609882 -2.498431456e-05 88.86348461
30.59233582 -2.498431456e-05 82.76619961
-134.4555052 -2.498431456e-05 178.9407786
160.7510318 -2.498431456e-05 89.17602661
-188.0403172 -2.498431456e-05 190.7363436
176.0007278 -100.5139134 197.3064196
-110.3424512 -16.51368159 -9.738560357e-05
-180.0002492 -62.98921367 150.6953396
-52.26292718 -2.498431456e-05 84.81808661
184.0007278 -178.8905365 201.2536926
-132.7674962 -2.498431456e-05 220.0967186
-84.04244918 -2.498431456e-05 208.1588206
-163.8745152 -2.498431456e-05 27.99856361
-19.62858318 -2.498431456e-05 191.2096586
189.0341558 -90.98466862 87.99990261
-75.86416718 -2.498431456e-05 225.4773276
-148.8224692 -2.498431456e-05 145.4443856
-49.42819418 -2.498431456e-05 179.9305936
176.0007278 -63.9059122 236.5061576
8.027159821 -2.498431456e-05 246.8612206
72.54187182 -2.498431456e-05 166.5313076
-45.20906218 -2.498431456e-05 123.7575016
184.0007278 -31.79694176 169.1432696
167.0600298 -16.34610477 -9.738560357e-05
-176.0002492 -39.57245509 47.47382561
-54.21301218 -2.498431456e-05 110.5354936
184.0007278 -2.292335414 208.7854956
-109.8415212 -2.498431456e-05 101.3629076
-103.5681252 -30.23578259 -9.738560357e-05
176.6767788 -50.09192082 -9.738560357e-05
73.74964082 -2.498431456e-05 137.0435516
-176.0002492 -65.59973415 131.3759256
176.1340628 -2.498431456e-05 153.7870426
184.0007278 -154.1059523 134.2335406
180.0007278 -84.71334577 112.5812636
183.8781988 -230.9523838 117.4999026
-61.06371318 -2.498431456e-05 15.16777061
64.68844882 -39.30611651 -9.738560357e-05
-11.50006718 -2.498431456e-05 206.0812446
-110.1770292 -2.498431456e-05 226.8092906
62.49060082 -2.498431456e-05 87.87309761
184.0007278 -185.182683 124.2865006
106.7835228 -2.498431456e-05 177.8562316
180.0007278 -30.97576898 119.5041256
-75.56763218 -2.498431456e-05 194.0094746
184.0007278 -129.2997046 151.5682976
-12.31774118 -2.498431456e-05 14.02174961
184.0007278 -211.740647 110.5880886
-176.0002492 -18.10902776 28.11676261
-81.76592418 -2.498431456e-05 55.12651161
184.0007278 -202.4183209 131.9500536
1.046923821 -2.498431456e-05 0.7855796144
-180.5841762 -53.17333902 -9.738560357e-05
103.2545138 -2.498431456e-05 131.2322736
180.0007278 -14.43691608 193.0009146
198.0355798 -126.594641 243.9999026
-104.2085792 -2.498431456e-05 73.08199461
42.67857282 -2.498431456e-05 127.4893856
-176.0002492 -57.63683916 234.2659396
-180.0002492 -76.85617958 202.1947206
184.0007278 -161.6916572 225.8904476
-180.0002492 -27.83378847 239.0260566
93.30570382 -28.89058815 -9.738560357e-05
186.8996168 -2.498431456e-05 20.90525361
-137.8684002 1.426334036 -9.738560357e-05
52.53406282 -2.498431456e-05 105.0664976
176.0007278 -165.0527845 178.8764576
-199.5381382 -2.498431456e-05 217.7573956
-176.0002492 -54.06480633 121.6286036
-170.7287922 -2.498431456e-05 186.0758106
184.0007278 -181.7323888 110.6476636
-180.0002492 -13.57091118 52.44998561
-131.6386772 -2.498431456e-05 124.7839136
-23.10141918 -2.498431456e-05 102.7976876
-113.1223342 -2.498431456e-05 35.06655861
-180.0002492 -56.8500887 54.14565061
-31.47577618 -25.33268049 -9.738560357e-05
195.2808738 -113.3762248 87.99990261
-196.1211372 -2.498431456e-05 113.3375386
-184.1454102 -21.37491395 -9.738560357e-05
1.320609821 -2.498431456e-05 178.8269616
180.0007278 -86.85123479 192.3544356
195.3556988 -231.4490642 87.99990261
-14.67524818 -2.498431456e-05 117.2656996
187.2822528 -184.6012513 88.07993061
176.0007278 -94.39123991 218.2297716
184.0007278 -67.85812591 207.9800746
-159.6546922 -2.498431456e-05 7.365619614
-17.78184618 -2.498431456e-05 132.4819156
-176.0002492 -74.5066035 160.2871646
180.0007278 -237.8509087 166.0127026
138.5430078 -2.498431456e-05 56.56473361
-180.0002492 -49.41854689 208.5122646
59.00208882 -2.498431456e-05 162.1668216
-52.48851018 -68.00002402 -1.017505386
28.98411782 -2.498431456e-05 231.5283726
115.0923168 -2.498431456e-05 24.18461661
107.2144678 -2.498431456e-05 60.11343661
176.0007278 -57.76785101 39.40375361
-180.0002492 -14.39726835 83.95562761
-198.9234792 -2.498431456e-05 235.6122426
186.9373398 -37.20933034 92.15708961
-3.393093179 -2.498431456e-05 39.30042161
-54.20179518 -2.498431456e-05 236.2856496
184.0007278 -75.60966202 101.9398356
11.34779482 -2.498431456e-05 209.4445036
174.0577088 -2.498431456e-05 229.1717326
184.0007278 -9.389310424 128.8600176
176.0007278 -42.82234852 238.8467096
-107.1394342 -2.498431456e-05 240.7679646
5.384007821 -2.498431456e-05 98.49853961
-180.0002492 -29.55196125 109.8934826
-186.1689012 -2.498431456e-05 68.88391761
-79.71121018 -15.47691049 -9.738560357e-05
-62.46034818 -2.498431456e-05 143.2967146
54.68322082 -2.498431456e-05 209.7420276
-147.8337592 -2.498431456e-05 53.56781261
176.0007278 -44.81269758 135.4703986
-140.7940722 -2.498431456e-05 29.61757361
184.0007278 -108.423753 235.2357716
-166.4240752 -2.498431456e-05 84.91461261
67.17528882 -2.498431456e-05 35.14845261
176.0007278 -114.8969892 111.0549086
-83.08524818 -54.71121279 -9.738560357e-05
176.0007278 -75.83810232 67.58543461
60.32524782 -2.498431456e-05 179.2404336
198.7952648 -164.6159009 243.9999026
-23.17954218 -2.498431456e-05 251.6212816
-122.6990802 -2.498431456e-05 210.4419986
28.02292682 -2.498431456e-05 175.7693546
184.7527408 -187.7679905 242.2323356
176.0007278 -125.2042064 209.3051246
176.0007278 -52.04827746 21.35958161
-9.494576179 -2.498431456e-05 234.0863456
-61.27389118 -2.498431456e-05 31.00598061
-104.0700012 -60.04584643 -9.738560357e-05
180.0007278 -133.0907256 232.8585776
-180.0002492 -57.68296465 74.57833661
-24.08447018 -2.498431456e-05 62.84189761
180.0007278 -53.50071482 249.5786626
-25.69130318 -2.498431456e-05 39.05522361
184.0007278 -84.0115022 224.4243676
-180.0002492 -34.43881926 162.2551656
184.0007278 -152.295276 167.0417086
180.0007278 -129.621524 164.2520636
180.0007278 -47.73324325 219.7791326
40.18490882 -26.39198456 -9.738560357e-05
82.83463782 -2.498431456e-05 61.99553961
-176.0002492 -12.31965254 157.8300446
-196.2849342 -63.87679922 -9.738560357e-05
-42.47425318 -32.41956686 -9.738560357e-05
-45.58293118 -47.80806483 -9.738560357e-05
197.7758918 -8.247330364 -9.738560357e-05
184.0007278 -57.42029677 173.6860476
-182.5453072 -2.498431456e-05 6.931251614
180.0007278 -6.984041024 55.13839261
-94.72305718 -2.498431456e-05 7.030265614
-180.0002492 -84.86482814 226.7687856
-165.5759302 -2.498431456e-05 145.8553936
180.0007278 -238.3503429 193.5628346
184.0007278 -184.3736087 215.9176036
184.0007278 -22.00261795 234.3294706
123.1383648 -2.498431456e-05 148.2275586
180.0007278 -212.5573651 164.2279236
184.0007278 -37.67283799 227.7211856
-180.0002492 -35.6914824 145.2190736
-176.0002492 -48.90484394 27.03219961
139.0792818 -2.498431456e-05 103.1872026
125.6737248 -2.498431456e-05 58.88259561
-96.81690718 -2.498431456e-05 206.9310446
-125.6851432 -2.498431456e-05 146.4230316
152.8050128 -2.498431456e-05 35.16540961
105.5529978 -2.498431456e-05 41.62726161
184.0007278 -106.8958769 177.3110876
-67.52326518 -9.951480774 -9.738560357e-05
176.0007278 -52.08799442 63.20399661
-180.0002492 -10.44665968 40.04691061
46.14066282 -64.79657133 -9.738560357e-05
176.0007278 -33.38491268 53.29855361
184.0007278 -135.1114064 130.7107566
105.0110348 -41.81562499 -9.738560357e-05
37.37143382 -2.498431456e-05 219.5335086
193.7898558 -2.498431456e-05 46.22630261
-173.3474382 -2.498431456e-05 36.48669661
145.1969658 -2.498431456e-05 164.1301896
-180.0002492 -46.93166681 168.9182526
184.0007278 -115.8401288 140.7415376
-27.68126818 -2.498431456e-05 216.7301066
-122.2022762 -2.498431456e-05 175.6747146
-137.0360672 -2.498431456e-05 203.4618486
180.0007278 -65.07215308 82.73439261
147.6231028 -2.498431456e-05 114.7871866
32.75558382 -2.498431456e-05 97.35912061
-176.0002492 -6.980653374 122.1271006
176.0007278 -15.57681083 82.44366761
-180.0002492 -29.61998006 89.01549761
85.50898082 -2.498431456e-05 223.1110246
-84.05037418 -30.14419926 -9.738560357e-05
-83.68230618 -2.498431456e-05 28.70036561
-99.67987018 -9.906816234 -9.738560357e-05
-176.0002492 -57.84911685 179.1653786
185.8620118 -213.1558662 247.6744086
-42.81721318 -2.498431456e-05 105.4359696
176.0007278 -130.0072889 122.6200486
176.0007278 -33.36954126 178.5777156
-180.0002492 -81.37676472 250.4172846
198.6852088 -59.2324234 -9.738560357e-05
180.0007278 -146.6273783 194.4051586
180.0007278 -12.97681536 168.4733906
-80.27996118 -2.498431456e-05 89.51883061
-150.0002502 -41.93201755 -9.738560357e-05
184.0007278 -237.4420922 104.2970816
-96.63001918 -2.498431456e-05 104.6527086
-180.0002492 -27.06002132 211.4264016
44.05721282 -2.498431456e-05 182.3896446
182.7506778 -2.498431456e-05 181.8569646
180.0007278 -175.1731857 132.2143526
-44.43569618 -2.498431456e-05 209.4009276
-180.5264222 -2.498431456e-05 200.5550636
176.0007278 -42.83631441 76.28844161
-138.6750222 -2.498431456e-05 232.6687906
194.9937648 -102.4832662 247.9999026
183.3246558 -124.551691 89.51321361
112.2820078 -2.498431456e-05 222.3699206
199.2125768 -2.498431456e-05 234.4305006
180.0007278 -70.0241 153.8180496
53.18024682 -2.498431456e-05 137.4528846
-176.0002492 -54.5372344 248.0750876
-176.0002492 -75.49743843 189.4145476
-42.40389418 -2.498431456e-05 37.18349961
176.0007278 -9.121200004 106.0094406
76.56063082 -2.498431456e-05 11.96707661
-45.81911218 -2.498431456e-05 9.611280614
-4.482763179 -53.04880538 -9.738560357e-05
-136.4184172 -2.498431456e-05 49.22464961
-176.0002492 -76.53847701 237.3738646
182.9277908 -236.0810064 128.4999026
-60.70454918 -2.498431456e-05 73.61300061
184.0007278 -30.34067117 147.9127526
176.0007278 -52.08823556 111.9844546
184.0007278 -64.97298846 195.2565476
176.0007278 -36.48172387 39.79589161
176.0007278 -110.0205716 122.1209116
-73.51120218 -2.498431456e-05 173.6932466
180.0007278 -61.55708614 218.4818166
117.1130448 -2.498431456e-05 136.6960426
25.50616782 -20.20761353 -9.738560357e-05
-176.0002492 -5.607528884 227.9473586
-169.6281142 -2.498431456e-05 98.47795261
-5.559939179 -24.67269964 -9.738560357e-05
-11.63931718 -67.11476319 -9.738560357e-05
72.15012382 -57.53185871 -9.738560357e-05
3.826385821 -36.65249339 -9.738560357e-05
182.5388958 -227.8249281 90.17403761
149.8352218 -2.498431456e-05 195.8845606
-169.7580272 -2.498431456e-05 15.27006561
184.0007278 -59.90740888 160.6151586
-12.25994918 -2.498431456e-05 64.62905161
176.0007278 -170.5104839 154.2770316
56.08074282 -2.498431456e-05 249.1266406
176.0007278 -73.51612085 113.7668106
176.0007278 -75.50253853 182.1745356
-180.0002492 -51.36134992 94.55551261
199.5165028 -205.0669949 91.99990261
-109.0877542 -2.498431456e-05 12.59006261
200.5184208 -57.26072377 87.99990261
176.0007278 -78.87395041 209.0866756
17.45257982 -66.57433782 -9.738560357e-05
176.0007278 -99.57893997 95.83454261
-99.35572518 -2.498431456e-05 218.5496976
184.0007278 -22.3331937 127.8222246
184.0007278 -91.60979048 146.1368706
102.3422778 -2.498431456e-05 166.0066106
-178.4834462 1.627153166 59.99990261
-147.7384772 -2.498431456e-05 159.2023796
176.0007278 -42.27166477 90.32890361
-166.9648562 -2.498431456e-05 115.8440396
184.0007278 -26.79644572 217.2282856
-85.05068818 -2.498431456e-05 239.3910736
180.0007278 -25.60403619 71.12976061
176.0007278 -79.73395338 166.1272396
-199.7749412 -2.498431456e-05 87.70510361
184.0007278 -66.66103844 130.1317206
176.0007278 -19.60558486 17.30217661
-70.73111318 -2.498431456e-05 6.452414614
-29.03796418 -2.498431456e-05 9.234752614
-176.0002492 -0.8646772443 140.5111826
96.26805482 -2.498431456e-05 240.6605276
17.03325582 -33.26004052 -9.738560357e-05
162.4310528 -2.498431456e-05 153.8200596
130.9254718 -2.498431456e-05 222.8150956
-180.0002492 -21.2249484 67.09956961
146.2531818 -37.11829089 -9.738560357e-05
184.0007278 -28.98130987 187.5699016
184.0007278 -153.7487079 122.0636136
46.44805782 -2.498431456e-05 76.07017861
33.22694082 -2.498431456e-05 54.00665061
-84.99221018 -2.498431456e-05 143.2320786
-4.528142179 -2.498431456e-05 91.12100061
6.495597821 -2.498431456e-05 65.76833961
184.0007278 -216.3750706 233.6559666
9.200828821 -8.256201754 -9.738560357e-05
184.0007278 -173.6871672 222.3020206
169.8235148 -2.498431456e-05 77.07935561
180.0007278 -44.09875671 185.5230196
180.0007278 -135.055399 213.9450636
-148.0840832 -2.498431456e-05 171.4375796
-67.62188218 -47.48983176 -9.738560357e-05
176.0007278 -4.436896814 33.11749461
131.4025878 -2.498431456e-05 208.6303086
-33.77494218 -2.498431456e-05 194.2570626
-180.0002492 -12.16942537 109.4764776
89.92914382 -6.503735764 -9.738560357e-05
90.29601482 -2.498431456e-05 19.26914261
180.0007278 -126.7874567 187.3298216
149.6937358 -20.62247053 -9.738560357e-05
128.0805628 -2.498431456e-05 46.30896061
-108.8179502 -2.498431456e-05 133.7054456
16.50504182 -2.498431456e-05 140.8096226
46.69258882 -10.41239318 -9.738560357e-05
-180.0002492 -6.547097624 98.02777061
184.0007278 -200.3112136 185.7088816
180.0007278 -201.7950491 106.5422386
190.7386058 -61.18858964 243.9999026
-92.67356018 -2.498431456e-05 48.23366361
176.0007278 -10.41031858 44.37931761
180.0007278 -117.5484062 169.8623026
184.0007278 -239.7762627 223.9294016
-125.5531022 -16.80430151 -9.738560357e-05
179.8679888 -178.3785178 189.3043046
42.12992782 -2.498431456e-05 34.65179661
16.92697582 -2.498431456e-05 70.99285961
-160.8265282 -8.579716044 -9.738560357e-05
134.6740078 -2.498431456e-05 168.3903736
88.81107382 -2.498431456e-05 77.28417661
-33.89669218 -50.83418245 -9.738560357e-05
-180.0002492 -36.24175541 21.95267961
176.0007278 -121.4991007 198.5833876
180.0007278 -5.180786754 138.5929776
184.6553428 -250.9182537 88.73450761
123.2047578 -2.498431456e-05 103.1784396
184.0007278 -140.1975315 185.1723906
-159.4675012 -2.498431456e-05 172.2775066
-32.45199018 -2.498431456e-05 128.3598356
184.0007278 -117.3189385 215.1176706
-180.0002492 -39.35221861 216.6979446
35.78208582 -2.498431456e-05 150.0782266
127.8419798 -2.498431456e-05 185.6788976
176.0007278 -156.0439264 210.6677256
107.9666388 -56.41010041 -9.738560357e-05
102.9414728 -2.498431456e-05 213.2963376
184.0007278 -31.71597956 205.4282846
170.0791348 -2.498431456e-05 47.24655661
-180.0002492 -6.322596954 76.16749261
190.2322018 -167.1376595 91.99990261
181.2173798 -0.5000249843 164.6427816
102.2182868 -2.498431456e-05 10.49585261
-19.91738218 -24.08010837 -9.738560357e-05
180.0007278 -193.6322248 158.8663916
181.4318118 -26.87700037 91.45404761
180.0007278 -154.2740727 96.21835661
182.5513108 -245.2671615 245.8301796
-195.4415572 -39.85803332 -9.738560357e-05
-93.24482218 -40.79412276 -9.738560357e-05
-176.0002492 -46.69434339 197.7036816
-61.54311218 -2.498431456e-05 195.2623206
190.5219138 -113.8228418 247.9999026
-176.0002492 -76.91418814 217.7598496
184.0007278 -158.8402944 192.4271576
-115.2226282 -2.498431456e-05 200.5120576
-91.64436918 -2.498431456e-05 183.2557066
-188.1410922 -2.498431456e-05 18.31806061
173.8123348 -39.11177754 -9.738560357e-05
107.7606578 -2.498431456e-05 144.1793576
-168.4814642 -2.498431456e-05 244.0169426
64.84491282 -2.498431456e-05 111.8143956
176.1355758 -156.9320578 160.7373396
-83.11399118 -2.498431456e-05 159.2600156
151.3365478 -2.498431456e-05 58.48420761
-134.1864412 -58.80922607 -9.738560357e-05
-35.87212418 -13.90442529 -9.738560357e-05
6.351752821 -2.498431456e-05 10.57105261
-180.0002492 -16.22202475 231.1654606
-121.6898342 -2.498431456e-05 8.908561614
-58.71202118 -28.08372186 -9.738560357e-05
170.1824558 -2.498431456e-05 196.5067816
118.9321758 -2.498431456e-05 161.8375746
184.0007278 -7.030172964 149.2609806
-92.51419518 -2.498431456e-05 82.10602161
-184.6842132 -10.37606362 -9.738560357e-05
-190.4752432 -2.498431456e-05 122.7828006
127.5651428 -2.498431456e-05 9.575485614
190.3950108 -145.0594185 243.9999026
-22.73116418 -2.498431456e-05 173.4665716
180.0007278 -226.881139 167.9832466
-53.78478318 -2.498431456e-05 39.01970561
176.0007278 -73.23876975 230.7525076
-160.4508402 -2.498431456e-05 222.4309096
196.3618478 -189.3001693 91.99990261
176.0007278 -56.54773743 181.0851556
180.0007278 -100.7921898 207.4721626
184.0007278 -103.8941208 117.8964866
184.0007278 -107.2569483 194.1652226
-148.2905382 -18.30833583 -9.738560357e-05
100.5237188 -2.498431456e-05 117.2104486
176.0007278 -153.0777352 141.5888226
-142.9260622 -2.498431456e-05 73.19757661
-169.5992532 -2.498431456e-05 66.11011261
-180.0002492 -14.32523531 250.9939456
62.31787882 -4.894356664 -9.738560357e-05
94.06952282 -2.498431456e-05 97.08829161
180.0007278 -23.53101537 110.1068726
188.1122218 -73.96696393 91.99990261
176.0007278 -38.72398316 166.6125996
154.5317878 -2.498431456e-05 13.79098461
184.0007278 -88.88415967 121.7896886
187.6306868 -17.04182083 -9.738560357e-05
-176.4693552 -65.68114845 100.3451636
184.0007278 -38.65821092 109.5360736
-180.1792512 -2.498431456e-05 239.4630526
-35.29861918 -2.498431456e-05 237.1703306
-192.6407092 -2.498431456e-05 146.4286526
180.3451128 2.499975016 220.7250426
-152.1453692 -2.498431456e-05 27.95468361
15.83232282 -2.498431456e-05 91.29177861
-180.0002492 -25.24472743 177.0058626
84.14219882 -2.498431456e-05 159.7389396
-169.9206682 -2.498431456e-05 158.3646636
16.39681882 -2.498431456e-05 114.8115296
-24.84444318 -2.498431456e-05 147.0650126
10.27036882 -2.498431456e-05 184.8102216
124.1219568 -35.39518019 -9.738560357e-05
180.0007278 -176.2923864 164.2264096
-176.0002492 -40.95344716 249.7844796
-121.4402552 -2.498431456e-05 128.1739996
-114.0705882 -42.0527883 -9.738560357e-05
-60.04704018 -2.498431456e-05 156.5316576
184.0007278 -23.40177724 197.2463306
-0.8808341792 -2.498431456e-05 207.3252616
184.0007278 -48.96125491 129.0202276
180.0007278 -85.72997876 68.00872561
184.0007278 -142.7702574 172.3325496
184.0007278 -44.71228515 161.9248466
148.3321218 -2.498431456e-05 174.3334506
184.0007278 -225.9716548 214.2530416
184.0007278 -197.7667694 144.7875756
-180.0002492 -35.17492836 73.14166161
184.0007278 -245.5569611 181.1320026
-180.0002492 -61.40982286 220.2285646
45.36498182 -2.498431456e-05 117.2198626
180.0007278 -116.7953557 230.0790366
-69.06249518 -36.472626 -9.738560357e-05
146.3603788 -2.498431456e-05 153.5795826
79.44190782 -2.498431456e-05 246.4119326
191.4168128 -28.24460153 87.99990261
143.7681648 -2.498431456e-05 29.63864661
-180.0002492 -91.2475214 200.4687096
197.8315508 -86.68533947 91.99990261
-180.0002492 -9.740437804 192.6174056
-78.85773718 -2.498431456e-05 126.6224066
-128.2229582 -2.498431456e-05 75.63586161
-68.88865018 -2.498431456e-05 250.3949206
184.0007278 -175.70025 145.0366416
151.9508258 -2.498431456e-05 83.37063461
186.7903428 -2.498431456e-05 31.44606861
144.0485478 -2.498431456e-05 207.7533036
-176.0002492 -39.89263365 187.4337146
195.8172478 -32.59682266 -9.738560357e-05
10.42407482 -2.498431456e-05 26.49901461
-99.37631318 -2.498431456e-05 169.6772966
-130.8855972 -2.498431456e-05 26.08462861
120.7796338 -7.745701724 -9.738560357e-05
198.4847598 -24.96118268 247.9999026
184.0007278 -130.5613725 98.10970561
-138.8830422 -2.498431456e-05 188.4725676
180.0007278 -53.57793715 11.76696361
86.60063482 -58.55111765 -9.738560357e-05
-180.0002492 -104.9737791 240.1046396
184.0007278 -159.9144405 174.4336516
-176.0002492 -44.9335957 109.8683916
-1.570480179 -2.498431456e-05 242.4399106
194.2899938 -208.1560632 243.9999026
184.0399408 -113.2441483 95.77370161
146.7090458 -2.498431456e-05 2.747677614
176.0007278 -73.67109553 92.67841361
67.32363882 -2.498431456e-05 126.1750486
200.2209458 -11.21954382 91.99990261
3.849684821 -2.498431456e-05 49.43661761
180.0007278 -30.04899925 17.19047961
180.0007278 -58.43908064 93.84921761
184.0007278 -214.1640745 220.1250316
176.0007278 -30.09163948 248.8977706
184.0007278 -139.1733173 224.5973456
66.58463482 -2.498431456e-05 8.988391614
49.95683582 -2.498431456e-05 234.6474956
-170.8731392 -27.7030949 -9.738560357e-05
-143.4536502 -2.498431456e-05 9.193165614
180.0007278 -247.8857465 206.6772256
173.8929528 -2.498431456e-05 101.1985026
-139.9090872 -2.498431456e-05 152.4097816
-71.42050918 -2.498431456e-05 28.92182461
-20.30813718 -2.498431456e-05 53.20104861
176.0007278 -89.70122724 84.61716261
184.0007278 -90.37469559 103.5458786
177.5200628 -25.50002498 159.4480696
180.0007278 -250.7672991 231.2586946
8.087253821 -2.498431456e-05 134.8374736
-134.0094832 -2.498431456e-05 109.7836516
-198.1791492 -2.498431456e-05 188.8730346
-176.0002492 -56.88601502 143.4314496
-147.4469102 -2.498431456e-05 94.97207661
-176.0002492 -97.1783983 246.8745926
181.1524618 -172.9402942 244.0785536
135.3221548 -62.20336779 -9.738560357e-05
-157.4170832 -2.498431456e-05 120.9962476
12.26240182 -2.498431456e-05 158.3746246
180.0007278 -206.4669697 177.7895346
176.0007278 -39.88218688 126.4678976
-101.4267192 -2.498431456e-05 113.7151036
184.0007278 -192.0301604 200.3857416
-63.26918818 -2.498431456e-05 228.0970576
184.0007278 -160.8530388 236.1012826
-4.397601179 -2.498431456e-05 113.4574476
-180.0002492 -8.462772024 169.0413696
129.0673338 -2.498431456e-05 82.44682961
180.0007278 -224.4471059 204.1939046
-65.17094018 -2.498431456e-05 50.20849361
200.1142908 -37.84434145 87.99990261
194.9318338 -2.498431456e-05 136.0339566
-176.0002492 -45.97047051 231.4545796
184.7331118 -83.38602603 93.82717061
-180.0002492 -85.38666578 180.4885206
189.0227638 -87.72375911 247.9999026
182.6348978 -216.4919342 90.09316361
176.0007278 -88.73241176 140.5930656
-171.0165632 -2.498431456e-05 129.8723216
176.0007278 -67.12311333 137.1742196
184.0007278 -8.865304674 176.8338476
180.0007278 -214.8731181 151.8532586
180.0007278 -224.7631375 130.4090136
-48.68507518 -2.498431456e-05 244.8398896
176.0007278 -15.23859035 93.29194461
30.09845582 -5.383531114 -9.738560357e-05
180.0007278 -142.4118402 204.2992336
-40.91350318 -2.498431456e-05 84.32581461
-134.4753892 -2.498431456e-05 249.3707246
-200.7857782 -2.498431456e-05 9.801774614
20.68009882 -2.498431456e-05 202.1320296
176.0007278 -126.5728697 111.4729016
200.2253958 -73.82080737 243.9999026
-176.0002492 -28.25340719 33.57369461
190.1669288 -16.80374871 89.09555261
-180.0002492 -8.704377744 30.11946661
184.0007278 -165.9427047 132.8226236
-180.0002492 -9.809252584 146.7502886
180.0007278 -228.5970374 232.5578996
184.0007278 -72.91144787 166.6355776
-98.53082018 -2.498431456e-05 123.3499486
-59.89235418 -16.50269059 -9.738560357e-05
-150.5525812 -55.87390719 -9.738560357e-05
49.66573382 -43.83631896 -9.738560357e-05
153.4111868 -2.498431456e-05 132.7979276
41.96820882 -2.498431456e-05 157.9885256
-128.1907312 -40.33590043 -9.738560357e-05
83.03070482 -2.498431456e-05 29.89548661
122.2624818 -2.498431456e-05 249.4369406
176.0007278 -118.1096443 128.0301216
-106.3212862 -2.498431456e-05 43.25040461
176.0007278 -26.76230009 143.0839476
176.0007278 -41.85838971 21.60710261
141.5431718 -26.77714457 -9.738560357e-05
140.7587128 -2.498431456e-05 79.00240861
163.4555288 -56.46322814 -9.738560357e-05
59.74093582 -2.498431456e-05 97.47919561
176.0007278 -24.88942308 8.129997614
-199.9761602 -11.8662201 -9.738560357e-05
195.3221698 -2.498431456e-05 107.7279116
-147.2797562 -2.498431456e-05 64.22284861
4.560228821 -2.498431456e-05 222.8153946
-176.0002492 -47.62851735 75.23083261
-176.0002492 -56.58226571 198.9060556
176.0007278 -54.3594725 149.1325606
-140.3672412 -2.498431456e-05 40.09426961
-180.0002492 -40.87605844 9.043819614
42.05840782 -2.498431456e-05 248.8424476
17.10420582 -2.498431456e-05 217.9878626
181.9972968 -172.9713877 90.76332861
184.0007278 -79.63325917 147.1323656
-117.0506212 -2.498431456e-05 240.5096126
185.0131798 -46.85240302 93.41080661
-23.34102018 -2.498431456e-05 122.8496946
184.0007278 -107.4136509 214.8493196
176.0007278 -44.40889837 105.7252866
176.0007278 -37.17910994 141.7757966
-52.33383018 -6.810299144 -9.738560357e-05
-185.4849822 -61.76773344 -9.738560357e-05
-41.89858918 -2.498431456e-05 162.4911466
77.80470882 -2.498431456e-05 146.0534416
-176.0002492 -20.87428287 127.5423526
180.0007278 -70.02570894 58.83790961
123.4982068 -2.498431456e-05 117.8966156
176.0007278 -18.42124303 229.8005576
176.0007278 -112.9744527 193.3807686
62.78935882 -2.498431456e-05 135.2338796
176.0007278 -55.88473383 227.7385626
73.13801182 -2.498431456e-05 191.3823996
-54.22242218 -2.498431456e-05 208.3252586
-190.4809022 -2.498431456e-05 157.3523566
184.0007278 -203.513796 161.8754956
176.0007278 -21.15733324 218.2473756
176.0007278 -9.874948694 15.84102761
138.6813138 -2.498431456e-05 139.3727566
199.7296648 -170.061579 87.99990261
176.0007278 -102.9250094 111.8712756
-180.0002492 -28.81274632 120.7498526
-25.32453918 1.744447516 -9.738560357e-05
-187.3514422 -2.498431456e-05 92.91713261
184.0007278 -92.935843 184.4206576
184.0007278 -88.12510224 234.8884756
185.6436848 -2.498431456e-05 11.18149461
-187.0122882 -2.498431456e-05 180.9909956
-21.99872818 -2.498431456e-05 78.87026261
184.0007278 -89.2431237 215.8970456
189.7894048 -2.498431456e-05 221.4257866
184.0007278 -193.7063451 110.3476476
108.0590098 -2.498431456e-05 30.99100561
164.8340138 -2.498431456e-05 224.6782156
-180.0002492 -12.1949354 212.8805536
110.2584568 -2.498431456e-05 84.35343161
-105.0134562 -2.498431456e-05 156.4944266
180.0007278 -99.90076818 237.8961406
24.55633282 -2.498431456e-05 134.1000016
79.38442182 -2.498431456e-05 108.2290976
180.0007278 -76.87396678 47.29346861
73.89597182 -42.49299459 -9.738560357e-05
180.0007278 -55.74242267 29.43826661
-126.3354832 1.798943486 115.5076806
184.0007278 -166.1908565 147.1258166
193.6827498 -191.1965669 243.9999026
184.0007278 -67.24569308 107.0929066
156.6095258 -2.498431456e-05 4.295043614
180.0007278 -9.993701464 247.3909516
176.0007278 -27.78684457 193.9303246
59.96264182 -2.498431456e-05 218.7227916
157.2038008 -2.498431456e-05 117.3944616
152.2324758 -2.498431456e-05 217.3248816
-176.0002492 -21.8508931 204.0076166
71.31426282 -2.498431456e-05 241.0925306
184.0007278 -143.1864613 120.1223696
192.1023908 -40.28576299 243.9999026
184.0007278 -78.93066204 203.6432916
38.83629082 -2.498431456e-05 174.2469276
-54.00498018 -58.5109214 -9.738560357e-05
176.0007278 -12.81772972 71.21293061
-180.0002492 -66.61119752 239.5338416
180.0007278 -3.437642014 114.5096346
180.0007278 -211.412536 130.5992416
-176.0002492 -42.90479731 92.17578361
176.0007278 -6.444874404 221.9452166
-119.8073022 0.1218155757 104.5905516
-154.9739712 -2.498431456e-05 244.5745546
180.0007278 -192.0629152 129.7316966
-66.53230718 -2.498431456e-05 132.7833226
184.0007278 -76.19381851 192.2716376
176.0007278 -95.47572922 105.2492176
173.8980768 -2.498431456e-05 129.4242926
180.0007278 -99.03295241 131.3577366
95.00518882 -2.498431456e-05 136.2044906
-12.40813518 -2.498431456e-05 244.4687816
-7.356324179 -2.498431456e-05 25.86148461
-180.0002492 -47.35203201 36.57929461
192.3951078 -132.5641602 91.99990261
-116.2417652 -8.287955224 -9.738560357e-05
18.90710582 -47.76574527 -9.738560357e-05
-151.4967222 -2.498431456e-05 128.5546996
187.4211688 -2.498431456e-05 154.8178656
176.0007278 -65.57144128 119.7232296
-180.0002492 -38.62253598 127.9707556
194.2413498 -2.498431456e-05 179.7003296
176.0007278 -168.6617661 170.0109316
187.5018128 -2.498431456e-05 129.1677066
-119.3673892 -2.498431456e-05 229.4768096
184.0007278 -251.4651655 131.0011496
184.6961028 -58.59560264 -9.738560357e-05
-176.0002492 -38.36012523 154.5107986
-176.0002492 -8.592762984 4.525822614
176.0007278 -64.19169497 204.2696096
184.0007278 -167.9571839 183.1665126
-77.25350718 -2.498431456e-05 63.52030461
-176.0002492 -22.74709299 136.8801016
184.0007278 -235.8379112 146.8766796
159.3492608 -38.78415151 -9.738560357e-05
97.20624582 -20.22289073 -9.738560357e-05
102.6199058 -2.498431456e-05 232.9410056
187.6739488 -2.498431456e-05 75.01305361
-116.5966352 -2.498431456e-05 218.2594766
62.33847782 -48.49482693 -9.738560357e-05
180.0007278 -205.4790372 201.8224126
183.9274118 -105.135361 246.8514356
-176.0002492 -60.81199073 112.9505906
180.0007278 -225.9036272 183.4894366
-19.86538318 -2.498431456e-05 230.0110956
115.1068368 -2.498431456e-05 204.0139246
180.0007278 -177.6568149 209.9951476
135.1238268 -2.498431456e-05 16.42950961
190.4642338 -143.7781258 87.99990261
107.9122278 -2.498431456e-05 0.1464236144
184.0007278 -97.11597281 192.8814216
-44.65948918 -2.498431456e-05 232.7793736
87.90025582 -36.62002856 -9.738560357e-05
57.24292382 -2.498431456e-05 61.50037061
180.0007278 -168.4919271 203.2304796
-180.0002492 -26.7077765 227.0259016
59.01054382 -27.05991805 -9.738560357e-05
176.0007278 -109.8581805 90.58516361
32.74097482 -2.498431456e-05 15.95007061
-110.1391852 -2.498431456e-05 83.14818261
180.0007278 -240.1990141 137.2801316
176.0007278 -39.81224391 223.2578196
180.0007278 -45.9158418 198.0665616
184.0007278 -68.48690785 238.2934476
-33.47781418 -2.498431456e-05 152.4289116
184.3472988 -128.1293141 241.6096086
176.0007278 -61.28890815 155.4483166
-23.74762018 -50.33371242 -9.738560357e-05
107.0327028 -2.498431456e-05 193.1250686
161.5657238 -2.498431456e-05 69.15131261
-101.9782382 -2.498431456e-05 182.3416346
-22.45143918 -35.60488256 -9.738560357e-05
176.0007278 -89.07047336 165.6191616
180.0007278 -71.04728239 174.9941836
180.0007278 -1.041797994 84.28866861
33.58210282 -45.83010362 -9.738560357e-05
176.0007278 -26.71038498 235.2738896
176.0007278 -41.62795521 116.2335516
180.0007278 -232.0479577 220.0884766
-176.0002492 -5.127630754 52.76158161
186.2466338 -179.7841503 247.7902806
183.5522208 -2.498431456e-05 242.6496786
5.512471821 -2.498431456e-05 170.5212406
180.0007278 -26.75284359 59.22240961
23.52290782 -2.498431456e-05 47.71005261
184.0007278 -186.2376729 179.7938846
171.5057968 -24.71126351 -9.738560357e-05
-14.98201718 -43.39796785 -9.738560357e-05
191.5905308 -100.6484929 91.99990261
180.8851828 -18.42567174 243.6173566
-11.52596618 -2.498431456e-05 81.17245061
-127.8756372 -2.498431456e-05 85.16098161
180.0007278 -78.49182558 135.4148216
-182.7537852 -2.498431456e-05 117.6669666
-114.8150442 -56.09801707 -9.738560357e-05
180.0007278 -109.9008874 147.7254656
184.0007278 -40.61539263 214.2190276
184.0007278 -8.774066494 199.1168306
-146.2623752 -2.498431456e-05 210.6848936
173.1987418 -68.00002402 -1.166734386
81.55898382 -2.498431456e-05 176.8896066
180.0007278 -55.4941257 120.1595196
188.9728108 -2.498431456e-05 120.0075486
-189.1622052 -2.498431456e-05 137.9147316
-74.06684218 -2.498431456e-05 105.9886026
184.0007278 -206.1314771 123.5502506
-161.9771712 -2.498431456e-05 188.8520586
-193.7726572 -2.498431456e-05 63.73841761
-180.0002492 -45.07505652 145.3856296
183.4007178 -151.7892267 246.5271466
176.0007278 -154.313266 189.3655066
85.33670682 -2.498431456e-05 187.8504486
-176.0002492 -50.47853785 48.87946761
176.0007278 -85.71448344 179.1095816
-100.0864972 -2.498431456e-05 25.16394161
116.9804158 -2.498431456e-05 96.45351461
-176.0002492 -41.47454019 56.43663661
180.0007278 -48.10258373 38.47144461
118.4666408 -2.498431456e-05 32.69781261
184.0007278 -113.8375068 129.2803016
2.340557821 -2.498431456e-05 30.78845161
21.71510182 -2.498431456e-05 237.0682316
-100.1471802 -2.498431456e-05 14.48296161
-178.9176502 -78.05493594 152.3882516
41.56318882 -2.368280624 -9.738560357e-05
188.9538778 -210.1799855 91.99990261
-127.0982462 -2.498431456e-05 50.07153861
184.0007278 -71.64261605 226.7223036
184.0007278 -123.3992051 158.4795336
-141.4351702 -2.498431456e-05 242.9494416
180.0007278 -193.1811785 218.3193376
180.0007278 -58.18205078 57.79543661
176.0007278 -24.57152109 208.6845106
-84.07516118 -2.498431456e-05 45.37065161
72.33436382 -68.00002402 -2.462510386
-176.0002492 -29.54587993 47.73689661
184.0007278 -60.67372106 136.9255106
176.0007278 -119.599406 142.6778206
123.4353118 -2.498431456e-05 67.64896861
180.0007278 -144.8204536 134.8739116
184.0007278 -233.2565195 239.8869986
73.85509682 -22.96580983 -9.738560357e-05
180.0007278 -99.27712373 142.7049266
11.69027782 -56.04649067 -9.738560357e-05
198.9171288 -2.498431456e-05 151.5244426
-69.01108118 -2.498431456e-05 70.08683061
184.0007278 -127.0066041 213.1952466
45.71220482 -2.498431456e-05 196.3290166
176.0007278 -64.23210305 146.9295826
180.0007278 -54.04510698 46.57043561
23.35575782 -59.71153708 -9.738560357e-05
197.6418478 -11.33441505 245.8936006
-149.0875982 -31.06978927 -9.738560357e-05
-80.52703918 -2.498431456e-05 9.060930614
-65.10448918 -2.498431456e-05 218.9076676
-134.3168772 -2.498431456e-05 93.22872561
-171.8337712 -55.27818626 -9.738560357e-05
129.8795728 -42.30841498 -9.738560357e-05
176.0007278 -78.35435653 105.0049816
46.72198982 -2.498431456e-05 213.9267396
-98.95572018 -2.498431456e-05 196.0317496
176.0007278 -162.5460261 135.1311526
-180.0002492 -3.990019434 184.9614396
48.86417782 -2.498431456e-05 19.68215161
77.51385082 -2.498431456e-05 231.8365156
17.09892882 -23.37920919 -9.738560357e-05
176.0007278 -86.53437422 227.6396056
-176.0002492 -82.46091147 207.9611346
164.7224908 -2.498431456e-05 39.37838861
180.0007278 -190.0856839 147.1600426
-31.94874118 -2.498431456e-05 101.2898886
184.0007278 -213.5989639 186.6858906
177.2145198 -109.2039362 185.3310606
184.0007278 -160.7041427 211.1841316
-92.02014918 -55.3544169 -9.738560357e-05
-180.0002492 -1.758131614 163.1025936
176.0007278 -25.61949208 174.0882286
180.0007278 -251.9672453 147.4611556
-7.454872179 -2.697520044 -9.738560357e-05
119.6556848 -2.498431456e-05 85.96907261
83.99135282 1.376354046 -9.738560357e-05
184.0007278 -69.42469504 216.7919666
184.0007278 -120.5901225 178.8653876
181.8892938 -61.75407248 245.1245166
184.0007278 -163.5751055 110.2326326
176.0007278 -92.77743913 201.7764566
69.77948382 -2.498431456e-05 82.71266661
180.0007278 -98.22400969 83.09252361
178.5654818 -2.199941554 -9.738560357e-05
-180.0002492 -34.61748826 244.8249066
-150.8889992 1.296505196 -9.738560357e-05
184.0007278 -118.2417606 195.1534956
184.0007278 -7.377838954 186.6906256
112.3074198 -2.498431456e-05 247.2933026
180.0007278 -64.26232785 26.86988461
184.0007278 -58.9615232 101.7732016
62.54834382 -2.498431456e-05 192.0108566
187.8128658 -42.08660253 -9.738560357e-05
180.0007278 -205.6471431 210.9033126
176.0007278 -55.43804202 75.91970561
121.0620488 -2.498431456e-05 223.5806186
184.0007278 -152.3784126 222.1142586
184.0007278 -7.293610964 158.5066036
-176.0002492 -16.97356232 150.0911576
184.0007278 -206.6767646 140.4984576
184.0007278 -152.2480669 157.7182366
178.9464298 -19.93691034 -9.738560357e-05
-197.4041282 -2.498431456e-05 162.9506976
184.0007278 -96.67218842 110.1267956
176.0007278 -140.9076527 117.1840676
-165.4127832 -34.6306249 -9.738560357e-05
183.7274418 -192.5862247 89.26655861
-42.20823118 -2.498431456e-05 184.9960206
180.0007278 -93.34789775 173.2753496
118.1007968 0.6940914357 -9.738560357e-05
135.1528518 -2.498431456e-05 93.35387561
114.8701608 -2.498431456e-05 181.3609436
176.0007278 -62.33824844 173.8578616
-180.0002492 -37.88090301 233.7953396
-76.38849018 -2.498431456e-05 164.9492216
128.4586618 -2.498431456e-05 128.0223836
122.9074668 -2.498431456e-05 20.13373061
-44.48477618 -2.498431456e-05 172.6542786
-23.18633918 -2.498431456e-05 183.1653046
184.0007278 -22.85529929 117.9106466
-176.0002492 -16.8209596 18.37028061
184.0007278 -13.46241881 105.5707236
-0.9319591792 -2.498431456e-05 232.1356296
-179.2254512 -71.31453367 125.5433496
-61.75218018 -2.498431456e-05 116.2950606
-180.0002492 -20.33675383 7.663423614
131.9791658 -22.8558896 -9.738560357e-05
185.7774348 -51.68731668 243.2325886
-146.7213502 -2.498431456e-05 229.1818136
176.0007278 -163.2870487 149.2062866
30.96649882 -30.93443768 -9.738560357e-05
180.0007278 -52.53588049 136.4992016
-11.79942718 -2.498431456e-05 168.7349516
-47.79521318 -2.498431456e-05 218.4607726
177.9001128 -2.498431456e-05 62.25076061
-122.0836452 -2.498431456e-05 28.65740061
30.30849882 -2.498431456e-05 29.80612361
-163.6208282 -2.498431456e-05 76.64307061
-114.6772782 1.954366916 -9.738560357e-05
176.1708798 -179.2700734 148.6463946
-165.4452242 -2.498431456e-05 106.5092226
-159.4756842 -2.498431456e-05 152.2524336
-31.99312818 -59.6181078 -9.738560357e-05
184.0007278 -247.5973424 189.6072416
176.0007278 -23.8389835 99.26585061
-180.0002492 -51.47717815 85.23968961
184.0007278 -59.57809703 227.7321486
63.17584082 -2.498431456e-05 52.84886961
121.4791078 -54.40981253 -9.738560357e-05
-180.0002492 -66.51659502 142.7372186
-92.80093818 -2.498431456e-05 96.15037961
4.514585821 -2.498431456e-05 85.98615461
195.3226198 -94.37174349 243.9999026
-159.6984382 -2.498431456e-05 40.59950461
176.0007278 -50.7701076 242.3682616
-176.0002492 -60.4646332 188.2949086
184.0007278 -41.65289637 134.3329116
176.0007278 -53.74972901 200.1355676
-36.01426118 -2.498431456e-05 214.3214876
-155.0693692 -2.498431456e-05 60.40748561
176.0007278 -93.70956132 148.7371356
198.6532098 -230.3030812 243.9999026
143.2405378 -2.498431456e-05 232.9814656
-180.0002492 -19.63820192 193.7438146
-180.0002492 -62.97855698 203.4875906
-176.0002492 -46.39101014 177.6595486
190.2595378 -2.498431456e-05 100.3722216
184.0007278 -201.4311718 236.4538326
-163.6260042 -22.08039952 -9.738560357e-05
180.0007278 -45.71150519 206.7110016
180.0007278 -35.74214336 73.38985961
-65.92704918 -2.498431456e-05 85.67275961
176.0007278 -85.95882568 75.64921261
184.0033028 -138.0313294 240.0220356
-116.8417252 -2.498431456e-05 191.4911086
-145.4455562 -2.498431456e-05 137.5163266
-128.0146572 -29.19688942 -9.738560357e-05
-28.12445818 -2.498431456e-05 30.19281461
184.0007278 -242.4881928 199.9703206
-39.87283218 -2.498431456e-05 46.64289761
180.0007278 -229.8182741 109.2943216
160.5474838 -2.498431456e-05 233.5078436
180.0007278 -91.2973982 92.06328661
176.0007278 -67.50925717 192.4627336
168.8364988 -2.498431456e-05 187.9853806
-178.8572472 -2.498431456e-05 46.48147461
-176.0002492 -95.311675 219.4621146
181.0222838 -85.74300373 243.8536226
-183.5615542 -2.498431456e-05 144.4865796
184.0007278 -97.36004049 219.1775296
-176.0002492 -29.57590992 96.61121761
104.8050988 -2.498431456e-05 243.1244196
180.0007278 -1.625579624 26.06515261
184.0007278 -169.4737631 194.8916026
-73.49506218 -2.498431456e-05 52.28208061
-180.0002492 -30.54907348 198.1591796
-18.16317618 -2.498431456e-05 43.15863161
190.0249648 -169.9535101 247.9999026
190.9686198 -82.64686084 87.99990261
-171.8898882 -2.498431456e-05 215.0763626
180.0007278 -69.08029057 74.54907261
180.0007278 -174.2814729 109.3815646
-150.4303162 -68.00002402 -0.8096323856
196.5643178 -82.27266666 243.9999026
192.6774878 -32.63294829 247.9999026
184.0007278 -78.50891001 182.2595806
184.0007278 -28.52090536 228.8039136
176.8433628 -2.498431456e-05 191.1550966
184.0007278 -170.3356659 125.1585676
184.0007278 -146.3860577 146.3925126
184.0007278 -53.66255126 181.8084006
176.8393058 -2.498431456e-05 201.8482436
104.3872788 -2.498431456e-05 97.91937361
176.0007278 -152.4420735 151.1721066
176.0007278 -155.4959655 124.4533316
176.0007278 -92.16856556 113.6475586
176.0007278 -117.7218076 220.9147466
-112.0838132 -2.498431456e-05 151.7431386
38.19054282 -2.498431456e-05 73.99459561
176.0007278 -157.5834613 201.8129456
176.0007278 -31.05394955 132.8986506
-19.53033218 -2.498431456e-05 18.53863161
94.25208282 -2.498431456e-05 44.56002161
-170.2025382 -2.498431456e-05 225.2510506
-108.9074172 -2.498431456e-05 24.43329461
-24.37988418 -2.498431456e-05 155.5463306
160.2355598 -2.498431456e-05 138.7277436
160.1362448 -2.498431456e-05 249.2135006
-164.6639462 -2.498431456e-05 178.9905806
-176.0002492 -22.45244991 107.5290966
137.9067918 -2.498431456e-05 122.6464456
180.0007278 -248.9555804 113.6433096
54.33182682 -14.09057725 -9.738560357e-05
82.78190482 -2.498431456e-05 119.5095596
180.0007278 -28.47912986 47.13478461
62.26745582 -2.498431456e-05 205.9808556
-127.8018842 -2.498431456e-05 168.3388436
-17.95781818 -2.498431456e-05 216.3246686
176.0007278 -50.28279846 125.4926336
-13.58697018 -18.47506407 -9.738560357e-05
195.0290328 -2.498431456e-05 162.7857536
176.0007278 -84.1941209 129.3904996
-70.88843018 -2.498431456e-05 143.8733496
141.6494528 -56.6101784 -9.738560357e-05
184.0007278 -182.1720126 168.7743116
180.0007278 -65.9292718 39.16784961
-96.06324118 -2.498431456e-05 237.5966886
-53.63481018 -2.498431456e-05 119.6469336
-176.0002492 -39.92413473 135.2705336
52.99046382 -2.498431456e-05 81.36638861
82.47735182 -2.498431456e-05 214.8682966
184.0007278 -121.5984744 101.7976996
-180.0002492 -56.38125622 134.8776966
30.56013282 -2.498431456e-05 203.9583476
-180.0002492 -7.278175114 235.2698396
14.87976582 -2.498431456e-05 19.37702961
185.3748828 -148.6700631 93.02776361
185.5864688 -202.5242314 92.87958761
-180.0002492 -53.33880711 63.21137061
-176.0002492 -22.31994874 250.7738506
-176.0002492 -35.69667627 82.43906861
180.0007278 -155.5748195 114.9392006
180.0007278 -148.1545439 108.1641736
-180.0002492 -23.67398851 53.84260561
184.0007278 -71.22892404 122.3250936
-180.0002492 -60.64100411 124.8913036
53.72416082 -2.498431456e-05 117.1103116
-138.9140922 -2.498431456e-05 119.6933176
176.0007278 -80.34472581 152.6881286
-85.50197018 -45.84902834 -9.738560357e-05
-176.0002492 -22.76482796 86.41494061
84.90180682 -2.498431456e-05 200.9438236
