# .PCD v0.7 - Point Cloud Data file format
VERSION 0.7
FIELDS x y z
SIZE 4 4 4
TYPE F F F
COUNT 1 1 1
WIDTH 1163
HEIGHT 1
VIEWPOINT 0 0 0 1 0 0 0
POINTS 1163
DATA ascii
-53.42370691 -2.498421968e-05 139.1725926
-315.7800029 -49.86701899 13.51203561
-34.09477991 -2.498421968e-05 24.97937261
-312.5000029 -19.97088123 210.6756046
176.1823408 -2.498421968e-05 75.68418161
103.1929251 -2.498421968e-05 86.13762861
-4.657877907 -2.498421968e-05 74.76792061
-142.3431559 -2.498421968e-05 126.8820786
-88.45078691 -2.498421968e-05 147.6084596
-223.9899949 -2.498421968e-05 22.75393161
235.5664842 -16.33548484 -9.738555173e-05
193.5921186 -21.23482527 -9.738555173e-05
-318.5000029 -44.47830849 172.6800676
-211.6309819 -2.498421968e-05 62.14638161
99.19632009 2.365744536 136.8986576
183.9167063 0.2594735458 130.2798676
-316.6465179 -2.498421968e-05 48.86777361
63.35815009 -35.527656 -9.738555173e-05
-141.7103909 -2.498421968e-05 91.04786361
-312.6464039 -25.50002498 87.35087061
-312.5000029 -11.23366047 18.91220861
55.68598609 -2.498421968e-05 16.56090361
-201.1590339 -2.498421968e-05 85.97346361
-207.6790119 -48.7130021 -9.738555173e-05
181.8932946 -2.498421968e-05 21.40414161
-225.0448439 -2.498421968e-05 180.8309026
87.85966209 -10.72777221 -9.738555173e-05
295.0354895 1.775974366 -9.738555173e-05
140.7078643 -2.498421968e-05 15.23212161
-80.16087791 -2.498421968e-05 36.47282161
-210.0219689 -2.498421968e-05 125.9502356
-309.5902319 -2.498421968e-05 182.7795226
-286.4138279 -2.498421968e-05 146.8801626
-334.4021549 -46.62196763 227.9999026
276.4095184 -42.81069772 -9.738555173e-05
-16.64364391 -48.13179505 -9.738555173e-05
-267.9336509 -2.498421968e-05 186.9224816
39.63152209 -2.498421968e-05 94.19653761
-70.26671891 -66.67973677 -9.738555173e-05
-252.2435609 -2.498421968e-05 56.82927161
75.29331509 -2.498421968e-05 110.7587346
-45.46022491 -2.498421968e-05 181.7744126
295.2421144 -56.99849565 -9.738555173e-05
142.9786469 -2.498421968e-05 112.3357736
-245.2664919 -23.96784991 -9.738555173e-05
-101.5473289 -2.498421968e-05 114.1373296
-156.8154679 -2.498421968e-05 180.2687026
-200.2727389 -19.24833572 -9.738555173e-05
124.2500578 0.02171098578 76.22568661
210.9976395 -2.498421968e-05 104.8154986
-19.47048591 -2.498421968e-05 115.5254856
129.9328121 -68.00002402 -1.080427386
-138.3111819 -10.32460147 -9.738555173e-05
-274.7079699 -38.6541123 -9.738555173e-05
29.96312009 -2.498421968e-05 114.7767726
-306.3521229 -2.498421968e-05 110.6982876
-318.1520699 -68.00002402 204.1523486
-72.12501991 -2.498421968e-05 11.15900061
-91.93334591 -20.97707194 -9.738555173e-05
216.7981025 -48.16418064 -9.738555173e-05
106.8246741 -2.498421968e-05 39.20323661
310.9910498 -17.22356114 -9.738555173e-05
-324.3024979 -2.498421968e-05 80.79108661
-27.10265291 -2.498421968e-05 144.0212886
-173.5921429 -2.498421968e-05 49.44437761
-272.9340579 -2.498421968e-05 116.8359476
-202.4352229 -2.498421968e-05 17.87112561
-19.11189591 -2.498421968e-05 177.9425896
117.566227 0.7774504358 115.6532966
-266.9873279 -2.498421968e-05 11.02535161
121.7399122 -34.67999423 -9.738555173e-05
-298.1563749 -12.36935761 -9.738555173e-05
55.60622409 -2.498421968e-05 178.1558966
-172.3944889 -2.498421968e-05 192.8243096
-67.89870291 -2.498421968e-05 78.21907661
148.8993801 -2.498421968e-05 47.00473561
247.6761588 -60.05335665 -9.738555173e-05
192.9351418 -46.14644687 -9.738555173e-05
259.7566016 -2.498421968e-05 19.71545861
-27.03304591 -66.94282131 -9.738555173e-05
-124.5424369 -2.498421968e-05 37.65934361
-12.30285291 -29.00440421 -9.738555173e-05
-296.2271769 -2.498421968e-05 15.05619861
-53.96603291 -34.151742 -9.738555173e-05
44.63796509 -2.498421968e-05 0.3218276144
-98.30992591 -42.6085514 -9.738555173e-05
232.5613271 -2.498421968e-05 35.68460161
-156.0590159 -2.498421968e-05 24.28987261
-317.8958889 -16.97590869 1.244900614
248.6206516 1.970513536 -9.738555173e-05
-312.5000029 -38.40645686 215.8618006
-26.11073891 -2.498421968e-05 76.30027961
-16.78125091 -2.498421968e-05 32.98823661
211.6614813 -2.498421968e-05 82.37661861
45.29032509 -2.498421968e-05 142.8552086
315.5000578 2.412890106 98.42361661
264.1600236 -22.25870278 -9.738555173e-05
-185.1518639 -49.31006916 -9.738555173e-05
25.88022609 -2.498421968e-05 71.37036761
8.273169093 -51.33129936 -9.738555173e-05
-318.5000029 -21.33836365 45.15675661
35.91943409 -2.498421968e-05 54.95154061
-179.3087299 -2.498421968e-05 82.68726461
28.44566009 -46.47486576 -9.738555173e-05
-99.91603791 -2.498421968e-05 69.59814161
-265.7096289 -2.498421968e-05 152.0573006
-328.0952349 -2.498421968e-05 183.6124086
-280.1563529 -2.498421968e-05 24.20125361
197.8576019 -2.498421968e-05 44.79837161
294.769858 -2.498421968e-05 106.0145126
-1.865887907 -2.498421968e-05 44.86156661
-162.3596219 -30.50245875 -9.738555173e-05
17.11715309 -2.498421968e-05 177.6942996
-65.82989691 -2.498421968e-05 119.1171396
-312.5410279 -0.7364820242 222.3639796
-312.5000029 -49.95404253 153.5206956
236.8906909 -42.43435382 -9.738555173e-05
-271.6801019 -2.498421968e-05 49.02715561
120.9469362 -2.498421968e-05 52.01225561
63.13729209 -68.00002402 -1.326588386
275.118043 1.857535836 107.7376756
-288.9019209 -54.84286754 -9.738555173e-05
-216.7931079 -68.00002402 -0.8932823856
-175.3803239 -2.498421968e-05 143.8664006
148.6894479 -61.41301 -9.738555173e-05
-65.58546391 -2.498421968e-05 47.24268361
-122.6801139 -2.498421968e-05 88.02708961
-332.7384759 -2.498421968e-05 217.3129426
-253.4864459 -2.498421968e-05 82.75101561
-312.9177129 -2.498421968e-05 66.48651161
-312.5000029 -14.72055158 166.8338056
201.9541459 -2.498421968e-05 11.45849161
17.58298609 -13.97700002 -9.738555173e-05
85.59547009 -2.498421968e-05 69.98090361
99.40975209 -48.55813007 -9.738555173e-05
238.9125046 -2.498421968e-05 78.55597461
-144.7312579 -2.498421968e-05 109.4116776
-245.8483029 -2.498421968e-05 28.82132061
-305.8759629 -2.498421968e-05 135.3788206
-164.3073809 -66.43991625 -9.738555173e-05
14.55882109 -2.498421968e-05 123.9882556
274.4064582 -2.498421968e-05 69.17041661
-126.8003869 -2.498421968e-05 194.8467376
-35.62137891 -2.498421968e-05 47.80509261
-88.78738691 -2.498421968e-05 173.7759176
57.11764209 -2.498421968e-05 57.86360461
-329.2391209 -13.9756695 227.9999026
-246.5703129 -2.498421968e-05 121.6716516
-239.9092829 -2.498421968e-05 145.6360156
-125.0530459 -2.498421968e-05 162.8125536
173.0269046 -6.177309624 -9.738555173e-05
-83.30540591 -2.498421968e-05 85.84833861
79.68936409 -30.1995325 -9.738555173e-05
-318.5000029 -36.55733468 2.066160614
82.57149609 -2.498421968e-05 12.32443261
-48.97442891 -2.498421968e-05 156.0550726
-215.1188819 -2.498421968e-05 197.1457076
-90.01604791 -2.498421968e-05 101.4801156
91.59175809 -2.498421968e-05 46.72330761
61.37175409 -2.498421968e-05 98.28933761
162.6233972 -2.498421968e-05 56.98932461
-205.4900159 -2.498421968e-05 157.9704136
-161.6937239 -2.498421968e-05 163.5022546
-229.0845459 -47.84936581 -9.738555173e-05
156.7844099 -33.099937 -9.738555173e-05
270.3092285 -2.498421968e-05 46.86335061
-54.79561591 -2.498421968e-05 98.50839861
-45.93064491 -14.78588113 -9.738555173e-05
-105.0819599 -2.498421968e-05 136.9611076
120.0428417 -2.498421968e-05 18.35069161
-312.5000029 -66.92656064 139.6039396
-233.0074379 -10.04905106 -9.738555173e-05
-9.256303907 -2.498421968e-05 151.0103596
-318.5000029 -39.35782479 120.7878026
-162.2216519 -2.498421968e-05 81.76014961
-219.8595389 -2.498421968e-05 77.33433761
-72.05335391 -2.498421968e-05 146.0135356
85.12118709 -2.498421968e-05 96.90057761
-281.6355639 -23.75939693 -9.738555173e-05
54.54072509 -2.498421968e-05 128.4730946
-119.3716399 -2.498421968e-05 21.75392761
-305.1054559 -2.498421968e-05 198.5170056
-145.4359699 -2.498421968e-05 71.50660461
-184.7015039 -2.498421968e-05 158.1205236
-228.5389969 -2.498421968e-05 59.68965961
-314.4117789 -2.498421968e-05 32.72076561
-336.7620489 -31.65233868 233.9999026
-90.94045391 -2.498421968e-05 48.73798261
-40.76064791 -45.59236225 -9.738555173e-05
165.591447 -2.498421968e-05 15.45277561
4.815088093 -2.498421968e-05 59.63277461
-318.5000029 -15.73545115 148.3589536
-67.54648891 -2.498421968e-05 183.5817526
87.08981209 -65.45126993 -9.738555173e-05
207.1902646 -12.5328344 -9.738555173e-05
-239.2361499 -2.498421968e-05 105.2520636
136.1979245 -2.498421968e-05 57.75119261
172.909512 -2.498421968e-05 100.2248766
298.259969 -2.498421968e-05 24.22141861
-294.1286109 -2.498421968e-05 186.7397276
-218.1104089 -2.498421968e-05 139.6900386
-133.5737469 -53.70148044 -9.738555173e-05
-285.6141469 -2.498421968e-05 82.66633061
-169.6566119 -2.498421968e-05 9.628384614
-334.4984639 -2.498421968e-05 137.9667146
-176.7191839 -2.498421968e-05 106.4046496
219.1706296 -2.498421968e-05 17.73587561
-312.5000029 -12.19841693 119.9400606
121.5475914 -50.44384435 -9.738555173e-05
134.6291135 -2.498421968e-05 0.6956426144
-159.3540289 -2.498421968e-05 42.76109561
211.738714 -2.498421968e-05 52.15921761
-107.1637629 -2.498421968e-05 184.5790866
13.15633609 -2.498421968e-05 198.1691636
61.49922209 -2.498421968e-05 142.5354186
313.742967 -1.806166894 -9.738555173e-05
-318.5000029 -34.38639112 99.78104161
39.94419009 -2.498421968e-05 184.6853346
-320.1372429 -2.498421968e-05 96.32545361
-258.2509539 -32.64427502 -9.738555173e-05
305.0619555 -2.498421968e-05 64.76862661
292.684457 -35.50493416 -9.738555173e-05
-318.5000029 -32.20453132 202.9505616
-251.3904999 -9.701981564 -9.738555173e-05
177.033224 -37.79264627 -9.738555173e-05
-291.0344179 -2.498421968e-05 108.4551266
100.5197611 1.199031286 -9.738555173e-05
-318.9858779 -50.85656877 232.6184646
-2.692651907 -2.498421968e-05 92.93177061
65.02992309 -2.498421968e-05 29.21004561
-335.5677709 -2.498421968e-05 41.79119061
-318.5000029 -52.20999146 211.1585866
-187.9430419 -2.498421968e-05 44.00371961
-12.68880491 0.03144963578 199.9999026
248.9490794 -23.62267929 -9.738555173e-05
56.90554309 -2.498421968e-05 82.06580461
91.67068409 -2.498421968e-05 123.8739796
138.3735987 -31.25496868 -9.738555173e-05
-54.57258991 -2.498421968e-05 15.30414461
178.0917588 -65.16461757 -9.738555173e-05
7.805770093 -68.00002402 -0.3420433856
17.68543809 -2.498421968e-05 146.9900136
-215.2644639 -17.42738448 -9.738555173e-05
-312.5000029 -14.48063276 77.06087761
-95.10405291 -2.498421968e-05 199.0076696
276.7680807 -2.498421968e-05 17.12842561
179.991362 -2.498421968e-05 113.4703256
-64.15707691 -45.81765498 -9.738555173e-05
-312.5000029 -29.17349368 15.99164561
302.9638863 -2.498421968e-05 44.99910661
-318.2416529 -1.000024984 168.3679216
-21.74711191 -17.41359836 -9.738555173e-05
-325.3917829 -2.498421968e-05 151.0295356
162.0322413 -68.00002402 -1.139233386
-136.9214499 -2.498421968e-05 143.7300896
-8.761991907 -2.498421968e-05 9.803744614
-101.4623229 -2.498421968e-05 8.952499614
6.519803093 1.092330016 -9.738555173e-05
-34.20986391 -2.498421968e-05 63.82222861
-325.5700349 -2.498421968e-05 9.195032614
-3.442399907 -2.498421968e-05 173.6619526
-128.0943569 -35.05236227 -9.738555173e-05
-114.1289069 -2.498421968e-05 65.61478561
-245.5306969 -2.498421968e-05 178.0463816
-150.2175629 -19.03223636 -9.738555173e-05
-83.10729891 -2.498421968e-05 20.92016461
202.6672217 -34.47316231 -9.738555173e-05
-318.5000029 -34.84057998 144.4122926
32.46384809 -2.498421968e-05 149.8823736
-105.9700539 -67.36725171 -9.738555173e-05
-147.2358379 -2.498421968e-05 5.221279614
138.9391337 -2.498421968e-05 87.45303461
32.06366309 -2.498421968e-05 39.74875961
-230.2725019 -2.498421968e-05 92.15541561
-302.8560129 -50.66753943 -9.738555173e-05
-185.0384709 -2.498421968e-05 185.6202706
231.4690115 0.07259526578 -9.738555173e-05
-266.7657049 -2.498421968e-05 88.47176761
215.5150534 -2.498421968e-05 66.99359761
250.3971309 -2.498421968e-05 106.1804516
61.97564909 1.809045346 -9.738555173e-05
-131.9862199 -2.498421968e-05 101.6964926
39.34398409 -2.498421968e-05 15.05547661
-318.5000029 -13.26806988 194.9390726
-318.5000029 -34.52370704 187.9615906
-320.4464479 -67.76959311 233.2151316
-195.3381699 -2.498421968e-05 126.1361326
-54.58607791 -2.498421968e-05 170.6965286
113.9048624 -22.66017818 -9.738555173e-05
240.9044269 -2.498421968e-05 47.34496261
-229.4368419 -2.498421968e-05 197.8544636
159.5569052 -11.7606844 -9.738555173e-05
-113.2647429 -2.498421968e-05 103.5251386
-81.05270391 -11.67054048 -9.738555173e-05
-303.8470119 -2.498421968e-05 166.1980666
-104.2338329 -2.498421968e-05 151.2080656
-278.6948279 -2.498421968e-05 159.0271506
-218.4703159 0.5341155258 40.02467461
-1.663325907 -41.18710979 -9.738555173e-05
-30.45704191 -2.498421968e-05 100.5303506
32.91637709 -9.923847724 -9.738555173e-05
48.49938309 -16.11075026 -9.738555173e-05
-318.5000029 -54.01312137 124.0033916
-238.7331239 -2.498421968e-05 161.8374576
-215.7034319 -2.498421968e-05 169.8754736
236.3940611 -2.498421968e-05 104.2843046
-15.43680491 -2.498421968e-05 164.3668676
-29.38419991 -2.498421968e-05 128.1272936
-335.6298639 -2.498421968e-05 120.1901696
-162.2982159 -2.498421968e-05 138.6726136
-286.1355899 -2.498421968e-05 53.07948161
-257.6637029 -61.10080708 -9.738555173e-05
-204.9349209 -2.498421968e-05 99.36979261
196.0676891 -2.498421968e-05 79.32132761
50.08246909 -39.66208782 -9.738555173e-05
160.2161091 -2.498421968e-05 75.56284361
-318.5000029 -56.11349495 165.1164866
265.4211194 -55.94567711 -9.738555173e-05
-318.5000029 -11.71528236 55.97626561
-131.0197789 -2.498421968e-05 52.70169961
-143.2900639 -2.498421968e-05 168.0736276
-178.1831609 -17.39811416 -9.738555173e-05
-302.9450619 -2.498421968e-05 50.44245761
276.2860762 -15.69805742 -9.738555173e-05
-264.0900709 1.987929426 199.9999026
304.3105819 -2.498421968e-05 87.15721261
313.1064171 -2.498421968e-05 29.84684861
-312.5000029 -13.58808086 99.29494561
165.7330352 -2.498421968e-05 43.58895061
150.9538215 -46.90185475 -9.738555173e-05
170.5367211 -2.498421968e-05 127.1358126
105.4057751 -2.498421968e-05 124.0453786
244.1757744 -2.498421968e-05 122.4020076
-42.73637391 -2.498421968e-05 35.63445261
-174.0200359 -2.498421968e-05 67.37326461
198.2286029 -2.498421968e-05 27.16349161
-264.5851099 -2.498421968e-05 173.6464406
-318.5000029 -59.65047844 192.7282716
-282.6844519 -2.498421968e-05 69.35829961
40.48058109 -2.498421968e-05 130.1483756
-313.6519079 -13.41663905 227.1025146
-318.5000029 -30.9660905 172.7581436
-111.5851069 -40.09570122 -9.738555173e-05
-83.45532491 -2.498421968e-05 161.3866706
-321.1887439 -58.76397947 -9.738555173e-05
301.2757098 0.7845083058 121.1111816
-31.52227191 -2.498421968e-05 183.0527816
251.1247328 -2.498421968e-05 85.60495661
-197.3712189 -40.19376422 -9.738555173e-05
88.67200309 -40.09751851 -9.738555173e-05
-331.7451639 -14.78881233 -9.738555173e-05
184.8182874 -2.498421968e-05 61.77998361
-120.0173079 -2.498421968e-05 181.0749866
14.06657309 -2.498421968e-05 21.54762761
-331.1955649 -41.4545094 -9.738555173e-05
-111.3258249 -2.498421968e-05 36.25449461
-185.6323609 -2.498421968e-05 12.06647561
-133.6511949 2.099367956 -9.738555173e-05
75.21455209 1.003090726 -9.738555173e-05
-318.5000029 -9.667241124 134.4673276
-178.7580809 -2.498421968e-05 131.0808626
70.36815609 -2.498421968e-05 123.0222696
224.5155759 -37.18270897 -9.738555173e-05
-205.0961099 -6.976654284 -9.738555173e-05
191.7244588 0.7236142558 119.3886946
0.6558610933 -22.39412914 -9.738555173e-05
-65.87004891 -3.005199624 -9.738555173e-05
276.2831992 -2.498421968e-05 82.55660261
-296.8716389 1.156158436 -9.738555173e-05
23.19713909 -30.33580988 -9.738555173e-05
-199.3056349 -2.498421968e-05 57.66736261
-312.5000029 -20.94969909 29.51632861
-233.8169609 -2.498421968e-05 117.1884806
-44.45869891 -2.498421968e-05 106.8805146
-9.266078907 -2.498421968e-05 106.7091146
-146.6393989 -53.80208838 -9.738555173e-05
-79.79050991 -2.498421968e-05 110.4796506
19.70217409 -2.498421968e-05 162.3864596
-37.83924491 -2.498421968e-05 1.029371614
-69.97381391 -2.498421968e-05 198.8812736
-58.97612891 -2.498421968e-05 66.65051461
-312.5000029 -50.87886533 182.2574686
-164.8036699 -2.498421968e-05 112.2546416
-236.7150799 -2.498421968e-05 19.33564461
249.5507755 -2.498421968e-05 27.66330261
-123.5998079 -2.498421968e-05 129.8284606
188.2241873 -2.498421968e-05 36.18008161
129.277298 -2.498421968e-05 110.0133746
-214.6200419 -2.498421968e-05 13.57744361
-283.2989099 -10.95018164 -9.738555173e-05
283.9364193 -2.498421968e-05 6.320176614
-318.5000029 -11.49729375 36.86129961
-318.6003489 -2.498421968e-05 114.7991236
-318.8246099 -2.498421968e-05 20.67323661
-258.9279899 0.6625074358 -9.738555173e-05
-256.6418179 -2.498421968e-05 19.45936861
-51.54273291 -2.498421968e-05 125.4303146
136.7500578 1.025797476 73.71361261
258.2817186 -67.2010849 -9.738555173e-05
-231.9948849 -22.79710251 -9.738555173e-05
1.830485093 -2.498421968e-05 125.2097976
223.5068815 -2.498421968e-05 107.4601656
117.2766813 -2.498421968e-05 86.94018261
221.8524395 -2.498421968e-05 126.4720496
-260.2521949 -2.498421968e-05 118.3845776
204.7394242 -2.498421968e-05 93.10214161
265.8299178 -2.498421968e-05 30.88718661
-45.38918091 -2.498421968e-05 69.76084561
219.6615336 -14.60154672 -9.738555173e-05
97.87323209 -2.498421968e-05 72.95414261
-280.6331699 -68.00002402 -1.274508386
289.3069581 -2.498421968e-05 70.25672661
-237.8663229 1.575593456 -9.738555173e-05
-118.5608339 -67.26514812 -9.738555173e-05
-175.1697209 -56.9791019 -9.738555173e-05
276.3899579 -2.498421968e-05 95.14160061
108.6378501 -2.498421968e-05 10.73650961
146.1651025 -2.498421968e-05 34.74857561
-165.6473509 -17.58384117 -9.738555173e-05
35.92028509 -2.498421968e-05 82.22759761
-28.14323791 -41.77656363 -9.738555173e-05
-312.5000029 -8.427796794 204.9226656
262.5372618 -2.498421968e-05 103.2980936
-97.39978391 -2.498421968e-05 125.8947056
-190.6555119 -2.498421968e-05 99.76368861
177.4148602 -2.498421968e-05 88.63664361
-154.4733689 -40.21184033 -9.738555173e-05
-220.5201639 -2.498421968e-05 119.3086816
-204.8887229 -64.57152277 -9.738555173e-05
-318.5000029 -55.49057353 144.2052856
285.5347595 -64.68189798 -9.738555173e-05
-164.1943619 -2.498421968e-05 151.3967696
-259.8109339 -2.498421968e-05 44.81612961
-318.5000029 -11.99703939 180.5224596
-249.2118909 -2.498421968e-05 137.5648676
-213.2931529 1.648913966 28.62719061
-254.5866629 -2.498421968e-05 187.5337096
15.81630109 -2.498421968e-05 107.0363076
26.67001609 -2.498421968e-05 185.4143236
-302.2037769 -2.498421968e-05 27.72057461
-287.3146329 -38.60033226 -9.738555173e-05
272.2270115 -2.498421968e-05 119.4794206
70.15736609 -2.498421968e-05 44.78656561
-312.5000029 -23.86971104 123.4329056
-314.1035719 -60.44681791 111.4454706
-111.7613589 -2.498421968e-05 126.9212066
221.2635909 -2.498421968e-05 39.89670861
62.96701009 -55.8715028 -9.738555173e-05
-242.2385829 -2.498421968e-05 93.44460461
-83.97509891 -2.498421968e-05 73.84597161
-336.1540469 -2.498421968e-05 192.4929366
-150.3107189 -2.498421968e-05 138.8564436
-77.33263691 -56.9960168 -9.738555173e-05
-59.37526091 -56.91428274 -9.738555173e-05
84.75116809 -2.498421968e-05 84.94281361
146.7370887 -2.498421968e-05 4.925617614
-149.5322539 -2.498421968e-05 53.93826361
-298.8505869 -2.498421968e-05 155.0866096
234.9023849 0.2604452258 66.65916861
8.692614093 -2.498421968e-05 97.50833161
234.8347828 -54.93714045 -9.738555173e-05
102.9855951 -17.97533445 -9.738555173e-05
-266.2574109 -2.498421968e-05 103.8587816
172.939133 -2.498421968e-05 64.26412461
-116.7191869 -2.498421968e-05 154.3645116
46.01328709 -2.498421968e-05 48.64044461
-246.1580469 -67.9995081 -9.738555173e-05
158.6687159 -2.498421968e-05 103.4899046
-301.6196029 -2.498421968e-05 73.58296061
59.29816509 -2.498421968e-05 69.51279261
278.7764117 -31.20974707 -9.738555173e-05
154.7353578 -2.498421968e-05 20.35129961
-42.92949891 -2.498421968e-05 145.9129336
-12.07186891 -2.498421968e-05 22.16670261
-68.43221891 -2.498421968e-05 25.95943761
156.2938483 -2.498421968e-05 123.7868496
-25.93390691 -2.498421968e-05 16.47603861
40.38302609 -2.498421968e-05 199.4194616
206.5305006 -2.498421968e-05 116.7490076
41.67090009 -2.498421968e-05 106.3056716
-62.04319691 -2.498421968e-05 107.9850606
-172.4312579 -38.11713432 -9.738555173e-05
-155.5091709 -2.498421968e-05 119.7711266
252.1838991 -9.210311134 -9.738555173e-05
-196.8455119 -53.21114717 -9.738555173e-05
-131.6592899 -65.26879286 -9.738555173e-05
136.9447295 -2.498421968e-05 27.51844261
58.32760409 -22.45549842 -9.738555173e-05
-318.5000029 -7.528002994 214.9235506
47.11379109 -2.498421968e-05 24.48619761
-15.35346691 -2.498421968e-05 65.24313161
-275.9820709 -2.498421968e-05 141.6471386
-317.0913859 -39.0392046 231.4279776
-283.1630249 -2.498421968e-05 182.8735886
-49.21476391 -2.498421968e-05 45.28131261
128.6542032 -24.90733344 -9.738555173e-05
23.99013009 -2.498421968e-05 11.34778861
302.471847 -47.93823747 -9.738555173e-05
-145.8912119 -2.498421968e-05 29.82204161
-17.04379091 -61.11702592 -9.738555173e-05
-203.1440559 -2.498421968e-05 69.98555961
-318.5000029 -41.43147929 21.83614561
193.2979368 -7.719516364 -9.738555173e-05
15.06520709 -2.498421968e-05 67.39383861
-117.2377269 -2.498421968e-05 47.50592861
-234.4820879 -2.498421968e-05 174.2860956
-268.0306549 -2.498421968e-05 22.46092661
-316.8479739 -68.00002402 169.7534856
-318.5000029 -15.06506425 86.76048961
-175.6924229 -1.112384524 -9.738555173e-05
-330.2892699 -57.26550611 227.9999026
-99.42134791 -12.38466427 -9.738555173e-05
-238.9579999 -2.498421968e-05 54.76311861
-173.3253699 -2.498421968e-05 158.3044406
-310.7887809 -2.498421968e-05 11.11911761
-312.5000029 -27.6252894 219.4316066
-244.4004739 -2.498421968e-05 69.69184161
225.0637881 0.6937429858 81.89424061
-115.9193439 -2.498421968e-05 169.4931036
73.37795809 -2.498421968e-05 99.60717261
51.86140609 -68.00002402 -0.4178813856
240.1313127 -2.498421968e-05 89.80069961
-266.3057389 -2.498421968e-05 58.97810361
76.36153709 -68.00002402 -2.444831386
-318.5000029 -2.157402794 192.1858046
205.5334361 -48.51599452 -9.738555173e-05
-185.0338729 -2.498421968e-05 120.8189306
2.861089093 -2.498421968e-05 138.1896356
210.0408646 -63.96996107 -9.738555173e-05
-215.7947739 -2.498421968e-05 150.7658666
177.3405889 -2.498421968e-05 33.40249161
47.74829009 -2.498421968e-05 170.1512606
-264.7102939 -43.73500689 -9.738555173e-05
-76.51956491 -2.498421968e-05 49.60492961
-190.3789859 -2.498421968e-05 167.7496186
-154.5742769 -2.498421968e-05 89.90501961
-14.57932191 2.109512886 -9.738555173e-05
-129.8650789 -17.62194369 -9.738555173e-05
-212.4473099 -2.498421968e-05 85.67217761
33.82348409 -56.23100385 -9.738555173e-05
-312.8387479 -25.50002498 73.78161861
-125.2184879 -2.498421968e-05 76.59639061
297.9729284 -2.498421968e-05 10.56736961
-211.0540479 -2.498421968e-05 48.27429461
-205.5526729 -2.498421968e-05 136.1106736
-27.71523291 -2.498421968e-05 40.02209061
-328.5597189 -37.22090714 227.9999026
315.5000578 1.908703226 42.24880661
70.86981909 -44.7361652 -9.738555173e-05
-104.5969549 -51.69040792 -9.738555173e-05
-312.5000029 -1.904510384 125.4858766
-312.5000029 -50.5251042 220.2458036
-93.81537391 -2.498421968e-05 137.9839306
-58.74488791 -2.498421968e-05 150.9780876
-318.5000029 -34.09232472 132.8122356
-277.6550009 -2.498421968e-05 170.0999636
-325.7117619 -2.498421968e-05 68.44109561
134.5593119 1.101467246 134.1359196
199.2741994 1.475116066 -9.738555173e-05
-108.7118109 -2.498421968e-05 19.19005761
-280.2214669 -2.498421968e-05 42.15854161
287.410963 -2.498421968e-05 22.71483461
-318.5000029 -36.0600093 162.8946056
127.1102268 -2.498421968e-05 9.994291614
-39.72835391 -2.498421968e-05 15.59823761
258.6618197 -2.498421968e-05 5.865306614
249.5683509 -2.498421968e-05 12.43543661
-184.1314309 -2.498421968e-05 196.5040626
37.47605309 -35.18141005 -9.738555173e-05
-312.5000029 -12.29777924 46.88346661
-57.77285191 -23.3658782 -9.738555173e-05
-9.261607907 -2.498421968e-05 189.6658196
-210.3753809 -38.16899686 -9.738555173e-05
-313.8429619 -2.498421968e-05 77.78588561
199.4056311 -2.498421968e-05 56.01734361
142.0269721 -2.498421968e-05 101.5016536
-189.1577699 -2.498421968e-05 78.11591761
88.61821909 -2.498421968e-05 136.4668496
-34.19062691 -10.15789502 -9.738555173e-05
162.0423402 -2.498421968e-05 86.29921761
-155.8771049 -2.498421968e-05 11.73894461
-295.5426979 -2.498421968e-05 92.78353561
124.5288801 -2.498421968e-05 123.8773816
295.1922444 -2.498421968e-05 95.22828861
-247.9276749 -56.48635235 -9.738555173e-05
-312.5000029 -58.69681556 204.9941726
50.38686609 -2.498421968e-05 93.63769761
-256.5585509 -2.498421968e-05 146.3909656
-40.40331591 -68.00002402 -2.289192386
-300.5443659 -2.498421968e-05 176.4293626
-24.70065991 -2.498421968e-05 157.3867286
41.15906109 -2.498421968e-05 161.7012896
-267.6362749 -5.562830054 -9.738555173e-05
-309.6876069 -2.498421968e-05 100.5356256
111.7500578 0.7876384758 72.40711561
90.56194709 -2.498421968e-05 34.34384961
-64.22554791 -2.498421968e-05 129.6559356
285.599479 -10.13943549 -9.738555173e-05
-318.5000029 -20.53171705 14.36620561
-52.59165091 -48.7183106 -9.738555173e-05
75.34503609 -2.498421968e-05 67.14018861
-197.1154939 -2.498421968e-05 150.4835556
76.09733109 -9.585876594 -9.738555173e-05
30.29616109 -2.498421968e-05 99.25988261
-312.6621819 -46.63831863 -9.738555173e-05
281.4933232 -2.498421968e-05 49.14913561
-37.66644591 -2.498421968e-05 193.3051756
64.76612709 -2.498421968e-05 109.6351916
-18.12523791 -2.498421968e-05 132.6161026
-10.27615391 -17.99738379 -9.738555173e-05
93.26774209 -2.498421968e-05 7.540413614
238.8386734 -67.29601098 -9.738555173e-05
-184.2871889 -8.842216154 -9.738555173e-05
-318.5000029 -63.72644733 213.7334036
111.7500578 0.8277649458 24.72631561
-127.1809859 -2.498421968e-05 152.5395516
-82.76888491 -2.498421968e-05 10.43601361
-37.23125291 -2.498421968e-05 83.17948361
303.4021018 -2.498421968e-05 75.09858361
-292.0844129 -23.51209719 -9.738555173e-05
-135.8974589 -42.00486386 -9.738555173e-05
-318.5000029 -6.261329394 106.4510986
104.5634371 -2.498421968e-05 101.5205186
-229.1545119 -2.498421968e-05 35.34547461
-111.8841809 -2.498421968e-05 9.301919614
-225.0749959 -2.498421968e-05 49.31074461
-100.3124619 -2.498421968e-05 176.7836996
-2.350914907 -59.05745254 -9.738555173e-05
82.83303609 -19.76151468 -9.738555173e-05
44.52043709 -2.498421968e-05 60.68040561
-46.74854891 -2.498421968e-05 199.7928406
-55.75869891 -11.60305817 -9.738555173e-05
7.778730093 -10.72213914 -9.738555173e-05
262.5023714 -8.750879664 -9.738555173e-05
288.6255511 -2.498421968e-05 34.01045161
-277.5201029 -2.498421968e-05 7.938417614
-17.63563091 -7.735815604 -9.738555173e-05
-18.04143791 -37.93491779 -9.738555173e-05
-329.4587119 -24.40237739 233.9999026
-318.5000029 -1.482987984 143.5424206
-332.8165919 -6.141948634 233.9999026
-290.2545339 -2.498421968e-05 26.06784061
-139.3184779 -2.498421968e-05 79.74128361
-318.5000029 -11.30958572 69.37299161
250.7427639 -2.498421968e-05 58.04575861
-98.93380991 -2.498421968e-05 81.28388761
-286.0963949 -2.498421968e-05 13.61302261
-3.223379907 -2.498421968e-05 161.8177636
-333.5084319 -2.498421968e-05 85.23053661
16.04151509 -2.498421968e-05 3.781203614
-26.81841091 -2.498421968e-05 171.2654786
-312.5000029 -38.69307762 106.7954946
46.38678709 -28.04370031 -9.738555173e-05
275.3376303 -52.93444074 -9.738555173e-05
-115.5595789 -2.498421968e-05 79.76918661
-281.2952179 -2.498421968e-05 125.9804376
-169.6532809 -2.498421968e-05 19.77824961
-203.1101209 -2.498421968e-05 118.5191366
-202.0619659 -2.498421968e-05 28.00136961
-186.1871959 -2.498421968e-05 34.02828261
-53.37519491 -2.498421968e-05 115.5091366
-146.0483069 -2.498421968e-05 177.7602216
-50.77264091 -2.498421968e-05 190.3197996
-154.3901439 -60.21487625 -9.738555173e-05
-165.1292129 -2.498421968e-05 56.22389861
-45.88901791 -2.498421968e-05 93.03345561
158.7607838 -56.87493935 -9.738555173e-05
93.25610109 -2.498421968e-05 63.49700761
188.7730217 -2.498421968e-05 52.43869461
193.7203421 2.210595626 129.5139566
-116.9592469 -9.578882644 -9.738555173e-05
-308.5557759 -7.585923984 -9.738555173e-05
7.830994093 -2.498421968e-05 30.33747661
186.2402017 -2.498421968e-05 81.19035061
14.56429209 -2.498421968e-05 187.3658386
-220.2429149 -2.498421968e-05 129.9192616
178.5676578 -2.498421968e-05 5.571322614
139.8278119 -68.00002402 -2.457739386
-216.2914199 -2.498421968e-05 185.6447896
-317.3266129 -11.01155854 10.18872861
-80.21966391 -2.498421968e-05 182.3128386
243.9002983 -49.52123327 -9.738555173e-05
186.9964849 -37.59271571 -9.738555173e-05
190.4235877 -2.498421968e-05 9.318632614
-204.9820719 -28.02760182 -9.738555173e-05
-113.5537899 -2.498421968e-05 117.1238606
-150.8612409 -2.498421968e-05 190.6347556
-42.62159691 -2.498421968e-05 129.8539046
-166.2922799 -2.498421968e-05 172.3338686
258.3297225 -48.95875744 -9.738555173e-05
-194.4035569 -30.70014887 -9.738555173e-05
-103.8301259 -2.498421968e-05 100.3809426
144.8291541 -38.80934894 -9.738555173e-05
21.56349509 -54.26370771 -9.738555173e-05
-29.50688091 -2.498421968e-05 118.2058016
-39.62571291 -55.59973652 -9.738555173e-05
-17.32535391 -2.498421968e-05 142.4809666
-318.5000029 -4.684745234 87.77005861
-330.8492919 -2.498421968e-05 53.41094761
277.9727541 -2.498421968e-05 59.53990561
-312.5000029 -28.74155819 2.482866614
-312.5000029 -66.77350319 195.9486956
99.74747309 -8.624233954 -9.738555173e-05
-312.5000029 -15.96495879 140.5782956
108.9457534 -50.91475597 -9.738555173e-05
-312.5000029 -37.80392625 176.6545306
-38.32104791 -2.498421968e-05 171.9934646
-261.7617539 -2.498421968e-05 77.50046461
285.7517055 -2.498421968e-05 109.8387776
-20.85354791 -2.498421968e-05 189.1799666
80.37096809 -2.498421968e-05 119.1284516
252.8678911 -2.498421968e-05 96.71094561
-318.5000029 -31.0473408 115.6202826
-132.5451109 -2.498421968e-05 125.8605576
305.6178758 -7.254899464 -9.738555173e-05
32.64707909 -2.498421968e-05 6.798228614
217.9978475 -2.498421968e-05 89.82447061
304.2180949 -2.498421968e-05 111.8327126
-76.40483991 -26.68112603 -9.738555173e-05
-290.0999919 -65.99524784 -9.738555173e-05
-319.5048889 -7.439300044 -9.738555173e-05
-243.9642479 -2.498421968e-05 44.03339161
129.8825401 -2.498421968e-05 48.12590561
-129.6018689 -2.498421968e-05 27.28076861
-318.5000029 -20.32096612 175.4634246
-259.6171479 -2.498421968e-05 66.04601161
-152.5643449 -28.47435496 -9.738555173e-05
-123.7689159 -2.498421968e-05 13.08271761
180.3117609 -25.67183466 -9.738555173e-05
-120.8339629 -2.498421968e-05 58.58503861
-3.157304907 1.849339416 -9.738555173e-05
-312.5000029 -44.64541175 161.6185726
46.20726309 -2.498421968e-05 81.79266361
-312.5000029 -25.02268199 200.5746026
-212.7669179 -1.013606204 -9.738555173e-05
-40.94797491 -23.98406391 -9.738555173e-05
-323.2687689 -2.498421968e-05 219.1363706
-294.4610689 -2.498421968e-05 197.4308516
-81.55774391 -2.498421968e-05 134.7116436
38.58522909 -44.73662714 -9.738555173e-05
-220.6853179 -2.498421968e-05 91.55699061
-312.5000029 -21.97507481 52.62942761
-255.8316169 -18.20457164 -9.738555173e-05
-152.6168319 -2.498421968e-05 77.86644061
-318.5000029 -62.60488691 133.5102186
-233.6512329 -2.498421968e-05 68.49593561
-4.717288907 -2.498421968e-05 115.1324966
-312.5000029 0.3018146758 212.8511256
-200.8276579 -2.498421968e-05 4.963817614
-307.1680169 -2.498421968e-05 38.96414061
-274.2612859 -48.18597539 -9.738555173e-05
36.92082709 -2.498421968e-05 31.16551861
-318.5000029 -17.08428644 217.4996416
-231.6823189 -2.498421968e-05 139.9777726
-170.7880649 -2.498421968e-05 86.94637061
176.5515403 -48.93316976 -9.738555173e-05
50.17579609 -2.498421968e-05 8.062189614
-328.3371219 -66.72685728 227.9999026
-231.9449059 -2.498421968e-05 150.8404736
-318.5000029 -10.02788975 161.1415136
58.95381309 -2.498421968e-05 187.0547456
-318.7424989 -44.16069185 223.5308686
-312.5000029 -41.95860966 207.0504086
183.2075625 -57.16539409 -9.738555173e-05
11.84364709 -42.53591265 -9.738555173e-05
-60.73603491 -2.498421968e-05 191.3405846
-320.6418629 -20.88971402 226.5227436
-318.5000029 -42.61618524 153.4530196
120.3539709 -7.242468084 -9.738555173e-05
-206.9941979 -2.498421968e-05 182.9567146
-93.70853291 -50.86427725 -9.738555173e-05
-99.22038791 -2.498421968e-05 44.18599861
-318.5000029 -25.18008315 148.0845366
108.6295171 -32.467601 -9.738555173e-05
7.272586093 -2.498421968e-05 47.24585861
117.4946243 -68.00002402 -0.7402703856
-290.3600359 -2.498421968e-05 138.3057756
-318.5000029 -25.1563332 35.44293961
-90.78118191 -2.498421968e-05 15.45010161
-300.1267649 -2.498421968e-05 103.6249496
-312.5000029 -38.41912299 14.22684361
-199.3390369 -2.498421968e-05 46.05148161
-91.42227191 -2.498421968e-05 65.57497361
-241.8326609 -2.498421968e-05 131.7483086
-35.03022091 -2.498421968e-05 150.9936046
-318.5000029 -50.83829064 189.4783986
115.4329439 1.786514456 125.3489366
-154.6072919 -2.498421968e-05 171.1476796
187.0842115 -2.498421968e-05 107.3330776
4.778964093 -2.498421968e-05 9.149920614
-191.1585399 -2.498421968e-05 52.81138461
19.28897009 -2.498421968e-05 40.02820261
226.0255255 -7.733394934 -9.738555173e-05
-102.6588879 2.423164576 -9.738555173e-05
258.9753651 -2.498421968e-05 80.52956661
26.85031609 -2.498421968e-05 126.3310206
110.6052795 -2.498421968e-05 47.73717861
173.272049 -2.498421968e-05 24.96792161
-242.3007329 -39.58171975 -9.738555173e-05
61.98910109 -2.498421968e-05 39.30015261
201.938978 -2.498421968e-05 102.5996696
26.91995209 -2.498421968e-05 57.39655661
237.1480784 -25.52573188 -9.738555173e-05
162.6632989 -2.498421968e-05 66.31375461
46.60047909 -2.498421968e-05 192.4789806
7.821693093 -2.498421968e-05 178.3428946
-67.39993491 -2.498421968e-05 56.38028461
43.57752909 -2.498421968e-05 116.7353486
-336.0369119 -2.498421968e-05 110.8946996
238.399315 -7.474191554 -9.738555173e-05
-318.5000029 -59.87676155 156.4220606
219.9595406 -56.91032792 -9.738555173e-05
-328.2204619 -50.4683751 233.9999026
-71.81989791 -2.498421968e-05 67.12318361
139.6187141 -2.498421968e-05 46.73463961
-281.5783889 -2.498421968e-05 113.4621006
-318.5000029 -40.92828762 196.2324116
-312.5000029 -59.80654219 171.1419966
-195.5243049 -2.498421968e-05 160.0419166
-336.5066429 -2.498421968e-05 174.6211906
-318.5000029 -2.332582704 181.8061876
-13.79897791 -2.498421968e-05 76.18095661
-247.0730529 0.7129870058 -9.738555173e-05
-176.3507419 -2.498421968e-05 40.62005861
189.6641586 -65.98073168 -9.738555173e-05
-165.7103189 -2.498421968e-05 1.286455614
239.0137815 -2.498421968e-05 27.07575361
-136.0182499 -24.47743055 -9.738555173e-05
-41.76651191 -35.8183006 -9.738555173e-05
50.74671909 -2.498421968e-05 150.2689966
-225.5966039 -63.4350082 -9.738555173e-05
-229.2180799 -2.498421968e-05 14.01277361
-74.06019491 -2.498421968e-05 126.1353626
35.15819909 -2.498421968e-05 64.10973761
65.58459709 -2.498421968e-05 61.41347861
265.3688288 -2.498421968e-05 12.45070761
-102.6406929 -2.498421968e-05 60.53326061
-74.17899191 -2.498421968e-05 86.69762361
95.94991109 -67.76454637 -9.738555173e-05
-90.57519791 -2.498421968e-05 27.37512561
-193.3026099 -2.498421968e-05 17.40036361
259.8052129 -2.498421968e-05 59.25508361
125.1273304 -2.498421968e-05 67.12582461
-318.5000029 -51.78552298 113.2980026
-0.9366699067 -2.498421968e-05 146.4949486
-328.0091359 -2.498421968e-05 102.8660256
-178.6476119 -2.498421968e-05 18.22947961
240.1056258 -2.498421968e-05 112.6210226
154.4559459 -19.31140851 -9.738555173e-05
-186.9968909 -2.498421968e-05 91.42702461
263.4936893 -41.35839707 -9.738555173e-05
-318.5000029 -7.033877814 26.42484861
293.9513397 -2.498421968e-05 46.18278161
32.05268309 -65.13776333 -9.738555173e-05
170.0374925 -2.498421968e-05 51.58356961
-184.0890159 -2.498421968e-05 146.4216806
-312.5000029 -28.58532758 96.21816061
-303.7104629 -2.498421968e-05 119.3752186
211.7500578 2.210819186 22.86111561
-60.69298991 -2.498421968e-05 8.618376614
-159.2244019 -2.498421968e-05 32.78229361
145.9168991 -2.498421968e-05 76.32937361
-46.78191591 -2.498421968e-05 21.25576361
-318.5000029 -45.87716556 141.2110106
-24.09516291 -2.498421968e-05 25.32203361
8.865590093 -2.498421968e-05 84.99098561
-25.20810891 -2.498421968e-05 63.16566961
-89.78749791 -9.451068634 -9.738555173e-05
210.6427494 -2.498421968e-05 9.104484614
92.36602009 -58.16733514 -9.738555173e-05
-177.7611829 -2.498421968e-05 97.47256361
115.9500297 -2.498421968e-05 59.48387461
-312.5000029 -49.11504472 119.4321296
-156.0031899 -2.498421968e-05 131.9108146
-25.16522291 -31.8723441 -9.738555173e-05
-312.5000029 -27.5197549 165.4293416
-318.5000029 -26.75305183 210.0744006
-312.5000029 -29.1509301 109.2320026
-93.38209791 -2.498421968e-05 110.4333496
76.15385109 -2.498421968e-05 76.06679761
78.17918109 -39.55016935 -9.738555173e-05
-323.3151289 -45.70756633 -9.738555173e-05
-312.5000029 -5.371983424 57.95585561
269.3108443 -2.498421968e-05 22.07652661
-114.9188469 -2.498421968e-05 135.9177266
192.8177676 -2.498421968e-05 68.88382661
-275.7919249 -2.498421968e-05 76.40273961
-318.5000029 -18.25225456 204.3083716
270.0490544 -29.3863073 -9.738555173e-05
-328.4598419 -2.498421968e-05 196.9961426
130.5614396 -12.63076399 -9.738555173e-05
-194.6626489 -8.143359074 -9.738555173e-05
-318.5000029 -44.93658403 128.1758866
-133.7728269 -2.498421968e-05 161.0716436
-267.1087399 -2.498421968e-05 141.1086266
-57.08224191 -2.498421968e-05 41.17447461
-5.854540907 -2.498421968e-05 36.93756261
-318.5000029 -17.96744316 157.1856566
230.5514964 1.712076256 126.6365186
58.15651309 -7.160708254 -9.738555173e-05
151.8237862 -2.498421968e-05 112.7748896
100.1812271 -2.498421968e-05 48.86122261
118.594745 -2.498421968e-05 43.48166661
99.85902609 -2.498421968e-05 116.7278766
-303.6231119 -2.498421968e-05 60.56009661
-117.3950989 -2.498421968e-05 95.73582261
-61.55678391 -68.00002402 -0.2179793856
-328.3854169 -4.542457314 -9.738555173e-05
99.25005809 1.260233316 27.95941861
-297.7041179 -2.498421968e-05 132.1345256
284.6029985 -2.498421968e-05 77.67380361
-266.4297499 -29.44770418 -9.738555173e-05
167.2992685 -2.498421968e-05 2.479022614
-287.3956729 -2.498421968e-05 158.0432796
93.89958309 -2.498421968e-05 80.75546461
30.56790409 -2.498421968e-05 89.13616361
-312.5000029 -56.46562997 129.8552076
-82.10865691 -2.498421968e-05 97.79073761
-319.4221849 -10.2980736 232.8567526
242.9610484 -2.498421968e-05 69.97908361
224.9090709 0.9868634558 31.62625661
-243.6516129 -2.498421968e-05 84.84383061
-312.5000029 -24.63743039 141.3857266
-318.5000029 -21.03666506 165.3227516
-251.3691579 -2.498421968e-05 91.18273061
2.927435093 -2.498421968e-05 37.60972461
-312.5000029 -9.771587054 189.7139716
29.03944409 -2.498421968e-05 177.0376086
-318.5000029 -54.0236518 135.6173346
-173.2081619 -28.58811358 -9.738555173e-05
203.1865425 -25.83343025 -9.738555173e-05
219.7839995 -2.498421968e-05 99.64853861
-312.5000029 -34.67786164 124.9017776
312.9105386 -2.498421968e-05 87.99036061
-93.28669891 -2.498421968e-05 181.8123066
-312.5000029 -7.197497964 149.1976256
274.0172689 -2.498421968e-05 5.958715614
-167.1348579 -2.498421968e-05 72.57197561
-100.1132489 -23.71242081 -9.738555173e-05
130.70414 1.034098616 85.15493261
-40.53266791 -2.498421968e-05 157.7519766
-318.5000029 -35.25824193 221.1585576
-243.1213209 -7.355792044 -9.738555173e-05
202.6664448 0.1922031358 34.51877361
-37.10892091 -2.498421968e-05 111.3305666
161.1293561 -48.61633604 -9.738555173e-05
180.2288228 -10.85849739 -9.738555173e-05
250.2963466 -2.498421968e-05 75.15293161
-315.8971909 -0.4037524042 230.2609816
-220.6364829 -46.3250467 -9.738555173e-05
83.37142909 -2.498421968e-05 2.438516614
-318.5000029 -20.38392293 117.2599426
206.7157385 -2.759623364 -9.738555173e-05
-326.7904039 -2.498421968e-05 142.0040976
-72.39274991 -2.498421968e-05 40.07111461
-178.7285229 -2.498421968e-05 114.7260686
-258.3946079 -2.498421968e-05 156.5027326
-199.1700599 -2.498421968e-05 107.2098406
160.8057913 -25.55049694 -9.738555173e-05
16.90513909 -24.54601234 -9.738555173e-05
-120.0945179 1.246990236 199.9999026
-101.9492409 -2.498421968e-05 193.8878626
-61.03102491 -2.498421968e-05 83.30706161
167.7002976 -2.498421968e-05 79.89692261
-318.5000029 -25.16077825 190.0811436
236.3497691 -2.498421968e-05 55.27778261
-312.5000029 -12.13881164 29.69812161
-240.6400799 -2.498421968e-05 35.57736661
-151.6105799 -2.498421968e-05 159.9009576
-196.6618559 -2.498421968e-05 93.70726961
-0.8465679067 -2.498421968e-05 101.5483946
-98.54498891 -2.498421968e-05 161.0047686
223.654771 -2.498421968e-05 69.46925861
-34.35673791 -2.498421968e-05 34.21669261
211.6488488 -19.76341107 -9.738555173e-05
121.043217 -2.498421968e-05 26.78362361
-318.5000029 -58.4129748 178.9868096
59.49999709 0.7860717658 170.6559176
-230.2343069 -2.498421968e-05 3.354202614
-19.89646491 -2.498421968e-05 10.09730761
-317.5604669 -68.00002402 224.0835726
23.56956009 -2.498421968e-05 193.4168846
-229.8627589 -2.498421968e-05 164.4011836
-306.1451689 -2.498421968e-05 81.28357361
-329.3527799 -2.498421968e-05 36.06095661
191.8617899 -30.68760947 -9.738555173e-05
-312.5000029 -5.873186694 93.59317561
-17.43401391 -2.498421968e-05 124.2016516
-313.1046439 -1.000024984 161.6677986
-312.5000029 -29.84580725 182.5097866
-99.60675891 -60.70863929 -9.738555173e-05
-143.5017579 -2.498421968e-05 118.5387496
197.9019925 -2.498421968e-05 87.53278261
23.86110909 -2.498421968e-05 82.89536261
-148.9518259 -2.498421968e-05 37.64958061
-312.5000029 -6.595629474 170.8433596
-283.1092869 -2.498421968e-05 34.28120761
-331.5613809 -2.498421968e-05 93.39034161
13.47303209 -57.90415739 -9.738555173e-05
-282.9888449 -2.498421968e-05 60.84094061
155.3674858 -2.498421968e-05 62.20335861
-312.5000029 -37.55258782 150.5636446
-178.3784529 -2.498421968e-05 7.899034614
-313.4280529 -55.64482314 -9.738555173e-05
216.3073805 -38.7800297 -9.738555173e-05
-28.93923191 -2.498421968e-05 108.7532766
169.7877547 -41.94628843 -9.738555173e-05
196.3774868 -2.498421968e-05 17.67345461
-97.48051091 -2.498421968e-05 146.2988936
-276.4057729 -2.288348674 -9.738555173e-05
-333.7715869 -2.498421968e-05 7.704381614
-89.82905591 -2.498421968e-05 80.65974761
-205.3248429 -2.498421968e-05 149.1117046
-228.4416509 -2.498421968e-05 74.97701761
-213.7320639 -2.498421968e-05 159.0407566
156.8789797 -2.498421968e-05 7.832985614
-318.5000029 -20.74644746 80.69565561
-106.4550399 -2.498421968e-05 74.72465361
31.12750909 -2.498421968e-05 16.28370461
150.6426671 -2.498421968e-05 101.3462836
-245.0959229 -2.498421968e-05 168.8561986
-312.5000029 -65.50476485 186.6256866
-316.1962639 -60.4981581 230.5600556
-312.5000029 -43.43085279 190.6924546
133.4003913 0.8824041558 65.50553061
-38.72265491 -2.498421968e-05 75.03677061
307.4919315 -2.498421968e-05 23.78115261
-325.1986909 -27.69931604 -9.738555173e-05
297.9130481 -17.53021835 -9.738555173e-05
-171.5671969 -49.44147584 -9.738555173e-05
-301.7995439 -59.04673632 -9.738555173e-05
66.39598709 -2.498421968e-05 130.2390476
-318.5000029 -35.82990807 210.8536776
52.96890909 -2.498421968e-05 101.4458136
-226.5023409 -2.498421968e-05 172.3031846
-71.85083191 -2.498421968e-05 112.5824786
308.2629311 -2.498421968e-05 8.839407614
-164.4628019 -40.09820731 -9.738555173e-05
-136.6871339 -2.498421968e-05 185.4085336
-233.7188399 -41.0898487 -9.738555173e-05
308.1182025 -2.498421968e-05 56.72550261
-89.55729091 -28.81074824 -9.738555173e-05
-312.5000029 -35.91078536 138.9692196
286.8337265 -29.82190352 -9.738555173e-05
161.5440082 -2.498421968e-05 130.0238336
-318.5000029 -63.3890526 149.0661176
4.934715093 -2.498421968e-05 167.9859666
-214.9143459 0.9882841158 108.5987796
294.4807504 -2.498421968e-05 63.96404261
-133.6341169 -2.498421968e-05 73.68231061
-111.6219669 -2.498421968e-05 160.7158086
-183.9272449 -2.498421968e-05 175.9619196
200.6770291 -55.04805685 -9.738555173e-05
26.27151309 -2.498421968e-05 157.5937816
-25.58297291 -9.457513474 -9.738555173e-05
-312.5000029 -7.197140944 139.3680866
-239.8691389 -2.498421968e-05 153.7865616
217.7082591 -66.66365483 -9.738555173e-05
216.2276881 -2.498421968e-05 75.08444961
35.95305009 -2.498421968e-05 74.10861661
19.35575309 -2.498421968e-05 27.70105261
-31.97628091 -2.498421968e-05 92.56060861
90.69674709 -3.129051804 -9.738555173e-05
-19.90666591 -2.498421968e-05 101.5032566
265.4433211 0.09354734578 123.9105916
-149.1014059 -2.498421968e-05 62.02812461
-77.39427691 -2.498421968e-05 156.0260926
-54.83920191 -2.498421968e-05 183.3248096
-168.3807429 -2.498421968e-05 42.01133461
-327.2161809 -64.15815612 -9.738555173e-05
59.80227909 -2.498421968e-05 50.23781361
-319.2087189 -52.30890226 224.6687226
309.4592119 -59.10038988 -9.738555173e-05
-312.5000029 -5.640370944 111.8330316
-273.2176669 -2.498421968e-05 126.2178476
7.445666093 -2.498421968e-05 16.91532561
-2.327268907 -2.498421968e-05 15.73853561
302.4323106 -2.498421968e-05 98.77709861
160.8655293 -2.498421968e-05 95.73245061
-309.4614719 -2.498421968e-05 190.8400056
-288.1502119 -2.498421968e-05 43.58863561
72.30982309 -2.498421968e-05 37.02866661
115.6253142 -2.498421968e-05 134.2322866
-318.5000029 -50.57147569 159.2794466
-303.7596499 -2.498421968e-05 17.87990261
-200.3978769 -2.498421968e-05 192.3819776
283.5964365 -56.87749037 -9.738555173e-05
-255.4621709 -2.498421968e-05 30.56131461
-253.5468579 -2.498421968e-05 130.4280486
51.65294809 -2.498421968e-05 67.05955261
144.421763 -10.31928925 -9.738555173e-05
-62.71299591 -2.498421968e-05 162.4370586
154.0565379 -5.922204264 -9.738555173e-05
263.7480949 -2.498421968e-05 52.27802761
-277.0547799 -2.498421968e-05 188.0497086
156.3852188 -2.498421968e-05 49.83823561
-238.8316559 -2.498421968e-05 11.19123061
168.0338943 -2.498421968e-05 32.65819161
-326.7474259 -52.92148682 -9.738555173e-05
2.324323093 -31.9312206 -9.738555173e-05
-229.6568469 -2.498421968e-05 187.3501706
-210.7035959 -2.498421968e-05 72.55758461
-175.5463459 -2.498421968e-05 59.53616761
40.95982309 -52.35139206 -9.738555173e-05
152.5224302 -2.498421968e-05 84.01976861
-84.33894191 -2.498421968e-05 117.3414256
-312.5000029 -18.17688071 132.3863476
-90.01678691 -43.82337786 -9.738555173e-05
81.28523809 -58.84604036 -9.738555173e-05
296.4791765 -28.53779072 -9.738555173e-05
-295.7782429 -2.498421968e-05 147.7732586
-318.5000029 -18.71709325 100.0310156
-318.5000029 -11.28133629 125.0394396
141.6800437 -2.498421968e-05 63.47498561
25.85460909 -2.498421968e-05 167.3804696
33.22072909 -2.498421968e-05 107.5597656
293.505187 -10.4511504 -9.738555173e-05
-262.3095599 -54.69766931 -9.738555173e-05
-218.2029979 -60.27133669 -9.738555173e-05
-112.0176129 -2.498421968e-05 192.3303006
-51.24909891 -2.498421968e-05 8.140299614
268.4037551 -2.498421968e-05 82.11102661
-137.9549979 -60.51787962 -9.738555173e-05
-290.0011779 -2.498421968e-05 4.368199614
-49.71925091 -2.498421968e-05 31.81265161
67.01728409 -2.498421968e-05 21.58717861
104.1842561 -57.19048477 -9.738555173e-05
226.0928736 -29.46593976 -9.738555173e-05
-312.5000029 -38.95708448 114.6666406
-313.6799469 -24.49514548 227.1826506
-68.61364891 -2.498421968e-05 153.0835086
-259.8308549 -2.498421968e-05 54.54108661
-148.7715089 -2.498421968e-05 15.07259261
-275.7807089 -2.498421968e-05 180.2163696
38.35009609 -2.498421968e-05 177.0078316
-163.4750399 -2.498421968e-05 89.77430161
-136.1377039 -2.498421968e-05 7.131178614
134.2585535 -2.498421968e-05 95.76313961
150.5683729 -2.498421968e-05 26.97457461
-174.9659729 -2.498421968e-05 179.9536736
241.0338553 -35.79773659 -9.738555173e-05
-134.4580189 -2.498421968e-05 136.3052686
-313.6992919 -68.00002402 130.5111856
-92.60650391 -2.498421968e-05 119.7266876
-1.686469907 -2.498421968e-05 55.30618161
-312.5000029 -31.47167207 208.4134206
271.5626898 -2.498421968e-05 39.17057161
-84.44805891 -61.23999086 -9.738555173e-05
-325.9701299 -2.498421968e-05 59.47405461
19.79395409 -37.33244526 -9.738555173e-05
315.0543528 -41.10011155 -9.738555173e-05
-102.9164939 -2.498421968e-05 37.34086661
139.0129703 -2.498421968e-05 119.0243756
-312.5000029 -58.28558961 148.2722256
-312.5000029 -19.49168231 152.4949666
-1.737824907 -51.31916139 -9.738555173e-05
-218.8797949 -25.41146263 -9.738555173e-05
-312.5000029 -39.15561548 6.509277614
-318.5000029 -59.90649918 117.8058406
81.75339409 -2.498421968e-05 25.32530961
267.3540872 0.2523702558 113.4801546
170.8084288 -33.20589494 -9.738555173e-05
-312.5000029 -22.74215296 39.67748261
