# .PCD v0.7 - Point Cloud Data file format
VERSION 0.7
FIELDS x y z
SIZE 4 4 4
TYPE F F F
COUNT 1 1 1
WIDTH 1205
HEIGHT 1
VIEWPOINT 0 0 0 1 0 0 0
POINTS 1205
DATA ascii
63.49975082 -84.85771354 -60.48647639
55.61536182 -2.498423825e-05 -99.85569939
37.84007982 -2.498423825e-05 -110.9094394
67.49975082 -53.08285503 -12.18145539
-37.65338918 -2.498423825e-05 -10.69898639
-4.573914179 -2.498423825e-05 -152.7843954
-48.89586118 -2.498423825e-05 -218.8370394
-78.31576218 -2.498423825e-05 -169.5753334
-55.13201718 -2.498423825e-05 -6.002706386
67.49975082 -33.08346169 -226.0358234
63.58023382 -117.3598786 -18.13565339
73.35647782 -17.0929743 -9.738617291e-05
63.49975082 -55.03971919 -179.5189934
43.39742782 -2.498423825e-05 -103.7101984
-78.03996218 -2.498423825e-05 -251.5802834
67.49975082 -29.4364941 -19.68151939
65.33696882 -113.585236 -1.500097386
-57.82352418 -2.498423825e-05 -232.9682894
12.97605882 -2.498423825e-05 -160.3095724
12.20622882 -51.17451846 -9.738617291e-05
63.49975082 -36.17339914 -136.9975794
-3.322171179 -90.70223929 -9.738617291e-05
67.49975082 -31.8778768 -86.05815339
63.49975082 -39.16733367 -124.4284334
63.49975082 -20.10071465 -60.47852239
-6.653625179 -17.32817487 -9.738617291e-05
63.49975082 -42.04127 -248.9680344
-19.41397618 -48.18880017 -9.738617291e-05
62.78910882 -53.51766956 -9.738617291e-05
67.49975082 -47.32947248 -104.9078664
63.49975082 -38.04409834 -7.238002386
30.79091782 -2.498423825e-05 -153.6434224
71.42270282 -2.498423825e-05 -97.80003439
-66.11810418 -2.498423825e-05 -39.76378539
26.29928782 -2.498423825e-05 -70.73609939
69.50622382 -2.498423825e-05 -197.7305544
-0.7367261788 -2.498423825e-05 -94.10379839
63.49975082 -11.65544304 -242.0353514
-35.35681818 -2.498423825e-05 -54.82807239
67.49975082 -30.54717869 -153.3228004
-73.24548618 -2.498423825e-05 -190.4003534
67.49975082 -5.851742314 -148.9872104
24.98205082 -112.6344894 -9.738617291e-05
-77.96560218 -6.644652674 -9.738617291e-05
63.49975082 -105.8759451 -29.99260539
40.33298082 -2.498423825e-05 -86.62956439
-3.055943179 -2.498423825e-05 -186.4911984
86.84838382 -2.498423825e-05 -206.4305864
-69.28896318 -2.498423825e-05 -79.79948139
67.49975082 -10.83141509 -129.5152494
76.08008882 -2.498423825e-05 -238.6964804
63.49975082 -61.0434027 -47.39312639
63.49975082 -31.91222529 -164.6174914
63.49975082 -35.81547779 -70.44951939
67.49975082 -72.9454131 -122.7500874
67.49975082 -73.70796824 -83.71675839
43.38100482 -125.384129 -9.738617291e-05
63.49975082 -87.51249808 -76.61035639
5.037974821 -90.0475494 -9.738617291e-05
-63.39996418 -2.498423825e-05 -227.1108844
63.49975082 -64.71143323 -154.3300714
12.21485682 -2.498423825e-05 -127.9576754
67.49975082 -84.66972251 -24.04436139
-18.29862618 -63.736257 -9.738617291e-05
63.49975082 -28.83780232 -121.2074784
-55.72774518 -2.498423825e-05 -204.5052804
67.49975082 -60.86722031 -83.41329139
62.18367282 -91.78366688 -9.738617291e-05
-41.22221118 -2.498423825e-05 -112.8063224
51.67438582 -2.498423825e-05 -240.9128104
-79.59588218 -29.11748333 -9.738617291e-05
72.25751482 -30.09763514 -9.738617291e-05
67.49975082 -39.7215484 -100.2849294
-78.65637218 -44.63037124 -9.738617291e-05
19.55112982 1.879323506 -9.738617291e-05
-38.67457118 -80.24819798 -9.738617291e-05
67.49975082 -20.71886358 -143.7428854
71.96876082 -2.498423825e-05 -50.74740839
63.49975082 -43.63238055 -190.0570334
36.75882882 -2.498423825e-05 -218.3478274
67.49975082 -13.35272574 -24.65007539
-40.53862718 -2.498423825e-05 -199.1987934
63.49975082 -36.49644692 -26.27864039
-46.88444118 -2.498423825e-05 -226.5503704
63.49975082 -56.88338282 -201.8970414
-54.50563518 -71.9245972 -9.738617291e-05
71.14537582 -2.498423825e-05 -141.4747674
67.49975082 -17.18528485 -111.8076984
13.41800282 -2.498423825e-05 -242.1356314
-55.14001918 -17.11593363 -9.738617291e-05
63.49975082 -7.073844904 -140.8505114
-76.88792918 -2.498423825e-05 -100.6502034
67.49248782 -66.2716424 -1.500097386
-0.7218861788 -2.498423825e-05 -171.8513394
17.79922782 -2.498423825e-05 -133.6308014
73.34252682 -110.7614421 -9.738617291e-05
67.49975082 -22.96150437 -187.4854234
63.49975082 -11.65979832 -223.7237234
-15.38150818 -2.498423825e-05 -210.2547534
55.72868682 -2.498423825e-05 -221.0334724
-80.27689818 -2.498423825e-05 -200.4669354
44.32656482 -18.75958415 -9.738617291e-05
66.49687982 -121.2290921 -9.738617291e-05
63.49975082 -97.57206942 -29.36167739
-67.49927218 0.01774885576 -243.7589284
38.73390982 -2.498423825e-05 -139.7018774
-47.06328518 -54.85123533 -9.738617291e-05
-36.26572618 -2.498423825e-05 -88.45890739
-12.63041318 -119.4006286 -9.738617291e-05
-69.26420118 -2.498423825e-05 -143.4558344
63.49975082 -5.945516644 -60.07352639
55.78796882 -2.498423825e-05 -114.0429334
63.00801382 -81.9291975 -9.738617291e-05
-79.14874418 -2.498423825e-05 -225.4581604
63.49975082 -25.8311662 -242.7737344
-69.65539618 -2.498423825e-05 -20.99519939
32.99795382 -2.498423825e-05 -120.6678034
14.78949282 -2.498423825e-05 -108.0613834
-54.64869518 -2.498423825e-05 -106.1270144
-15.96901418 -99.90881049 -9.738617291e-05
67.49975082 -56.30617899 -194.6406974
-50.06233818 -2.498423825e-05 -85.91050639
63.49975082 -22.82743689 -67.65318239
-64.45144918 -32.8651328 -9.738617291e-05
63.49975082 -16.42097253 -160.3373384
63.49975082 -44.99729121 -21.36849339
55.98635882 -28.46202122 -9.738617291e-05
63.49975082 1.053798346 -210.9506954
-61.65580018 -2.498423825e-05 -103.0708714
67.49975082 -76.17573348 -40.14113339
-43.96513718 -2.498423825e-05 -251.4921664
63.49975082 -10.05600933 -42.07192639
-51.04798318 -26.05244355 -9.738617291e-05
67.01116682 -67.96723153 -177.1921894
67.49975082 -31.84841126 -201.4701924
67.49975082 -43.26359024 -152.1350614
63.49975082 -16.99826122 -182.9979224
-24.15852918 -2.498423825e-05 -63.83371439
17.17958182 -126.6306579 -9.738617291e-05
-63.33574318 -2.498423825e-05 -205.7315644
36.67670382 -3.336797104 -9.738617291e-05
67.49975082 -60.0240316 -15.86889639
-66.53625818 -76.08338688 0.9031686138
-8.267495179 -57.6424954 -9.738617291e-05
-73.33222018 -18.34069433 -9.738617291e-05
67.49975082 -46.99438912 -84.78344839
4.806475821 -2.498423825e-05 -198.6846534
63.49975082 -10.79667753 -209.3130224
7.784335821 -14.60569874 -9.738617291e-05
-52.01022518 -80.01782212 -9.738617291e-05
59.47224682 -2.498423825e-05 -31.11199939
58.10295182 -2.498423825e-05 -192.0212194
-14.47825318 -2.498423825e-05 -176.6503544
-6.621720179 -2.498423825e-05 -222.8738184
64.66098082 -2.498423825e-05 -236.7650244
-18.71038718 -2.498423825e-05 -226.1717254
-79.69853718 -2.498423825e-05 -161.5064954
63.49975082 -55.59628189 -33.02256639
40.62706782 -100.6276986 -9.738617291e-05
25.37663182 -34.21530749 -9.738617291e-05
67.49975082 -13.09940901 -78.42925739
-68.32274518 -2.498423825e-05 -5.845877386
-5.330537179 -2.498423825e-05 -0.2918363862
67.49975082 -45.87267977 -14.65561139
63.49975082 -54.56710149 -124.8124134
83.09677182 -42.3993784 -9.738617291e-05
67.49975082 -65.55923135 -42.42751739
63.49975082 -54.87352806 -247.3098584
-24.35584318 -2.498423825e-05 -232.1869424
67.49975082 -0.5108769942 -180.9305484
63.49975082 -25.24448597 -251.5657274
-3.417250179 -51.8076668 -9.738617291e-05
67.49975082 -6.240597714 -102.4094584
63.49975082 -5.183462954 -78.63749739
63.49975082 -105.1336021 -10.45715939
67.49975082 -77.73533253 -12.05382639
5.807542821 -2.498423825e-05 -220.3623994
-24.25832318 -2.498423825e-05 -8.422755386
67.49975082 -35.16725502 -183.6611564
67.49975082 -102.5045287 -25.02033639
29.31805982 -2.498423825e-05 -234.5354054
67.49975082 -41.25334128 -168.3898354
0.7528778212 -2.498423825e-05 -83.58608639
74.18210282 -2.498423825e-05 -61.25757539
40.41638082 -2.498423825e-05 -228.8867344
67.49975082 -22.0325851 -106.2402814
63.00072782 1.726397536 -65.17693139
-23.17987718 -4.900323564 -9.738617291e-05
13.30480882 -2.498423825e-05 -205.2337894
67.49975082 -111.8017762 -20.06507339
80.80045782 -2.498423825e-05 -113.7769304
67.49975082 -61.30531095 -105.6767254
21.64784382 -2.498423825e-05 -141.2704814
-38.43046718 -2.498423825e-05 -242.8060064
56.77457182 -2.498423825e-05 -145.2261754
63.49975082 -27.78615932 -191.9005364
63.49975082 -41.34257897 -212.9777574
85.08201082 -60.8881217 -9.738617291e-05
-55.18807718 -63.38276203 -9.738617291e-05
-45.80268218 -95.54122136 -9.738617291e-05
-9.266537179 -2.498423825e-05 -183.2617664
67.37230982 -59.5026359 -219.9005834
67.49975082 -9.208639924 -35.16561539
29.12022282 -119.5898861 -9.738617291e-05
78.86261582 -3.222217454 -9.738617291e-05
50.29425082 -34.97030016 -9.738617291e-05
63.00072782 2.272609436 -228.4146014
-27.62899218 -2.498423825e-05 -158.2790434
31.90673282 -2.498423825e-05 -244.8433374
-79.55658518 -2.498423825e-05 -67.03651739
-37.14880118 -2.498423825e-05 -161.7252134
47.43843682 -2.498423825e-05 -153.7474854
55.93483382 -2.498423825e-05 -203.1646664
67.49975082 -53.71820085 -76.16303139
43.47584082 -2.498423825e-05 -28.33447739
57.78483082 -18.80259186 -9.738617291e-05
67.49975082 -39.23603136 -85.30765339
85.13005382 -16.18005232 -9.738617291e-05
63.49975082 -40.48627313 -117.6320654
63.49975082 -32.90687699 -99.32123139
65.01209182 -2.498423825e-05 -163.0920044
-43.74451318 -2.498423825e-05 -178.2671744
63.49975082 -71.09669906 -89.87246139
19.42667482 -2.498423825e-05 -167.2678624
45.67959682 -51.78631554 0.5142416138
67.49975082 -66.20941052 -161.2721164
86.90810082 -2.498423825e-05 -74.08343639
63.49975082 -25.02798905 -36.70518239
81.80451882 -29.81468948 -9.738617291e-05
63.49975082 -23.75324073 -169.0015544
67.49975082 -18.65009502 -99.88681439
-52.71432818 -2.498423825e-05 -56.20337339
71.81610582 -96.91679817 -9.738617291e-05
-54.83805218 -2.498423825e-05 -40.48873639
67.49975082 -53.40130126 -136.9288924
-13.92209518 -2.498423825e-05 -47.72719239
50.88552182 -2.498423825e-05 -79.54466639
63.49975082 -51.00450788 -109.0479524
-81.65951318 -2.498423825e-05 -185.0668574
-15.04045318 -2.498423825e-05 -140.4405284
67.49975082 -3.457987034 -169.7003144
67.49975082 -7.691359794 -18.62651639
-58.15399118 -2.498423825e-05 -218.3439344
63.49975082 -7.760623144 -124.9471854
-11.70134318 2.329651486 -9.738617291e-05
68.57423782 -11.03804824 -9.738617291e-05
-60.17389718 -2.498423825e-05 -28.39957339
-68.67352518 -2.498423825e-05 -195.3893884
-37.14811218 -3.659754594 -9.738617291e-05
63.49975082 -53.93747939 -151.2127404
21.49220982 -2.498423825e-05 -8.882784386
74.19882882 -2.498423825e-05 -27.14889939
67.49975082 -75.30195353 -71.42213239
67.49975082 -63.49823756 -94.92586239
67.49975082 -4.991582874 -89.73066039
54.03012882 -2.498423825e-05 -180.5572464
-13.26380718 -2.498423825e-05 -106.7467224
53.78896782 -2.498423825e-05 -26.06909739
71.72946282 -2.498423825e-05 -75.24593239
-38.06048018 -2.498423825e-05 -80.52716539
25.16389782 -2.498423825e-05 -32.47756539
1.318594821 -113.3505593 -9.738617291e-05
63.49975082 -18.97819504 -53.89893939
-3.832340179 -2.498423825e-05 -100.3487994
63.49975082 -65.5942354 -110.4164004
5.032256821 -128.6197522 -9.738617291e-05
63.49975082 -2.851561394 -154.0098414
-16.00641418 -2.498423825e-05 -92.41891339
34.36662382 -2.498423825e-05 -62.41202839
-85.36440518 -2.498423825e-05 -217.6766014
-60.58829118 -2.498423825e-05 -156.4203244
41.81998982 -26.79200441 -9.738617291e-05
62.40317282 -2.498423825e-05 -114.2759574
13.12405282 -2.498423825e-05 -114.9110704
-33.01926218 -95.62392271 -9.738617291e-05
63.49975082 -66.97724665 -52.74710639
-40.64915918 -41.62389996 -9.738617291e-05
63.49975082 -13.91422828 -196.6844074
-77.62894518 -2.498423825e-05 -2.650966386
73.06315682 -124.8415448 -9.738617291e-05
-58.71362618 -2.498423825e-05 -53.50922139
36.49197382 -2.498423825e-05 -178.2759884
15.64145982 -17.97923913 -9.738617291e-05
67.49975082 -33.65677121 -62.63303139
60.64321582 -2.498423825e-05 -23.66086939
30.77825582 -2.498423825e-05 -85.07789739
63.49975082 -29.75261535 -138.3461144
67.49975082 -103.8434814 -41.01492339
63.49975082 -53.65318762 -221.9279624
67.49975082 -47.06449574 -135.2521344
67.49975082 -77.83601695 -114.2773294
67.49975082 -37.3228824 -46.55823039
63.49975082 -83.80794323 -37.24145339
-59.06283718 -9.813678884 -9.738617291e-05
63.49975082 -33.0869673 -219.8648994
68.21652982 -2.498423825e-05 -130.0477504
10.26436182 -2.498423825e-05 -32.72685539
2.431204821 -60.24219813 -9.738617291e-05
63.49975082 -78.68880069 -103.4031514
67.49975082 -54.55917763 -5.718572386
18.70686982 -50.76329421 -9.738617291e-05
67.49975082 -73.08327692 -133.6506004
63.49975082 -53.04057864 -161.0552974
67.49975082 -98.89927907 -14.06297839
63.49975082 -13.66661441 -63.18506039
67.49975082 -35.45264014 -105.9847854
83.45541882 -103.3513792 -9.738617291e-05
67.49975082 -91.22163994 -59.69220839
87.70670982 -2.498423825e-05 -232.6718574
15.41995382 -2.498423825e-05 -38.76615239
-6.974423179 -2.498423825e-05 -19.80940439
-27.94004418 -2.498423825e-05 -211.7974234
-38.09567018 -2.498423825e-05 -149.5122684
-42.62216318 -2.498423825e-05 -237.3709164
-2.177312179 -2.498423825e-05 -61.22086039
-46.20962018 -16.44630169 -9.738617291e-05
63.49975082 -91.40417506 -47.99206439
-62.45091618 -2.498423825e-05 -166.6599834
57.28101382 -2.498423825e-05 -132.4853614
-73.40189518 -2.498423825e-05 -108.9868894
63.49975082 -36.85653252 -178.1415524
52.20939382 -2.498423825e-05 -15.59996539
72.30209582 -2.498423825e-05 -243.9104914
63.49975082 -40.62831198 -236.7334864
7.994101821 -2.498423825e-05 -245.7642714
74.86836882 -69.30729372 -9.738617291e-05
-9.759148179 -2.498423825e-05 -30.36504239
9.059948821 -2.498423825e-05 -81.95086039
-2.509576179 -73.80670149 -9.738617291e-05
64.28253082 -2.498423825e-05 -86.38215239
67.49975082 -76.01177009 -140.1847304
67.32534282 -112.4087418 -30.57948739
-26.68751118 -93.8789397 -9.738617291e-05
-60.14365118 -2.498423825e-05 -250.5790434
67.49975082 -25.78650747 -87.85939139
63.49975082 -44.83619796 -100.6510274
2.695339821 -50.08435027 -9.738617291e-05
67.49975082 -75.29237923 -20.64013139
10.51528182 -2.498423825e-05 -189.3300754
63.49975082 -42.68307464 -138.2143334
63.49975082 -26.72571285 -77.49629439
-12.83079118 -110.8539113 -9.738617291e-05
63.49975082 -35.66175625 -210.2659464
-41.08463118 -2.498423825e-05 -26.59457339
63.49975082 -19.37621495 -221.7995314
0.9713318212 -5.133545024 -9.738617291e-05
32.04839082 -92.38409277 -9.738617291e-05
-53.42774418 -2.498423825e-05 -32.73677539
63.49975082 -28.87832368 -231.9441224
-10.82419318 -2.498423825e-05 -200.0530304
67.49975082 -31.17454817 -79.70938539
-17.71219118 -2.498423825e-05 -38.63184239
67.49975082 -43.00482528 -162.3715044
67.49975082 -59.70282984 -171.0626924
17.18631382 -5.983811214 -9.738617291e-05
-7.797599179 -100.3634927 -9.738617291e-05
44.01147582 -2.498423825e-05 -53.06163539
63.49975082 -24.18825882 -101.9610924
67.49975082 -49.51476089 -179.1825874
12.77643682 -96.92265173 1.503200614
63.49975082 -50.32607692 -53.40661739
-37.27536618 -2.498423825e-05 -64.62360839
63.49975082 -70.85683504 -25.89911739
-39.86767118 -2.498423825e-05 -43.42194639
67.49975082 -40.47673311 -11.33408039
63.49975082 -60.31618197 -24.08781639
63.49975082 -108.3405381 -5.149272386
67.49975082 -60.57043415 -61.97016639
60.59699582 -62.26769207 -9.738617291e-05
63.51070682 -15.32603028 -9.771980386
0.5495238212 -2.498423825e-05 -229.2730914
63.97305682 -88.07663193 -100.7785044
67.49975082 -31.21862335 -25.70572239
-18.29853818 -2.498423825e-05 -202.3350064
67.49975082 -32.25277061 -134.0136094
67.49975082 -23.46500197 -57.21832639
63.49975082 -24.81078122 -157.9324474
42.07931482 -2.498423825e-05 -18.01742939
67.49975082 -50.91944727 -227.4301414
-74.21797718 -2.498423825e-05 -55.01358439
-84.49124818 -2.498423825e-05 -34.66662639
63.49975082 -23.5836085 -14.20880739
-37.36226618 -35.64368227 -9.738617291e-05
63.49975082 -5.569445444 -66.20237339
63.49975082 -24.14713458 -213.6891374
-48.39505318 -60.83457727 -9.738617291e-05
-29.76639318 -2.498423825e-05 -136.8423754
-67.49927218 2.285170476 -74.40444039
31.58278382 -2.498423825e-05 -0.6177363862
67.49975082 -48.39607915 -246.1033154
67.49975082 -22.69526501 -206.9599974
-29.94633818 -2.498423825e-05 -118.3603364
-20.41495018 -2.498423825e-05 -24.10448839
-30.24660418 -2.498423825e-05 -220.6223824
67.49975082 -99.4158614 -59.70145439
67.49975082 -51.54461558 -96.98386439
67.49975082 -33.80869529 -92.09973839
63.49975082 -4.902372934 -50.17818239
47.73302282 -2.498423825e-05 -3.972482386
67.49975082 -16.29562046 -49.26355739
67.49975082 -13.92502684 -18.44681239
67.49975082 -9.357093724 -83.75340939
67.49975082 -41.88133521 -26.75304139
69.86825782 -5.109688604 -9.738617291e-05
67.49975082 -3.775875444 -55.91667939
63.49975082 -16.39072436 -85.74776639
5.281539821 -2.498423825e-05 -18.77511239
44.81636282 -2.498423825e-05 -40.08015539
-24.00421818 -105.6061062 -9.738617291e-05
63.49975082 -58.87079771 -53.01784039
67.49975082 -12.33305971 -247.4061344
67.49975082 -92.28413257 -13.91870139
67.49975082 -44.28115686 -110.0949874
63.49975082 -19.6572473 -45.37360139
67.49975082 -7.364472084 -201.4603164
82.51895982 -2.498423825e-05 -210.5900004
63.49975082 -72.43808186 -117.1298294
46.82475382 -110.798779 -9.738617291e-05
-14.26116818 -57.43572905 -9.738617291e-05
-24.66657718 -61.26500289 -9.738617291e-05
77.17050382 -2.498423825e-05 -184.2283964
65.43400982 -2.498423825e-05 -250.1217504
67.49975082 -10.29198133 -163.7035724
68.00072782 2.250720826 -216.8586814
-45.29246818 -27.62752444 -9.738617291e-05
63.49975082 -23.9641108 -92.38968039
1.863543821 -2.498423825e-05 -55.69140039
41.14716582 -2.498423825e-05 -8.525950386
63.49975082 -83.57716638 -93.29949239
18.97939982 -68.99114126 -9.738617291e-05
-63.66594818 -64.19697238 -9.738617291e-05
54.03158682 -2.498423825e-05 -171.2428174
63.49975082 -65.03674664 -6.030027386
-26.73826118 -32.2378221 -9.738617291e-05
1.818278821 -2.498423825e-05 -235.0804114
-48.68539418 -2.498423825e-05 -170.5849234
-38.12714618 -16.36845039 -9.738617291e-05
67.49975082 -4.836893964 -234.8006734
53.07541682 -2.498423825e-05 -51.06685639
74.69322282 -2.498423825e-05 -224.6625054
67.49975082 -61.2253638 -34.90135639
-52.12494418 -2.498423825e-05 -131.2618154
67.49975082 -72.75009998 -97.27056339
67.49975082 -17.21625755 -218.0075184
51.13752082 -2.498423825e-05 -224.7665014
34.63491282 -2.498423825e-05 -165.9235674
-10.97334418 -2.498423825e-05 -72.29715539
63.49975082 -78.54991967 -96.44156939
54.00484582 -2.498423825e-05 -247.2271154
67.49975082 -9.230377504 -174.7456634
67.49975082 -95.28780993 -33.31325339
37.63443782 -2.498423825e-05 -124.3218304
-30.62236318 -2.498423825e-05 -51.31309339
-73.03171818 -2.498423825e-05 -172.4975594
67.49975082 -80.03403785 -32.64239039
63.49975082 -78.14035117 -87.30257539
-25.20457018 -2.498423825e-05 -238.2448404
-43.02544018 -2.498423825e-05 -161.7689484
-62.99581718 -2.498423825e-05 -62.90061339
-13.22835618 -2.498423825e-05 -14.27535739
63.49975082 -18.95733916 -133.2643674
-34.74319718 -2.498423825e-05 -205.9479414
15.88188682 -57.61249336 -9.738617291e-05
67.49975082 -5.331112324 -39.56500239
63.49975082 -13.77957925 -69.44080539
67.49975082 -46.62840461 -221.8037844
67.49975082 -75.28815253 -62.48665539
-41.78305118 -2.498423825e-05 -190.7287294
-31.73689618 -2.498423825e-05 -95.23611839
-28.06868818 -114.4308906 1.654643614
56.72922782 -85.34089906 -9.738617291e-05
67.49975082 -55.19180023 -64.25555439
67.49975082 -88.93761195 -20.05332839
15.70436182 -2.498423825e-05 -234.6046394
63.49975082 -5.372224374 -22.17907839
-72.88947918 -2.498423825e-05 -158.3845914
67.57501182 -2.498423825e-05 -14.77588439
63.78182782 -2.498423825e-05 -196.6403474
63.49975082 -58.99750496 -145.9078484
-18.84229718 -2.498423825e-05 -219.2753234
63.49975082 -50.57496707 -102.2292364
63.49975082 -13.44747411 -187.5900164
63.49975082 -66.21792885 -172.9193524
67.49975082 -53.97438725 -112.3371464
63.49975082 -5.186333144 -165.8758434
-54.12226218 -5.022930624 -9.738617291e-05
-54.71830218 -2.498423825e-05 -113.1409054
63.49975082 -60.41005109 -193.8038794
-45.42798718 -2.498423825e-05 -116.7743924
67.49975082 -8.702160204 -112.0473434
67.49975082 -54.07883288 -25.78509139
44.24518882 -2.498423825e-05 -90.87661939
22.73388582 -2.498423825e-05 -162.5346384
19.36199382 -114.424881 -9.738617291e-05
80.74284382 -2.498423825e-05 -99.82968439
67.49975082 -102.838575 -50.39066639
-71.64964818 -2.498423825e-05 -129.7628994
67.49975082 -21.83474268 -249.1913684
45.46934282 -87.03686476 0.9388706138
12.03908482 -111.9326621 -9.738617291e-05
67.49975082 -90.02132951 -69.64542539
67.49975082 -64.44462518 -127.6868694
67.49975082 -42.95108321 -126.0729664
63.49975082 -28.03820255 -223.3168624
63.49975082 -52.36734705 -210.6109054
-80.35591018 -2.498423825e-05 -96.07235739
75.97787682 -2.498423825e-05 -156.8029384
-4.698409179 -2.498423825e-05 -166.6533294
63.49975082 -86.99324307 -44.32949039
50.95019282 -2.498423825e-05 -162.1412224
9.686902821 -20.01043256 -9.738617291e-05
63.49975082 -7.589913474 -237.8332334
67.49975082 -45.59904855 -62.79703639
67.49975082 -33.89983707 -56.18001239
-41.77650918 -2.498423825e-05 -20.66468339
63.49975082 -54.28207031 -89.54793439
22.13943082 -104.0392784 -9.738617291e-05
29.87987882 -21.99473271 -9.738617291e-05
-11.64624818 -2.498423825e-05 -162.3244584
67.34451382 -2.498423825e-05 -41.58828739
63.66375482 -80.6943461 -126.1019084
-8.646861179 -2.498423825e-05 -82.59440539
67.49975082 -40.92208415 -228.5256024
6.299744821 -37.165013 -9.738617291e-05
63.49975082 -38.91147757 -51.87337239
67.49975082 -32.58520424 -36.40197139
-39.14111218 -2.498423825e-05 -172.4653774
67.49975082 -30.73452697 -111.1193964
63.49975082 -49.92267818 -42.45645539
63.49975082 -44.78418745 -158.3675074
63.49975082 -85.84220056 -87.42041739
63.49975082 -36.06599845 -110.8452994
-38.41701018 -2.498423825e-05 -180.2993104
-4.757060179 -2.498423825e-05 -53.73417939
67.49975082 -12.97424476 -183.0552284
67.49975082 -84.87072039 -73.57898739
63.49975082 -14.05457542 -92.93000139
38.10842082 -56.82116085 -9.738617291e-05
67.49975082 -51.71549003 -241.5212584
63.49975082 -29.53132679 -89.29899539
67.49975082 -45.22393217 -119.7176904
63.49975082 -67.4708242 -143.5977184
63.49975082 -78.10647549 -118.2602204
63.49975082 -59.32646662 -175.8408044
63.49975082 -58.02905619 -74.20957139
15.53053782 -2.498423825e-05 -225.0365494
67.49975082 -66.42819126 -61.57467839
-52.75711918 -2.498423825e-05 -213.4505224
-25.35880018 -2.498423825e-05 -243.8767434
-18.34264618 -94.80407666 -9.738617291e-05
63.49975082 -79.63063812 -58.39696039
67.49975082 -36.05634483 -74.39352839
63.49975082 -95.59880717 -4.543345386
67.49975082 -21.38203279 -27.39568339
67.49975082 -41.96562146 -142.0871864
63.49975082 -69.23204161 -74.40610239
63.49975082 -16.74351208 -209.7054134
63.49975082 -4.084921704 -173.5821784
63.49975082 -19.6741441 -194.7775814
-61.19251618 -77.50407412 -9.738617291e-05
67.49975082 -25.71959909 -123.5853694
63.06120482 -127.1415546 -9.738617291e-05
10.60679982 -2.498423825e-05 -57.66997139
47.00510982 -2.498423825e-05 -113.8259684
67.49975082 -67.4227915 -151.1685034
67.49975082 -25.32926585 -81.13520639
63.49975082 1.443921876 -73.36458539
67.49975082 -48.80346177 -192.6688414
19.53551282 -2.498423825e-05 -125.1762174
31.24813182 -2.498423825e-05 -175.4146894
63.49975082 -67.01281825 -46.30014739
-48.71949318 -2.498423825e-05 -248.6053594
53.58666882 -23.44423661 -9.738617291e-05
80.27206982 -117.833517 0.8161426138
-5.691314179 -2.498423825e-05 -75.20679739
67.49975082 -93.54973289 -77.95288939
67.49975082 -114.3033456 -13.69033139
3.003347821 -73.11066529 -9.738617291e-05
-67.49927218 0.0008755357618 -152.4869574
63.49975082 -71.88870421 -13.69128439
67.49975082 -45.07964924 -56.80367239
-46.48794818 -70.70202528 -9.738617291e-05
63.49975082 -7.135501004 -245.7050574
67.49975082 -63.79405021 -11.81079739
63.49975082 -43.29397094 -201.4341314
-26.11677118 -2.498423825e-05 -17.56271639
63.49975082 -73.30077126 -102.1475894
-2.553507179 -117.8960516 -9.738617291e-05
60.41127982 -43.18676955 -9.738617291e-05
63.49975082 -48.66413301 -131.7899894
63.49975082 -63.83002429 -185.2738114
66.98778982 -2.498423825e-05 -0.03376138617
67.49975082 -63.02846935 -113.2279374
63.49975082 -46.96927193 -211.8968674
-29.46669718 -2.498423825e-05 -185.2275114
67.49975082 -7.583731684 -119.4049694
67.49975082 -115.9541319 -6.177851386
67.49975082 -58.97740259 -78.24026939
63.49975082 -73.3563912 -36.45323539
67.49975082 -12.40719869 -45.36721439
-24.93145518 -2.498423825e-05 -219.0931014
36.98885282 -2.498423825e-05 -233.1906234
71.61489882 -22.31160606 -9.738617291e-05
67.49975082 -27.06382307 -43.21074539
63.49975082 -38.20950177 -189.1573114
67.49975082 -21.04188019 -166.3854594
67.49975082 -37.71188836 -133.3900944
67.49975082 -29.10524313 -244.6336414
43.27087782 -2.498423825e-05 -175.4432554
63.49975082 -17.29582432 -165.7561574
63.49975082 -12.64479452 -217.5212764
63.49975082 -9.782631134 -154.0341654
-82.50113418 -2.498423825e-05 -208.0963344
63.49975082 -22.82701805 -176.7916544
78.39779782 -108.6547525 -9.738617291e-05
67.49975082 -84.95590966 -54.89577739
63.49975082 -97.45833274 -36.58354439
67.49975082 -86.85461452 -15.00202439
67.49975082 -1.202750354 -191.0761844
63.49975082 -11.67549414 -179.1301254
63.49975082 -38.23551647 -241.6405534
63.49975082 -42.61132083 -87.63762139
48.18786482 -2.498423825e-05 -97.21569339
67.49975082 -14.0385875 -125.1127184
38.99023682 -2.498423825e-05 -116.2324344
67.49975082 -4.181043314 -213.9319934
63.49975082 -20.22149983 -203.5143504
37.57701682 -2.498423825e-05 -245.6092724
64.73963082 -2.498423825e-05 -48.16117739
-79.43156518 -2.498423825e-05 -17.23010639
67.49975082 -49.87001113 -152.1125424
-6.075528179 -68.01277609 -9.738617291e-05
-14.66760918 -7.195472224 -9.738617291e-05
63.49975082 -31.69407029 -157.9277164
67.49975082 -66.63587684 -106.7946904
-45.17959818 -2.498423825e-05 -146.4105694
-69.96006918 -2.498423825e-05 -178.5834034
70.05467982 -2.498423825e-05 -237.3931354
63.49975082 -48.89837902 -70.83880739
67.49975082 -61.46418343 -150.8040714
63.49975082 -32.80106542 -18.22072639
55.74756682 -2.498423825e-05 -67.74064339
14.77100582 -85.79822754 -9.738617291e-05
63.49975082 -68.62999781 -80.08087239
63.49975082 -0.4828090642 -106.7241954
67.49975082 -10.52166267 -94.13788039
67.49975082 -72.51252636 -108.8182674
67.49975082 -25.45389688 -7.181057386
-56.55665218 -42.32923591 -9.738617291e-05
59.36675782 -105.6260122 -9.738617291e-05
-26.01144918 -2.498423825e-05 -25.06041039
11.34613682 -65.88286302 -9.738617291e-05
67.49975082 -16.65857151 -32.57829439
-67.07887218 -1.257456894 -9.738617291e-05
67.49975082 -50.61569993 -167.7173354
67.49975082 -20.36579633 -172.9478294
43.21598782 -12.75310825 -9.738617291e-05
67.49975082 -54.04281316 -103.2554554
67.49975082 -95.02945509 -66.36090039
63.49975082 -18.71917207 -39.79302539
67.49975082 -29.34008722 -170.4028004
2.777755821 -2.498423825e-05 -33.36472439
63.49975082 -70.71847935 -58.51020439
67.49975082 -75.50669233 -7.161700386
-49.85622518 -2.498423825e-05 -4.974572386
63.49975082 -65.7213942 -24.32613539
81.90363982 -2.498423825e-05 -237.5048144
67.49975082 -41.7272138 -217.5337124
67.49975082 -41.75006198 -39.61054439
68.00072782 0.3212365958 -228.4118134
-69.65836018 -2.498423825e-05 -31.35721139
-36.41962418 -2.498423825e-05 -217.7748804
-5.945115179 -2.498423825e-05 -216.4916754
67.49975082 -46.90244356 -204.3562254
-39.38656518 -60.6098203 -9.738617291e-05
67.49975082 -21.64026051 -42.41559439
67.49975082 -3.167680814 -63.57774839
63.49975082 -51.32281658 -237.7678214
63.49975082 -60.2803345 -157.5957074
-27.23230318 -2.498423825e-05 -58.99829039
65.85194682 -56.84450024 -235.2469104
-50.90258418 -2.498423825e-05 -239.2095704
-31.62074618 -2.498423825e-05 -22.03577139
67.49975082 -76.45977568 -126.7644554
63.49975082 -28.83226133 -150.2417164
63.49975082 -48.48861026 -123.3484094
63.49975082 -58.46351263 -206.9881174
67.49975082 -3.729682584 -139.7474514
-42.31919918 -2.498423825e-05 -107.5916664
63.49975082 -55.5417884 -118.0338074
67.49975082 -9.062207184 -229.9037644
67.49975082 -89.82863643 -25.35733239
67.49975082 -69.90264786 -48.29626539
63.49975082 -75.77002289 -65.95973439
63.49975082 -48.92394182 -33.23276739
66.78871082 -62.73002629 -202.4038274
63.49975082 -19.96709989 -118.0265914
67.49975082 -46.01853728 -187.5050204
85.67805382 -2.498423825e-05 -221.3039384
64.83567582 -97.98788383 -70.16155939
67.49975082 -66.93105311 -16.31990039
51.30832382 -14.88736775 -9.738617291e-05
63.49975082 -50.74705181 -182.6407564
-75.52669218 -2.498423825e-05 -213.1777994
67.49975082 -3.192066854 -34.70807839
-44.14157718 -2.498423825e-05 -231.0919224
23.84680582 -2.498423825e-05 -20.13645139
0.5917988212 -16.70470015 -9.738617291e-05
-10.63543118 -2.498423825e-05 -88.10051339
63.49975082 -47.56873193 -173.7101594
67.49975082 -22.05854467 -64.27263239
-83.65524618 -4.962996894 -9.738617291e-05
67.49975082 -42.68188875 -193.3832224
67.49975082 -2.005580984 -221.5538324
63.49975082 -116.3486831 -10.35396339
63.49975082 -20.28687933 -6.946934386
63.49975082 -62.13829618 -102.0933414
63.49975082 -33.40538842 -143.0764964
63.49975082 -49.29378768 -14.82042739
67.49975082 -18.71049254 -240.2167914
67.49975082 -29.22844651 -50.52753239
63.49975082 -11.62335792 -32.74413939
63.49975082 -42.12788995 -58.52826239
67.04016882 -84.94970861 -1.500097386
-61.93006918 -2.498423825e-05 -130.4896004
63.49975082 -56.46871051 -132.0469614
67.49975082 -5.241529124 -158.5116664
83.03785382 -56.04991344 -9.738617291e-05
-21.77322818 -115.6647255 -9.738617291e-05
63.49975082 -13.98685652 -144.5364244
67.49975082 -60.97395619 -160.9406734
63.49975082 -42.47268117 -148.6557494
63.49975082 -32.72837773 -190.1426854
42.65160482 -41.87936399 0.4398906138
67.49975082 -23.12254996 -148.3914124
-57.61363118 -23.08375357 -9.738617291e-05
-53.06475318 -2.498423825e-05 -158.1175414
63.49975082 -56.29747841 -106.4780144
-24.32344818 -49.99276053 -9.738617291e-05
63.49975082 -29.11994053 -207.2543784
67.49975082 -9.006386874 -68.72456039
83.86047282 -2.498423825e-05 -56.95097039
63.49975082 -62.8424522 -38.20034239
63.49975082 -25.60549318 -26.97416739
61.51413982 0.2559035458 -9.738617291e-05
63.49975082 -69.50341359 -160.6298214
63.49975082 -69.5099645 -98.13624939
63.49975082 -107.0849458 -24.91656839
-20.86688918 -2.498423825e-05 -69.66186739
67.49975082 -81.33204349 -62.51672439
63.49975082 -94.4521741 -61.50200539
40.19612182 -2.498423825e-05 -36.86380939
67.49975082 -43.54962473 -5.799486386
66.29389882 -69.5800078 -170.0924044
84.49888182 -91.90204278 -9.738617291e-05
67.49975082 -4.140962164 -26.67703839
67.49975082 -9.169464624 -187.1002104
67.49975082 -1.485441404 -208.8013464
67.49975082 -7.750895854 -206.6480964
63.49975082 -43.67418324 -33.55685939
63.49975082 -69.46631709 -2.434123386
67.49975082 -59.80166073 -123.0269484
63.49975082 -87.53679688 -82.40275339
65.65583982 -57.56250303 -1.500097386
67.49975082 -20.34556474 -15.42851039
63.49975082 -49.66626374 -94.28312139
65.92857982 -31.91524856 -9.738617291e-05
63.49975082 -27.37024027 -130.3999734
63.49975082 -51.41075198 -9.360159386
67.49975082 -52.88365352 -131.7836004
72.64045082 -2.498423825e-05 -151.9216274
-71.17900818 -66.84092396 -9.738617291e-05
67.49975082 -38.45331875 -175.2852104
67.49975082 -80.37314876 -27.48774839
63.49975082 -36.44182403 -31.44369439
63.49975082 -45.65302832 -81.80835039
63.49975082 -10.40128227 -56.40261139
63.49975082 -39.31803861 -74.23936539
67.49975082 -61.01772112 -55.47151439
67.49975082 -36.17157977 -230.5392764
63.49975082 -94.31099049 -22.52602939
-49.43574418 -2.498423825e-05 -106.3817024
67.49975082 -43.74343457 -69.44544139
67.49975082 -4.750203944 -123.7669984
67.49975082 -34.75257951 -166.1613404
72.50699182 -2.498423825e-05 -16.23357339
67.49975082 -96.36904327 -51.38079839
63.49975082 -23.64494688 -145.0604994
67.49975082 -9.824520604 -30.07585439
61.35338882 -2.498423825e-05 -125.3956524
63.49975082 -68.92818826 -133.4840864
67.49975082 -63.08781263 -192.0562174
67.49975082 -78.00867092 -100.2005014
67.49975082 -36.97819356 -246.2229254
63.56611482 -58.8377287 -223.7372254
67.49975082 -9.358334904 -138.6400774
63.49975082 -42.9593384 -243.9420664
2.734024821 -2.498423825e-05 -4.917084386
63.49975082 -44.85153493 -43.02947439
63.49975082 -10.11344512 -132.5984584
67.49975082 -106.107305 -33.14872639
67.49975082 -48.79461256 -24.53385139
63.49975082 -61.66042591 -131.9255864
67.49975082 -30.53768769 -10.13316539
46.84509382 -2.498423825e-05 -239.2862404
67.49975082 -103.693708 -15.78373039
63.49975082 -10.43056867 -20.18929339
67.49975082 -56.93535554 -148.4729034
63.49975082 -81.55590745 -46.76008739
67.49975082 -70.56489575 -163.9004354
63.49975082 -28.58113823 -53.88953439
-85.44914618 -21.29711489 -9.738617291e-05
67.49975082 -33.41576868 -212.4531784
-26.99860318 -2.498423825e-05 -196.8829014
63.49975082 -0.02259036424 -241.7107254
63.49975082 -42.21516687 -96.30306339
67.49975082 -75.84354138 -45.20502039
67.49975082 -21.28069032 -159.2770644
-79.41760918 -2.498423825e-05 -77.33925639
42.01687782 -2.498423825e-05 -188.7672554
63.49975082 -62.71132531 -138.6158904
17.85819882 -2.498423825e-05 -98.40485039
63.49975082 -79.01201822 -72.92056439
67.49975082 -5.073016224 -128.8140544
-85.64897218 -61.47667326 -9.738617291e-05
67.49975082 -75.17297714 -89.26796239
63.49975082 -23.46940284 -198.7823034
67.49975082 -27.42509394 -238.9530384
63.49975082 -59.63495792 -163.8372534
67.49975082 -49.02087879 -49.01529839
64.16840382 -103.2455736 -1.500097386
63.49975082 -51.08855287 -155.4844834
67.49975082 -52.07189281 -38.44073539
63.49975082 -11.23009385 -232.1879164
67.49975082 -22.32430455 -229.6668504
67.49975082 -101.430336 -30.14423839
63.49975082 -66.92136207 -118.0192914
81.24670282 -2.498423825e-05 -205.7132794
8.932601821 -2.498423825e-05 -109.6260044
-35.73923718 -84.33886394 -9.738617291e-05
63.49975082 -74.16008259 -50.64497939
63.49975082 -3.148434694 -218.3994644
63.49975082 -69.16983105 -105.1003854
26.17021982 -98.82114216 -9.738617291e-05
-14.88332418 -14.28971911 -9.738617291e-05
-25.58861918 -2.498423825e-05 -47.56349639
63.49975082 -64.36397449 -33.11950639
46.97085982 -2.498423825e-05 -73.18099539
67.49975082 -105.8053932 -6.799205386
72.24595882 -2.498423825e-05 -185.1699494
81.53377482 -2.498423825e-05 -187.1407284
63.49975082 -11.99276104 -82.28599439
67.49975082 -62.18461602 -74.39376339
63.49975082 -26.60934933 -47.28797539
67.49975082 -58.91208821 -199.2505174
63.49975082 -87.98861292 -10.50007239
67.49975082 -55.77372462 -142.3099184
67.49975082 -10.39541085 -238.8926324
67.49975082 -90.93592713 -43.59451239
26.88334382 -2.498423825e-05 -238.8969064
8.648680821 -2.498423825e-05 -117.1291864
63.49975082 -32.52000785 -105.3952074
67.49975082 -22.51623308 -129.1123374
63.49975082 -15.03195728 -27.12503839
-66.49927218 1.568373266 -103.0136454
63.49975082 -30.66010616 -241.5043164
67.49975082 -65.30696119 -86.77300839
63.49975082 -19.88851021 -216.6764674
63.49975082 -63.47325923 -14.77506339
67.49975082 -12.62873879 -252.3863024
63.49975082 -98.39610593 -54.73414539
63.49975082 -104.5047639 -36.44939439
63.49975082 -5.097907914 -42.56064739
-1.316739179 -2.498423825e-05 -148.0000404
67.49975082 -31.39416694 -179.1374054
-71.14148218 -2.498423825e-05 -41.30601139
67.49975082 -69.9563929 -140.3135694
67.49975082 -8.610699884 -169.0945844
39.97983482 -2.498423825e-05 -44.77505139
-66.49927218 0.7624377158 -147.6747484
63.49975082 -54.68728753 -40.88451339
63.49975082 -19.88672797 -236.4706404
67.49975082 -2.289060064 -73.99238939
63.49975082 -64.39015469 -82.67305139
45.63611082 -78.34331648 -9.738617291e-05
27.55016482 -2.498423825e-05 -10.56454239
71.95185082 -2.498423825e-05 -173.0487624
67.49975082 -85.21683443 -49.94289839
63.49975082 -63.84157075 -179.6141214
63.49975082 -51.8930108 -23.83284439
67.49975082 -12.61213453 -109.0000104
-1.595145179 -2.498423825e-05 -181.7557974
-67.51221318 -2.498423825e-05 -117.2384504
34.25048282 -2.498423825e-05 -200.0683314
63.49975082 -21.81761611 -76.82368239
-42.50492018 -2.498423825e-05 -220.7174324
67.49975082 -80.49294142 -37.71364439
67.49975082 -35.1219485 -22.65944539
67.49975082 -17.06094748 -206.2741504
67.49975082 -29.34153855 -100.7348334
67.49975082 -36.67864629 -202.5230014
67.49975082 -5.971801844 -134.1106164
63.49975082 -73.25597929 -136.5425904
63.49975082 -45.05746552 -11.87905039
67.49975082 -18.45338383 -224.5417564
63.49975082 -31.70024957 -67.73505039
67.49975082 -63.06803374 -176.8407784
-27.15493218 -109.8819636 -9.738617291e-05
63.49975082 -36.6375042 -65.59327739
63.49975082 -44.14877012 -112.9639974
67.49975082 -10.14816746 -146.0833634
63.49975082 -20.65475089 -97.83288939
63.49975082 -1.256205204 -224.8641454
63.49975082 -47.33010215 -139.8355304
63.49975082 -113.1059622 -6.465113386
67.49975082 -83.56167321 -110.9388024
63.49975082 -39.99203928 -231.2272044
-66.49927218 1.332417256 -164.2108124
42.10532982 -2.498423825e-05 -147.8788644
-43.27370018 -2.498423825e-05 -96.47951339
63.49975082 -61.69548645 -19.35025539
67.49975082 -59.16536014 -30.32544539
67.49975082 -53.65037694 -43.70336939
63.49975082 -50.20309622 -248.8168834
67.49975082 -54.85893822 -121.9869404
67.49975082 -34.65973847 -150.6495324
-53.67687918 -46.29674072 -9.738617291e-05
63.49975082 -28.85113675 -15.31862339
67.49975082 -17.24058762 -197.1037964
63.49975082 -100.6502608 -20.35961039
63.49975082 -27.07827824 -83.34792739
63.49975082 -87.97838459 -95.90879239
67.49975082 -19.36295251 -178.4468604
67.49975082 -56.85179349 -58.79553739
67.49975082 -92.37476165 -6.700571386
-49.22401518 -40.05644178 -9.738617291e-05
67.49975082 -3.107011584 -107.8877134
67.49975082 -27.48475692 -199.2699974
63.49975082 -41.23326358 -175.6749794
63.49975082 -57.14927681 -27.80706839
-63.59608218 -2.498423825e-05 -31.87927739
67.49975082 -77.98293666 -107.3107744
27.30183282 -2.498423825e-05 -226.8356204
63.49975082 -14.64577142 -120.8513884
67.49975082 -59.88767051 -138.2347684
63.49975082 -24.49860748 -42.11117939
67.49975082 -40.75591415 -65.25302739
67.49975082 -13.57813046 -98.94370639
67.49975082 -46.44520275 -98.37592839
27.47957982 -94.12609074 -9.738617291e-05
67.49975082 -52.33800166 -201.6845754
-32.96693518 -2.498423825e-05 -4.684444386
63.49975082 -85.40587814 -5.664190386
-41.81565918 -73.06335507 -9.738617291e-05
-26.56964018 -1.403415704 -9.738617291e-05
72.63126082 -2.498423825e-05 -214.6591404
67.49975082 -70.88696428 -28.92646039
67.49975082 -35.59315165 -8.542175386
63.49975082 -34.48865409 -59.98825439
67.49975082 -73.75003296 -147.3036204
33.04087082 -2.498423825e-05 -115.8016324
63.49975082 -92.80154705 -70.44741339
67.49975082 -24.35933405 -182.8263394
67.49975082 -28.89932627 -217.1847504
63.49975082 -25.73735294 -135.0929014
67.49975082 -15.4985539 -153.6883674
63.49975082 -69.92913126 -84.76423239
-27.23514118 -72.83774627 -9.738617291e-05
63.49975082 -24.65502455 -111.0716524
67.49975082 -13.52098832 -172.2543324
36.02374882 -98.56782307 -9.738617291e-05
67.49975082 -23.96824103 -70.15306939
63.49975082 -74.96976678 -93.16785839
63.49975082 -97.17788475 -11.71264639
63.49975082 -36.18437068 -216.1351434
63.49975082 -9.194051214 -160.1663994
67.49975082 -110.8021626 -25.80608439
-81.79383218 -2.498423825e-05 -46.67266539
63.49975082 -110.0295166 -17.74364039
67.49975082 -17.52095609 -232.8012734
63.49975082 -16.36510744 -17.23270039
67.49975082 -52.5452004 -84.46965839
-61.08512118 -2.498423825e-05 -177.0323314
39.30779082 -2.498423825e-05 -168.8452634
67.49975082 -30.68262915 -185.4688414
63.49975082 -30.04149053 -236.7120834
63.49975082 -12.35158061 -113.0360404
67.49975082 -15.45608918 -136.7531564
63.49975082 -15.16453428 -76.69550139
67.49975082 -61.15621903 -50.08712139
67.49975082 -48.95590033 -142.6523744
67.49975082 -26.00994915 -154.9568374
67.49975082 -68.3789943 -121.2058484
67.49975082 -66.9206998 -21.13915739
67.49975082 -35.52136358 -220.9973634
67.49975082 -45.78439847 -170.0245184
67.49975082 -48.58501629 -6.574500386
63.49975082 -53.60116107 -227.4843684
63.49975082 -38.2484897 -222.2128664
67.49975082 -11.89065919 -198.7012444
67.49975082 -32.65706129 -139.5675934
63.49975082 -56.9807385 -184.6225374
67.49975082 -68.66305742 -68.79734139
63.49975082 -52.97923888 -65.74778939
67.49975082 -81.93359511 -80.41679339
67.49975082 -53.20767894 -53.31800539
67.49975082 -63.32744418 -119.7750544
63.49975082 -61.53129088 -96.69424239
67.49975082 -97.54965184 -26.71993539
67.49975082 -41.75793685 -81.23194539
67.49975082 -54.75183618 -176.0744904
67.49975082 -60.20305895 -100.3077194
-15.57988618 -2.498423825e-05 -245.8100864
40.09190282 -2.498423825e-05 -202.0457294
-1.612529179 -40.1097371 -9.738617291e-05
0.2750178212 -2.498423825e-05 -77.82893039
67.49975082 -90.41531618 -33.83891739
-55.47061718 -2.498423825e-05 -120.3477164
67.49975082 -50.93532675 -57.53933939
63.49975082 -92.58540333 -18.07009839
67.49975082 -71.78688471 -129.0553504
63.49975082 -27.5443664 -176.0641374
63.49975082 -52.4217402 -199.0820954
64.15728182 -2.498423825e-05 -134.1848114
67.49975082 -47.46028635 -79.93858539
67.49975082 -38.03711127 -60.74493439
67.49975082 -85.11819295 -106.0704654
67.49975082 -9.178160194 -180.1750054
67.49975082 -50.06885501 -64.44431339
67.49975082 -9.299029514 -243.5270304
67.49975082 -52.87229697 -219.4660874
63.49975082 -44.56192447 -180.9906894
67.49975082 -39.5677853 -120.0403964
63.49975082 -78.36158842 -18.25009239
63.66113282 -73.57427667 -153.2143764
63.49975082 -18.07767726 -67.39816739
63.49975082 -21.08030209 -241.2150214
67.49975082 -41.54650376 -234.3385834
63.49975082 -8.674037414 -190.7076594
60.72058782 -28.84386756 -9.738617291e-05
67.49975082 -83.03969311 -85.47209239
63.49975082 -19.94894328 -140.3046414
67.49975082 -27.42508751 -205.1871504
67.49975082 -6.941663444 -248.2531904
63.49975082 -6.541977634 -96.29590439
67.49975082 -25.37670104 -12.39467139
67.49975082 -43.15670152 -246.6744794
63.49975082 -14.96215404 -236.3338814
67.49975082 -62.39687543 -156.1884194
-19.02648518 -103.5244469 -9.738617291e-05
67.49975082 -13.77978561 -229.5216934
67.49975082 -8.732262084 -193.2356014
67.49975082 -24.77149972 -31.93528939
-49.88238718 -34.86229996 -9.738617291e-05
63.49975082 -83.24211433 -66.71009339
67.49975082 -73.63479198 -77.56216339
63.49975082 -85.35620477 -21.62140739
-46.54783318 -2.498423825e-05 -199.0027574
63.49975082 -67.76428664 -10.51353439
67.49975082 -48.59377395 -74.56898039
30.96228782 -2.498423825e-05 -140.8284164
67.49975082 -34.15806596 -68.26961739
63.49975082 -23.08773238 -247.0121924
63.49975082 -41.61888058 -185.7834324
63.49975082 -11.85504145 -37.46190139
-24.79151818 -2.498423825e-05 -201.1295024
63.49975082 -5.418953584 -104.9236624
-60.12059118 -2.498423825e-05 -145.3873594
67.49975082 -35.37383271 -40.20543739
67.49975082 -79.20790057 -4.239117386
67.49975082 -73.22253656 -15.80220839
67.49975082 -53.23128093 -182.8736594
67.49975082 -5.049427474 -144.2721704
67.49975082 -48.5072447 -213.8558984
67.49975082 -82.54507458 -117.4142974
-20.62504918 -2.498423825e-05 -239.3371414
-22.36104518 -77.37430734 -9.738617291e-05
67.49975082 -14.56486939 -210.8898254
67.49975082 -49.39339287 -88.82978339
-55.26732018 -2.498423825e-05 -65.45430739
27.20096882 -2.498423825e-05 -119.2865114
63.49975082 -58.82381186 -189.3776954
67.49975082 -20.1012745 -36.37364839
63.49975082 -90.34986978 -30.13255939
67.49975082 -60.86218345 -42.26930439
63.49975082 -51.46665721 -244.0733304
63.49975082 -16.81027008 -114.5186774
63.49975082 -100.3410506 -50.45726339
63.49975082 -87.15862005 -55.99958939
63.49975082 -25.63867765 -116.1756774
22.94449582 -2.498423825e-05 -234.3420664
63.49975082 -63.60597274 -149.5925724
53.09257682 -113.2311429 -9.738617291e-05
67.36627282 -96.91514849 -1.500097386
63.49975082 -74.32135082 -131.5265254
67.49975082 -47.96369892 -162.7337504
63.49975082 -40.66155092 -196.3747554
67.49975082 -51.58131084 -196.4509634
67.49975082 -1.387344944 -151.6587504
63.49975082 -77.82264932 -53.57422039
67.49975082 -17.79504077 -122.3050134
-13.49225518 -2.498423825e-05 -223.2047284
64.16559082 -60.15851152 -216.1160554
67.49975082 -29.371079 -160.6499734
63.49975082 -60.79904709 -64.39423839
66.98981382 -108.5944645 -40.53814639
-73.54793118 -2.498423825e-05 -163.0163524
67.49975082 -13.49373289 -118.7208914
-23.75320118 -14.46576616 -9.738617291e-05
67.49975082 -37.13232725 -113.0420854
33.90924782 -34.61077858 -9.738617291e-05
67.55470882 -19.53843743 -9.738617291e-05
67.49975082 -15.66317367 -12.18199439
63.49975082 -75.835576 -82.57461939
-51.44337518 -2.498423825e-05 -60.69852139
67.49975082 -56.69316675 -72.20037139
63.49975082 -71.11063828 -41.43506939
63.49975082 -77.20867301 -29.90632739
63.49975082 -37.35612808 -1.841630386
67.49975082 -27.29699622 -234.2878574
81.40776282 -21.35675978 -9.738617291e-05
63.49975082 -26.49187569 -97.27329339
67.49975082 -55.17839053 -127.1313804
63.49975082 -42.20185467 -154.2854064
-37.21872118 -2.498423825e-05 -23.98626039
-1.810954179 -58.30552503 -9.738617291e-05
-52.12226918 -2.498423825e-05 -139.1843974
63.49975082 -51.49249965 -74.71073339
63.49975082 -45.95488045 -117.4411184
-11.58040818 -39.49107913 -9.738617291e-05
39.61071782 -18.51842263 -9.738617291e-05
81.43319682 -38.04722463 -9.738617291e-05
63.49975082 -64.00447123 -162.1858484
24.34282782 -2.498423825e-05 -220.1417024
63.49975082 -11.72760059 -149.3654264
63.49975082 -61.70651721 -169.7735304
67.49975082 -9.373117394 -49.33135439
63.49975082 -21.64967542 -182.8068874
63.49975082 -22.64993311 -122.1238554
67.49975082 -20.97689694 -152.7282474
63.49975082 -29.34878171 -125.8448774
67.49975082 -110.6419118 -4.547614386
67.49975082 -25.06274076 -22.49650039
66.37013882 -91.55506433 -89.57414439
63.49975082 -31.36326472 -33.08560139
63.49975082 -78.64421079 -34.56565839
63.49975082 -92.52009904 -36.88056039
63.49975082 -18.76999163 -145.0899534
63.49975082 -48.6883246 -149.9851654
63.49975082 -44.11126589 -233.3706414
67.49975082 -38.92845986 -160.1483884
67.49975082 -69.66960947 -33.78603239
63.49975082 -11.10597276 -202.0487284
55.64562582 -2.498423825e-05 -95.21694139
63.49975082 -16.99888138 -177.4513214
67.49975082 -25.43236806 -142.8907544
67.49975082 -57.49349551 -180.9459234
67.49975082 -8.146993634 -23.23985439
63.49975082 -77.95807689 -9.723056386
63.49975082 -66.35600586 -124.3394384
67.49975082 -87.67244482 -6.190396386
63.49975082 -25.49189119 -18.50110239
67.49975082 -95.38924712 -10.23016239
63.49975082 -33.43540564 -120.7126174
67.49975082 -81.36097638 -15.62632639
67.49975082 -23.07484153 -224.5631004
63.49975082 -5.121008174 -202.0073024
63.49975082 -43.87845558 -123.6281154
63.49975082 -15.01084386 -227.5718884
-77.07553918 -2.498423825e-05 -137.3089484
67.49975082 -30.17643488 -249.6825454
73.93118082 -2.498423825e-05 -38.42098239
67.49975082 -60.07813407 -90.52818939
67.49975082 -26.59005142 -63.43208439
63.49975082 -59.60078402 -85.31311339
63.49975082 -53.31814512 -140.6715404
63.53165382 -70.43889828 -166.3113844
63.49975082 -57.00730552 -197.2951534
67.49975082 -43.18489628 -211.6486094
67.49975082 -47.44050279 -199.7877454
67.49975082 -61.72886677 -166.9355174
63.49975082 -51.05635293 -192.4619104
67.49975082 2.295233706 -64.43533139
67.49975082 -28.96351807 -116.1040714
63.49975082 -74.68695796 -125.3660554
67.49975082 -7.246259384 -154.3798594
67.49975082 -85.48435167 -66.94445639
67.49975082 -8.904354164 -106.1492264
11.38616182 -11.73232489 -9.738617291e-05
63.49975082 -50.47921615 -85.81844439
63.49975082 -29.06836243 -21.89823239
63.49975082 -3.794154404 -192.0755384
8.666615821 -2.498423825e-05 -62.47493239
67.49975082 -86.04134063 -37.23264139
67.49975082 -69.15780432 -146.3261714
63.49975082 -54.10431527 -70.61147339
67.49975082 -37.67824048 -238.6964344
63.49975082 -83.43635341 -10.04863639
67.49975082 -23.62609902 -243.0139094
67.49975082 -59.96337396 -185.9968614
63.49975082 -4.054566664 -249.2743044
-78.27388818 -0.7500249842 1.812019614
67.49975082 -70.74418391 -64.59744239
63.49975082 -34.19016733 -37.91825239
63.49975082 -6.582666724 -224.3692894
